-2.467 -5.452 1.645
-2.411 -5.632 1.431
-2.354 -5.813 1.217
-2.298 -5.993 1.003
-1.959 -7.075 -0.282
-1.902 -7.256 -0.496
-1.846 -7.436 -0.710
-1.789 -7.616 -0.924
-1.732 -7.797 -1.138
-1.676 -7.977 -1.353
-2.580 -5.091 2.073
-2.600 -5.312 2.254
-2.544 -5.492 2.039
-2.487 -5.673 1.825
-2.431 -5.853 1.611
-2.374 -6.033 1.397
-2.318 -6.214 1.183
-1.979 -7.296 -0.102
-1.922 -7.476 -0.316
-1.865 -7.657 -0.530
-1.809 -7.837 -0.744
-1.752 -8.017 -0.958
-1.696 -8.198 -1.172
-2.600 -5.312 2.254
-2.564 -5.713 2.220
-2.507 -5.893 2.006
-2.451 -6.073 1.792
-2.394 -6.254 1.578
-2.338 -6.434 1.363
-1.942 -7.697 -0.135
-1.885 -7.877 -0.349
-1.829 -8.057 -0.563
-1.772 -8.238 -0.778
-1.716 -8.418 -0.992
-2.245 -2.185 -0.668
-2.188 -2.366 -0.882
-2.132 -2.546 -1.096
-2.075 -2.726 -1.310
-1.623 -4.169 -3.023
-1.567 -4.350 -3.237
-1.510 -4.530 -3.451
-1.454 -4.710 -3.665
-2.581 -2.026 -0.510
-2.524 -2.206 -0.724
-2.468 -2.386 -0.938
-2.411 -2.567 -1.152
-1.959 -4.010 -2.865
-1.902 -4.190 -3.079
-1.846 -4.370 -3.293
-1.789 -4.551 -3.507
-2.581 -2.026 -0.510
-2.601 -2.246 -0.329
-2.544 -2.427 -0.543
-2.488 -2.607 -0.757
-2.431 -2.787 -0.971
-2.375 -2.968 -1.186
-1.979 -4.230 -2.684
-1.922 -4.411 -2.898
-1.866 -4.591 -3.112
-1.809 -4.771 -3.327
-1.753 -4.952 -3.541
-2.601 -2.246 -0.329
-2.621 -2.467 -0.149
-2.564 -2.647 -0.363
-2.507 -2.827 -0.577
-2.451 -3.008 -0.791
-2.394 -3.188 -1.005
-2.338 -3.368 -1.219
-1.999 -4.451 -2.504
-1.942 -4.631 -2.718
-1.886 -4.811 -2.932
-1.829 -4.992 -3.146
-1.773 -5.172 -3.360
-1.716 -5.352 -3.574
-2.621 -2.467 -0.149
-2.640 -2.687 0.032
-2.584 -2.867 -0.182
-2.527 -3.048 -0.396
-2.471 -3.228 -0.611
-2.414 -3.409 -0.825
-2.358 -3.589 -1.039
-2.019 -4.671 -2.323
-1.962 -4.851 -2.537
-1.906 -5.032 -2.752
-1.849 -5.212 -2.966
-1.793 -5.393 -3.180
-1.736 -5.573 -3.394
-2.640 -2.687 0.032
-2.604 -3.088 -0.002
-2.547 -3.268 -0.216
-2.491 -3.449 -0.430
-2.434 -3.629 -0.644
-2.378 -3.809 -0.858
-1.982 -5.072 -2.357
-1.926 -5.252 -2.571
-1.869 -5.433 -2.785
-1.812 -5.613 -2.999
-1.756 -5.793 -3.213
-2.567 -3.489 -0.036
-2.511 -3.669 -0.250
-2.454 -3.849 -0.464
-2.398 -4.030 -0.678
-1.945 -5.473 -2.391
-1.889 -5.653 -2.605
-1.832 -5.833 -2.819
-1.776 -6.014 -3.033
-2.800 -4.451 1.475
-2.743 -4.631 1.261
-2.687 -4.811 1.047
-2.630 -4.992 0.833
-2.178 -6.435 -0.880
-2.122 -6.615 -1.094
-2.065 -6.796 -1.308
-2.008 -6.976 -1.522
-2.800 -4.451 1.475
-2.820 -4.671 1.656
-2.763 -4.852 1.442
-2.707 -5.032 1.228
-2.650 -5.212 1.014
-2.594 -5.393 0.800
-2.198 -6.655 -0.699
-2.141 -6.836 -0.913
-2.085 -7.016 -1.127
-2.028 -7.196 -1.341
-1.972 -7.377 -1.556
-2.820 -4.671 1.656
-2.840 -4.892 1.836
-2.783 -5.072 1.622
-2.727 -5.252 1.408
-2.670 -5.433 1.194
-2.614 -5.613 0.980
-2.557 -5.794 0.766
-2.218 -6.876 -0.519
-2.161 -7.056 -0.733
-2.105 -7.236 -0.947
-2.048 -7.417 -1.161
-1.992 -7.597 -1.375
-1.935 -7.778 -1.589
-2.840 -4.892 1.836
-2.860 -5.112 2.017
-2.803 -5.292 1.803
-2.747 -5.473 1.589
-2.690 -5.653 1.375
-2.634 -5.834 1.160
-2.577 -6.014 0.946
-2.238 -7.096 -0.338
-2.181 -7.277 -0.552
-2.125 -7.457 -0.766
-2.068 -7.637 -0.981
-2.012 -7.818 -1.195
-1.955 -7.998 -1.409
-2.860 -5.112 2.017
-2.823 -5.513 1.983
-2.767 -5.693 1.769
-2.710 -5.874 1.555
-2.653 -6.054 1.341
-2.597 -6.234 1.127
-2.201 -7.497 -0.372
-2.145 -7.677 -0.586
-2.088 -7.858 -0.800
-2.032 -8.038 -1.014
-1.975 -8.218 -1.228
-2.786 -5.914 1.950
-2.730 -6.094 1.735
-2.673 -6.275 1.521
-2.617 -6.455 1.307
-2.165 -7.898 -0.406
-2.108 -8.078 -0.620
-2.052 -8.259 -0.834
-1.995 -8.439 -1.048
-2.581 -2.026 -0.510
-2.524 -2.206 -0.724
-2.468 -2.386 -0.938
-2.411 -2.567 -1.152
-1.959 -4.010 -2.865
-1.902 -4.190 -3.079
-1.846 -4.370 -3.293
-1.789 -4.551 -3.507
-2.581 -2.026 -0.510
-2.860 -2.046 -0.566
-2.803 -2.227 -0.780
-2.747 -2.407 -0.994
-2.295 -3.850 -2.707
-2.238 -4.031 -2.921
-2.182 -4.211 -3.135
-2.125 -4.391 -3.349
-2.916 -1.866 -0.352
-2.860 -2.046 -0.566
-2.880 -2.267 -0.385
-2.823 -2.447 -0.600
-2.767 -2.628 -0.814
-2.710 -2.808 -1.028
-2.258 -4.251 -2.741
-2.201 -4.431 -2.955
-2.145 -4.612 -3.169
-2.088 -4.792 -3.383
-2.880 -2.267 -0.385
-2.900 -2.487 -0.205
-2.843 -2.668 -0.419
-2.787 -2.848 -0.633
-2.730 -3.028 -0.847
-2.674 -3.209 -1.061
-2.278 -4.471 -2.560
-2.221 -4.652 -2.774
-2.165 -4.832 -2.988
-2.108 -5.013 -3.202
-2.052 -5.193 -3.416
-2.900 -2.487 -0.205
-2.863 -2.888 -0.239
-2.807 -3.069 -0.453
-2.750 -3.249 -0.667
-2.694 -3.429 -0.881
-2.637 -3.610 -1.095
-2.241 -4.872 -2.594
-2.185 -5.053 -2.808
-2.128 -5.233 -3.022
-2.072 -5.413 -3.236
-2.015 -5.594 -3.450
-2.827 -3.289 -0.272
-2.770 -3.469 -0.486
-2.714 -3.650 -0.700
-2.657 -3.830 -0.915
-2.205 -5.273 -2.627
-2.148 -5.453 -2.841
-2.092 -5.634 -3.056
-2.035 -5.814 -3.270
-2.790 -3.690 -0.306
-2.733 -3.870 -0.520
-2.677 -4.051 -0.734
-2.620 -4.231 -0.948
-2.168 -5.674 -2.661
-2.112 -5.854 -2.875
-2.055 -6.035 -3.089
-1.999 -6.215 -3.303
-2.697 -4.271 -0.554
-2.640 -4.451 -0.768
-2.075 -6.255 -2.909
-2.018 -6.435 -3.123
-3.059 -4.251 1.239
-2.494 -6.055 -0.902
-2.437 -6.235 -1.116
-3.116 -4.071 1.453
-3.059 -4.251 1.239
-3.079 -4.472 1.419
-3.023 -4.652 1.205
-2.966 -4.832 0.991
-2.514 -6.275 -0.722
-2.457 -6.456 -0.936
-2.401 -6.636 -1.150
-2.344 -6.816 -1.364
-3.136 -4.291 1.633
-3.079 -4.472 1.419
-3.099 -4.692 1.600
-3.043 -4.872 1.386
-2.986 -5.053 1.171
-2.929 -5.233 0.957
-2.477 -6.676 -0.755
-2.421 -6.856 -0.970
-2.364 -7.037 -1.184
-2.308 -7.217 -1.398
-3.099 -4.692 1.600
-3.119 -4.912 1.780
-3.062 -5.093 1.566
-3.006 -5.273 1.352
-2.949 -5.454 1.138
-2.893 -5.634 0.924
-2.497 -6.896 -0.575
-2.441 -7.077 -0.789
-2.384 -7.257 -1.003
-2.328 -7.438 -1.217
-2.271 -7.618 -1.431
-3.119 -4.912 1.780
-3.082 -5.313 1.747
-3.026 -5.494 1.532
-2.969 -5.674 1.318
-2.913 -5.854 1.104
-2.856 -6.035 0.890
-2.461 -7.297 -0.609
-2.404 -7.478 -0.823
-2.347 -7.658 -1.037
-2.291 -7.838 -1.251
-2.234 -8.019 -1.465
-3.046 -5.714 1.713
-2.989 -5.894 1.499
-2.933 -6.075 1.285
-2.876 -6.255 1.071
-2.424 -7.698 -0.642
-2.367 -7.879 -0.856
-2.311 -8.059 -1.070
-2.254 -8.239 -1.285
-3.009 -6.115 1.679
-2.953 -6.295 1.465
-2.896 -6.476 1.251
-2.840 -6.656 1.037
-2.387 -8.099 -0.676
-2.331 -8.279 -0.890
-2.274 -8.460 -1.104
-2.218 -8.640 -1.318
-2.916 -6.696 1.432
-2.859 -6.876 1.217
-2.294 -8.680 -0.924
-2.238 -8.861 -1.138
-2.840 -1.826 -0.746
-2.275 -3.630 -2.887
-2.218 -3.810 -3.101
-2.897 -1.646 -0.532
-2.840 -1.826 -0.746
-2.860 -2.046 -0.566
-2.803 -2.227 -0.780
-2.747 -2.407 -0.994
-2.295 -3.850 -2.707
-2.238 -4.031 -2.921
-2.182 -4.211 -3.135
-2.125 -4.391 -3.349
-2.916 -1.866 -0.352
-2.860 -2.046 -0.566
-3.139 -2.067 -0.622
-3.083 -2.248 -0.836
-2.630 -3.691 -2.549
-2.574 -3.871 -2.763
-2.517 -4.051 -2.977
-2.461 -4.232 -3.191
-3.252 -1.707 -0.194
-3.196 -1.887 -0.408
-3.139 -2.067 -0.622
-3.159 -2.288 -0.442
-3.103 -2.468 -0.656
-2.537 -4.272 -2.797
-2.481 -4.452 -3.011
-3.159 -2.288 -0.442
-2.956 -4.071 -0.790
-2.900 -4.252 -1.004
-2.334 -6.055 -3.145
-2.278 -6.236 -3.359
-2.976 -4.292 -0.610
-2.920 -4.472 -0.824
-2.863 -4.653 -1.038
-2.806 -4.833 -1.252
-2.354 -6.276 -2.965
-2.298 -6.456 -3.179
-3.485 -2.669 1.317
-3.428 -2.849 1.103
-2.939 -4.693 -0.643
-2.883 -4.873 -0.858
-2.826 -5.053 -1.072
-2.770 -5.234 -1.286
-2.318 -6.677 -2.999
-3.505 -2.889 1.498
-3.448 -3.069 1.283
-3.392 -3.250 1.069
-2.959 -4.913 -0.463
-2.903 -5.094 -0.677
-2.846 -5.274 -0.891
-2.790 -5.454 -1.105
-2.733 -5.635 -1.319
-2.338 -6.897 -2.818
-3.525 -3.109 1.678
-3.468 -3.290 1.464
-3.412 -3.470 1.250
-3.355 -3.651 1.036
-3.319 -4.051 1.002
-2.923 -5.314 -0.497
-2.866 -5.494 -0.711
-2.810 -5.675 -0.925
-2.753 -5.855 -1.139
-2.697 -6.035 -1.353
-3.545 -3.330 1.858
-3.488 -3.510 1.644
-3.432 -3.691 1.430
-3.375 -3.871 1.216
-3.319 -4.051 1.002
-3.338 -4.272 1.183
-2.886 -5.715 -0.530
-2.830 -5.895 -0.744
-2.773 -6.076 -0.958
-2.717 -6.256 -1.173
-3.508 -3.731 1.825
-3.451 -3.911 1.611
-3.395 -4.091 1.397
-3.338 -4.272 1.183
-3.358 -4.492 1.363
-3.302 -4.673 1.149
-2.850 -6.116 -0.564
-2.793 -6.296 -0.778
-2.737 -6.476 -0.992
-2.680 -6.657 -1.206
-3.471 -4.132 1.791
-3.415 -4.312 1.577
-3.358 -4.492 1.363
-3.378 -4.713 1.543
-3.322 -4.893 1.329
-2.756 -6.697 -0.812
-2.700 -6.877 -1.026
-3.378 -4.713 1.543
-3.175 -6.496 1.195
-3.119 -6.677 0.981
-2.553 -8.480 -1.160
-2.497 -8.661 -1.374
-3.195 -6.717 1.375
-3.139 -6.897 1.161
-3.082 -7.078 0.947
-3.026 -7.258 0.733
-2.573 -8.701 -0.980
-2.517 -8.881 -1.194
-3.704 -5.094 3.302
-3.647 -5.274 3.088
-2.720 -2.268 -2.629
-2.664 -2.448 -2.843
-2.607 -2.628 -3.057
-2.551 -2.809 -3.271
-2.098 -4.252 -4.984
-3.286 -0.464 -0.488
-3.229 -0.644 -0.702
-3.173 -0.825 -0.916
-2.740 -2.488 -2.448
-2.684 -2.668 -2.662
-2.627 -2.849 -2.876
-2.571 -3.029 -3.090
-2.514 -3.210 -3.304
-2.118 -4.472 -4.803
-3.306 -0.684 -0.307
-3.249 -0.865 -0.521
-3.192 -1.045 -0.735
-3.136 -1.226 -0.949
-3.099 -1.626 -0.983
-2.704 -2.889 -2.482
-2.647 -3.069 -2.696
-2.591 -3.250 -2.910
-2.534 -3.430 -3.124
-2.477 -3.610 -3.338
-3.325 -0.905 -0.127
-3.269 -1.085 -0.341
-3.212 -1.266 -0.555
-3.156 -1.446 -0.769
-3.099 -1.626 -0.983
-3.119 -1.847 -0.803
-2.667 -3.290 -2.515
-2.610 -3.470 -2.729
-2.554 -3.650 -2.944
-2.497 -3.831 -3.158
-3.289 -1.306 -0.160
-3.232 -1.486 -0.374
-3.176 -1.666 -0.588
-3.119 -1.847 -0.803
-3.139 -2.067 -0.622
-3.083 -2.248 -0.836
-2.630 -3.691 -2.549
-2.574 -3.871 -2.763
-2.517 -4.051 -2.977
-2.461 -4.232 -3.191
-3.252 -1.707 -0.194
-3.196 -1.887 -0.408
-3.139 -2.067 -0.622
-3.418 -2.088 -0.678
-2.966 -3.531 -2.391
-2.910 -3.711 -2.605
-2.853 -3.892 -2.819
-2.797 -4.072 -3.033
-3.588 -1.547 -0.036
-3.531 -1.727 -0.250
-3.475 -1.908 -0.464
-3.418 -2.088 -0.678
-3.199 -4.493 -0.880
-3.142 -4.673 -1.094
-3.086 -4.854 -1.308
-3.029 -5.034 -1.522
-2.577 -6.477 -3.235
-3.764 -2.689 1.261
-3.708 -2.870 1.047
-3.651 -3.050 0.833
-3.219 -4.713 -0.700
-3.162 -4.894 -0.914
-3.106 -5.074 -1.128
-3.049 -5.255 -1.342
-2.993 -5.435 -1.556
-2.597 -6.697 -3.055
-3.784 -2.910 1.441
-3.727 -3.090 1.227
-3.671 -3.271 1.013
-3.614 -3.451 0.799
-3.578 -3.852 0.765
-3.239 -4.934 -0.519
-3.182 -5.114 -0.733
-3.126 -5.295 -0.947
-3.069 -5.475 -1.162
-3.013 -5.655 -1.376
-2.956 -5.836 -1.590
-2.617 -6.918 -2.874
-3.804 -3.130 1.622
-3.747 -3.311 1.408
-3.691 -3.491 1.194
-3.634 -3.671 0.980
-3.578 -3.852 0.765
-3.598 -4.072 0.946
-3.259 -5.154 -0.339
-3.202 -5.335 -0.553
-3.145 -5.515 -0.767
-3.089 -5.695 -0.981
-3.032 -5.876 -1.195
-2.976 -6.056 -1.409
-2.637 -7.138 -2.694
-3.824 -3.351 1.802
-3.767 -3.531 1.588
-3.711 -3.711 1.374
-3.654 -3.892 1.160
-3.598 -4.072 0.946
-3.618 -4.293 1.126
-3.222 -5.555 -0.372
-3.165 -5.736 -0.586
-3.109 -5.916 -0.801
-3.052 -6.096 -1.015
-2.996 -6.277 -1.229
-3.844 -3.571 1.983
-3.787 -3.752 1.769
-3.731 -3.932 1.555
-3.674 -4.112 1.340
-3.618 -4.293 1.126
-3.638 -4.513 1.307
-3.185 -5.956 -0.406
-3.129 -6.136 -0.620
-3.072 -6.317 -0.834
-3.016 -6.497 -1.048
-3.807 -3.972 1.949
-3.751 -4.152 1.735
-3.694 -4.333 1.521
-3.638 -4.513 1.307
-3.418 -6.918 1.105
-3.361 -7.098 0.891
-3.305 -7.279 0.677
-3.248 -7.459 0.463
-2.796 -8.902 -1.250
-3.983 -5.114 3.246
-3.927 -5.295 3.032
-3.870 -5.475 2.818
-3.000 -2.288 -2.685
-2.943 -2.469 -2.899
-2.886 -2.649 -3.113
-2.830 -2.829 -3.327
-2.773 -3.010 -3.541
-2.378 -4.272 -5.040
-3.565 -0.485 -0.544
-3.508 -0.665 -0.758
-3.452 -0.845 -0.972
-3.395 -1.026 -1.186
-3.359 -1.427 -1.220
-3.019 -2.509 -2.504
-2.963 -2.689 -2.718
-2.906 -2.870 -2.933
-2.850 -3.050 -3.147
-2.793 -3.230 -3.361
-2.737 -3.411 -3.575
-2.398 -4.493 -4.859
-3.585 -0.705 -0.363
-3.528 -0.886 -0.577
-3.472 -1.066 -0.791
-3.415 -1.246 -1.006
-3.359 -1.427 -1.220
-3.379 -1.647 -1.039
-3.039 -2.729 -2.324
-2.983 -2.910 -2.538
-2.926 -3.090 -2.752
-2.870 -3.270 -2.966
-2.813 -3.451 -3.180
-2.757 -3.631 -3.394
-2.418 -4.713 -4.679
-3.605 -0.926 -0.183
-3.548 -1.106 -0.397
-3.492 -1.286 -0.611
-3.435 -1.467 -0.825
-3.379 -1.647 -1.039
-3.398 -1.868 -0.859
-3.003 -3.130 -2.357
-2.946 -3.311 -2.572
-2.890 -3.491 -2.786
-2.833 -3.671 -3.000
-2.777 -3.852 -3.214
-3.625 -1.146 -0.002
-3.568 -1.326 -0.216
-3.512 -1.507 -0.431
-3.455 -1.687 -0.645
-3.398 -1.868 -0.859
-3.418 -2.088 -0.678
-2.966 -3.531 -2.391
-2.910 -3.711 -2.605
-2.853 -3.892 -2.819
-2.797 -4.072 -3.033
-3.588 -1.547 -0.036
-3.531 -1.727 -0.250
-3.475 -1.908 -0.464
-3.418 -2.088 -0.678
-3.302 -3.371 -2.233
-3.245 -3.552 -2.447
-3.189 -3.732 -2.661
-3.132 -3.912 -2.876
-3.924 -1.387 0.122
-3.867 -1.568 -0.092
-3.811 -1.748 -0.306
-3.754 -1.928 -0.520
-3.478 -4.514 -0.936
-3.421 -4.694 -1.150
-3.365 -4.875 -1.365
-3.308 -5.055 -1.579
-3.252 -5.235 -1.793
-2.856 -6.498 -3.291
-4.043 -2.710 1.205
-3.987 -2.890 0.991
-3.930 -3.071 0.776
-3.874 -3.251 0.562
-3.837 -3.652 0.529
-3.498 -4.734 -0.756
-3.441 -4.915 -0.970
-3.385 -5.095 -1.184
-3.328 -5.275 -1.398
-3.272 -5.456 -1.612
-3.215 -5.636 -1.826
-2.876 -6.718 -3.111
-4.063 -2.931 1.385
-4.007 -3.111 1.171
-3.950 -3.291 0.957
-3.894 -3.472 0.743
-3.837 -3.652 0.529
-3.857 -3.873 0.709
-3.518 -4.955 -0.575
-3.461 -5.135 -0.790
-3.405 -5.315 -1.004
-3.348 -5.496 -1.218
-3.292 -5.676 -1.432
-3.235 -5.857 -1.646
-2.896 -6.939 -2.931
-4.083 -3.151 1.566
-4.027 -3.331 1.351
-3.970 -3.512 1.137
-3.914 -3.692 0.923
-3.857 -3.873 0.709
-3.877 -4.093 0.890
-3.538 -5.175 -0.395
-3.481 -5.356 -0.609
-3.425 -5.536 -0.823
-3.368 -5.716 -1.037
-3.312 -5.897 -1.251
-3.255 -6.077 -1.465
-2.916 -7.159 -2.750
-4.103 -3.371 1.746
-4.047 -3.552 1.532
-3.990 -3.732 1.318
-3.934 -3.913 1.104
-3.877 -4.093 0.890
-3.897 -4.313 1.070
-3.558 -5.396 -0.214
-3.501 -5.576 -0.429
-3.445 -5.756 -0.643
-3.388 -5.937 -0.857
-3.332 -6.117 -1.071
-3.275 -6.297 -1.285
-2.936 -7.380 -2.570
-4.123 -3.592 1.927
-4.067 -3.772 1.712
-4.010 -3.953 1.498
-3.953 -4.133 1.284
-3.897 -4.313 1.070
-3.521 -5.796 -0.248
-3.465 -5.977 -0.462
-3.408 -6.157 -0.676
-3.352 -6.338 -0.890
-4.143 -3.812 2.107
-4.086 -3.993 1.893
-4.030 -4.173 1.679
-3.973 -4.354 1.465
-3.697 -6.939 1.049
-3.641 -7.119 0.835
-3.584 -7.300 0.621
-3.528 -7.480 0.406
-3.471 -7.660 0.192
-3.075 -8.923 -1.306
-4.263 -5.135 3.190
-4.206 -5.316 2.976
-4.149 -5.496 2.762
-4.093 -5.676 2.547
-3.618 -1.227 -1.456
-3.279 -2.309 -2.741
-3.222 -2.490 -2.955
-3.166 -2.670 -3.169
-3.109 -2.850 -3.383
-3.053 -3.031 -3.597
-2.996 -3.211 -3.811
-2.657 -4.293 -5.096
-3.844 -0.506 -0.600
-3.788 -0.686 -0.814
-3.731 -0.866 -1.028
-3.674 -1.047 -1.242
-3.618 -1.227 -1.456
-3.638 -1.447 -1.276
-3.299 -2.530 -2.561
-3.242 -2.710 -2.775
-3.186 -2.890 -2.989
-3.129 -3.071 -3.203
-3.073 -3.251 -3.417
-3.016 -3.431 -3.631
-2.677 -4.514 -4.916
-3.864 -0.726 -0.420
-3.807 -0.906 -0.634
-3.751 -1.087 -0.848
-3.694 -1.267 -1.062
-3.638 -1.447 -1.276
-3.658 -1.668 -1.095
-3.319 -2.750 -2.380
-3.262 -2.930 -2.594
-3.206 -3.111 -2.808
-3.149 -3.291 -3.022
-3.092 -3.472 -3.236
-3.036 -3.652 -3.451
-2.697 -4.734 -4.735
-3.884 -0.946 -0.239
-3.827 -1.127 -0.453
-3.771 -1.307 -0.667
-3.714 -1.488 -0.881
-3.658 -1.668 -1.095
-3.678 -1.888 -0.915
-3.339 -2.971 -2.200
-3.282 -3.151 -2.414
-3.225 -3.331 -2.628
-3.169 -3.512 -2.842
-3.112 -3.692 -3.056
-3.056 -3.872 -3.270
-2.717 -4.955 -4.555
-3.904 -1.167 -0.059
-3.847 -1.347 -0.273
-3.791 -1.528 -0.487
-3.734 -1.708 -0.701
-3.678 -1.888 -0.915
-3.302 -3.371 -2.233
-3.245 -3.552 -2.447
-3.189 -3.732 -2.661
-3.132 -3.912 -2.876
-3.924 -1.387 0.122
-3.867 -1.568 -0.092
-3.811 -1.748 -0.306
-3.754 -1.928 -0.520
-3.638 -3.212 -2.075
-3.581 -3.392 -2.289
-3.525 -3.573 -2.504
-3.468 -3.753 -2.718
-3.016 -5.196 -4.430
-4.203 -1.408 0.066
-4.146 -1.589 -0.148
-4.090 -1.769 -0.363
-4.096 -3.452 0.292
-3.701 -4.715 -1.207
-3.644 -4.895 -1.421
-3.588 -5.076 -1.635
-3.531 -5.256 -1.849
-3.475 -5.436 -2.063
-4.323 -2.731 1.148
-4.266 -2.911 0.934
-4.210 -3.092 0.720
-4.153 -3.272 0.506
-4.096 -3.452 0.292
-4.116 -3.673 0.472
-3.777 -4.755 -0.812
-3.721 -4.935 -1.026
-3.664 -5.116 -1.240
-3.608 -5.296 -1.454
-3.551 -5.476 -1.669
-3.495 -5.657 -1.883
-3.155 -6.739 -3.167
-4.342 -2.951 1.329
-4.286 -3.132 1.115
-4.229 -3.312 0.901
-4.173 -3.492 0.687
-4.116 -3.673 0.472
-4.136 -3.893 0.653
-3.797 -4.975 -0.632
-3.741 -5.156 -0.846
-3.684 -5.336 -1.060
-3.628 -5.517 -1.274
-3.571 -5.697 -1.488
-3.514 -5.877 -1.702
-3.175 -6.960 -2.987
-4.362 -3.172 1.509
-4.306 -3.352 1.295
-4.249 -3.533 1.081
-4.193 -3.713 0.867
-4.136 -3.893 0.653
-4.156 -4.114 0.833
-3.817 -5.196 -0.451
-3.761 -5.376 -0.665
-3.704 -5.557 -0.879
-3.647 -5.737 -1.093
-3.591 -5.917 -1.308
-3.534 -6.098 -1.522
-3.195 -7.180 -2.806
-4.382 -3.392 1.690
-4.326 -3.573 1.476
-4.269 -3.753 1.262
-4.213 -3.933 1.048
-4.156 -4.114 0.833
-3.837 -5.416 -0.271
-3.780 -5.597 -0.485
-3.724 -5.777 -0.699
-3.667 -5.958 -0.913
-3.611 -6.138 -1.127
-3.215 -7.400 -2.626
-4.402 -3.613 1.870
-4.346 -3.793 1.656
-4.289 -3.973 1.442
-4.233 -4.154 1.228
-3.857 -5.637 -0.090
-3.800 -5.817 -0.304
-3.744 -5.998 -0.518
-3.687 -6.178 -0.733
-3.235 -7.621 -2.445
-4.422 -3.833 2.051
-4.366 -4.014 1.837
-4.309 -4.194 1.623
-4.316 -5.877 2.277
-3.920 -7.140 0.778
-3.863 -7.320 0.564
-3.807 -7.501 0.350
-3.750 -7.681 0.136
-3.694 -7.861 -0.078
-4.542 -5.156 3.134
-4.485 -5.336 2.919
-4.429 -5.517 2.705
-4.372 -5.697 2.491
-4.316 -5.877 2.277
-3.897 -1.248 -1.513
-3.558 -2.330 -2.797
-3.501 -2.510 -3.011
-3.445 -2.691 -3.225
-3.388 -2.871 -3.440
-3.332 -3.051 -3.654
-3.275 -3.232 -3.868
-2.936 -4.314 -5.152
-4.123 -0.526 -0.656
-4.067 -0.707 -0.870
-4.010 -0.887 -1.084
-3.954 -1.067 -1.299
-3.897 -1.248 -1.513
-3.917 -1.468 -1.332
-3.578 -2.550 -2.617
-3.521 -2.731 -2.831
-3.465 -2.911 -3.045
-3.408 -3.092 -3.259
-3.352 -3.272 -3.473
-3.295 -3.452 -3.687
-2.956 -4.534 -4.972
-4.143 -0.747 -0.476
-4.087 -0.927 -0.690
-4.030 -1.107 -0.904
-3.974 -1.288 -1.118
-3.917 -1.468 -1.332
-3.937 -1.689 -1.152
-3.598 -2.771 -2.436
-3.541 -2.951 -2.650
-3.485 -3.132 -2.864
-3.428 -3.312 -3.079
-3.372 -3.492 -3.293
-3.315 -3.673 -3.507
-2.976 -4.755 -4.791
-4.163 -0.967 -0.295
-4.107 -1.148 -0.509
-4.050 -1.328 -0.723
-3.994 -1.508 -0.938
-3.937 -1.689 -1.152
-3.618 -2.991 -2.256
-3.561 -3.172 -2.470
-3.505 -3.352 -2.684
-3.448 -3.532 -2.898
-3.392 -3.713 -3.112
-2.996 -4.975 -4.611
-4.183 -1.188 -0.115
-4.127 -1.368 -0.329
-4.070 -1.548 -0.543
-4.014 -1.729 -0.757
-3.638 -3.212 -2.075
-3.581 -3.392 -2.289
-3.525 -3.573 -2.504
-3.468 -3.753 -2.718
-3.016 -5.196 -4.430
-4.203 -1.408 0.066
-4.146 -1.589 -0.148
-4.090 -1.769 -0.363
-3.973 -3.052 -1.917
-3.917 -3.233 -2.132
-3.860 -3.413 -2.346
-3.804 -3.593 -2.560
-3.352 -5.036 -4.273
-3.295 -5.217 -4.487
-4.482 -1.429 0.009
-4.426 -1.609 -0.205
-4.356 -3.253 0.055
-3.790 -5.056 -2.086
-3.734 -5.237 -2.300
-4.412 -3.072 0.269
-4.356 -3.253 0.055
-4.376 -3.473 0.236
-3.923 -4.916 -1.477
-3.867 -5.096 -1.691
-3.810 -5.277 -1.905
-3.754 -5.457 -2.119
-4.545 -2.932 0.878
-4.489 -3.112 0.664
-4.432 -3.293 0.450
-4.376 -3.473 0.236
-4.396 -3.694 0.416
-4.000 -4.956 -1.082
-3.943 -5.137 -1.297
-3.887 -5.317 -1.511
-3.830 -5.497 -1.725
-3.774 -5.678 -1.939
-4.622 -2.972 1.273
-4.565 -3.153 1.059
-4.509 -3.333 0.844
-4.452 -3.513 0.630
-4.396 -3.694 0.416
-4.416 -3.914 0.597
-4.076 -4.996 -0.688
-4.020 -5.177 -0.902
-3.963 -5.357 -1.116
-3.907 -5.537 -1.330
-3.850 -5.718 -1.544
-3.794 -5.898 -1.758
-3.455 -6.980 -3.043
-4.642 -3.193 1.453
-4.585 -3.373 1.239
-4.529 -3.553 1.025
-4.472 -3.734 0.811
-4.416 -3.914 0.597
-4.096 -5.217 -0.507
-4.040 -5.397 -0.722
-3.983 -5.577 -0.936
-3.927 -5.758 -1.150
-3.870 -5.938 -1.364
-3.474 -7.201 -2.863
-4.662 -3.413 1.634
-4.605 -3.593 1.420
-4.549 -3.774 1.205
-4.492 -3.954 0.991
-4.173 -5.257 -0.113
-4.116 -5.437 -0.327
-4.060 -5.618 -0.541
-4.003 -5.798 -0.755
-3.947 -5.978 -0.969
-3.551 -7.241 -2.468
-3.494 -7.421 -2.682
-4.682 -3.634 1.814
-4.625 -3.814 1.600
-4.568 -3.994 1.386
-4.193 -5.477 0.068
-4.136 -5.658 -0.146
-4.080 -5.838 -0.361
-4.023 -6.018 -0.575
-3.571 -7.461 -2.287
-3.514 -7.642 -2.502
-4.701 -3.854 1.995
-4.645 -4.034 1.780
-4.575 -5.678 2.040
-4.010 -7.481 -0.101
-3.953 -7.662 -0.315
-4.631 -5.497 2.255
-4.575 -5.678 2.040
-4.595 -5.898 2.221
-4.143 -7.341 0.508
-4.086 -7.522 0.294
-4.030 -7.702 0.080
-3.973 -7.882 -0.134
-4.764 -5.357 2.863
-4.708 -5.537 2.649
-4.651 -5.718 2.435
-4.595 -5.898 2.221
-4.176 -1.269 -1.569
-3.781 -2.531 -3.068
-3.724 -2.711 -3.282
-3.668 -2.892 -3.496
-3.611 -3.072 -3.710
-3.555 -3.253 -3.924
-4.403 -0.547 -0.712
-4.346 -0.727 -0.927
-4.289 -0.908 -1.141
-4.233 -1.088 -1.355
-4.176 -1.269 -1.569
-4.196 -1.489 -1.388
-3.857 -2.571 -2.673
-3.801 -2.752 -2.887
-3.744 -2.932 -3.101
-3.688 -3.112 -3.315
-3.631 -3.293 -3.529
-3.575 -3.473 -3.743
-3.235 -4.555 -5.028
-4.422 -0.768 -0.532
-4.366 -0.948 -0.746
-4.309 -1.128 -0.960
-4.253 -1.309 -1.174
-4.196 -1.489 -1.388
-3.877 -2.792 -2.493
-3.821 -2.972 -2.707
-3.764 -3.152 -2.921
-3.708 -3.333 -3.135
-3.651 -3.513 -3.349
-3.255 -4.776 -4.848
-4.442 -0.988 -0.351
-4.386 -1.168 -0.566
-4.329 -1.349 -0.780
-4.273 -1.529 -0.994
-3.954 -2.832 -2.098
-3.897 -3.012 -2.312
-3.840 -3.192 -2.526
-3.784 -3.373 -2.740
-3.727 -3.553 -2.954
-3.332 -4.816 -4.453
-3.275 -4.996 -4.667
-4.462 -1.208 -0.171
-4.406 -1.389 -0.385
-4.349 -1.569 -0.599
-3.973 -3.052 -1.917
-3.917 -3.233 -2.132
-3.860 -3.413 -2.346
-3.804 -3.593 -2.560
-3.352 -5.036 -4.273
-3.295 -5.217 -4.487
-4.482 -1.429 0.009
-4.426 -1.609 -0.205
-4.309 -2.893 -1.760
-4.253 -3.073 -1.974
-4.196 -3.253 -2.188
-4.140 -3.434 -2.402
-3.687 -4.877 -4.115
-3.631 -5.057 -4.329
-3.574 -5.237 -4.543
-4.761 -1.450 -0.047
-4.386 -2.933 -1.365
-4.329 -3.113 -1.579
-4.273 -3.293 -1.793
-4.216 -3.474 -2.007
-3.764 -4.917 -3.720
-3.707 -5.097 -3.934
-3.651 -5.277 -4.148
-3.594 -5.458 -4.362
-4.462 -2.973 -0.970
-4.406 -3.153 -1.185
-4.349 -3.334 -1.399
-4.293 -3.514 -1.613
-3.840 -4.957 -3.326
-3.784 -5.137 -3.540
-3.727 -5.318 -3.754
-3.671 -5.498 -3.968
-4.539 -3.013 -0.576
-4.482 -3.193 -0.790
-4.426 -3.374 -1.004
-4.369 -3.554 -1.218
-3.917 -4.997 -2.931
-3.860 -5.177 -3.145
-3.804 -5.358 -3.359
-3.747 -5.538 -3.573
-4.615 -3.053 -0.181
-4.559 -3.233 -0.395
-4.502 -3.414 -0.610
-4.445 -3.594 -0.824
-3.993 -5.037 -2.536
-3.937 -5.217 -2.751
-3.880 -5.398 -2.965
-3.824 -5.578 -3.179
-4.615 -3.053 -0.181
-4.635 -3.273 -0.001
-4.578 -3.454 -0.215
-4.522 -3.634 -0.429
-4.070 -5.077 -2.142
-4.013 -5.258 -2.356
-3.957 -5.438 -2.570
-3.900 -5.618 -2.784
-4.692 -3.093 0.213
-4.635 -3.273 -0.001
-4.655 -3.494 0.180
-4.598 -3.674 -0.035
-4.146 -5.117 -1.747
-4.090 -5.298 -1.961
-4.033 -5.478 -2.176
-3.977 -5.658 -2.390
-4.768 -3.133 0.608
-4.711 -3.314 0.394
-4.655 -3.494 0.180
-4.675 -3.714 0.360
-4.223 -5.157 -1.353
-4.166 -5.338 -1.567
-4.110 -5.518 -1.781
-4.053 -5.698 -1.995
-4.844 -3.173 1.002
-4.788 -3.354 0.788
-4.731 -3.534 0.574
-4.675 -3.714 0.360
-4.299 -5.197 -0.958
-4.243 -5.378 -1.172
-4.186 -5.558 -1.386
-4.129 -5.739 -1.600
-4.921 -3.213 1.397
-4.864 -3.394 1.183
-4.808 -3.574 0.969
-4.751 -3.754 0.755
-4.376 -5.238 -0.564
-4.319 -5.418 -0.778
-4.262 -5.598 -0.992
-4.206 -5.779 -1.206
-3.754 -7.222 -2.919
-4.941 -3.434 1.577
-4.884 -3.614 1.363
-4.828 -3.795 1.149
-4.452 -5.278 -0.169
-4.395 -5.458 -0.383
-4.339 -5.638 -0.597
-4.282 -5.819 -0.811
-3.830 -7.262 -2.524
-3.774 -7.442 -2.738
-4.961 -3.654 1.758
-4.904 -3.835 1.544
-4.528 -5.318 0.226
-4.472 -5.498 0.011
-4.415 -5.678 -0.203
-4.359 -5.859 -0.417
-3.907 -7.302 -2.130
-3.850 -7.482 -2.344
-3.794 -7.662 -2.558
-4.981 -3.875 1.938
-4.605 -5.358 0.620
-4.548 -5.538 0.406
-4.492 -5.719 0.192
-4.435 -5.899 -0.022
-3.983 -7.342 -1.735
-3.927 -7.522 -1.949
-3.870 -7.703 -2.163
-3.813 -7.883 -2.377
-4.681 -5.398 1.015
-4.625 -5.578 0.801
-4.568 -5.759 0.586
-4.512 -5.939 0.372
-4.059 -7.382 -1.340
-4.003 -7.562 -1.555
-3.946 -7.743 -1.769
-3.890 -7.923 -1.983
-4.758 -5.438 1.409
-4.701 -5.618 1.195
-4.645 -5.799 0.981
-4.588 -5.979 0.767
-4.136 -7.422 -0.946
-4.079 -7.602 -1.160
-4.023 -7.783 -1.374
-3.966 -7.963 -1.588
-4.834 -5.478 1.804
-4.778 -5.658 1.590
-4.721 -5.839 1.376
-4.665 -6.019 1.161
-4.212 -7.462 -0.551
-4.156 -7.642 -0.765
-4.099 -7.823 -0.980
-4.043 -8.003 -1.194
-4.834 -5.478 1.804
-4.854 -5.699 1.984
-4.798 -5.879 1.770
-4.741 -6.059 1.556
-4.289 -7.502 -0.157
-4.232 -7.683 -0.371
-4.176 -7.863 -0.585
-4.119 -8.043 -0.799
-4.911 -5.518 2.198
-4.854 -5.699 1.984
-4.874 -5.919 2.165
-4.818 -6.099 1.951
-4.365 -7.542 0.238
-4.309 -7.723 0.024
-4.252 -7.903 -0.190
-4.196 -8.083 -0.405
-4.987 -5.558 2.593
-4.931 -5.739 2.379
-4.874 -5.919 2.165
-4.456 -1.289 -1.625
-4.003 -2.732 -3.338
-3.947 -2.913 -3.552
-3.890 -3.093 -3.766
-3.834 -3.273 -3.980
-4.625 -0.748 -0.983
-4.569 -0.929 -1.197
-4.512 -1.109 -1.411
-4.456 -1.289 -1.625
-4.080 -2.772 -2.943
-4.023 -2.953 -3.157
-3.967 -3.133 -3.371
-3.910 -3.313 -3.586
-4.702 -0.788 -0.588
-4.645 -0.969 -0.802
-4.589 -1.149 -1.016
-4.532 -1.329 -1.230
-4.156 -2.812 -2.549
-4.100 -2.993 -2.763
-4.043 -3.173 -2.977
-3.987 -3.354 -3.191
-3.534 -4.796 -4.904
-4.722 -1.009 -0.408
-4.665 -1.189 -0.622
-4.609 -1.370 -0.836
-4.233 -2.853 -2.154
-4.176 -3.033 -2.368
-4.120 -3.213 -2.582
-4.063 -3.394 -2.796
-3.611 -4.837 -4.509
-3.554 -5.017 -4.723
-4.742 -1.229 -0.227
-4.685 -1.410 -0.441
-4.309 -2.893 -1.760
-4.253 -3.073 -1.974
-4.196 -3.253 -2.188
-4.140 -3.434 -2.402
-3.687 -4.877 -4.115
-3.631 -5.057 -4.329
-3.574 -5.237 -4.543
-4.761 -1.450 -0.047
-4.645 -2.733 -1.602
-4.588 -2.913 -1.816
-4.532 -3.094 -2.030
-4.475 -3.274 -2.244
-4.023 -4.717 -3.957
-3.967 -4.897 -4.171
-3.910 -5.078 -4.385
-3.854 -5.258 -4.599
-4.721 -2.773 -1.207
-4.665 -2.954 -1.421
-4.608 -3.134 -1.635
-4.552 -3.314 -1.849
-4.495 -3.495 -2.064
-4.100 -4.757 -3.562
-4.043 -4.938 -3.776
-3.987 -5.118 -3.990
-3.930 -5.298 -4.205
-3.874 -5.479 -4.419
-4.798 -2.813 -0.813
-4.741 -2.994 -1.027
-4.685 -3.174 -1.241
-4.628 -3.354 -1.455
-4.572 -3.535 -1.669
-4.176 -4.797 -3.168
-4.120 -4.978 -3.382
-4.063 -5.158 -3.596
-4.006 -5.338 -3.810
-3.950 -5.519 -4.024
-4.874 -2.853 -0.418
-4.818 -3.034 -0.632
-4.761 -3.214 -0.846
-4.705 -3.394 -1.060
-4.648 -3.575 -1.274
-4.592 -3.755 -1.489
-4.253 -4.837 -2.773
-4.196 -5.018 -2.987
-4.139 -5.198 -3.201
-4.083 -5.378 -3.415
-4.026 -5.559 -3.630
-3.970 -5.739 -3.844
-4.874 -2.853 -0.418
-4.894 -3.074 -0.238
-4.838 -3.254 -0.452
-4.781 -3.435 -0.666
-4.725 -3.615 -0.880
-4.668 -3.795 -1.094
-4.272 -5.058 -2.593
-4.216 -5.238 -2.807
-4.159 -5.419 -3.021
-4.103 -5.599 -3.235
-4.046 -5.779 -3.449
-4.894 -3.074 -0.238
-4.914 -3.294 -0.057
-4.858 -3.475 -0.271
-4.801 -3.655 -0.485
-4.745 -3.835 -0.699
-4.292 -5.278 -2.412
-4.236 -5.459 -2.626
-4.179 -5.639 -2.840
-4.123 -5.819 -3.055
-4.914 -3.294 -0.057
-4.934 -3.515 0.123
-4.878 -3.695 -0.091
-4.312 -5.499 -2.232
-4.256 -5.679 -2.446
-4.934 -3.515 0.123
-4.864 -5.158 0.383
-4.808 -5.338 0.169
-4.751 -5.519 -0.045
-4.695 -5.699 -0.259
-4.242 -7.142 -1.972
-4.186 -7.323 -2.186
-4.129 -7.503 -2.400
-4.073 -7.683 -2.614
-4.941 -5.198 0.778
-4.884 -5.379 0.564
-4.828 -5.559 0.350
-4.771 -5.739 0.136
-4.715 -5.920 -0.078
-4.319 -7.182 -1.577
-4.262 -7.363 -1.791
-4.206 -7.543 -2.005
-4.149 -7.723 -2.219
-4.093 -7.904 -2.434
-5.017 -5.238 1.173
-4.961 -5.419 0.958
-4.904 -5.599 0.744
-4.848 -5.779 0.530
-4.791 -5.960 0.316
-4.395 -7.222 -1.183
-4.339 -7.403 -1.397
-4.282 -7.583 -1.611
-4.226 -7.763 -1.825
-4.169 -7.944 -2.039
-5.094 -5.278 1.567
-5.037 -5.459 1.353
-4.981 -5.639 1.139
-4.924 -5.820 0.925
-4.867 -6.000 0.711
-4.811 -6.180 0.497
-4.472 -7.262 -0.788
-4.415 -7.443 -1.002
-4.359 -7.623 -1.216
-4.302 -7.804 -1.430
-4.246 -7.984 -1.644
-4.189 -8.164 -1.859
-5.094 -5.278 1.567
-5.113 -5.499 1.748
-5.057 -5.679 1.533
-5.000 -5.860 1.319
-4.944 -6.040 1.105
-4.887 -6.220 0.891
-4.492 -7.483 -0.608
-4.435 -7.663 -0.822
-4.379 -7.844 -1.036
-4.322 -8.024 -1.250
-4.266 -8.204 -1.464
-5.113 -5.499 1.748
-5.133 -5.719 1.928
-5.077 -5.900 1.714
-5.020 -6.080 1.500
-4.964 -6.260 1.286
-4.512 -7.703 -0.427
-4.455 -7.884 -0.641
-4.399 -8.064 -0.855
-4.342 -8.244 -1.069
-5.133 -5.719 1.928
-5.153 -5.940 2.108
-5.097 -6.120 1.894
-4.531 -7.924 -0.247
-4.475 -8.104 -0.461
-5.153 -5.940 2.108
-4.645 -2.733 -1.602
-4.588 -2.913 -1.816
-4.532 -3.094 -2.030
-4.475 -3.274 -2.244
-4.023 -4.717 -3.957
-3.967 -4.897 -4.171
-3.910 -5.078 -4.385
-3.854 -5.258 -4.599
-4.981 -2.573 -1.444
-4.924 -2.754 -1.658
-4.868 -2.934 -1.872
-4.811 -3.115 -2.086
-4.359 -4.558 -3.799
-4.302 -4.738 -4.013
-4.246 -4.918 -4.227
-4.189 -5.099 -4.441
-5.057 -2.614 -1.049
-5.001 -2.794 -1.263
-4.944 -2.974 -1.477
-4.888 -3.155 -1.692
-4.831 -3.335 -1.906
-4.435 -4.598 -3.404
-4.379 -4.778 -3.618
-4.322 -4.958 -3.833
-4.266 -5.139 -4.047
-4.209 -5.319 -4.261
-5.134 -2.654 -0.655
-5.077 -2.834 -0.869
-5.021 -3.014 -1.083
-4.964 -3.195 -1.297
-4.908 -3.375 -1.511
-4.851 -3.555 -1.725
-4.512 -4.638 -3.010
-4.455 -4.818 -3.224
-4.399 -4.998 -3.438
-4.342 -5.179 -3.652
-4.286 -5.359 -3.866
-4.229 -5.540 -4.080
-5.134 -2.654 -0.655
-5.154 -2.874 -0.474
-5.097 -3.054 -0.688
-5.041 -3.235 -0.902
-4.984 -3.415 -1.117
-4.928 -3.596 -1.331
-4.871 -3.776 -1.545
-4.532 -4.858 -2.829
-4.475 -5.039 -3.043
-4.419 -5.219 -3.258
-4.362 -5.399 -3.472
-4.306 -5.580 -3.686
-4.249 -5.760 -3.900
-5.154 -2.874 -0.474
-5.174 -3.095 -0.294
-5.117 -3.275 -0.508
-5.060 -3.455 -0.722
-5.004 -3.636 -0.936
-4.947 -3.816 -1.150
-4.891 -3.996 -1.364
-4.552 -5.079 -2.649
-4.495 -5.259 -2.863
-4.439 -5.439 -3.077
-4.382 -5.620 -3.291
-4.326 -5.800 -3.505
-4.269 -5.980 -3.719
-5.174 -3.095 -0.294
-5.193 -3.315 -0.113
-5.137 -3.495 -0.327
-5.080 -3.676 -0.542
-5.024 -3.856 -0.756
-4.967 -4.037 -0.970
-4.572 -5.299 -2.468
-4.515 -5.479 -2.683
-4.459 -5.660 -2.897
-4.402 -5.840 -3.111
-4.346 -6.021 -3.325
-5.193 -3.315 -0.113
-5.200 -4.999 0.541
-5.143 -5.179 0.327
-5.087 -5.359 0.113
-5.030 -5.540 -0.101
-4.578 -6.983 -1.814
-4.522 -7.163 -2.028
-4.465 -7.343 -2.242
-4.409 -7.524 -2.456
-5.276 -5.039 0.936
-5.220 -5.219 0.722
-5.163 -5.399 0.508
-5.107 -5.580 0.294
-5.050 -5.760 0.079
-4.655 -7.023 -1.419
-4.598 -7.203 -1.633
-4.542 -7.383 -1.847
-4.485 -7.564 -2.062
-4.428 -7.744 -2.276
-5.353 -5.079 1.330
-5.296 -5.259 1.116
-5.240 -5.439 0.902
-5.183 -5.620 0.688
-5.127 -5.800 0.474
-5.070 -5.981 0.260
-4.731 -7.063 -1.025
-4.675 -7.243 -1.239
-4.618 -7.423 -1.453
-4.561 -7.604 -1.667
-4.505 -7.784 -1.881
-4.448 -7.965 -2.095
-5.353 -5.079 1.330
-5.373 -5.299 1.511
-5.316 -5.480 1.297
-5.260 -5.660 1.083
-5.203 -5.840 0.869
-5.147 -6.021 0.654
-5.090 -6.201 0.440
-4.751 -7.283 -0.844
-4.694 -7.464 -1.058
-4.638 -7.644 -1.272
-4.581 -7.824 -1.487
-4.525 -8.005 -1.701
-4.468 -8.185 -1.915
-5.373 -5.299 1.511
-5.393 -5.520 1.691
-5.336 -5.700 1.477
-5.280 -5.880 1.263
-5.223 -6.061 1.049
-5.167 -6.241 0.835
-5.110 -6.421 0.621
-4.771 -7.504 -0.664
-4.714 -7.684 -0.878
-4.658 -7.864 -1.092
-4.601 -8.045 -1.306
-4.545 -8.225 -1.520
-4.488 -8.406 -1.734
-5.393 -5.520 1.691
-5.413 -5.740 1.872
-5.356 -5.920 1.658
-5.300 -6.101 1.444
-5.243 -6.281 1.229
-5.187 -6.462 1.015
-4.791 -7.724 -0.483
-4.734 -7.905 -0.697
-4.678 -8.085 -0.912
-4.621 -8.265 -1.126
-4.565 -8.446 -1.340
-5.413 -5.740 1.872
-4.981 -2.573 -1.444
-4.924 -2.754 -1.658
-4.868 -2.934 -1.872
-4.811 -3.115 -2.086
-4.359 -4.558 -3.799
-4.302 -4.738 -4.013
-4.246 -4.918 -4.227
-4.189 -5.099 -4.441
-5.317 -2.414 -1.286
-5.260 -2.594 -1.500
-5.203 -2.775 -1.714
-5.147 -2.955 -1.928
-4.695 -4.398 -3.641
-4.638 -4.578 -3.855
-4.582 -4.759 -4.069
-4.525 -4.939 -4.283
-5.393 -2.454 -0.891
-5.336 -2.634 -1.105
-5.280 -2.815 -1.320
-5.223 -2.995 -1.534
-5.167 -3.175 -1.748
-5.110 -3.356 -1.962
-4.771 -4.438 -3.246
-4.715 -4.618 -3.461
-4.658 -4.799 -3.675
-4.602 -4.979 -3.889
-4.545 -5.159 -4.103
-4.489 -5.340 -4.317
-5.393 -2.454 -0.891
-5.413 -2.674 -0.711
-5.356 -2.855 -0.925
-5.300 -3.035 -1.139
-5.243 -3.216 -1.353
-5.187 -3.396 -1.567
-5.130 -3.576 -1.781
-4.791 -4.658 -3.066
-4.735 -4.839 -3.280
-4.678 -5.019 -3.494
-4.622 -5.200 -3.708
-4.565 -5.380 -3.922
-4.508 -5.560 -4.137
-5.413 -2.674 -0.711
-5.433 -2.895 -0.530
-5.376 -3.075 -0.745
-5.320 -3.256 -0.959
-5.263 -3.436 -1.173
-5.207 -3.616 -1.387
-5.150 -3.797 -1.601
-4.811 -4.879 -2.886
-4.754 -5.059 -3.100
-4.698 -5.240 -3.314
-4.641 -5.420 -3.528
-4.585 -5.600 -3.742
-4.528 -5.781 -3.956
-5.433 -2.895 -0.530
-5.453 -3.115 -0.350
-5.396 -3.296 -0.564
-5.340 -3.476 -0.778
-5.283 -3.656 -0.992
-5.227 -3.837 -1.206
-5.170 -4.017 -1.421
-4.831 -5.099 -2.705
-4.774 -5.280 -2.919
-4.718 -5.460 -3.133
-4.661 -5.640 -3.347
-4.605 -5.821 -3.562
-4.548 -6.001 -3.776
-5.453 -3.115 -0.350
-5.416 -3.516 -0.384
-5.360 -3.697 -0.598
-5.303 -3.877 -0.812
-5.247 -4.057 -1.026
-5.190 -4.238 -1.240
-4.794 -5.500 -2.739
-4.738 -5.681 -2.953
-4.681 -5.861 -3.167
-4.625 -6.041 -3.381
-4.568 -6.222 -3.595
-5.536 -4.839 0.699
-5.479 -5.019 0.485
-5.423 -5.200 0.271
-5.366 -5.380 0.057
-4.914 -6.823 -1.656
-4.857 -7.003 -1.870
-4.801 -7.184 -2.084
-4.744 -7.364 -2.298
-5.612 -4.879 1.094
-5.556 -5.059 0.880
-5.499 -5.240 0.666
-5.443 -5.420 0.451
-5.386 -5.601 0.237
-5.330 -5.781 0.023
-4.990 -6.863 -1.261
-4.934 -7.043 -1.475
-4.877 -7.224 -1.690
-4.821 -7.404 -1.904
-4.764 -7.585 -2.118
-4.708 -7.765 -2.332
-5.612 -4.879 1.094
-5.632 -5.100 1.274
-5.576 -5.280 1.060
-5.519 -5.460 0.846
-5.463 -5.641 0.632
-5.406 -5.821 0.418
-5.349 -6.001 0.204
-5.010 -7.084 -1.081
-4.954 -7.264 -1.295
-4.897 -7.444 -1.509
-4.841 -7.625 -1.723
-4.784 -7.805 -1.937
-4.728 -7.985 -2.151
-5.632 -5.100 1.274
-5.652 -5.320 1.455
-5.596 -5.500 1.241
-5.539 -5.681 1.026
-5.482 -5.861 0.812
-5.426 -6.041 0.598
-5.369 -6.222 0.384
-5.030 -7.304 -0.900
-4.974 -7.484 -1.115
-4.917 -7.665 -1.329
-4.861 -7.845 -1.543
-4.804 -8.025 -1.757
-4.748 -8.206 -1.971
-5.652 -5.320 1.455
-5.672 -5.540 1.635
-5.615 -5.721 1.421
-5.559 -5.901 1.207
-5.502 -6.082 0.993
-5.446 -6.262 0.779
-5.389 -6.442 0.565
-5.050 -7.524 -0.720
-4.994 -7.705 -0.934
-4.937 -7.885 -1.148
-4.881 -8.066 -1.362
-4.824 -8.246 -1.576
-4.767 -8.426 -1.791
-5.672 -5.540 1.635
-5.635 -5.941 1.601
-5.579 -6.122 1.387
-5.522 -6.302 1.173
-5.466 -6.482 0.959
-5.409 -6.663 0.745
-5.014 -7.925 -0.754
-4.957 -8.106 -0.968
-4.900 -8.286 -1.182
-4.844 -8.466 -1.396
-4.787 -8.647 -1.610
-5.317 -2.414 -1.286
-5.260 -2.594 -1.500
-5.203 -2.775 -1.714
-5.147 -2.955 -1.928
-4.695 -4.398 -3.641
-4.638 -4.578 -3.855
-4.582 -4.759 -4.069
-4.525 -4.939 -4.283
-5.652 -2.254 -1.128
-5.596 -2.435 -1.342
-5.539 -2.615 -1.556
-5.483 -2.795 -1.770
-5.030 -4.238 -3.483
-4.974 -4.419 -3.697
-4.917 -4.599 -3.911
-4.861 -4.779 -4.125
-5.652 -2.254 -1.128
-5.672 -2.475 -0.948
-5.616 -2.655 -1.162
-5.559 -2.835 -1.376
-5.503 -3.016 -1.590
-5.446 -3.196 -1.804
-5.050 -4.459 -3.303
-4.994 -4.639 -3.517
-4.937 -4.820 -3.731
-4.881 -5.000 -3.945
-4.824 -5.180 -4.159
-5.672 -2.475 -0.948
-5.692 -2.695 -0.767
-5.636 -2.876 -0.981
-5.579 -3.056 -1.195
-5.523 -3.236 -1.409
-5.466 -3.417 -1.624
-5.410 -3.597 -1.838
-5.070 -4.679 -3.122
-5.014 -4.860 -3.336
-4.957 -5.040 -3.550
-4.901 -5.220 -3.765
-4.844 -5.401 -3.979
-4.788 -5.581 -4.193
-5.692 -2.695 -0.767
-5.712 -2.916 -0.587
-5.656 -3.096 -0.801
-5.599 -3.276 -1.015
-5.543 -3.457 -1.229
-5.486 -3.637 -1.443
-5.429 -3.818 -1.657
-5.090 -4.900 -2.942
-5.034 -5.080 -3.156
-4.977 -5.260 -3.370
-4.921 -5.441 -3.584
-4.864 -5.621 -3.798
-4.808 -5.802 -4.012
-5.712 -2.916 -0.587
-5.675 -3.317 -0.620
-5.619 -3.497 -0.834
-5.562 -3.677 -1.049
-5.506 -3.858 -1.263
-5.449 -4.038 -1.477
-5.054 -5.301 -2.975
-4.997 -5.481 -3.190
-4.941 -5.661 -3.404
-4.884 -5.842 -3.618
-4.828 -6.022 -3.832
-5.639 -3.717 -0.654
-5.582 -3.898 -0.868
-5.526 -4.078 -1.082
-5.469 -4.258 -1.296
-5.017 -5.701 -3.009
-4.961 -5.882 -3.223
-4.904 -6.062 -3.437
-4.847 -6.242 -3.651
-5.872 -4.679 0.857
-5.815 -4.860 0.643
-5.758 -5.040 0.429
-5.702 -5.220 0.215
-5.250 -6.663 -1.498
-5.193 -6.844 -1.712
-5.137 -7.024 -1.926
-5.080 -7.205 -2.140
-5.872 -4.679 0.857
-5.891 -4.900 1.037
-5.835 -5.080 0.823
-5.778 -5.261 0.609
-5.722 -5.441 0.395
-5.665 -5.621 0.181
-5.270 -6.884 -1.318
-5.213 -7.064 -1.532
-5.157 -7.245 -1.746
-5.100 -7.425 -1.960
-5.043 -7.605 -2.174
-5.891 -4.900 1.037
-5.911 -5.120 1.218
-5.855 -5.301 1.004
-5.798 -5.481 0.790
-5.742 -5.661 0.576
-5.685 -5.842 0.362
-5.629 -6.022 0.147
-5.290 -7.104 -1.137
-5.233 -7.285 -1.351
-5.176 -7.465 -1.565
-5.120 -7.645 -1.779
-5.063 -7.826 -1.994
-5.007 -8.006 -2.208
-5.911 -5.120 1.218
-5.931 -5.341 1.398
-5.875 -5.521 1.184
-5.818 -5.701 0.970
-5.762 -5.882 0.756
-5.705 -6.062 0.542
-5.649 -6.243 0.328
-5.309 -7.325 -0.957
-5.253 -7.505 -1.171
-5.196 -7.686 -1.385
-5.140 -7.866 -1.599
-5.083 -8.046 -1.813
-5.027 -8.227 -2.027
-5.931 -5.341 1.398
-5.895 -5.742 1.365
-5.838 -5.922 1.151
-5.782 -6.102 0.937
-5.725 -6.283 0.722
-5.669 -6.463 0.508
-5.273 -7.726 -0.990
-5.216 -7.906 -1.204
-5.160 -8.086 -1.419
-5.103 -8.267 -1.633
-5.047 -8.447 -1.847
-5.858 -6.142 1.331
-5.802 -6.323 1.117
-5.745 -6.503 0.903
-5.688 -6.684 0.689
-5.236 -8.126 -1.024
-5.180 -8.307 -1.238
-5.123 -8.487 -1.452
-5.067 -8.668 -1.666
-5.652 -2.254 -1.128
-5.596 -2.435 -1.342
-5.539 -2.615 -1.556
-5.483 -2.795 -1.770
-5.030 -4.238 -3.483
-4.974 -4.419 -3.697
-4.917 -4.599 -3.911
-4.861 -4.779 -4.125
-5.652 -2.254 -1.128
-5.932 -2.275 -1.184
-5.875 -2.455 -1.398
-5.819 -2.636 -1.612
-5.366 -4.079 -3.325
-5.310 -4.259 -3.539
-5.253 -4.439 -3.754
-5.197 -4.620 -3.968
-5.988 -2.095 -0.970
-5.932 -2.275 -1.184
-5.951 -2.496 -1.004
-5.895 -2.676 -1.218
-5.838 -2.856 -1.432
-5.782 -3.037 -1.646
-5.330 -4.480 -3.359
-5.273 -4.660 -3.573
-5.217 -4.840 -3.787
-5.160 -5.021 -4.001
-5.951 -2.496 -1.004
-5.971 -2.716 -0.823
-5.915 -2.896 -1.037
-5.858 -3.077 -1.252
-5.802 -3.257 -1.466
-5.745 -3.437 -1.680
-5.350 -4.700 -3.178
-5.293 -4.880 -3.393
-5.237 -5.061 -3.607
-5.180 -5.241 -3.821
-5.123 -5.422 -4.035
-5.971 -2.716 -0.823
-5.935 -3.117 -0.857
-5.878 -3.297 -1.071
-5.822 -3.478 -1.285
-5.765 -3.658 -1.499
-5.709 -3.838 -1.713
-5.313 -5.101 -3.212
-5.256 -5.281 -3.426
-5.200 -5.462 -3.640
-5.143 -5.642 -3.854
-5.087 -5.822 -4.069
-5.898 -3.518 -0.891
-5.842 -3.698 -1.105
-5.785 -3.878 -1.319
-5.729 -4.059 -1.533
-5.276 -5.502 -3.246
-5.220 -5.682 -3.460
-5.163 -5.862 -3.674
-5.107 -6.043 -3.888
-5.862 -3.918 -0.924
-5.805 -4.099 -1.138
-5.749 -4.279 -1.352
-5.692 -4.460 -1.567
-5.240 -5.903 -3.279
-5.183 -6.083 -3.493
-5.127 -6.263 -3.708
-5.070 -6.444 -3.922
-5.768 -4.500 -1.172
-5.712 -4.680 -1.386
-5.147 -6.484 -3.527
-5.090 -6.664 -3.741
-6.131 -4.480 0.620
-5.566 -6.283 -1.521
-5.509 -6.464 -1.735
-6.187 -4.299 0.834
-6.131 -4.480 0.620
-6.151 -4.700 0.801
-6.094 -4.881 0.587
-6.038 -5.061 0.373
-5.585 -6.504 -1.340
-5.529 -6.684 -1.554
-5.472 -6.865 -1.768
-5.416 -7.045 -1.983
-6.207 -4.520 1.015
-6.151 -4.700 0.801
-6.171 -4.921 0.981
-6.114 -5.101 0.767
-6.058 -5.281 0.553
-6.001 -5.462 0.339
-5.549 -6.905 -1.374
-5.492 -7.085 -1.588
-5.436 -7.265 -1.802
-5.379 -7.446 -2.016
-6.171 -4.921 0.981
-6.191 -5.141 1.162
-6.134 -5.321 0.948
-6.078 -5.502 0.734
-6.021 -5.682 0.519
-5.964 -5.863 0.305
-5.569 -7.125 -1.193
-5.512 -7.305 -1.407
-5.456 -7.486 -1.622
-5.399 -7.666 -1.836
-5.343 -7.847 -2.050
-6.191 -5.141 1.162
-6.154 -5.542 1.128
-6.097 -5.722 0.914
-6.041 -5.903 0.700
-5.984 -6.083 0.486
-5.928 -6.263 0.272
-5.532 -7.526 -1.227
-5.476 -7.706 -1.441
-5.419 -7.887 -1.655
-5.363 -8.067 -1.869
-5.306 -8.247 -2.083
-6.117 -5.943 1.094
-6.061 -6.123 0.880
-6.004 -6.303 0.666
-5.948 -6.484 0.452
-5.496 -7.927 -1.261
-5.439 -8.107 -1.475
-5.382 -8.287 -1.689
-5.326 -8.468 -1.903
-6.081 -6.344 1.061
-6.024 -6.524 0.847
-5.968 -6.704 0.633
-5.911 -6.885 0.419
-5.459 -8.328 -1.294
-5.402 -8.508 -1.508
-5.346 -8.688 -1.722
-5.289 -8.869 -1.937
-5.988 -6.925 0.813
-5.931 -7.105 0.599
-5.366 -8.909 -1.542
-5.309 -9.089 -1.756
-5.912 -2.055 -1.365
-5.346 -3.858 -3.506
-5.290 -4.039 -3.720
-5.968 -1.874 -1.151
-5.912 -2.055 -1.365
-5.932 -2.275 -1.184
-5.875 -2.455 -1.398
-5.819 -2.636 -1.612
-5.366 -4.079 -3.325
-5.310 -4.259 -3.539
-5.253 -4.439 -3.754
-5.197 -4.620 -3.968
-5.988 -2.095 -0.970
-5.932 -2.275 -1.184
-0.068 -1.839 -0.004
-0.011 -2.019 -0.218
0.441 -3.462 -1.931
0.498 -3.642 -2.145
0.554 -3.823 -2.359
0.611 -4.003 -2.573
-0.181 -1.478 0.425
-0.124 -1.658 0.210
-0.068 -1.839 -0.004
-0.087 -2.059 0.177
-0.031 -2.239 -0.037
0.534 -4.043 -2.178
0.591 -4.223 -2.392
-0.087 -2.059 0.177
0.115 -3.843 -0.172
0.172 -4.023 -0.386
0.737 -5.827 -2.527
0.794 -6.007 -2.741
0.096 -4.063 0.009
0.152 -4.244 -0.205
0.209 -4.424 -0.420
0.265 -4.604 -0.634
0.717 -6.047 -2.346
0.774 -6.228 -2.561
-0.413 -2.440 1.936
-0.357 -2.620 1.721
0.132 -4.464 -0.025
0.189 -4.644 -0.239
0.245 -4.825 -0.453
0.302 -5.005 -0.667
0.754 -6.448 -2.380
-0.433 -2.660 2.116
-0.377 -2.841 1.902
-0.320 -3.021 1.688
0.112 -4.685 0.155
0.169 -4.865 -0.059
0.225 -5.045 -0.273
0.282 -5.226 -0.487
0.338 -5.406 -0.701
0.734 -6.669 -2.200
-0.453 -2.881 2.296
-0.397 -3.061 2.082
-0.340 -3.242 1.868
-0.283 -3.422 1.654
-0.247 -3.823 1.621
0.149 -5.085 0.122
0.205 -5.266 -0.092
0.262 -5.446 -0.306
0.318 -5.626 -0.520
0.375 -5.807 -0.735
-0.473 -3.101 2.477
-0.416 -3.282 2.263
-0.360 -3.462 2.049
-0.303 -3.642 1.835
-0.247 -3.823 1.621
-0.267 -4.043 1.801
0.185 -5.486 0.088
0.242 -5.667 -0.126
0.299 -5.847 -0.340
0.355 -6.027 -0.554
-0.436 -3.502 2.443
-0.380 -3.683 2.229
-0.323 -3.863 2.015
-0.267 -4.043 1.801
-0.287 -4.264 1.981
-0.230 -4.444 1.767
0.222 -5.887 0.055
0.279 -6.067 -0.160
0.335 -6.248 -0.374
0.392 -6.428 -0.588
-0.400 -3.903 2.410
-0.343 -4.083 2.196
-0.287 -4.264 1.981
-0.307 -4.484 2.162
-0.250 -4.665 1.948
0.315 -6.468 -0.193
0.372 -6.649 -0.407
-0.307 -4.484 2.162
-0.104 -6.268 1.813
-0.047 -6.448 1.599
0.518 -8.252 -0.542
0.575 -8.432 -0.756
-0.124 -6.488 1.994
-0.067 -6.669 1.780
-0.011 -6.849 1.566
0.046 -7.029 1.351
0.498 -8.472 -0.361
0.555 -8.653 -0.575
-0.632 -4.865 3.921
-0.576 -5.045 3.707
0.351 -2.039 -2.010
0.408 -2.219 -2.224
0.464 -2.400 -2.438
0.521 -2.580 -2.652
0.973 -4.023 -4.365
-0.214 -0.235 0.131
-0.157 -0.416 -0.083
-0.101 -0.596 -0.297
0.331 -2.259 -1.830
0.388 -2.440 -2.044
0.444 -2.620 -2.258
0.501 -2.801 -2.472
0.558 -2.981 -2.686
0.953 -4.243 -4.185
-0.234 -0.456 0.311
-0.177 -0.636 0.097
-0.121 -0.817 -0.117
-0.064 -0.997 -0.331
-0.028 -1.398 -0.365
0.368 -2.660 -1.863
0.425 -2.841 -2.077
0.481 -3.021 -2.291
0.538 -3.201 -2.506
0.594 -3.382 -2.720
-0.254 -0.676 0.492
-0.197 -0.857 0.278
-0.141 -1.037 0.064
-0.084 -1.217 -0.150
-0.028 -1.398 -0.365
-0.048 -1.618 -0.184
0.405 -3.061 -1.897
0.461 -3.241 -2.111
0.518 -3.422 -2.325
0.574 -3.602 -2.539
-0.217 -1.077 0.458
-0.161 -1.257 0.244
-0.104 -1.438 0.030
-0.048 -1.618 -0.184
-0.068 -1.839 -0.004
-0.011 -2.019 -0.218
0.441 -3.462 -1.931
0.498 -3.642 -2.145
0.554 -3.823 -2.359
0.611 -4.003 -2.573
-0.181 -1.478 0.425
-0.124 -1.658 0.210
-0.068 -1.839 -0.004
-0.347 -1.859 -0.060
0.105 -3.302 -1.773
0.162 -3.483 -1.987
0.219 -3.663 -2.201
0.275 -3.843 -2.415
-0.516 -1.318 0.582
-0.460 -1.499 0.368
-0.403 -1.679 0.154
-0.347 -1.859 -0.060
-0.127 -4.264 -0.262
-0.071 -4.445 -0.476
-0.014 -4.625 -0.690
0.042 -4.805 -0.904
0.495 -6.248 -2.617
-0.692 -2.461 1.879
-0.636 -2.641 1.665
-0.579 -2.821 1.451
-0.147 -4.485 -0.081
-0.091 -4.665 -0.295
-0.034 -4.846 -0.509
0.023 -5.026 -0.724
0.079 -5.206 -0.938
0.475 -6.469 -2.436
-0.712 -2.681 2.060
-0.656 -2.862 1.846
-0.599 -3.042 1.632
-0.543 -3.222 1.417
-0.506 -3.623 1.384
-0.167 -4.705 0.099
-0.110 -4.886 -0.115
-0.054 -5.066 -0.329
0.003 -5.246 -0.543
0.059 -5.427 -0.757
0.116 -5.607 -0.971
0.455 -6.689 -2.256
-0.732 -2.902 2.240
-0.676 -3.082 2.026
-0.619 -3.262 1.812
-0.563 -3.443 1.598
-0.506 -3.623 1.384
-0.526 -3.844 1.564
-0.187 -4.926 0.280
-0.130 -5.106 0.066
-0.074 -5.286 -0.149
-0.017 -5.467 -0.363
0.039 -5.647 -0.577
0.096 -5.828 -0.791
0.435 -6.910 -2.075
-0.752 -3.122 2.421
-0.696 -3.302 2.207
-0.639 -3.483 1.992
-0.583 -3.663 1.778
-0.526 -3.844 1.564
-0.546 -4.064 1.745
-0.150 -5.327 0.246
-0.094 -5.507 0.032
-0.037 -5.687 -0.182
0.019 -5.868 -0.396
0.076 -6.048 -0.610
-0.772 -3.343 2.601
-0.716 -3.523 2.387
-0.659 -3.703 2.173
-0.603 -3.884 1.959
-0.546 -4.064 1.745
-0.566 -4.284 1.925
-0.114 -5.727 0.212
-0.057 -5.908 -0.002
-0.001 -6.088 -0.216
0.056 -6.269 -0.430
-0.736 -3.743 2.568
-0.679 -3.924 2.353
-0.623 -4.104 2.139
-0.566 -4.284 1.925
-0.346 -6.689 1.723
-0.290 -6.870 1.509
-0.233 -7.050 1.295
-0.177 -7.231 1.081
0.276 -8.673 -0.632
-0.912 -4.886 3.864
-0.855 -5.066 3.650
-0.799 -5.247 3.436
0.072 -2.060 -2.066
0.129 -2.240 -2.280
0.185 -2.421 -2.495
0.242 -2.601 -2.709
0.298 -2.781 -2.923
0.694 -4.044 -4.421
-0.493 -0.256 0.075
-0.437 -0.436 -0.139
-0.380 -0.617 -0.354
-0.324 -0.797 -0.568
-0.287 -1.198 -0.601
0.052 -2.280 -1.886
0.109 -2.461 -2.100
0.165 -2.641 -2.314
0.222 -2.821 -2.528
0.278 -3.002 -2.742
0.335 -3.182 -2.956
0.674 -4.264 -4.241
-0.513 -0.477 0.255
-0.457 -0.657 0.041
-0.400 -0.837 -0.173
-0.344 -1.018 -0.387
-0.287 -1.198 -0.601
-0.307 -1.418 -0.421
0.032 -2.501 -1.705
0.089 -2.681 -1.920
0.145 -2.861 -2.134
0.202 -3.042 -2.348
0.258 -3.222 -2.562
0.315 -3.403 -2.776
0.654 -4.485 -4.061
-0.533 -0.697 0.436
-0.477 -0.877 0.221
-0.420 -1.058 0.007
-0.363 -1.238 -0.207
-0.307 -1.418 -0.421
-0.327 -1.639 -0.240
0.069 -2.902 -1.739
0.125 -3.082 -1.953
0.182 -3.262 -2.167
0.238 -3.443 -2.381
0.295 -3.623 -2.595
-0.553 -0.917 0.616
-0.496 -1.098 0.402
-0.440 -1.278 0.188
-0.383 -1.459 -0.026
-0.327 -1.639 -0.240
-0.347 -1.859 -0.060
0.105 -3.302 -1.773
0.162 -3.483 -1.987
0.219 -3.663 -2.201
0.275 -3.843 -2.415
-0.516 -1.318 0.582
-0.460 -1.499 0.368
-0.403 -1.679 0.154
-0.347 -1.859 -0.060
-0.230 -3.143 -1.615
-0.174 -3.323 -1.829
-0.117 -3.503 -2.043
-0.061 -3.684 -2.257
-0.852 -1.159 0.740
-0.796 -1.339 0.526
-0.739 -1.519 0.312
-0.683 -1.700 0.098
-0.406 -4.285 -0.318
-0.350 -4.466 -0.532
-0.293 -4.646 -0.746
-0.237 -4.826 -0.960
-0.180 -5.007 -1.174
0.215 -6.269 -2.673
-0.972 -2.481 1.823
-0.915 -2.662 1.609
-0.859 -2.842 1.395
-0.802 -3.023 1.181
-0.766 -3.423 1.147
-0.426 -4.506 -0.137
-0.370 -4.686 -0.352
-0.313 -4.866 -0.566
-0.257 -5.047 -0.780
-0.200 -5.227 -0.994
-0.144 -5.407 -1.208
0.196 -6.490 -2.493
-0.992 -2.702 2.004
-0.935 -2.882 1.789
-0.879 -3.063 1.575
-0.822 -3.243 1.361
-0.766 -3.423 1.147
-0.785 -3.644 1.328
-0.446 -4.726 0.043
-0.390 -4.906 -0.171
-0.333 -5.087 -0.385
-0.277 -5.267 -0.599
-0.220 -5.448 -0.813
-0.164 -5.628 -1.027
0.176 -6.710 -2.312
-1.012 -2.922 2.184
-0.955 -3.103 1.970
-0.898 -3.283 1.756
-0.842 -3.464 1.542
-0.785 -3.644 1.328
-0.805 -3.864 1.508
-0.466 -4.947 0.223
-0.410 -5.127 0.009
-0.353 -5.307 -0.205
-0.297 -5.488 -0.419
-0.240 -5.668 -0.633
-0.184 -5.848 -0.847
0.156 -6.931 -2.132
-1.031 -3.143 2.364
-0.975 -3.323 2.150
-0.918 -3.504 1.936
-0.862 -3.684 1.722
-0.805 -3.864 1.508
-0.825 -4.085 1.689
-0.486 -5.167 0.404
-0.430 -5.347 0.190
-0.373 -5.528 -0.024
-0.317 -5.708 -0.238
-0.260 -5.888 -0.452
-0.203 -6.069 -0.667
0.136 -7.151 -1.951
-1.051 -3.363 2.545
-0.995 -3.544 2.331
-0.938 -3.724 2.117
-0.882 -3.904 1.903
-0.825 -4.085 1.689
-0.449 -5.568 0.370
-0.393 -5.748 0.156
-0.336 -5.929 -0.058
-0.280 -6.109 -0.272
-1.071 -3.584 2.725
-1.015 -3.764 2.511
-0.958 -3.945 2.297
-0.902 -4.125 2.083
-0.626 -6.710 1.667
-0.569 -6.891 1.453
-0.513 -7.071 1.239
-0.456 -7.251 1.025
-0.399 -7.432 0.811
-0.004 -8.694 -0.688
-1.191 -4.907 3.808
-1.134 -5.087 3.594
-1.078 -5.267 3.380
-1.021 -5.448 3.166
-0.546 -0.998 -0.838
-0.207 -2.081 -2.123
-0.151 -2.261 -2.337
-0.094 -2.441 -2.551
-0.038 -2.622 -2.765
0.019 -2.802 -2.979
0.076 -2.982 -3.193
0.415 -4.065 -4.478
-0.772 -0.277 0.018
-0.716 -0.457 -0.196
-0.659 -0.638 -0.410
-0.603 -0.818 -0.624
-0.546 -0.998 -0.838
-0.566 -1.219 -0.657
-0.227 -2.301 -1.942
-0.171 -2.481 -2.156
-0.114 -2.662 -2.370
-0.057 -2.842 -2.584
-0.001 -3.022 -2.798
0.056 -3.203 -3.013
0.395 -4.285 -4.297
-0.792 -0.497 0.199
-0.736 -0.678 -0.015
-0.679 -0.858 -0.229
-0.623 -1.038 -0.443
-0.566 -1.219 -0.657
-0.586 -1.439 -0.477
-0.247 -2.521 -1.762
-0.190 -2.702 -1.976
-0.134 -2.882 -2.190
-0.077 -3.063 -2.404
-0.021 -3.243 -2.618
0.036 -3.423 -2.832
0.375 -4.506 -4.117
-0.812 -0.718 0.379
-0.756 -0.898 0.165
-0.699 -1.079 -0.049
-0.643 -1.259 -0.263
-0.586 -1.439 -0.477
-0.606 -1.660 -0.297
-0.267 -2.742 -1.581
-0.210 -2.922 -1.795
