5.866 1.750 2.868
5.577 2.093 2.965
5.550 2.237 3.190
5.667 2.296 3.243
5.439 2.542 3.678
5.387 2.721 3.724
5.219 2.607 3.916
5.131 2.796 4.000
4.843 3.622 4.869
4.766 3.567 5.176
4.811 3.836 5.260
4.650 3.868 5.410
4.377 4.067 5.481
4.278 4.111 5.893
4.296 4.236 6.008
4.358 4.556 6.013
4.233 4.485 6.343
5.798 1.881 2.639
6.091 1.682 2.774
5.847 1.719 3.129
5.723 1.819 3.155
5.864 2.091 3.347
5.857 2.291 3.567
5.579 2.370 3.634
5.629 2.568 3.985
5.605 2.745 3.917
5.250 2.715 4.282
5.002 3.408 4.990
4.803 3.620 5.165
4.897 3.847 5.273
4.881 3.843 5.482
4.771 4.043 5.874
4.666 4.112 6.033
4.503 4.321 6.089
4.497 4.521 6.336
6.145 1.563 2.900
6.192 1.712 2.956
5.982 1.667 3.145
6.122 1.807 3.340
6.053 1.969 3.590
5.894 2.093 3.627
5.854 2.423 3.856
5.595 2.504 3.979
5.724 2.494 4.255
5.094 3.276 5.290
5.107 3.548 5.449
5.080 3.628 5.538
5.046 3.722 5.598
4.788 4.031 5.935
4.670 4.118 6.073
4.780 4.156 6.352
6.297 1.421 2.846
6.192 1.511 2.937
6.272 1.731 3.557
6.162 1.895 3.646
6.072 2.194 3.849
6.021 2.329 3.996
5.965 2.429 4.085
5.714 2.464 4.280
5.200 3.287 5.411
5.349 3.562 5.531
5.297 3.647 5.632
5.236 3.575 5.874
5.025 3.714 6.003
4.967 4.021 6.323
6.194 1.874 3.896
6.049 1.988 4.021
6.070 2.172 4.213
5.850 2.379 4.578
5.365 3.234 5.595
5.343 3.340 5.653
5.415 3.410 5.763
5.149 3.709 6.051
5.219 3.642 6.086
1.800 3.783 0.091
1.913 3.960 0.317
1.798 4.005 0.606
1.518 4.208 0.679
1.026 5.353 1.765
1.074 5.229 1.998
0.811 5.416 2.243
0.923 5.723 2.350
0.852 5.630 2.512
0.691 5.784 2.760
0.653 6.125 2.796
2.184 3.530 0.021
2.038 3.686 0.138
1.909 3.934 0.328
1.161 5.180 2.112
1.187 5.245 2.123
1.268 5.414 2.212
0.988 5.607 2.577
0.927 5.798 2.648
0.776 5.861 2.784
3.054 3.345 1.084
2.965 3.411 1.099
2.743 3.550 1.284
2.609 3.901 1.602
1.896 5.208 3.475
1.757 5.565 3.486
1.693 5.532 3.669
1.449 5.651 3.757
3.221 3.081 0.623
3.082 3.261 0.941
2.968 3.453 0.986
2.877 3.419 1.223
2.885 3.610 1.295
2.851 3.738 1.502
2.690 3.813 1.739
2.275 5.051 3.033
2.050 5.131 3.299
2.075 5.152 3.486
1.822 5.458 3.682
1.943 5.438 3.793
1.734 5.528 3.873
1.727 5.824 4.109
3.568 3.020 0.610
3.486 3.303 0.738
3.286 3.334 0.903
3.343 3.407 0.972
3.185 3.549 1.128
3.021 3.731 1.414
2.842 3.979 1.683
2.467 4.977 2.875
2.184 5.131 2.962
2.304 5.195 3.128
2.230 5.301 3.284
1.960 5.600 3.710
1.869 5.628 3.799
1.919 5.919 3.992
3.524 3.084 0.460
3.649 2.937 0.629
3.573 3.117 0.696
3.405 3.256 1.097
3.502 3.431 1.083
3.207 3.475 1.440
3.383 3.842 1.493
3.203 3.959 1.567
3.006 4.093 1.789
2.633 4.803 3.016
2.653 5.051 3.115
2.316 4.984 3.127
2.503 5.085 3.294
2.346 5.409 3.445
2.190 5.368 3.806
2.176 5.751 3.783
2.056 5.877 4.187
1.832 5.987 4.233
3.684 2.974 0.791
3.702 2.823 0.703
3.864 3.209 0.889
3.593 3.066 0.991
3.678 3.341 1.410
3.470 3.465 1.580
3.367 3.618 1.641
3.230 3.729 1.840
3.360 3.899 2.079
2.754 4.734 2.897
2.746 4.748 3.076
2.711 4.948 3.477
2.598 5.255 3.614
2.557 5.191 3.704
2.423 5.264 3.786
2.438 5.560 4.067
2.218 5.537 4.336
1.991 5.820 4.322
3.787 2.854 0.632
3.927 3.071 0.807
3.863 2.884 0.933
3.873 2.994 1.060
3.809 3.161 1.316
3.800 3.261 1.573
3.607 3.274 1.764
3.454 3.686 1.733
3.550 3.768 1.957
3.407 3.735 2.033
2.977 4.629 3.211
2.989 4.694 3.395
2.660 4.827 3.606
2.743 4.906 3.583
2.672 5.137 3.857
2.391 5.235 3.934
2.347 5.444 4.175
2.368 5.718 4.382
2.206 5.678 4.592
4.038 2.738 0.641
4.070 2.792 0.910
4.177 2.740 1.178
3.988 3.028 1.338
4.093 2.939 1.444
3.839 3.159 1.552
3.862 3.301 1.634
3.799 3.553 1.826
3.580 3.633 2.154
3.592 3.697 2.392
3.018 4.520 3.328
3.020 4.772 3.329
2.964 4.894 3.697
2.831 4.920 3.715
2.704 5.212 4.127
2.803 5.306 4.138
2.665 5.466 4.335
2.563 5.381 4.399
2.608 5.746 4.654
4.154 2.572 0.796
4.073 2.787 0.947
4.199 2.834 1.328
4.376 2.757 1.288
4.054 2.995 1.605
4.075 3.092 1.702
4.014 3.141 1.895
3.831 3.314 1.980
3.893 3.388 2.331
3.817 3.660 2.384
3.281 4.463 3.445
3.103 4.477 3.537
3.176 4.892 3.628
3.026 4.793 4.009
3.035 5.069 4.163
3.024 5.233 4.372
2.820 5.236 4.367
2.819 5.390 4.675
2.634 5.447 4.926
4.329 2.635 1.191
4.273 2.739 1.216
4.577 2.690 1.261
4.250 2.869 1.484
4.226 3.030 1.649
4.178 3.150 2.000
4.169 3.133 1.960
4.122 3.414 2.341
3.943 3.404 2.241
3.792 3.653 2.586
3.493 4.262 3.590
3.380 4.416 3.677
3.191 4.715 3.774
3.104 4.753 4.063
3.023 4.880 4.143
2.970 5.145 4.450
3.040 5.277 4.682
2.794 5.367 4.686
2.782 5.555 4.920
4.382 2.557 1.445
4.596 2.688 1.554
4.594 2.969 1.769
4.452 3.039 1.955
4.328 3.078 2.292
4.231 3.226 2.296
4.293 3.441 2.503
3.433 4.365 3.782
3.325 4.591 4.101
3.263 4.773 4.188
3.426 4.752 4.269
3.296 4.976 4.436
3.029 5.287 4.658
3.052 5.215 4.869
3.369 4.771 4.518
5.647 2.245 2.616
5.534 2.501 2.773
5.416 2.471 2.939
5.247 2.559 3.090
5.235 2.763 3.104
5.245 2.845 3.412
4.424 4.045 4.662
4.338 4.133 5.005
4.482 4.147 5.085
4.324 4.324 5.242
4.218 4.411 5.541
4.053 4.673 5.479
5.918 2.089 2.610
5.815 2.247 2.700
5.605 2.322 2.706
5.657 2.423 3.126
5.627 2.596 3.023
5.478 2.642 3.303
5.244 2.772 3.595
5.408 3.085 3.809
4.656 3.642 4.611
4.838 4.048 4.736
4.628 4.205 5.032
4.615 4.048 5.083
4.593 4.281 5.460
4.435 4.384 5.482
4.341 4.462 5.732
4.269 4.788 5.839
5.879 2.107 2.629
6.140 1.995 2.520
6.064 2.131 2.816
5.751 2.326 2.881
5.760 2.194 3.225
5.577 2.344 3.297
5.609 2.761 3.520
5.509 2.625 3.642
5.333 2.812 3.824
5.006 3.765 4.859
4.886 3.969 5.160
4.829 3.914 5.285
4.598 4.131 5.255
4.655 4.281 5.414
4.538 4.467 5.650
4.392 4.418 5.847
4.522 4.581 5.978
4.346 4.709 6.149
6.005 1.674 2.488
5.907 2.027 2.529
6.091 1.835 2.830
6.111 2.128 2.949
5.948 2.089 3.097
5.949 2.127 3.361
5.949 2.499 3.438
5.671 2.480 3.584
5.739 2.611 3.919
5.491 2.794 3.951
5.136 3.489 4.994
5.148 3.653 5.161
4.844 4.015 5.323
4.810 4.179 5.462
4.705 4.184 5.718
4.719 4.297 5.948
4.573 4.406 6.068
4.703 4.645 6.177
6.139 1.650 2.493
6.158 1.723 2.890
6.332 1.865 3.183
6.186 2.009 3.255
6.220 2.231 3.523
6.080 2.261 3.552
6.054 2.386 3.815
5.848 2.449 4.022
5.714 2.621 4.183
5.773 2.798 4.225
5.381 3.675 5.105
5.071 3.740 5.433
5.067 3.941 5.470
5.207 4.059 5.587
4.909 3.952 5.802
4.774 4.273 6.071
4.971 4.333 6.175
6.163 1.992 3.566
6.099 2.382 3.680
6.171 2.492 3.887
6.121 2.514 4.056
5.945 2.517 4.310
5.417 3.378 5.135
5.262 3.526 5.380
5.346 3.871 5.582
5.170 3.811 5.624
5.051 4.061 5.875
4.985 4.293 6.196
6.391 2.316 3.942
6.341 2.365 4.282
6.217 2.620 4.325
5.503 3.514 5.528
5.524 3.653 5.501
5.558 3.571 5.644
5.304 3.777 5.946
5.354 3.947 6.069
5.284 4.046 6.131
1.965 3.952 0.107
1.935 4.053 0.290
1.965 4.371 0.414
1.709 4.371 0.605
1.874 4.682 0.731
1.217 5.595 1.930
0.939 5.748 2.137
1.147 5.886 2.276
0.920 6.037 2.386
0.859 6.015 2.671
0.652 6.123 2.762
2.389 3.735 0.066
2.090 3.935 0.239
2.073 4.045 0.291
2.068 4.261 0.526
2.011 4.433 0.684
1.397 5.608 2.120
1.292 5.781 2.272
1.022 5.827 2.639
1.018 6.098 2.727
1.023 6.278 2.883
3.228 3.496 0.631
3.195 3.450 0.920
2.841 3.761 0.985
2.867 3.810 1.163
2.130 5.244 3.049
2.146 5.358 3.254
1.875 5.507 3.343
1.854 5.515 3.380
3.384 3.073 0.653
3.479 3.151 0.747
3.304 3.434 0.840
3.100 3.443 1.103
3.281 3.780 1.142
3.183 3.781 1.265
3.014 3.865 1.521
2.276 5.007 2.760
2.219 5.235 2.925
2.261 5.296 3.298
2.241 5.473 3.278
2.140 5.473 3.643
2.037 5.688 3.780
1.727 5.720 3.806
3.329 3.217 0.503
3.730 3.246 0.589
3.545 3.423 0.547
3.521 3.613 0.898
3.416 3.633 0.811
3.312 3.794 1.217
3.230 4.068 1.200
2.468 5.179 2.634
2.570 5.261 2.684
2.507 5.190 2.921
2.363 5.358 3.158
2.359 5.464 3.353
2.246 5.768 3.604
2.040 5.921 3.557
3.611 3.005 0.221
3.647 3.260 0.580
3.770 3.170 0.596
3.814 3.407 0.611
3.604 3.336 1.052
3.597 3.465 1.019
3.392 3.582 1.387
3.381 3.834 1.455
3.276 3.876 1.631
2.840 4.967 2.843
2.597 5.027 3.016
2.477 5.131 3.187
2.370 5.482 3.415
2.551 5.570 3.538
2.295 5.774 3.520
2.359 5.742 3.873
2.313 5.945 3.930
3.771 3.080 0.416
3.812 3.277 0.536
4.007 3.223 0.783
3.852 3.146 0.878
3.815 3.430 1.130
3.687 3.619 1.218
3.689 3.641 1.446
3.643 3.925 1.516
3.587 4.060 1.604
3.345 4.090 1.902
2.919 4.836 2.838
2.924 5.136 3.009
2.866 5.231 3.161
2.706 5.144 3.390
2.602 5.367 3.628
2.420 5.624 3.709
2.527 5.728 3.974
2.286 5.860 4.184
3.942 2.968 0.503
3.968 3.149 0.600
4.243 2.962 0.811
4.073 3.159 1.161
4.051 3.244 1.341
3.965 3.350 1.414
3.777 3.603 1.648
3.781 3.736 1.612
3.753 3.759 1.761
3.519 3.869 2.197
3.116 4.795 3.059
2.969 5.035 3.237
2.799 4.974 3.466
2.797 5.082 3.550
2.643 5.481 3.778
2.551 5.338 4.003
2.452 5.500 4.005
2.498 5.674 4.282
2.393 5.919 4.425
4.193 2.829 0.797
4.183 2.916 0.906
4.141 2.854 0.998
4.170 2.955 1.284
4.106 3.240 1.322
4.104 3.383 1.510
4.092 3.435 1.615
4.009 3.702 1.971
3.847 3.680 2.140
3.617 3.880 2.308
3.675 3.990 2.382
3.209 4.800 3.327
3.186 4.760 3.438
3.077 5.146 3.663
3.005 5.229 3.696
2.796 5.374 3.968
2.880 5.520 3.989
2.631 5.516 4.143
2.536 5.700 4.405
2.542 5.805 4.689
4.407 3.072 1.009
4.480 2.726 1.256
4.253 2.875 1.454
4.295 3.224 1.546
4.251 3.154 1.720
4.041 3.507 1.890
4.126 3.528 1.949
4.112 3.819 2.262
3.897 3.959 2.221
3.709 3.847 2.640
3.493 4.514 3.395
3.339 4.676 3.438
3.340 5.054 3.730
3.242 5.025 3.870
3.054 5.086 4.051
3.134 5.415 4.154
2.787 5.560 4.510
2.735 5.641 4.566
2.854 5.829 4.878
4.477 2.929 1.269
4.551 2.915 1.465
4.576 3.207 1.505
4.326 3.301 1.779
4.404 3.277 1.963
4.076 3.553 2.022
4.118 3.746 2.308
4.140 3.634 2.589
3.916 4.036 2.754
3.392 4.603 3.803
3.367 4.829 3.699
3.380 4.893 3.971
3.137 5.181 4.193
3.100 5.208 4.336
3.069 5.515 4.563
3.132 5.515 4.554
2.795 5.569 4.778
4.751 2.899 1.798
4.602 3.265 1.893
4.611 3.414 2.092
4.523 3.445 2.328
4.315 3.396 2.563
4.106 3.785 2.633
4.057 3.858 2.747
3.725 4.786 4.097
3.485 4.877 4.222
3.304 5.082 4.179
3.309 5.038 4.379
3.421 5.253 4.526
3.274 5.566 4.755
3.072 5.706 5.096
4.778 3.209 2.193
4.412 3.344 2.500
4.456 3.506 2.658
4.417 3.672 2.646
3.418 5.242 4.528
3.310 5.341 4.684
3.380 5.329 4.865
5.928 2.355 2.164
5.728 2.367 2.298
5.762 2.544 2.505
5.675 2.587 2.648
5.578 2.688 3.011
5.391 2.831 3.147
4.757 3.928 4.467
4.832 4.269 4.589
4.670 4.239 4.796
4.575 4.360 5.088
4.492 4.528 5.184
4.403 4.713 5.445
5.743 2.225 2.074
5.790 2.389 2.339
6.116 2.057 2.370
5.843 2.454 2.646
5.904 2.370 2.808
5.700 2.728 3.042
5.535 2.689 2.983
5.656 3.010 3.381
5.577 2.902 3.413
4.877 4.072 4.544
4.777 4.239 4.918
4.627 4.105 4.954
4.696 4.385 5.002
4.543 4.419 5.229
4.468 4.619 5.415
4.315 4.926 5.524
6.027 2.080 2.192
5.981 2.239 2.554
6.116 2.061 2.414
6.026 2.388 2.866
6.066 2.248 2.817
5.905 2.509 3.101
5.684 2.646 3.258
5.715 2.800 3.519
5.510 2.964 3.477
5.445 3.141 3.621
5.201 3.991 4.811
4.911 3.958 4.956
4.814 4.210 5.182
4.747 4.276 5.398
4.865 4.419 5.391
4.788 4.481 5.603
4.693 4.713 5.678
4.408 4.846 5.922
6.076 1.827 2.515
6.124 2.175 2.472
6.098 2.016 2.738
6.221 2.419 3.067
6.061 2.575 3.348
6.099 2.544 3.446
5.957 2.692 3.449
5.918 2.930 3.622
5.621 2.950 3.935
5.393 3.787 4.848
5.076 3.925 5.025
5.189 4.040 5.219
5.065 4.179 5.446
5.018 4.479 5.699
4.964 4.413 5.819
4.669 4.699 6.001
4.735 4.678 6.176
4.614 4.985 6.207
6.147 2.502 3.350
6.038 2.472 3.456
6.079 2.492 3.827
6.035 2.680 3.855
5.772 3.032 4.103
5.337 3.580 5.182
5.434 3.804 5.163
5.354 4.112 5.373
5.113 4.020 5.443
5.005 4.226 5.780
4.912 4.323 5.833
4.812 4.495 6.201
4.953 4.743 6.100
6.339 2.690 3.844
6.271 2.605 3.916
6.099 2.798 4.101
5.859 3.066 4.330
5.631 3.585 5.045
5.668 3.660 5.393
5.502 3.946 5.672
5.280 4.078 5.704
5.160 4.060 5.848
5.154 4.188 6.070
5.260 4.361 6.136
6.208 2.719 4.438
6.133 2.779 4.375
5.738 3.793 5.621
5.648 3.849 5.646
5.419 4.068 5.781
5.412 4.242 6.150
5.432 4.265 6.214
2.200 4.224 0.288
2.005 4.365 0.419
2.055 4.667 0.509
1.849 4.696 0.650
1.872 5.034 0.743
1.191 5.872 2.066
1.057 5.883 2.105
1.125 5.996 2.246
1.028 6.388 2.624
2.315 4.223 0.147
2.397 4.384 0.262
2.286 4.388 0.527
2.185 4.425 0.524
1.935 4.558 0.890
1.243 5.765 2.389
1.357 5.945 2.569
1.127 6.041 2.593
3.421 3.212 0.414
3.471 3.533 0.369
3.264 3.499 0.741
3.093 3.658 0.708
2.394 5.111 2.386
2.205 5.293 2.632
2.187 5.315 2.994
2.083 5.546 2.887
2.134 5.756 3.279
3.451 3.381 0.309
3.491 3.330 0.461
3.494 3.356 0.516
3.356 3.681 0.807
3.228 3.540 1.027
3.230 3.820 1.161
3.089 3.976 1.162
2.558 5.054 2.751
2.590 5.177 2.976
2.426 5.344 3.005
2.181 5.586 3.176
2.169 5.574 3.472
2.139 5.859 3.626
2.050 5.950 3.539
3.745 2.977 0.237
3.533 3.168 0.452
3.881 3.389 0.290
3.786 3.523 0.551
3.454 3.743 0.736
3.548 3.871 0.753
3.562 3.928 1.133
2.679 5.112 2.438
2.815 5.140 2.513
2.509 5.490 2.766
2.662 5.559 2.782
2.387 5.524 3.212
2.265 5.707 3.148
2.363 5.899 3.509
3.862 3.171 0.079
3.907 3.333 0.070
3.678 3.563 0.229
4.051 3.492 0.450
3.791 3.438 0.797
3.843 3.602 0.735
3.685 3.765 1.003
3.566 3.808 1.110
3.390 4.020 1.251
2.960 5.062 2.591
2.734 5.120 2.820
2.901 5.242 2.808
2.781 5.444 3.131
2.577 5.614 3.259
2.538 5.711 3.328
2.573 5.702 3.481
2.466 5.978 3.726
4.001 3.213 0.327
3.819 3.323 0.636
4.071 3.327 0.540
4.133 3.495 0.682
4.023 3.580 0.966
3.722 3.611 1.086
3.906 3.693 1.456
3.647 3.994 1.488
3.633 4.055 1.681
3.256 4.929 2.839
2.959 5.003 2.961
2.838 5.109 3.006
2.825 5.456 3.321
2.835 5.482 3.469
2.756 5.615 3.583
2.681 5.710 3.774
2.665 5.863 3.785
2.448 6.053 4.023
4.112 3.152 0.514
4.029 3.399 0.678
4.111 3.292 0.720
4.273 3.239 0.849
4.021 3.326 1.199
4.000 3.636 1.182
4.055 3.886 1.456
3.808 3.818 1.589
3.863 4.077 1.696
3.694 4.054 2.078
3.103 5.088 2.973
3.101 5.075 3.083
3.181 5.186 3.407
3.111 5.239 3.640
3.020 5.629 3.763
2.723 5.678 3.838
2.702 5.915 4.047
2.607 6.073 4.280
4.240 3.213 0.487
4.252 3.192 0.757
4.314 3.264 0.826
4.352 3.175 1.008
4.323 3.541 1.296
4.111 3.669 1.510
3.997 3.634 1.572
4.158 3.812 1.846
4.025 3.903 2.091
3.777 4.114 2.064
3.758 4.074 2.169
3.429 4.964 3.233
3.429 5.102 3.236
3.123 5.310 3.466
3.268 5.329 3.690
2.968 5.479 3.943
2.984 5.678 4.018
2.942 5.630 4.048
2.687 5.707 4.218
2.746 5.940 4.596
4.279 3.204 1.065
4.471 3.249 1.340
4.307 3.394 1.359
4.207 3.592 1.530
4.298 3.467 1.863
4.092 3.823 1.989
4.076 3.739 2.083
4.016 3.866 2.156
4.091 4.139 2.305
3.470 5.090 3.389
3.385 5.122 3.584
3.362 5.176 3.792
3.154 5.228 3.853
3.135 5.477 4.021
3.093 5.761 4.301
3.062 5.633 4.616
3.007 5.799 4.718
4.573 3.259 1.580
4.423 3.376 1.622
4.542 3.376 1.963
4.212 3.531 2.141
4.136 3.893 2.115
4.120 4.075 2.521
4.098 4.126 2.508
3.536 4.907 3.805
3.612 5.154 3.825
3.442 5.155 4.171
3.279 5.471 4.428
3.294 5.527 4.543
3.104 5.675 4.670
2.992 5.968 4.936
3.063 5.846 4.973
4.827 3.222 1.805
4.492 3.493 2.016
4.511 3.524 2.270
4.433 3.667 2.493
4.305 3.755 2.637
4.234 3.907 2.717
4.112 4.074 2.789
3.726 4.996 4.061
3.640 5.144 4.223
3.557 5.452 4.474
3.489 5.499 4.543
3.208 5.745 4.759
3.250 5.850 4.981
3.213 5.998 4.985
4.859 3.381 2.093
4.597 3.630 2.340
4.623 3.755 2.561
4.456 3.733 2.715
4.367 3.814 2.785
4.259 4.072 3.087
3.604 5.361 4.454
3.529 5.524 4.788
3.404 5.676 4.793
3.479 5.693 4.944
3.380 5.837 5.119
5.283 2.260 0.713
4.747 3.719 2.897
4.728 3.776 2.918
4.541 3.979 3.224
3.642 5.354 4.942
3.579 5.564 5.143
3.584 5.650 5.331
5.452 2.127 0.857
4.615 3.959 3.366
4.857 4.186 3.770
4.697 4.220 3.851
4.518 4.438 4.016
5.849 2.195 1.546
5.847 2.259 1.617
5.783 2.564 1.882
5.867 2.539 2.004
5.604 2.758 2.281
5.695 2.862 2.413
5.007 4.088 3.869
4.915 4.024 4.034
4.667 4.255 4.349
4.801 4.452 4.352
4.531 4.603 4.578
6.042 2.223 1.758
5.797 2.291 1.973
5.845 2.624 2.115
5.915 2.569 2.228
5.956 2.486 2.324
5.724 2.757 2.500
5.810 2.816 2.633
5.695 3.005 2.883
5.055 3.816 4.051
4.885 4.207 4.337
4.955 4.135 4.417
4.730 4.364 4.698
4.725 4.490 4.866
4.705 4.483 4.980
4.565 4.631 5.196
6.107 2.103 1.911
5.908 2.173 1.959
5.958 2.329 2.126
6.097 2.290 2.424
6.142 2.627 2.475
5.946 2.516 2.741
5.958 2.812 2.828
5.848 2.882 3.144
5.595 2.951 3.068
5.210 3.922 4.365
5.212 3.982 4.700
5.117 4.247 4.807
4.771 4.289 4.926
4.857 4.439 5.118
4.788 4.535 5.387
4.728 4.771 5.525
6.408 2.133 1.947
6.241 2.189 2.017
6.185 2.412 2.437
6.220 2.424 2.356
6.249 2.474 2.498
6.116 2.432 2.861
5.987 2.697 2.983
5.839 2.836 3.222
6.011 2.894 3.200
5.879 2.987 3.439
5.285 3.801 4.649
5.283 4.061 4.595
5.105 4.236 4.801
5.130 4.267 4.911
5.092 4.390 5.291
5.005 4.736 5.234
4.864 4.624 5.663
4.762 4.855 5.693
6.257 2.331 2.375
6.124 2.711 3.126
6.009 2.843 3.267
6.063 2.774 3.615
5.840 2.956 3.628
5.957 3.145 3.706
5.465 3.924 4.849
5.180 4.062 4.945
5.356 4.147 5.059
5.211 4.249 5.409
5.163 4.613 5.595
4.979 4.660 5.795
4.816 4.736 5.994
4.894 4.919 5.992
6.077 2.758 3.646
6.213 2.936 3.796
5.974 3.062 3.986
5.661 3.924 5.046
5.615 4.146 5.173
5.289 4.193 5.259
5.412 4.458 5.551
5.366 4.451 5.777
5.131 4.500 5.893
5.020 4.614 6.008
5.024 4.966 6.105
6.320 3.120 4.119
6.109 3.010 4.150
5.576 3.928 5.164
5.528 4.213 5.309
5.612 4.297 5.674
5.326 4.401 5.891
5.489 4.476 6.088
5.276 4.783 6.233
5.666 3.936 5.509
5.644 4.267 5.765
5.737 4.354 5.947
5.459 4.465 6.236
5.508 4.693 6.155
2.199 4.484 -0.015
2.292 4.742 0.287
2.163 4.745 0.318
1.980 4.866 0.442
1.994 4.929 0.640
1.891 5.264 0.979
1.345 6.149 2.234
2.350 4.377 0.119
2.229 4.487 0.421
2.321 4.686 0.641
2.054 4.805 0.584
1.958 4.951 0.852
2.000 5.104 0.994
1.398 6.102 2.518
2.413 4.556 0.648
2.320 4.726 0.904
2.364 4.922 1.063
2.309 5.168 1.188
2.514 4.791 1.096
2.464 4.839 1.414
2.364 5.240 1.794
3.333 3.646 0.017
2.646 4.963 1.997
2.440 5.217 2.034
2.249 5.235 2.315
2.337 5.423 2.406
3.266 3.465 -0.057
3.479 3.490 0.332
3.391 3.730 0.405
3.283 3.699 0.501
3.349 3.999 0.855
2.727 4.934 2.112
2.557 5.040 2.236
2.452 5.306 2.442
2.520 5.471 2.469
2.256 5.596 2.716
2.402 5.740 2.982
3.683 3.330 -0.072
3.465 3.532 0.274
3.749 3.534 0.352
3.712 3.476 0.553
3.443 3.790 0.660
3.429 3.701 0.938
3.542 3.848 1.068
2.825 4.948 2.285
2.732 5.096 2.558
2.491 5.353 2.719
2.579 5.488 2.872
2.366 5.604 3.123
2.453 5.884 3.361
2.255 6.029 3.488
3.934 3.242 0.173
3.741 3.168 0.284
3.624 3.292 0.446
3.927 3.457 0.270
3.700 3.646 0.453
3.681 3.930 0.570
3.765 4.137 0.833
2.924 5.052 2.125
2.805 5.339 2.448
2.762 5.437 2.648
2.622 5.652 2.593
2.776 5.577 2.708
2.656 5.875 2.965
2.489 6.034 3.340
3.906 3.401 0.018
3.848 3.684 0.205
4.183 3.588 0.307
3.835 3.708 0.581
4.010 3.846 0.732
3.956 3.834 0.972
3.772 3.972 1.262
3.039 5.115 2.569
3.117 5.421 2.743
2.834 5.392 2.764
2.823 5.514 2.959
2.887 5.620 3.211
2.773 5.858 3.190
2.721 6.019 3.455
4.250 3.131 0.062
4.035 3.461 0.139
4.089 3.505 0.551
4.358 3.504 0.462
4.120 3.580 0.703
3.949 3.721 0.925
4.106 3.832 1.185
3.862 4.059 1.357
3.859 4.022 1.537
3.161 5.160 2.579
3.284 5.238 2.911
2.959 5.418 3.013
3.079 5.602 3.254
2.801 5.733 3.330
2.810 5.859 3.482
2.907 5.956 3.634
2.603 6.043 3.819
4.178 3.337 0.522
4.198 3.540 0.685
4.314 3.237 0.605
4.361 3.555 0.926
4.148 3.650 1.202
4.107 3.863 1.308
3.932 3.786 1.458
3.859 4.128 1.524
3.950 4.209 1.682
3.217 5.070 2.868
3.224 5.408 3.048
3.324 5.569 3.147
3.058 5.463 3.395
3.082 5.730 3.679
3.018 5.742 3.893
2.728 5.907 3.900
2.742 6.107 4.233
4.252 3.322 0.793
4.359 3.394 0.959
4.468 3.525 1.319
4.410 3.614 1.238
4.273 3.785 1.531
4.247 3.919 1.727
4.143 4.126 2.006
4.042 4.180 2.097
3.364 5.322 3.139
3.494 5.222 3.522
3.291 5.475 3.572
3.326 5.658 3.882
3.211 5.790 3.918
3.098 5.811 4.193
2.935 6.044 4.247
2.836 6.259 4.570
4.482 3.402 1.485
4.626 3.593 1.415
4.313 3.773 1.662
4.406 3.799 1.978
4.256 3.959 1.881
4.212 4.303 2.049
4.011 4.210 2.230
3.668 5.133 3.598
3.346 5.484 3.654
3.516 5.511 3.754
3.423 5.820 4.048
3.223 5.782 4.188
3.068 6.065 4.310
3.032 6.074 4.524
3.032 6.213 4.751
4.565 3.428 1.600
4.647 3.670 1.929
4.387 3.826 1.961
4.497 3.873 2.114
4.440 4.089 2.449
4.255 4.315 2.560
4.085 4.483 2.622
3.710 5.358 3.756
3.397 5.345 4.181
3.484 5.499 4.167
3.300 5.769 4.232
3.166 5.972 4.437
3.130 6.000 4.873
3.207 6.097 4.993
4.641 3.534 1.837
4.599 3.751 2.024
4.520 3.859 2.243
4.582 3.896 2.412
4.430 4.058 2.720
4.447 4.248 2.963
4.239 4.481 3.112
3.837 5.458 4.143
3.496 5.472 4.426
3.518 5.527 4.614
3.382 5.751 4.776
3.490 5.872 5.010
3.195 5.973 5.085
5.258 2.489 0.621
4.971 3.821 2.271
4.903 3.762 2.390
4.794 4.013 2.519
4.594 4.022 2.642
4.383 4.273 2.966
4.457 4.435 3.141
4.336 4.389 3.173
3.843 5.313 4.611
3.733 5.467 4.746
3.522 5.584 4.910
3.453 5.887 4.936
3.480 6.037 5.174
5.663 2.406 0.870
5.577 2.585 0.791
4.846 3.775 2.618
4.766 3.795 2.660
4.893 4.068 3.022
4.557 4.099 3.003
4.711 4.328 3.165
4.426 4.465 3.322
4.381 4.488 3.576
3.971 5.423 4.939
3.877 5.527 4.892
3.578 5.924 5.001
3.556 5.968 5.188
5.717 2.303 0.927
5.516 2.558 0.914
5.415 2.666 1.359
4.894 3.734 2.871
4.882 4.033 2.983
4.788 4.044 3.295
4.702 4.271 3.301
4.668 4.342 3.493
4.587 4.524 3.891
4.431 4.570 3.865
3.753 5.612 5.269
3.739 5.968 5.552
6.006 2.151 0.928
5.743 2.375 1.214
5.769 2.685 1.306
5.723 2.805 1.439
5.835 2.796 1.834
5.039 3.893 3.106
4.946 3.874 3.245
4.982 4.102 3.576
4.803 4.324 3.719
4.877 4.423 3.978
4.638 4.584 3.973
4.479 4.700 4.285
4.014 5.724 5.576
6.009 2.225 1.117
6.115 2.490 1.212
5.900 2.531 1.533
5.835 2.504 1.532
5.646 2.817 1.930
5.923 2.670 1.851
5.874 2.906 2.143
5.766 2.957 2.376
5.057 4.039 3.451
5.120 4.047 3.770
4.951 4.291 3.970
5.043 4.402 3.993
4.960 4.439 4.089
4.685 4.546 4.390
4.770 4.718 4.517
6.236 2.029 1.331
6.233 2.186 1.384
6.211 2.553 1.751
5.994 2.456 1.866
5.789 2.552 1.998
6.013 2.729 2.261
5.886 2.737 2.313
5.994 2.872 2.549
5.852 2.930 2.491
5.341 3.957 3.886
5.341 4.144 3.885
5.204 4.387 4.233
5.025 4.419 4.405
4.936 4.477 4.375
4.928 4.615 4.575
4.764 4.811 4.755
6.196 2.469 1.793
6.149 2.535 2.011
5.977 2.620 2.048
6.224 2.656 2.244
6.070 2.720 2.387
5.968 2.736 2.569
5.994 2.929 2.764
5.906 3.030 2.921
5.491 4.150 4.289
5.262 4.278 4.447
5.069 4.421 4.601
5.010 4.332 4.558
5.046 4.579 4.961
4.973 4.600 4.969
5.011 4.733 5.209
6.136 2.650 2.357
6.225 2.669 2.644
6.046 2.922 2.809
6.127 3.088 2.971
6.084 3.144 3.358
5.322 4.180 4.417
5.424 4.207 4.764
5.367 4.215 4.709
5.325 4.518 5.001
5.242 4.728 5.209
5.048 4.727 5.216
4.957 4.778 5.331
6.357 2.789 3.373
6.108 3.069 3.315
6.116 3.312 3.435
5.486 4.035 4.880
5.424 4.216 4.952
5.284 4.305 5.193
5.311 4.518 5.401
5.303 4.842 5.567
5.185 4.881 5.695
5.156 5.046 5.662
6.410 3.050 3.722
6.056 3.240 3.961
5.679 4.235 5.057
5.433 4.236 5.152
5.539 4.572 5.483
5.510 4.720 5.712
5.277 4.785 5.904
5.285 4.818 5.926
5.274 5.007 5.951
5.708 4.281 5.277
5.498 4.526 5.570
5.618 4.460 5.792
5.424 4.700 5.819
5.338 4.917 6.104
5.267 5.096 6.285
5.801 4.306 5.610
5.836 4.411 5.991
5.740 4.542 5.940
5.612 4.842 6.135
2.354 4.966 0.137
2.243 5.091 0.480
2.206 5.230 0.543
1.995 5.102 0.664
2.130 5.340 0.863
2.415 4.469 0.019
2.419 4.780 0.456
2.351 4.760 0.507
2.408 4.913 0.618
2.166 5.062 0.813
2.288 5.148 0.873
1.940 5.444 1.292
2.727 4.552 0.535
2.585 4.799 0.699
2.396 4.890 0.684
2.403 5.015 0.957
2.280 5.103 1.216
2.250 5.406 1.187
2.190 5.369 1.442
2.798 4.833 1.052
2.573 4.996 0.981
2.458 5.112 1.224
2.383 5.150 1.508
2.387 5.474 1.490
2.138 5.435 1.899
2.710 4.813 1.196
2.626 5.073 1.371
2.545 5.133 1.575
2.508 5.416 1.696
2.426 5.353 1.839
2.427 5.701 2.206
3.403 3.644 0.107
3.508 3.810 0.136
2.702 4.869 1.559
2.714 5.243 1.709
2.626 5.218 2.009
2.514 5.396 2.132
2.417 5.397 2.176
2.485 5.594 2.491
2.378 5.703 2.636
3.536 3.635 -0.009
3.828 3.731 0.126
3.565 3.824 0.461
3.593 4.069 0.627
3.058 4.967 1.987
2.802 5.207 1.895
2.810 5.316 2.073
2.762 5.384 2.336
2.557 5.722 2.409
2.391 5.622 2.693
2.410 5.819 3.016
3.781 3.616 0.065
3.782 3.696 0.179
3.678 3.861 0.369
3.667 3.925 0.687
3.583 3.981 0.909
3.117 5.231 2.304
3.031 5.116 2.297
2.864 5.245 2.505
2.778 5.480 2.669
2.659 5.579 2.910
2.471 5.755 2.878
2.447 5.929 3.265
3.868 3.500 0.001
3.811 3.458 0.368
4.088 3.750 0.092
3.952 3.988 0.411
3.736 3.920 0.455
3.260 5.280 1.980
3.238 5.254 2.051
2.969 5.521 2.196
3.125 5.603 2.461
2.764 5.592 2.589
2.913 5.780 2.808
2.758 5.815 2.960
4.110 3.656 0.023
3.929 3.908 0.144
4.074 3.831 0.218
4.035 3.720 0.451
4.142 3.889 0.665
3.929 4.155 0.874
3.219 5.081 2.172
3.133 5.322 2.560
3.057 5.502 2.529
3.048 5.619 2.617
2.956 5.691 2.825
2.795 5.897 2.954
2.897 6.061 3.403
4.340 3.531 -0.035
4.186 3.556 0.217
4.187 3.674 0.256
4.457 3.582 0.431
4.161 3.838 0.819
4.153 3.936 0.869
4.000 4.149 0.876
4.169 4.066 1.139
3.247 5.283 2.869
3.361 5.581 2.949
3.204 5.675 3.116
3.193 5.708 3.118
2.910 5.930 3.286
4.322 3.512 0.266
4.467 3.555 0.423
4.591 3.777 0.882
4.437 3.913 1.013
4.189 3.954 1.208
4.073 4.051 1.211
4.232 4.308 1.439
3.289 5.429 3.057
3.461 5.585 3.240
3.339 5.779 3.369
3.052 6.004 3.684
3.042 6.136 3.799
4.503 3.803 1.262
4.330 4.006 1.215
4.447 3.923 1.397
4.179 4.016 1.636
4.318 4.375 1.818
3.539 5.570 3.476
3.244 5.867 3.639
3.376 6.043 3.776
3.208 5.928 4.099
3.091 6.102 4.154
4.524 3.941 1.376
4.473 4.009 1.680
4.503 4.019 1.681
4.498 4.304 1.856
4.421 4.207 2.100
4.231 4.560 2.341
3.486 5.732 3.895
3.405 5.843 3.950
3.273 5.897 4.196
3.337 6.261 4.367
3.209 6.239 4.568
4.665 3.778 1.649
4.779 4.085 1.832
4.647 4.142 2.155
4.619 4.161 2.337
4.443 4.455 2.466
4.447 4.675 2.741
4.366 4.605 2.918
3.732 5.589 4.016
3.617 5.681 4.136
3.410 5.941 4.252
3.327 5.997 4.545
3.485 6.132 4.732
5.426 2.907 0.435
4.889 3.929 1.938
4.659 3.930 2.081
4.627 4.196 2.339
4.523 4.249 2.447
4.356 4.589 2.800
4.415 4.720 2.819
4.406 4.670 2.972
3.891 5.592 4.381
3.676 5.886 4.528
3.691 5.871 4.586
3.423 5.956 4.802
3.335 6.280 4.935
5.648 2.689 0.609
5.511 2.884 0.766
5.003 3.942 2.105
4.891 4.083 2.343
4.782 4.091 2.661
4.586 4.362 2.670
4.602 4.456 2.865
4.688 4.612 2.940
4.515 4.703 3.351
4.513 4.849 3.479
3.839 5.876 4.543
3.689 5.952 4.836
3.761 6.025 4.812
3.524 6.041 5.132
5.724 2.580 0.810
5.482 2.671 0.905
5.423 2.810 1.150
5.170 3.962 2.556
5.100 3.939 2.712
5.024 4.244 2.790
4.856 4.217 3.017
4.614 4.345 3.287
4.782 4.631 3.339
4.546 4.675 3.591
4.460 4.845 3.705
4.132 5.816 4.641
3.889 5.934 4.797
3.983 6.069 5.011
3.797 6.042 5.281
5.955 2.435 0.818
5.770 2.672 0.989
5.646 2.762 1.176
5.668 2.841 1.289
5.800 3.056 1.691
5.237 3.738 2.582
5.104 3.855 2.768
5.208 4.214 3.025
5.085 4.322 3.071
4.893 4.280 3.238
4.956 4.382 3.579
4.882 4.639 3.802
4.726 4.661 3.702
4.559 4.782 4.118
4.004 5.751 5.014
3.895 5.731 5.070
4.051 6.152 5.347
5.965 2.433 1.067
5.833 2.578 1.069
5.960 2.691 1.208
5.857 2.816 1.354
5.763 3.154 1.530
5.842 3.000 1.835
5.914 3.028 1.952
5.234 3.767 2.913
5.156 4.053 3.121
5.174 4.080 3.407
5.029 4.444 3.571
4.906 4.384 3.754
4.876 4.472 3.745
4.752 4.681 4.073
4.839 4.876 4.164
4.130 5.664 5.239
4.094 5.890 5.505
6.146 2.291 0.996
6.123 2.623 1.174
6.173 2.796 1.450
6.086 2.767 1.471
5.842 2.890 1.682
6.045 2.925 1.952
6.003 3.118 2.194
5.484 3.864 3.348
5.358 3.946 3.301
5.287 4.304 3.726
5.209 4.310 3.703
5.110 4.636 4.015
4.953 4.724 4.247
4.998 4.896 4.434
4.851 4.942 4.373
4.286 5.799 5.515
6.198 2.467 1.580
6.056 2.746 1.706
6.005 2.843 1.921
6.084 2.870 1.963
6.201 2.824 2.074
6.198 2.944 2.278
5.597 4.087 3.622
5.441 4.288 3.656
5.378 4.343 3.944
5.357 4.471 3.996
5.279 4.532 4.290
5.191 4.550 4.505
5.115 4.770 4.721
4.950 4.860 4.669
6.153 2.793 1.987
6.082 3.000 2.664
6.127 3.058 2.565
5.711 4.087 3.896
5.581 4.234 4.201
5.307 4.447 4.204
5.488 4.574 4.472
5.312 4.719 4.619
5.331 4.767 4.812
5.127 4.954 4.831
5.714 4.114 4.323
5.516 4.382 4.447
5.538 4.675 4.594
5.409 4.612 4.742
5.289 4.795 5.164
5.204 4.841 5.157
5.542 4.354 4.726
5.588 4.545 4.933
5.628 4.556 4.977
5.505 4.640 5.278
5.272 4.838 5.457
5.224 5.079 5.672
5.579 4.656 5.077
5.501 4.667 5.438
5.617 4.746 5.386
5.577 4.867 5.652
5.307 4.966 5.890
5.694 4.570 5.575
5.587 4.797 5.587
5.539 4.975 5.791
5.458 4.918 6.133
5.377 4.975 6.055
5.920 4.607 5.761
5.696 4.914 5.845
5.568 5.022 6.106
2.497 4.872 0.112
2.488 5.075 0.364
2.183 5.280 0.423
2.109 5.357 0.497
2.144 5.457 0.773
1.951 5.688 0.942
2.522 4.868 0.358
2.393 5.204 0.368
2.375 5.328 0.680
2.453 5.366 0.774
2.438 5.536 0.904
2.139 5.706 1.079
2.012 5.666 1.112
2.683 4.861 0.467
2.574 4.860 0.397
2.519 5.234 0.852
2.464 5.160 0.754
2.462 5.501 1.081
2.356 5.378 1.259
2.381 5.731 1.435
2.304 5.906 1.461
2.906 4.848 0.698
2.730 5.060 0.736
2.568 5.077 0.932
2.603 5.252 1.302
2.675 5.326 1.355
2.459 5.450 1.677
2.296 5.780 1.810
2.317 5.965 1.912
2.924 5.041 0.926
2.868 5.032 1.075
2.753 5.309 1.372
2.730 5.499 1.500
2.666 5.530 1.629
2.641 5.747 1.725
2.579 5.823 2.031
2.404 5.985 2.188
3.519 3.946 0.110
3.049 5.068 1.303
3.042 5.276 1.544
2.872 5.153 1.795
2.800 5.538 1.865
2.696 5.436 2.106
2.665 5.605 2.046
2.490 5.978 2.447
2.484 5.934 2.404
3.715 3.900 0.207
3.888 4.125 0.121
3.727 4.037 0.555
3.036 5.009 1.652
2.915 5.362 1.814
3.105 5.272 2.052
2.840 5.432 2.280
2.687 5.726 2.393
2.608 5.702 2.364
2.649 5.814 2.736
3.991 3.705 -0.056
3.970 3.689 0.301
4.077 3.933 0.314
3.817 4.137 0.542
3.312 5.197 1.908
3.146 5.426 2.014
3.150 5.417 2.158
3.018 5.472 2.523
2.908 5.772 2.696
2.777 5.942 2.775
2.755 5.901 2.874
3.972 3.510 -0.040
3.922 3.707 0.084
4.235 4.071 0.091
4.089 4.215 0.468
3.294 5.217 1.652
3.389 5.215 1.907
3.315 5.384 2.031
3.170 5.481 2.223
2.979 5.727 2.304
3.160 5.977 2.679
2.961 5.891 2.648
4.309 4.023 0.251
4.293 4.010 0.264
4.157 3.907 0.569
3.546 5.172 2.123
3.559 5.511 2.063
3.503 5.473 2.230
3.351 5.562 2.433
3.197 5.928 2.762
3.116 5.989 2.945
4.266 3.754 0.089
4.225 3.917 0.177
4.467 4.395 1.762
4.548 4.468 2.043
4.908 4.111 1.958
4.717 4.337 1.907
4.682 4.545 2.292
4.677 4.625 2.346
4.336 4.569 2.543
4.520 4.804 2.821
3.727 6.058 4.325
3.699 6.316 4.448
5.417 2.940 0.304
5.519 2.946 0.619
4.933 3.979 2.113
4.906 4.143 2.102
4.769 4.354 2.448
4.623 4.384 2.421
4.766 4.590 2.613
4.442 4.850 2.801
4.380 5.007 2.988
4.322 5.175 3.196
3.708 6.114 4.358
3.776 6.270 4.398
3.642 6.254 4.863
5.721 2.998 0.383
5.640 3.080 0.746
5.514 3.000 0.726
4.998 4.243 2.167
5.088 4.209 2.611
4.971 4.349 2.698
4.646 4.684 2.811
4.684 4.741 2.982
4.725 4.860 3.256
4.677 5.092 3.225
4.368 4.991 3.386
3.849 6.023 4.426
4.034 6.057 4.720
3.873 6.149 4.758
5.703 2.855 0.656
5.843 2.903 0.758
5.629 2.952 0.991
5.499 3.192 0.991
5.731 3.259 1.471
5.242 4.139 2.358
5.264 4.289 2.479
5.120 4.232 2.693
5.069 4.348 2.829
4.834 4.624 3.247
4.936 4.888 3.331
4.752 4.778 3.319
4.675 4.885 3.561
4.708 5.137 3.927
4.150 5.968 4.648
4.064 6.016 4.847
4.065 6.169 4.892
3.833 6.353 5.161
6.059 2.595 0.714
5.937 2.872 0.771
5.988 2.877 1.205
5.795 3.121 1.260
5.697 3.254 1.415
5.997 3.091 1.522
5.814 3.284 1.668
5.255 3.922 2.614
5.427 4.271 2.798
5.326 4.361 2.944
5.017 4.486 3.037
5.125 4.622 3.121
4.945 4.566 3.411
4.852 4.756 3.658
4.876 4.977 3.681
4.836 5.119 4.052
4.327 5.874 5.078
4.069 6.098 5.069
4.210 6.208 5.314
6.205 2.612 0.745
6.139 2.886 1.065
5.981 2.858 1.228
6.075 3.000 1.369
5.957 3.286 1.433
6.089 3.106 1.680
5.876 3.327 1.726
5.324 4.004 2.911
5.296 4.155 2.953
5.331 4.393 3.268
5.220 4.366 3.509
5.121 4.459 3.527
4.954 4.617 3.875
4.984 4.978 3.814
4.810 5.135 4.005
4.312 5.773 5.035
4.292 6.052 5.412
4.277 5.959 5.371
6.120 2.612 1.274
6.052 2.818 1.397
6.181 3.036 1.604
6.076 3.083 1.845
6.135 3.046 1.915
6.035 3.282 2.011
5.681 3.907 3.033
5.660 4.016 3.289
5.609 4.392 3.254
5.308 4.317 3.445
5.453 4.447 3.702
5.100 4.695 3.917
5.206 4.857 4.012
5.205 4.814 4.127
4.862 4.933 4.281
4.600 5.747 5.344
4.348 5.959 5.732
6.289 2.869 1.722
6.098 2.907 1.979
6.369 3.205 2.179
5.746 3.991 3.246
5.784 4.174 3.451
5.522 4.239 3.678
5.389 4.595 3.765
5.511 4.651 3.882
5.212 4.575 4.053
5.183 4.795 4.379
5.045 4.868 4.403
4.559 5.991 5.635
5.682 3.986 3.755
5.756 4.229 3.951
5.607 4.294 4.031
5.533 4.530 4.114
5.524 4.686 4.353
5.333 4.880 4.402
5.342 5.003 4.776
5.834 4.428 4.441
5.694 4.717 4.540
5.644 4.605 4.501
5.718 5.070 5.975
5.703 5.298 6.219
2.682 5.293 0.047
2.442 5.390 0.194
2.544 5.531 0.394
2.392 5.501 0.552
2.289 5.640 0.603
2.201 5.799 1.008
2.051 6.067 1.177
2.742 5.178 0.272
2.652 5.251 0.410
2.694 5.385 0.484
2.388 5.397 0.667
2.510 5.584 0.729
2.252 5.703 1.081
2.257 5.976 1.064
2.216 6.065 1.253
2.753 5.132 0.615
2.624 5.264 0.747
2.649 5.452 0.861
2.651 5.619 0.944
2.475 5.793 1.033
2.350 5.819 1.312
2.410 6.094 1.403
2.167 6.001 1.630
2.979 5.062 0.666
2.876 5.211 0.638
2.841 5.348 0.818
2.914 5.400 1.213
2.730 5.669 1.442
2.588 5.713 1.361
2.465 5.949 1.746
2.541 6.159 1.909
2.316 6.056 1.850
3.221 4.965 0.856
3.080 5.017 0.907
3.028 5.211 1.030
3.043 5.313 1.358
2.898 5.576 1.450
2.922 5.650 1.494
2.645 5.682 1.834
2.763 5.956 1.827
2.542 6.135 1.986
3.621 4.218 0.149
3.201 5.130 1.079
3.310 5.214 1.333
3.122 5.332 1.481
2.983 5.582 1.690
2.999 5.547 1.882
2.827 5.752 2.064
2.731 5.773 2.185
2.676 6.121 2.347
2.606 6.276 2.419
3.876 3.901 -0.064
3.957 4.184 0.181
3.245 5.175 1.429
3.214 5.184 1.597
3.232 5.503 1.796
3.225 5.577 1.991
3.150 5.599 2.064
3.086 5.720 2.277
2.796 6.000 2.409
2.897 6.118 2.496
3.862 4.052 0.002
4.310 3.892 0.258
4.094 4.201 0.231
3.505 5.138 1.735
3.369 5.191 1.748
3.424 5.486 2.018
3.127 5.485 2.218
3.092 5.821 2.269
2.941 5.814 2.436
2.869 6.070 2.610
4.106 3.968 0.212
4.315 4.131 0.068
3.755 5.287 1.457
3.544 5.215 1.610
3.402 5.589 1.754
3.437 5.561 2.091
3.200 5.646 2.207
3.307 5.926 2.441
3.192 6.165 2.614
4.395 4.243 0.024
3.557 5.351 1.811
3.681 5.616 2.067
3.494 5.729 2.235
3.300 5.910 2.331
4.638 3.863 0.091
4.842 4.600 1.972
4.760 4.822 2.280
4.475 4.995 2.452
4.415 5.154 2.630
4.317 5.030 2.945
5.652 3.162 0.322
5.586 3.373 0.481
5.504 3.252 0.664
5.077 4.347 2.193
4.789 4.555 2.183
4.818 4.781 2.402
4.769 4.746 2.655
4.632 4.969 2.784
4.634 5.071 2.946
4.646 5.080 3.036
4.532 5.335 3.319
5.848 3.169 0.314
5.676 3.123 0.694
5.512 3.200 0.783
5.681 3.497 0.935
5.789 3.570 1.097
5.172 4.271 2.272
5.192 4.339 2.519
4.975 4.478 2.648
4.890 4.850 2.740
4.896 4.825 2.992
4.704 5.109 3.097
4.703 5.248 3.365
4.714 5.143 3.300
4.627 5.347 3.710
4.159 5.981 4.430
4.073 6.368 4.521
5.934 2.965 0.559
6.005 3.109 0.568
5.843 3.320 0.734
5.595 3.363 1.165
5.713 3.372 1.116
5.750 3.346 1.355
5.391 4.150 2.496
5.239 4.505 2.505
5.252 4.641 2.750
4.965 4.764 2.732
5.027 4.679 2.954
4.950 5.018 3.144
4.748 4.937 3.508
4.730 5.180 3.534
4.717 5.477 3.835
4.378 6.152 4.635
4.338 6.233 4.780
6.171 2.738 0.669
6.112 2.876 0.875
5.888 3.262 0.954
5.907 3.377 1.215
5.842 3.359 1.423
5.841 3.303 1.621
5.927 3.442 1.570
5.593 4.074 2.585
5.572 4.379 2.757
5.422 4.514 2.994
5.138 4.648 3.137
5.216 4.771 3.319
5.051 4.708 3.385
4.954 5.083 3.653
5.100 5.181 3.658
4.834 5.343 3.740
4.287 6.031 4.874
4.307 6.345 5.000
6.309 2.805 1.093
6.019 3.094 1.184
6.095 3.350 1.450
5.967 3.492 1.511
6.194 3.390 1.767
5.946 3.401 1.865
5.753 4.188 2.611
5.577 4.355 2.736
5.453 4.375 2.983
5.370 4.547 3.024
5.470 4.655 3.341
5.324 4.701 3.392
5.075 4.911 3.746
5.159 5.086 3.739
5.075 5.278 4.088
4.562 5.934 5.061
4.369 6.250 5.192
4.432 6.394 5.244
6.232 3.126 1.551
6.215 3.131 1.691
6.359 3.401 2.042
5.894 4.031 3.028
5.686 4.413 3.153
5.700 4.311 3.421
5.523 4.696 3.502
5.592 4.714 3.732
5.311 4.710 3.903
5.162 4.853 3.878
5.110 5.002 4.279
4.797 5.963 5.075
4.501 6.178 5.458
4.496 6.220 5.654
5.870 4.172 3.128
5.850 4.231 3.407
5.670 4.275 3.530
5.624 4.591 3.699
5.529 4.751 3.691
5.590 4.778 3.851
5.495 4.860 4.230
5.406 4.882 4.215
4.717 6.033 5.570
4.596 5.990 5.606
6.063 4.212 3.476
5.902 4.137 3.710
5.883 4.358 3.678
5.742 4.626 3.943
5.711 4.564 4.051
5.710 4.956 4.126
4.902 6.017 5.707
2.571 5.544 0.249
2.456 5.800 0.435
2.319 5.870 0.523
2.315 5.912 0.781
2.094 6.061 1.091
2.794 5.428 0.220
2.644 5.686 0.437
2.546 5.811 0.701
2.618 5.820 0.825
2.591 5.841 0.821
2.393 5.940 1.158
2.398 6.189 1.297
2.937 5.397 0.296
2.999 5.541 0.444
2.894 5.541 0.614
2.880 5.838 0.888
2.569 5.907 1.004
2.705 5.872 1.375
2.602 6.199 1.536
2.293 6.133 1.457
3.048 5.134 0.583
3.007 5.402 0.858
2.903 5.417 0.895
3.047 5.652 0.960
2.976 5.769 1.194
2.742 6.060 1.465
2.648 6.059 1.531
2.682 6.286 1.740
3.276 5.231 0.634
3.225 5.365 0.942
3.029 5.313 1.125
3.103 5.640 1.215
2.957 5.581 1.231
2.869 5.818 1.495
2.842 6.123 1.638
2.893 6.144 1.802
2.539 6.361 2.129
3.538 5.160 0.968
3.455 5.215 0.900
3.405 5.342 1.200
3.322 5.624 1.436
3.173 5.553 1.380
3.001 5.734 1.738
3.080 5.883 1.973
3.044 6.171 2.160
2.815 6.233 2.253
4.001 4.462 0.056
3.518 5.292 1.222
3.543 5.414 1.221
3.420 5.407 1.398
3.455 5.662 1.585
3.308 5.787 1.960
3.275 5.741 2.092
3.164 5.922 2.244
3.106 6.189 2.177
4.342 4.119 -0.070
3.685 5.318 1.495
3.653 5.238 1.557
3.593 5.369 1.771
3.310 5.604 1.960
3.479 5.769 1.976
3.362 5.969 2.317
3.163 6.011 2.562
4.197 4.143 0.098
3.829 5.315 1.312
3.660 5.467 1.245
3.733 5.484 1.655
3.570 5.761 1.850
3.589 5.801 1.816
3.440 5.818 1.952
3.457 5.936 2.281
3.831 5.401 1.380
3.991 5.373 1.695
3.902 5.689 1.771
3.782 5.718 1.959
4.849 5.073 2.481
4.684 5.303 2.580
4.692 5.297 2.821
4.494 5.443 2.817
4.466 5.566 3.052
5.818 3.399 0.267
5.585 3.359 0.427
5.696 3.534 0.579
5.551 3.733 0.550
5.566 3.716 0.853
5.035 4.826 2.046
5.070 4.868 2.457
4.797 4.865 2.432
4.755 4.977 2.552
4.705 5.182 2.961
4.541 5.460 3.102
4.695 5.420 3.275
4.634 5.748 3.233
5.901 3.202 0.319
5.827 3.362 0.368
5.662 3.508 0.665
5.776 3.728 0.771
5.648 3.884 0.954
5.726 3.666 1.003
5.702 3.728 1.201
5.219 4.604 2.401
5.216 4.793 2.587
5.161 4.875 2.694
5.036 5.052 2.738
5.022 5.140 2.901
4.903 5.376 3.203
4.899 5.404 3.317
4.599 5.633 3.611
6.090 3.136 0.543
5.892 3.244 0.565
6.096 3.428 0.887
5.756 3.688 1.065
5.815 3.681 1.223
5.861 3.674 1.167
5.805 3.704 1.387
5.446 4.291 2.303
5.357 4.435 2.434
5.464 4.716 2.562
5.147 4.681 2.736
5.052 4.963 2.872
5.072 4.957 3.107
4.936 5.214 3.395
4.780 5.480 3.620
4.870 5.368 3.530
6.175 3.144 0.695
6.167 3.198 0.804
6.233 3.245 0.842
6.082 3.525 0.996
6.018 3.536 1.289
5.986 3.645 1.506
6.020 3.533 1.500
5.732 4.212 2.322
5.617 4.354 2.593
5.458 4.665 2.925
5.489 4.801 2.988
5.466 5.025 3.188
5.279 5.131 3.435
5.296 5.116 3.360
5.235 5.186 3.583
5.111 5.560 3.735
4.666 6.262 4.720
6.171 3.414 1.118
6.061 3.532 1.282
6.094 3.657 1.868
5.689 4.177 2.587
5.671 4.330 2.871
5.608 4.458 3.055
5.651 4.619 3.230
5.552 4.698 3.368
5.381 5.024 3.299
5.376 4.976 3.516
5.364 5.121 3.655
5.075 5.460 3.854
4.711 6.050 4.744
4.802 6.309 4.843
5.890 4.308 2.648
5.781 4.253 3.023
5.857 4.464 3.079
5.893 4.654 3.361
5.674 4.686 3.302
5.516 4.950 3.447
5.603 5.076 3.593
5.474 5.015 3.945
5.398 5.397 4.189
4.777 6.208 5.188
4.659 6.124 5.370
6.107 4.019 2.929
6.014 4.345 3.028
5.848 4.298 3.250
6.012 4.520 3.327
5.867 4.667 3.511
5.656 4.889 3.629
5.747 4.801 3.813
5.549 4.984 4.075
4.896 5.930 5.272
4.934 6.173 5.472
6.317 4.075 3.156
6.033 4.293 3.365
6.082 4.507 3.651
6.103 4.701 3.636
5.933 4.768 3.877
5.836 4.923 3.990
5.018 6.153 5.672
5.161 6.191 5.668
2.600 5.945 0.248
2.405 6.005 0.647
2.415 6.281 0.783
2.788 5.795 0.395
2.758 5.774 0.559
2.655 6.070 0.568
2.570 6.172 0.863
2.438 6.149 1.040
3.097 5.556 0.382
2.919 5.667 0.374
2.808 5.741 0.798
2.832 5.938 0.770
2.647 6.058 1.078
2.759 6.094 1.266
3.273 5.307 0.495
3.169 5.701 0.707
3.275 5.776 0.683
2.914 5.738 0.935
3.090 5.998 1.292
2.893 6.249 1.345
2.744 6.326 1.453
3.309 5.237 0.656
3.438 5.556 0.631
3.206 5.730 0.907
3.075 5.673 1.063
3.069 5.873 1.164
3.023 6.097 1.425
2.897 6.240 1.528
3.575 5.403 0.601
3.617 5.441 0.851
3.470 5.684 0.995
3.273 5.710 1.190
3.431 5.681 1.469
3.316 6.066 1.747
3.142 6.108 1.624
3.196 6.174 1.944
3.659 5.219 0.840
3.592 5.462 0.966
3.547 5.462 1.261
3.523 5.560 1.495
3.573 5.850 1.625
3.312 5.980 1.839
3.174 5.946 1.955
3.352 6.195 2.004
3.300 6.430 2.352
3.857 5.109 1.325
3.700 5.236 1.318
3.767 5.448 1.662
3.572 5.645 1.746
3.523 5.833 1.837
3.489 5.916 2.087
3.392 6.181 2.267
4.060 5.172 0.875
3.979 5.406 1.083
3.897 5.462 1.246
3.719 5.604 1.607
3.818 5.921 1.536
3.604 6.027 1.827
3.580 6.201 1.981
4.132 5.233 1.168
4.297 5.478 1.347
4.199 5.354 1.426
4.095 5.577 1.523
4.058 5.682 1.640
5.454 4.033 0.669
5.559 4.045 0.976
4.705 5.316 2.494
4.793 5.372 2.734
4.691 5.565 2.906
4.586 5.708 2.876
4.403 5.942 3.134
6.006 3.497 0.202
5.839 3.517 0.278
5.663 3.684 0.361
5.739 3.827 0.604
5.487 4.138 0.760
5.843 4.053 0.913
5.613 4.045 1.108
5.152 4.952 2.349
4.988 5.085 2.468
5.078 5.204 2.762
4.879 5.558 2.858
4.857 5.532 2.922
4.676 5.833 3.158
4.779 5.965 3.245
4.486 6.080 3.619
6.218 3.528 0.362
6.067 3.491 0.415
5.883 3.607 0.676
5.812 3.717 0.873
5.825 3.807 1.027
5.811 3.777 1.109
5.980 4.094 1.284
5.329 4.816 2.383
5.289 4.942 2.295
5.328 5.195 2.553
5.041 5.170 2.904
5.129 5.380 2.925
5.067 5.588 3.237
4.792 5.564 3.248
4.758 5.677 3.337
4.774 5.836 3.664
6.142 3.427 0.338
6.033 3.524 0.546
5.980 3.620 0.739
5.989 3.635 0.807
5.890 3.872 0.915
6.040 3.826 1.313
5.937 3.774 1.387
5.540 4.801 2.280
5.460 4.998 2.654
5.409 4.865 2.659
5.217 5.098 2.820
5.093 5.291 3.020
5.072 5.424 3.200
5.059 5.606 3.325
5.111 5.659 3.677
6.124 3.502 0.850
6.184 3.520 1.095
5.950 3.795 1.293
6.207 3.694 1.372
6.093 3.697 1.620
5.790 4.619 2.326
5.638 4.722 2.551
5.749 4.866 2.556
5.405 4.986 2.993
5.520 5.071 3.152
5.454 5.257 3.167
5.369 5.395 3.383
5.277 5.525 3.474
5.155 5.629 3.816
6.342 3.704 1.238
5.877 4.571 2.579
5.751 4.427 2.563
5.896 4.599 2.921
5.728 4.823 2.883
5.622 5.052 3.279
5.577 5.042 3.498
5.543 5.239 3.538
5.251 5.448 3.811
5.196 5.545 3.934
5.039 6.107 4.769
6.197 4.287 2.708
6.181 4.569 2.800
5.901 4.687 2.874
5.912 4.733 3.026
5.838 5.051 3.222
5.702 5.118 3.372
5.739 5.224 3.533
5.526 5.434 3.739
4.999 6.270 4.929
5.028 6.272 5.025
6.207 4.532 2.889
6.038 4.610 3.110
5.931 4.805 3.169
5.896 4.962 3.499
5.773 4.870 3.658
5.704 5.240 3.857
5.364 6.193 4.940
5.044 6.165 5.292
6.314 4.518 3.355
6.208 4.821 3.705
6.166 4.964 3.673
5.361 5.991 5.247
5.347 6.102 5.295
5.231 6.310 5.594
5.661 6.032 5.486
5.302 6.187 5.639
2.775 6.177 0.450
2.885 5.937 0.501
2.923 6.013 0.673
3.204 5.876 0.414
3.073 5.885 0.737
3.044 6.025 0.791
2.996 6.276 0.893
3.535 5.467 0.394
3.235 5.621 0.469
3.401 5.805 0.850
3.247 6.037 0.966
3.034 6.014 0.990
2.938 6.312 1.306
3.663 5.650 0.423
3.571 5.570 0.764
3.541 5.916 0.970
3.503 6.016 0.904
3.217 5.947 1.083
3.058 6.282 1.331
3.811 5.371 0.687
3.574 5.468 0.968
3.697 5.808 1.138
3.668 5.915 1.094
3.534 6.083 1.418
3.293 6.065 1.434
3.244 6.148 1.625
4.032 5.509 0.859
3.810 5.586 1.061
3.655 5.702 1.041
3.796 5.864 1.346
3.633 5.943 1.529
3.391 5.899 1.664
3.328 6.293 1.943
4.043 5.422 1.104
4.063 5.391 1.104
3.822 5.621 1.265
3.896 5.562 1.597
3.878 5.909 1.648
3.691 5.983 1.694
3.590 6.009 1.909
0.551 0.647 2.751
0.542 0.960 2.803
0.459 0.933 2.970
0.274 1.234 3.060
0.203 1.243 3.398
0.035 1.274 3.530
0.213 1.454 3.808
0.793 0.549 2.728
0.859 0.460 2.791
0.742 0.591 2.924
0.724 0.812 3.244
0.441 0.935 3.254
0.289 1.106 3.571
1.052 0.245 2.928
0.953 0.573 2.940
0.714 0.555 3.265
0.701 0.645 3.274
1.175 0.113 2.638
1.274 0.396 2.836
1.123 0.447 3.157
0.259 1.800 4.836
0.085 2.106 5.128
0.080 2.311 5.369
1.285 0.192 2.834
1.419 0.230 3.121
0.647 1.480 4.682
0.354 1.722 4.856
0.248 1.899 5.116
0.160 2.107 5.380
1.518 0.080 3.114
0.740 1.381 4.505
0.848 1.263 4.782
0.676 1.636 4.875
0.760 1.673 5.082
0.571 1.809 5.381
0.467 1.847 5.279
1.252 0.881 4.318
1.220 1.166 4.554
1.111 1.109 4.834
1.080 1.233 4.738
0.850 1.307 4.906
0.914 1.652 5.086
0.765 1.781 5.434
1.580 0.816 4.193
1.202 0.759 4.466
1.221 1.050 4.675
1.059 1.001 4.994
1.014 1.112 5.016
0.890 1.489 5.335
1.010 1.632 5.469
1.748 0.333 4.407
1.474 0.682 4.440
1.492 0.675 4.582
1.524 0.840 4.805
1.419 1.108 5.053
1.292 1.279 5.167
1.163 1.367 5.386
1.181 1.304 5.415
1.903 0.198 4.240
1.801 0.405 4.385
1.641 0.653 4.769
1.658 0.600 4.697
1.717 0.863 5.057
1.468 0.885 5.058
1.551 1.136 5.269
1.266 1.299 5.399
2.146 -0.047 4.394
2.016 0.177 4.567
1.949 0.253 4.525
1.950 0.454 4.854
1.734 0.676 5.044
1.659 0.587 4.960
1.749 0.962 5.222
1.740 1.129 5.336
1.389 1.128 5.736
2.350 0.018 4.591
2.154 0.338 4.812
2.109 0.421 4.760
1.933 0.404 4.981
1.814 0.756 5.206
1.936 0.761 5.518
1.760 0.870 5.488
2.538 -0.118 4.668
2.459 0.110 4.978
2.278 0.280 4.963
2.340 0.575 5.163
2.144 0.633 5.444
2.119 0.597 5.439
2.633 0.109 5.034
2.591 0.365 5.201
2.478 0.334 5.410
2.350 0.585 5.629
2.599 0.100 5.125
2.598 0.203 5.419
2.573 0.213 5.378
-0.093 -0.028 0.268
0.108 0.071 0.457
0.217 0.179 0.710
0.080 0.196 0.682
0.044 0.459 1.238
-0.030 0.607 1.150
0.347 0.087 0.770
0.266 0.332 0.821
0.145 0.311 1.196
0.260 0.399 1.203
0.111 0.525 1.569
0.393 -0.086 0.969
0.513 0.311 1.220
0.376 0.442 1.270
0.585 0.126 1.281
0.687 -0.036 1.290
0.389 0.330 1.346
0.029 1.026 2.554
0.135 1.110 2.677
0.640 -0.107 1.405
0.493 0.837 2.610
0.326 0.934 2.704
0.235 1.028 2.731
0.234 1.151 3.114
0.103 1.175 3.325
-0.108 1.417 3.468
0.555 0.751 2.624
0.626 0.873 2.760
0.458 0.800 2.975
0.198 1.224 3.264
0.253 1.341 3.292
0.170 1.347 3.653
0.072 1.518 3.580
0.773 0.680 2.375
0.658 0.827 2.517
0.538 1.080 2.706
0.658 1.128 2.977
0.368 1.146 3.251
0.530 1.378 3.353
0.361 1.424 3.454
1.090 0.354 2.543
0.992 0.538 2.710
0.745 0.673 2.606
0.730 0.932 2.835
0.822 0.893 3.130
0.751 1.113 3.290
0.681 1.363 3.465
1.386 0.189 2.307
1.159 0.533 2.626
1.273 0.567 2.642
1.087 0.563 2.983
0.921 0.888 3.104
0.853 1.032 3.242
0.656 1.175 3.366
0.337 2.001 4.513
0.188 2.088 4.870
0.118 2.250 4.823
0.143 2.411 5.247
1.398 0.006 2.371
1.459 0.134 2.403
1.500 0.238 2.789
1.194 0.335 2.883
1.312 0.527 2.985
1.157 0.832 3.246
0.961 0.967 3.339
0.555 1.991 4.519
0.484 1.918 4.779
0.226 2.236 4.831
0.227 2.220 5.214
0.098 2.491 5.126
-0.012 2.404 5.269
-0.133 2.589 5.519
1.595 0.030 2.766
1.481 0.328 2.698
1.384 0.427 2.923
1.233 0.472 3.297
1.319 0.760 3.258
0.870 1.693 4.558
0.747 1.765 4.776
0.634 2.024 4.853
0.479 1.993 4.932
0.350 2.171 5.337
0.476 2.333 5.531
0.383 2.365 5.679
1.869 0.139 2.822
1.795 0.094 2.968
1.572 0.317 2.995
1.480 0.319 3.275
0.991 1.397 4.445
1.056 1.635 4.547
0.878 1.548 4.713
0.870 1.776 4.995
0.790 1.999 5.263
0.668 1.999 5.250
0.479 2.308 5.599
1.949 -0.003 3.209
1.948 0.393 3.314
1.315 1.219 4.573
1.091 1.379 4.708
0.956 1.594 4.688
0.896 1.530 4.930
0.964 1.867 5.030
0.795 1.993 5.202
0.662 1.929 5.483
1.962 0.150 3.180
1.600 1.050 4.467
1.387 1.142 4.754
1.187 1.390 4.784
1.197 1.434 5.064
1.219 1.435 5.095
1.182 1.601 5.254
1.129 1.960 5.392
1.663 0.664 4.505
1.582 0.901 4.544
1.460 0.979 4.688
1.495 1.313 4.863
1.368 1.407 5.128
1.218 1.383 5.221
1.389 1.724 5.409
1.916 0.485 4.360
1.825 0.774 4.671
1.901 0.736 4.626
1.712 0.831 4.940
1.683 0.961 4.942
1.559 1.268 5.361
1.372 1.329 5.496
2.382 0.404 4.239
2.286 0.567 4.604
2.204 0.628 4.593
1.975 0.715 4.783
1.883 0.863 5.083
1.695 0.960 5.092
1.709 1.026 5.337
2.474 0.052 4.395
2.526 0.328 4.360
2.235 0.482 4.700
2.308 0.408 4.947
2.109 0.629 4.886
2.119 0.679 5.057
2.011 1.073 5.345
2.541 0.153 4.328
2.533 0.156 4.567
2.536 0.432 4.846
2.558 0.608 4.885
2.356 0.739 5.000
2.196 0.662 5.330
2.885 -0.001 4.838
2.628 0.378 4.885
2.631 0.323 5.108
2.532 0.466 5.221
3.030 0.012 4.862
2.738 0.167 5.154
2.702 0.368 5.111
3.147 0.037 5.344
0.130 0.241 0.137
0.075 0.516 0.451
0.141 0.681 0.732
0.082 0.689 0.894
-0.027 0.893 1.214
0.334 0.034 0.275
0.311 0.345 0.398
0.402 0.315 0.582
0.224 0.440 0.726
-0.052 0.719 0.764
0.197 0.401 1.170
0.073 0.684 1.257
0.685 -0.009 0.287
0.408 0.022 0.654
0.395 0.179 0.752
0.482 0.499 0.748
0.219 0.539 1.010
0.375 0.587 1.281
0.647 0.206 0.698
0.659 0.230 0.780
0.403 0.398 1.033
0.430 0.572 1.103
0.169 1.249 2.539
0.759 0.131 1.009
0.637 0.404 1.155
0.288 1.107 2.472
0.065 1.251 2.775
0.069 1.462 2.808
0.118 1.486 3.001
0.910 0.045 1.052
0.568 0.894 2.467
0.494 1.046 2.613
0.354 1.337 2.712
0.155 1.238 3.102
0.288 1.388 3.122
0.194 1.585 3.238
0.060 1.754 3.432
0.909 0.787 2.519
0.599 0.788 2.524
0.776 0.959 2.907
0.475 1.104 3.000
0.318 1.119 3.138
0.496 1.248 3.142
0.420 1.637 3.528
-0.033 1.225 0.381
0.124 0.888 0.316
0.014 1.226 0.358
-0.040 1.444 0.411
0.021 1.307 0.188
0.141 1.269 0.202
0.035 1.291 0.420
0.035 1.290 0.537
-0.093 1.533 0.712
0.205 1.241 0.346
0.114 1.238 0.457
0.038 1.530 0.051
0.035 1.541 0.294
0.138 1.665 0.319
0.417 1.472 0.288
0.097 1.472 0.512
0.163 1.732 0.696
0.120 1.969 0.789
0.273 1.467 0.413
0.103 2.073 0.160
0.347 1.642 0.100
0.215 1.735 0.355
0.058 2.031 0.511
0.012 2.050 0.598
0.191 1.665 -0.010
