4.896 2.085 0.864
5.131 1.974 0.745
5.664 2.164 0.453
2.040 2.722 2.310
1.963 2.527 2.250
2.459 2.432 2.383
2.901 2.622 2.347
4.183 2.642 1.453
4.326 2.388 1.071
4.871 2.358 0.835
4.762 2.419 0.956
5.212 2.264 0.878
5.659 2.243 0.463
1.934 3.071 2.457
2.013 2.977 2.474
2.638 3.172 2.052
2.797 2.954 1.919
4.294 2.751 1.429
4.263 3.026 1.044
4.252 2.718 1.216
4.497 3.018 0.690
4.703 2.668 0.673
4.979 2.537 0.439
5.248 2.539 0.347
2.144 3.533 2.259
2.144 3.545 2.315
2.645 3.005 1.985
2.649 3.245 1.905
4.295 3.087 1.027
4.052 3.304 1.026
4.422 2.959 0.843
4.868 3.137 0.599
4.879 2.935 0.533
5.337 2.854 0.545
5.484 2.736 0.530
1.729 3.739 2.348
2.107 3.827 2.067
2.546 3.597 1.852
2.876 3.543 1.694
4.070 3.350 0.905
3.895 3.471 0.714
4.362 3.375 0.604
4.514 3.297 0.537
4.740 3.562 0.323
5.180 3.400 0.361
5.421 3.278 0.212
2.000 4.010 1.901
2.357 3.804 1.978
2.447 3.896 1.692
2.724 3.552 1.477
4.144 3.317 0.935
4.261 3.833 0.877
4.562 3.962 0.862
4.673 3.797 0.403
4.862 3.562 0.597
5.072 3.629 0.170
1.784 4.177 2.206
2.283 4.286 1.614
2.571 4.357 1.952
4.008 4.027 0.779
4.580 5.009 -0.008
1.781 5.796 1.601
2.325 5.888 1.457
2.444 5.431 1.116
2.627 5.550 1.135
4.047 5.735 0.227
4.485 5.587 -0.168
1.864 6.151 1.299
2.146 5.781 1.072
2.591 5.941 1.217
2.752 6.065 0.709
4.059 5.464 0.158
4.223 5.978 0.057
2.196 6.047 0.983
2.550 5.991 1.156
2.874 6.202 0.894
4.180 5.790 0.244
4.355 0.885 1.865
4.269 0.816 1.545
4.837 1.005 1.696
4.867 0.748 1.418
5.267 0.613 1.359
2.087 1.127 2.876
1.960 1.174 2.832
2.652 1.148 2.677
3.893 1.009 1.686
4.261 2.364 1.188
4.681 2.141 1.107
4.740 2.304 0.701
5.201 1.904 0.701
5.366 2.087 0.857
1.935 2.763 2.487
2.345 2.599 2.279
2.532 2.691 2.189
2.661 2.629 2.331
4.029 2.662 1.856
4.394 2.177 1.361
4.957 2.442 1.590
4.927 2.500 1.232
5.343 1.990 1.098
2.285 3.043 2.885
2.349 2.859 2.720
2.751 2.770 2.731
4.311 2.581 1.563
4.115 2.757 1.617
4.758 2.549 1.454
4.937 2.838 1.296
4.927 2.638 1.246
5.326 2.728 0.932
5.791 2.484 0.665
1.874 2.986 2.930
2.435 3.116 2.425
2.686 2.935 2.252
3.092 3.051 2.375
4.348 2.801 1.408
4.402 3.225 1.391
4.504 3.023 1.242
4.587 2.765 1.061
5.199 2.756 1.083
5.529 2.963 0.751
5.410 3.008 0.715
2.186 3.586 2.378
2.200 3.556 2.643
2.463 3.545 2.453
3.106 3.334 2.074
4.231 3.203 1.655
4.168 3.435 1.546
4.590 3.089 1.371
5.044 3.432 0.993
5.268 3.179 0.856
5.475 3.108 0.546
5.458 3.057 0.405
2.140 3.887 2.528
2.454 3.746 2.329
2.473 3.543 2.361
2.782 3.374 2.011
4.177 3.101 1.088
4.267 3.450 1.351
4.343 3.418 1.188
4.691 3.303 0.944
4.902 3.643 0.522
5.207 3.462 0.794
5.795 3.547 0.366
2.287 4.260 2.300
2.222 4.228 2.344
2.586 3.965 1.876
2.824 4.052 1.970
4.443 3.758 1.393
4.288 3.954 1.134
4.768 3.677 0.939
5.316 3.740 0.796
5.450 3.519 0.749
5.507 3.571 0.117
1.877 4.130 2.339
2.098 4.260 2.275
2.815 4.403 1.879
2.839 4.410 1.953
4.016 5.246 0.751
4.666 5.245 0.612
4.940 5.389 0.011
4.878 4.984 0.016
2.290 5.861 1.637
2.418 5.755 1.518
2.611 5.627 1.308
4.421 5.532 0.654
4.051 5.764 0.492
4.458 5.373 0.376
4.742 5.475 0.156
2.038 5.957 1.602
2.174 5.821 1.485
2.405 5.874 1.380
2.895 5.758 1.121
4.472 5.688 0.524
4.098 6.189 0.174
4.740 6.069 0.297
4.915 5.997 -0.013
2.844 6.367 1.204
3.063 6.072 0.880
4.415 6.019 0.440
4.222 6.023 0.253
4.682 6.375 0.262
4.304 6.361 0.322
4.478 1.131 1.888
4.904 0.762 1.806
4.894 0.564 1.522
5.404 0.578 1.586
5.714 0.454 1.222
2.041 1.475 3.101
2.366 1.462 3.031
2.449 1.038 2.942
3.029 1.124 3.003
4.082 2.575 1.585
4.702 2.144 1.471
4.812 2.185 1.450
5.316 2.269 1.249
5.241 2.377 0.822
2.091 2.759 2.827
2.356 2.821 2.445
2.399 2.563 2.368
4.301 2.604 1.553
4.210 2.325 1.941
4.797 2.385 1.714
4.713 2.525 1.452
5.275 2.212 1.235
1.995 2.743 2.920
2.281 3.111 2.742
4.383 2.463 1.907
4.466 2.534 1.783
4.173 2.713 1.638
4.473 2.648 1.480
5.014 2.668 1.377
5.312 2.584 1.503
5.752 2.468 1.165
2.021 3.049 2.904
2.434 3.100 2.634
2.899 3.188 2.703
4.342 2.711 1.746
4.271 2.604 1.865
4.622 3.227 1.631
4.690 3.169 1.489
5.008 3.038 1.297
5.244 2.960 1.218
5.691 2.808 1.262
5.724 2.650 1.162
2.427 3.365 2.803
2.659 3.349 2.631
2.663 3.568 2.394
2.922 3.155 2.228
4.389 3.100 1.593
4.655 3.575 1.513
4.666 3.299 1.597
4.970 3.521 1.452
5.242 3.154 1.196
5.423 3.308 1.035
5.887 3.149 0.913
1.977 3.583 2.498
2.358 3.825 2.419
3.019 3.523 2.264
3.143 3.727 2.405
4.178 3.229 1.522
4.759 3.454 1.210
4.991 3.405 1.395
5.459 3.631 0.794
5.360 3.573 1.109
5.565 3.577 0.770
5.814 3.564 0.516
2.354 4.047 2.517
2.355 4.144 2.396
2.810 3.881 2.565
3.278 4.159 1.945
3.113 4.037 2.215
5.198 4.117 1.295
5.026 3.662 0.834
5.633 3.558 0.736
5.815 3.786 0.667
6.085 3.531 0.242
2.444 4.623 2.460
2.571 4.437 2.345
2.866 4.102 2.388
2.902 4.181 2.046
3.121 3.964 2.014
5.328 4.116 0.595
5.946 3.814 0.346
5.911 3.861 0.484
2.523 4.496 2.212
2.860 4.473 1.898
3.348 4.305 2.036
4.266 5.007 0.925
4.828 4.889 0.708
3.909 4.986 1.088
4.606 5.002 0.937
4.380 5.237 0.920
4.854 5.221 0.588
4.980 5.555 0.622
5.397 5.269 0.570
1.988 5.690 1.932
2.369 5.879 1.683
4.181 5.402 0.872
4.311 5.490 0.835
4.574 5.896 0.668
4.614 5.951 0.483
4.801 5.476 0.351
5.467 5.480 0.337
5.251 5.502 -0.023
1.995 6.207 1.605
2.733 6.325 1.683
2.616 5.957 1.633
4.360 5.964 0.771
4.233 5.971 0.648
4.284 5.975 0.349
4.739 6.188 0.217
5.144 5.711 0.452
5.203 6.118 -0.098
4.287 6.155 0.349
4.832 6.207 0.194
5.292 6.429 0.246
5.207 0.850 1.971
5.443 0.967 1.864
5.286 0.934 1.919
5.733 0.752 1.947
5.963 0.754 1.720
2.285 1.424 3.488
2.272 1.389 3.588
3.006 1.142 3.179
3.070 1.557 3.163
3.119 1.445 2.852
5.704 1.189 1.900
5.975 1.281 1.796
6.083 1.229 1.329
2.835 1.477 3.421
3.097 1.615 3.159
3.144 1.345 3.157
4.317 2.384 2.227
4.911 2.320 1.986
4.061 2.328 2.288
4.206 2.377 2.061
4.590 2.742 1.873
4.586 2.295 1.962
4.744 2.614 1.429
5.117 2.408 1.306
2.314 3.116 3.057
2.712 2.841 2.880
4.164 2.595 2.103
4.521 2.496 1.998
4.544 2.631 1.967
4.781 2.764 1.926
5.144 2.665 1.979
2.364 2.806 3.452
3.789 2.924 2.225
4.460 2.920 2.410
4.481 2.497 2.326
4.591 2.947 2.273
4.596 2.897 1.987
5.116 2.804 1.755
5.619 2.846 1.744
2.397 3.135 3.336
2.463 3.233 2.924
4.319 2.781 2.329
4.543 2.771 2.048
4.705 3.370 1.856
5.062 3.038 1.726
4.874 3.325 1.743
5.199 3.306 1.393
5.780 2.967 1.338
2.213 3.670 3.140
2.894 3.384 3.067
2.697 3.469 2.594
4.655 3.279 1.862
4.781 3.663 1.773
5.050 3.155 1.540
5.395 3.211 1.501
5.767 3.465 1.101
6.021 3.396 1.013
2.279 3.840 3.029
2.759 3.684 2.616
2.828 3.618 2.790
3.157 3.792 2.497
5.096 3.823 1.405
5.150 3.808 1.066
5.548 3.781 1.285
5.919 3.660 0.855
6.137 3.730 0.954
2.194 3.988 2.900
2.855 4.026 2.573
3.125 4.152 2.443
3.140 3.967 2.317
3.355 3.793 2.189
5.271 3.702 0.996
5.556 3.846 0.891
6.061 3.764 0.944
6.365 3.591 0.662
2.793 4.385 2.627
3.074 4.535 2.564
3.308 4.317 2.132
3.552 4.312 2.136
3.647 4.315 2.197
5.604 3.960 0.921
6.152 4.037 0.911
6.028 3.995 0.613
2.741 4.791 2.253
3.290 4.451 2.466
3.277 4.433 2.291
3.733 4.628 1.725
4.230 4.421 1.773
5.765 4.462 0.408
6.380 4.455 0.442
3.215 4.925 2.201
3.399 4.897 2.113
3.913 4.804 1.919
3.892 4.624 1.653
4.099 4.871 1.712
4.608 5.136 1.346
6.010 4.501 0.308
3.284 5.274 1.793
3.812 5.224 1.943
4.230 5.281 1.776
4.227 5.200 1.285
4.729 5.144 1.225
4.697 5.352 1.296
4.670 5.090 0.842
3.534 5.638 1.453
4.152 5.325 1.563
4.053 5.098 1.164
4.305 5.093 1.176
4.621 5.739 0.978
5.013 5.682 0.834
4.910 5.498 0.762
2.467 5.777 2.335
4.167 5.900 1.437
4.112 5.403 1.040
4.596 5.604 1.186
4.746 5.780 0.848
4.738 5.599 0.747
5.047 5.905 0.725
5.310 5.641 0.620
2.462 6.182 1.842
4.061 5.748 1.228
4.392 5.628 0.820
4.447 6.074 0.896
4.656 6.017 0.927
5.252 6.228 0.503
5.575 6.234 0.178
5.708 6.197 0.078
4.354 6.070 0.725
5.750 6.055 0.343
5.368 0.823 2.200
5.818 0.757 1.964
5.968 0.734 2.176
5.966 0.969 1.686
2.445 1.442 3.621
2.811 1.238 3.515
3.064 1.175 3.255
3.516 1.183 3.441
3.891 1.506 2.935
5.454 1.183 1.828
5.778 1.384 1.964
6.040 1.006 1.626
2.769 1.865 3.630
3.419 1.841 3.417
3.535 1.579 3.210
3.573 1.668 3.070
3.882 1.362 2.863
5.973 1.383 1.698
6.424 1.537 1.364
3.210 2.252 3.095
3.533 1.833 3.089
3.524 1.729 3.102
3.926 1.604 2.957
4.388 1.973 2.714
4.809 2.209 2.347
6.426 1.704 1.592
3.439 2.239 2.764
3.596 2.167 2.566
4.043 2.379 2.789
4.326 2.221 2.637
4.616 2.260 2.272
4.774 2.273 2.059
4.882 2.150 1.913
3.552 2.514 2.528
3.786 2.293 2.629
4.423 2.460 2.514
4.644 2.293 2.349
4.578 2.616 1.992
4.698 2.717 2.041
5.250 2.320 1.656
2.302 2.818 3.450
4.102 2.669 2.546
4.179 2.805 2.319
4.344 2.588 2.316
4.914 2.499 2.281
4.886 2.552 2.239
4.136 3.057 2.584
3.956 2.718 2.543
4.375 2.589 2.592
4.803 2.475 2.500
4.506 2.781 2.413
5.225 2.902 2.249
4.615 3.273 2.429
4.535 3.224 2.117
5.623 3.898 1.385
5.868 3.874 1.313
3.257 4.327 2.769
3.453 3.974 2.751
3.831 3.979 2.423
5.745 4.107 1.444
6.127 3.782 1.260
3.322 4.280 2.914
3.523 4.490 2.455
3.533 4.474 2.629
4.062 4.122 2.247
4.039 4.325 1.926
5.888 4.218 1.331
6.141 4.053 0.864
3.071 4.860 2.713
3.449 4.688 2.631
3.793 4.909 2.557
4.003 4.693 2.228
4.208 4.537 2.011
4.576 4.657 1.696
4.790 4.643 1.491
6.033 4.667 0.713
3.188 4.954 2.201
3.726 4.973 2.294
3.791 4.816 2.249
4.057 5.087 1.704
4.304 4.703 1.858
4.724 4.583 1.478
4.607 5.121 1.310
5.967 4.819 0.996
3.154 5.298 2.319
3.795 5.407 2.347
3.924 5.404 2.046
4.334 5.253 2.004
4.556 5.001 1.590
4.768 5.001 1.286
4.823 5.517 1.222
5.213 5.275 1.375
3.608 5.416 2.126
3.963 5.389 1.710
4.180 5.628 1.901
4.360 5.504 1.601
4.794 5.433 1.524
4.457 5.746 1.454
4.803 5.437 1.206
3.936 5.734 1.541
4.031 5.590 1.736
4.230 5.691 1.541
4.573 5.508 1.556
4.874 5.713 1.355
5.078 5.785 1.214
4.554 6.033 1.456
4.826 6.033 1.212
6.001 0.903 2.508
6.266 1.174 2.378
3.285 1.747 3.651
3.285 1.312 3.578
3.816 1.373 3.705
3.722 1.494 3.567
4.094 1.119 3.090
5.578 1.102 2.495
6.309 1.155 2.163
2.994 1.859 3.608
3.217 1.739 3.406
3.476 1.869 3.641
3.707 1.607 3.299
3.952 1.451 3.369
4.462 1.767 2.811
4.910 2.040 2.770
6.002 1.559 2.036
3.611 2.137 3.668
3.815 1.855 3.528
3.930 2.050 2.997
3.955 2.121 2.898
4.680 1.989 3.029
4.808 1.673 2.968
4.891 1.983 2.731
6.345 1.867 1.684
3.534 2.223 3.426
3.421 2.094 3.126
3.986 2.254 3.000
3.942 2.093 2.989
4.320 2.101 2.923
4.544 2.025 2.681
4.968 2.235 2.652
5.230 2.403 2.320
3.880 2.786 3.013
3.961 2.748 3.140
4.262 2.698 2.609
4.603 2.277 2.851
4.687 2.457 2.723
4.773 2.586 2.465
4.777 2.500 2.426
3.830 2.869 2.695
4.346 2.703 2.833
4.287 2.706 2.459
4.761 2.498 2.639
4.838 3.065 2.778
3.794 3.110 3.174
3.992 2.952 3.030
4.249 3.099 3.115
4.828 2.650 2.969
4.878 2.681 2.736
6.373 4.274 1.251
3.557 4.663 2.704
3.991 4.275 2.638
3.986 4.239 2.330
4.159 4.554 2.271
4.366 4.433 2.005
5.030 4.800 1.965
6.367 4.302 1.230
3.287 5.081 2.656
3.813 4.897 2.349
4.277 4.496 2.342
4.145 4.443 2.359
4.549 4.800 2.288
4.815 4.780 2.163
4.861 4.820 2.097
6.174 4.435 1.305
3.544 5.254 2.712
3.858 4.925 2.470
4.247 4.787 2.267
4.286 5.133 2.077
4.595 4.897 1.871
4.758 5.026 1.957
4.707 5.036 2.025
6.257 4.756 1.298
3.335 5.243 2.370
3.694 5.345 2.201
3.813 5.102 2.175
4.343 5.202 1.830
4.438 5.432 1.997
4.627 5.325 1.978
4.935 5.373 1.684
6.307 5.068 0.838
3.623 5.745 2.236
3.741 5.902 2.438
4.015 5.796 2.152
4.526 5.438 2.042
4.579 5.610 1.795
4.825 5.590 1.748
5.002 5.927 1.489
3.593 6.049 2.087
3.873 5.696 2.206
4.097 5.862 1.772
4.636 5.894 1.575
4.877 5.546 1.734
6.491 1.100 2.419
3.619 1.848 4.065
3.932 1.590 3.811
3.983 1.736 3.583
4.221 1.274 3.379
4.579 1.535 3.577
5.024 1.796 3.238
6.391 1.147 2.349
3.547 2.103 3.823
4.010 1.982 3.751
4.151 1.809 3.489
4.137 1.627 3.461
4.528 1.664 3.026
4.695 1.528 3.324
4.987 1.796 2.768
6.297 1.501 2.050
3.316 2.437 3.800
3.575 2.316 3.395
4.163 2.031 3.660
4.248 2.210 3.440
4.388 2.174 2.962
5.028 1.854 2.835
4.679 2.195 2.986
6.251 1.871 1.927
3.761 2.714 3.509
3.562 2.668 3.464
3.883 2.215 3.155
4.431 2.239 3.383
4.464 2.037 2.771
5.075 2.115 2.862
4.988 2.427 2.844
6.134 2.086 1.933
3.493 2.642 3.618
3.861 2.528 3.388
3.830 2.904 3.451
4.172 2.638 3.102
4.525 2.383 2.819
5.118 2.371 2.809
4.705 2.695 2.893
3.975 3.131 3.181
4.053 2.997 3.065
4.382 2.808 2.771
4.780 2.836 2.618
4.727 3.030 2.544
3.634 3.017 3.601
3.701 2.936 3.544
4.125 2.830 3.485
4.463 2.951 3.120
4.687 3.005 2.994
4.966 4.592 2.310
4.080 4.349 2.853
4.353 4.498 2.926
4.408 4.368 2.551
4.979 4.195 2.417
5.171 4.550 2.556
5.216 4.778 2.500
3.730 5.046 3.167
3.861 4.913 2.618
4.328 4.677 2.457
4.588 4.535 2.335
4.508 4.650 2.363
5.065 4.640 2.234
5.201 5.135 2.315
3.620 5.032 2.680
3.794 5.039 2.612
4.253 5.202 2.565
4.707 4.944 2.657
4.897 5.138 2.446
5.213 5.219 2.260
5.139 5.157 1.859
3.635 5.310 2.516
4.022 5.552 2.669
4.084 5.184 2.719
4.340 5.149 2.456
4.736 5.482 1.970
4.842 5.196 1.912
5.109 5.722 2.173
3.858 5.650 2.784
4.069 5.878 2.440
4.274 5.585 2.267
4.416 5.667 1.987
4.730 5.377 2.281
4.848 5.567 1.816
3.836 6.151 2.365
4.010 6.029 2.274
4.237 5.981 2.295
4.413 6.147 2.198
4.780 6.055 1.994
5.152 1.494 3.597
3.770 1.579 4.041
4.228 1.849 3.728
4.364 1.422 3.525
4.758 1.492 3.657
5.091 1.579 3.234
5.231 1.531 3.246
3.478 2.061 4.158
3.788 1.772 3.694
4.429 1.687 3.873
4.454 1.708 3.489
4.674 1.985 3.420
4.839 1.890 3.425
4.919 2.127 3.360
3.604 2.344 3.932
4.007 2.465 3.947
4.086 2.387 3.872
4.603 2.272 3.503
4.613 2.231 3.300
5.058 2.263 3.423
4.815 2.272 3.198
3.573 2.566 3.692
4.191 2.526 3.506
4.123 2.458 3.413
4.429 2.506 3.617
5.003 2.371 3.023
5.018 2.156 3.295
5.093 2.552 2.975
3.817 2.918 3.496
4.133 2.583 3.454
4.457 2.896 3.337
4.610 2.851 3.102
4.798 2.636 3.266
5.028 2.604 2.823
3.442 3.047 3.666
3.820 3.036 3.523
4.389 3.160 3.163
4.529 3.174 3.301
4.967 2.882 3.241
6.048 2.753 2.544
3.738 3.500 4.205
3.711 3.519 3.838
4.196 3.137 3.696
4.211 3.125 3.517
4.678 3.142 3.323
6.492 3.007 2.714
3.716 3.519 3.968
3.585 3.397 3.961
4.074 3.660 3.633
5.051 4.406 2.936
5.239 4.365 2.525
5.116 4.225 3.075
5.413 4.429 2.523
5.055 4.455 2.538
5.247 4.204 2.606
4.508 4.555 2.974
4.821 4.777 2.735
5.060 4.639 2.694
5.418 4.702 2.423
5.401 4.787 2.613
5.282 4.860 2.367
4.014 4.989 2.886
4.494 4.990 3.174
4.583 4.733 2.579
4.706 4.727 2.887
4.989 4.709 2.392
4.932 5.089 2.494
3.918 5.520 3.175
4.214 5.390 2.873
4.321 5.028 2.949
4.464 5.141 2.706
4.961 4.894 2.596
4.926 5.126 2.606
4.970 5.151 2.487
3.768 5.803 2.905
4.201 5.647 3.032
4.550 5.598 2.602
4.486 5.301 2.430
4.801 5.215 2.590
4.939 5.345 2.346
6.413 5.616 1.688
3.631 6.130 2.875
4.003 6.122 3.117
3.929 5.839 2.787
4.394 5.863 2.593
4.639 5.729 2.348
5.113 5.656 2.533
6.119 5.537 1.307
3.578 6.163 2.985
3.782 6.072 3.016
3.904 6.217 2.851
4.289 5.894 2.686
4.471 6.017 2.118
6.027 6.242 1.448
5.134 1.293 3.701
5.293 1.353 3.476
4.329 1.638 4.037
4.606 1.595 4.126
5.170 1.589 3.859
5.066 1.495 3.854
5.216 1.710 3.539
5.577 2.002 3.661
3.977 2.126 4.301
4.222 2.106 4.211
4.848 2.057 3.943
5.164 2.026 3.745
5.127 1.742 3.516
5.335 1.874 3.429
3.864 2.418 4.305
3.973 2.249 4.011
4.149 2.206 3.792
4.794 2.270 3.738
4.903 2.053 3.616
5.054 2.058 3.725
4.939 2.314 3.287
4.034 2.870 3.999
4.222 2.637 4.062
4.556 2.586 3.800
4.747 2.623 3.788
4.860 2.490 3.295
5.008 2.614 3.603
6.084 2.257 2.524
3.390 3.213 3.921
4.046 2.954 3.764
4.143 2.715 3.784
4.363 3.039 3.465
4.857 2.955 3.396
5.125 2.812 3.303
6.117 2.875 2.721
3.341 3.089 3.911
3.637 3.244 3.707
3.975 3.193 3.973
4.206 3.194 3.547
4.608 3.087 3.226
-0.141 0.005 -0.220
-0.055 -0.011 0.682
0.437 -0.069 1.254
0.365 -0.140 1.572
0.622 0.256 1.226
0.778 -0.077 1.502
0.847 0.897 3.086
0.880 0.995 2.808
1.222 0.724 2.602
1.383 0.035 2.841
0.948 0.797 2.859
1.190 0.532 2.728
0.855 0.722 3.305
1.190 0.670 3.187
1.120 1.062 2.933
-0.084 0.260 4.284
0.004 0.155 4.357
1.496 0.173 3.226
1.164 0.229 3.262
1.534 0.374 3.531
1.205 0.850 3.524
1.520 0.422 3.067
0.775 1.005 3.475
1.428 1.131 3.198
1.564 0.866 3.163
-0.180 0.020 4.813
0.018 0.559 4.594
1.483 0.220 3.654
1.831 0.361 3.855
0.095 0.847 4.524
1.356 0.696 3.654
1.716 0.354 3.447
0.029 1.189 4.445
1.384 0.976 3.352
1.828 0.569 3.214
-0.226 1.540 4.308
1.478 0.866 3.605
1.501 1.265 3.285
1.660 0.263 4.109
0.205 0.810 4.956
1.752 0.339 4.130
1.721 0.100 4.082
0.381 0.736 4.871
1.435 0.844 4.185
1.986 0.585 3.931
-0.031 1.183 4.447
1.346 1.136 4.047
2.026 0.686 3.665
0.259 1.480 4.347
1.712 1.040 3.661
2.009 1.321 3.805
1.670 -0.082 4.489
1.791 0.085 4.675
2.188 0.089 4.077
0.084 0.839 5.330
1.364 0.518 4.681
1.670 0.598 4.547
1.994 0.134 4.232
0.267 0.896 5.118
0.505 0.848 4.852
1.797 0.482 4.056
2.048 0.405 4.084
-0.162 1.490 4.756
0.298 1.482 5.021
1.462 1.120 4.201
1.776 0.840 3.770
0.107 1.762 4.906
0.112 1.731 4.967
0.473 1.719 4.431
1.884 1.252 3.733
0.894 0.201 5.291
1.083 -0.082 4.909
1.353 0.111 5.162
1.731 0.310 4.768
1.896 0.361 4.491
2.129 0.262 4.468
1.466 0.613 4.840
1.932 0.408 4.691
2.278 0.459 4.538
0.255 0.921 5.551
1.810 0.972 4.594
2.015 0.535 4.567
0.219 1.447 5.324
0.264 1.444 5.186
2.167 1.188 4.250
0.013 1.558 4.995
0.632 1.612 4.824
0.847 1.749 4.769
0.789 0.038 5.656
1.233 0.020 5.592
1.247 -0.069 5.377
1.884 0.169 4.985
1.825 0.005 5.227
1.130 0.360 5.282
1.576 0.189 5.409
1.559 0.363 5.006
2.218 0.482 5.003
2.483 0.271 4.913
1.906 0.631 4.867
2.045 0.774 4.895
2.406 0.608 4.816
0.380 1.779 5.568
0.809 1.992 5.376
0.722 1.537 5.303
0.785 0.012 5.987
0.954 0.189 5.799
0.734 0.537 6.244
0.847 0.077 5.650
1.294 0.052 5.823
1.595 0.254 5.614
2.126 0.228 5.208
2.392 0.082 5.246
0.885 0.582 5.672
1.271 0.605 5.674
1.426 0.753 5.718
1.648 0.262 5.486
2.345 0.176 5.033
1.400 0.161 6.298
1.463 0.060 6.175
1.825 -0.183 6.139
1.339 0.229 6.195
1.304 0.590 5.823
1.855 0.115 5.744
2.167 0.379 5.807
2.548 0.069 5.478
0.760 0.930 6.410
1.459 0.925 6.001
1.286 0.833 5.695
1.547 0.695 5.943
2.043 0.581 5.760
1.916 0.153 5.987
2.323 -0.129 6.244
1.821 0.340 6.086
1.832 0.203 6.171
2.443 0.488 6.110
1.667 0.831 6.067
1.869 0.720 5.890
1.352 1.296 6.057
2.081 1.916 5.516
2.618 1.836 5.204
2.956 1.567 4.881
0.477 0.150 0.589
0.477 0.361 1.112
0.810 0.025 0.576
1.126 0.197 0.672
0.881 0.042 1.068
0.921 0.168 0.931
1.287 0.126 0.750
1.673 0.179 0.850
1.909 -0.236 0.625
0.957 -0.079 1.715
1.033 0.210 1.178
1.234 0.308 1.015
1.559 0.200 0.927
1.804 0.131 0.889
1.895 0.317 0.812
1.491 0.350 1.596
1.975 0.431 1.389
2.166 0.315 1.211
3.620 0.479 1.392
3.870 0.424 0.942
3.144 0.538 1.178
3.736 0.194 1.210
1.438 0.295 3.147
1.793 0.246 2.905
2.169 0.269 2.510
2.522 0.267 2.596
3.788 -0.067 1.554
4.211 0.224 1.650
1.521 0.728 2.760
2.072 0.304 2.856
2.183 0.523 2.677
3.732 -0.119 1.520
3.970 0.476 1.519
3.932 0.354 1.477
4.377 0.335 1.165
4.571 0.422 1.325
1.685 0.856 2.475
2.027 0.671 2.438
3.567 0.348 1.738
3.798 0.155 1.389
1.795 0.121 3.424
1.544 0.494 3.302
2.059 0.050 2.906
2.143 0.324 2.836
2.504 0.209 2.475
4.046 0.155 2.032
4.198 -0.056 1.510
4.381 -0.004 1.778
4.884 -0.007 1.256
1.643 0.385 3.146
2.047 0.453 2.756
2.408 0.391 2.553
2.775 0.642 2.486
4.022 0.022 2.053
3.728 0.283 1.827
4.085 0.453 1.832
4.593 0.229 1.508
4.861 0.516 1.343
5.167 0.414 1.385
1.721 0.757 3.020
1.933 0.840 2.909
2.447 0.625 2.642
3.667 0.757 1.695
3.966 0.582 1.762
1.708 0.234 3.447
2.045 -0.197 3.581
2.248 -0.114 3.410
1.969 0.595 3.279
1.991 0.298 3.151
2.606 0.498 2.936
2.915 0.207 2.774
4.052 0.432 2.228
4.363 0.361 2.180
4.779 0.381 1.919
4.801 0.266 1.524
5.228 0.112 1.596
5.622 0.227 1.487
2.110 0.844 3.369
2.380 0.621 2.998
2.528 0.703 2.897
2.502 0.461 2.840
3.905 0.153 2.296
4.169 0.347 1.841
4.639 0.295 2.022
4.911 0.543 1.983
4.862 0.302 1.598
5.331 0.378 1.472
5.409 0.441 1.168
1.874 0.950 3.054
2.449 0.716 3.043
2.222 0.850 3.131
2.804 0.864 2.676
3.936 0.687 1.834
2.058 0.413 3.634
2.353 0.140 3.643
2.801 -0.061 3.632
2.910 0.210 3.490
4.494 -0.040 2.383
4.716 0.188 2.575
1.965 0.330 3.493
2.508 0.602 3.684
2.459 0.358 3.372
3.155 0.296 3.266
4.445 0.008 2.606
4.278 0.527 2.164
4.335 0.562 2.316
4.927 0.116 2.179
5.251 0.166 1.742
5.529 -0.062 2.003
5.640 0.013 1.759
1.865 0.550 3.637
2.479 0.654 3.206
2.702 0.703 3.017
2.788 0.591 2.879
4.344 0.549 2.567
4.069 0.901 2.332
4.613 0.597 2.068
4.899 0.372 2.048
4.907 0.684 1.616
5.396 0.513 1.891
5.816 0.425 1.341
1.936 0.952 3.282
2.549 1.245 3.066
2.539 0.920 3.306
2.801 1.024 2.833
4.165 0.887 2.207
2.348 -0.169 4.026
2.416 0.206 3.962
2.408 0.062 3.697
2.686 0.094 3.983
4.324 -0.039 2.561
4.669 0.286 2.516
5.065 0.047 2.598
5.325 -0.022 2.386
2.011 0.593 3.895
2.533 0.572 3.680
2.885 0.240 3.576
3.051 0.197 3.436
4.406 -0.002 2.956
4.445 0.218 2.669
4.507 0.354 2.580
4.807 0.205 2.602
5.385 0.531 2.159
5.560 0.087 2.154
5.543 0.413 1.776
2.078 0.903 3.597
2.615 0.826 3.456
2.595 0.632 3.417
3.293 0.565 3.149
4.576 0.279 2.638
4.549 0.522 2.403
5.128 0.638 2.426
5.096 0.742 1.982
5.587 0.802 1.999
5.620 0.702 1.562
6.135 0.360 1.790
2.461 1.223 3.660
2.529 1.029 3.758
2.575 0.889 3.329
3.202 1.047 3.152
3.140 0.873 3.020
2.530 0.024 4.186
2.235 0.276 4.078
2.432 0.186 4.168
4.134 0.140 3.433
4.670 0.273 3.214
4.915 0.243 2.655
5.346 0.143 2.651
5.619 0.188 2.414
5.668 0.056 2.380
2.299 0.854 4.208
2.794 0.679 4.219
3.058 0.352 3.655
4.443 0.136 3.028
4.828 0.418 3.001
4.984 0.440 2.675
5.157 0.329 2.259
5.764 0.515 2.305
5.734 0.069 2.413
2.543 1.107 4.073
2.702 1.044 4.039
3.088 0.841 3.660
3.183 0.904 3.690
5.135 0.767 2.423
5.427 0.885 2.183
5.584 0.405 1.979
5.715 0.405 1.958
5.983 0.433 1.937
2.218 1.217 3.966
2.782 1.437 3.856
3.139 1.224 3.432
3.301 1.131 3.710
3.696 0.816 3.596
4.695 -0.022 3.193
5.045 -0.102 3.175
4.269 0.115 3.353
4.547 -0.033 3.156
5.671 0.516 2.504
5.851 0.439 2.385
3.028 1.455 3.699
3.351 1.218 3.562
3.456 0.959 3.464
3.662 0.108 4.482
4.196 -0.136 4.079
3.724 0.263 4.783
3.741 0.424 4.472
4.285 0.045 4.637
4.441 0.003 4.525
4.823 -0.167 4.071
3.785 -0.068 5.220
3.869 -0.180 5.097
3.338 0.262 5.309
3.787 0.140 4.741
4.162 0.153 5.078
4.480 0.165 4.702
4.734 -0.020 4.675
3.565 0.612 5.119
3.917 0.572 4.721
3.956 0.604 4.796
5.062 1.398 3.877
5.290 1.331 3.772
4.954 1.062 4.183
5.269 1.126 3.969
2.693 1.253 5.575
2.465 1.505 5.481
2.978 1.418 5.515
2.457 2.012 5.832
2.765 1.790 5.287
2.974 1.763 5.164
3.198 0.973 5.750
2.807 1.579 6.174
3.073 1.320 5.817
2.954 1.423 5.859
2.954 1.820 5.776
2.552 2.106 5.709
2.805 1.768 6.030
3.011 1.834 5.636
3.082 0.884 6.216
2.703 1.579 6.384
3.174 1.257 5.943
3.126 1.522 6.074
3.370 1.925 5.844
3.131 2.134 6.021
2.987 2.101 6.108
3.540 1.871 6.474
3.236 2.210 5.923
2.753 1.424 5.587
2.834 1.342 5.554
2.993 1.606 5.598
2.389 1.856 5.786
2.853 1.845 5.563
2.805 1.953 5.541
3.863 0.163 5.629
3.995 0.058 5.592
4.036 0.011 4.998
4.694 -0.053 5.059
6.384 0.024 4.097
3.692 0.476 5.727
3.582 0.252 5.203
3.879 0.603 5.103
4.378 0.451 4.891
4.711 0.490 4.787
5.712 0.323 4.141
6.022 0.428 3.991
3.209 1.055 5.739
3.520 0.741 5.546
3.937 0.707 5.036
4.125 0.482 4.939
4.238 0.423 5.208
5.739 0.767 4.000
6.121 0.823 3.995
6.267 0.428 3.898
3.115 1.366 5.581
3.662 0.891 5.535
3.722 1.296 5.019
4.128 1.170 4.948
5.319 1.218 4.331
5.755 1.135 4.209
5.821 1.185 3.650
6.114 0.963 3.680
3.378 1.373 5.176
3.498 1.601 5.113
3.603 1.218 4.857
5.159 1.036 4.188
5.399 1.455 3.863
5.527 1.512 3.807
5.977 1.405 4.032
5.971 1.382 3.833
3.386 1.561 5.124
3.192 1.805 5.148
4.998 1.229 4.137
5.279 1.346 3.897
4.048 0.526 6.003
4.009 0.385 5.847
4.530 0.033 5.252
5.943 0.296 4.293
3.254 0.844 5.727
3.472 0.606 5.602
4.115 0.427 5.595
4.345 0.602 5.660
4.608 0.643 5.136
5.870 0.661 4.515
5.999 0.389 4.606
3.270 0.980 5.861
3.354 0.747 5.899
4.032 1.039 5.451
4.012 0.789 5.371
4.522 0.714 5.394
5.726 0.664 4.312
5.582 0.863 4.590
5.997 0.985 4.318
3.494 1.241 5.784
3.736 1.055 5.354
3.667 1.343 5.271
4.214 0.984 5.488
5.460 0.817 4.792
5.686 1.151 4.383
6.009 0.995 4.211
5.986 1.137 4.367
3.196 1.599 5.526
3.452 1.638 5.573
3.706 1.579 5.336
4.081 1.187 5.302
5.472 1.244 4.244
5.460 1.426 4.185
5.837 1.274 4.139
6.178 1.225 4.089
3.532 1.982 5.675
3.721 1.803 5.531
4.056 1.498 5.304
5.003 1.505 4.403
5.544 1.524 4.357
6.093 0.249 4.655
6.456 0.015 4.897
3.659 1.001 6.270
3.860 0.705 5.968
4.255 0.735 5.665
4.348 0.643 5.726
5.558 0.459 4.920
6.030 0.553 4.951
6.127 0.710 4.383
3.410 0.986 5.896
3.855 1.138 5.923
3.962 0.956 5.907
4.139 0.969 5.401
5.429 0.678 5.106
5.878 0.803 4.774
5.994 0.772 4.622
6.284 0.609 4.413
3.253 1.609 6.015
3.587 1.086 5.671
3.823 1.011 5.476
4.330 1.073 5.603
5.495 0.950 4.627
5.428 1.416 4.631
6.181 1.299 4.654
6.292 1.310 4.442
3.310 1.426 5.800
3.941 1.644 5.917
3.942 1.330 5.456
4.544 1.666 5.313
5.652 1.217 4.870
5.761 1.593 4.672
6.116 1.587 4.687
6.204 1.176 4.401
3.341 1.889 5.876
3.600 1.965 5.578
3.921 1.918 5.363
4.374 1.805 5.172
5.692 1.441 4.651
5.965 0.494 5.461
6.311 0.457 5.313
4.324 0.829 6.130
5.891 0.305 5.249
5.889 0.628 5.257
6.240 0.602 5.227
3.672 1.103 6.429
4.165 1.202 6.133
4.420 1.058 5.746
5.784 0.799 5.415
5.663 1.020 5.300
5.893 1.166 4.671
3.845 1.557 6.298
3.934 1.418 6.139
4.074 1.516 6.065
4.598 1.439 5.753
5.673 1.281 5.116
5.658 1.094 5.124
6.138 1.495 5.032
3.730 1.535 5.988
3.805 1.880 5.996
3.937 1.663 6.015
4.667 1.439 5.550
5.935 1.479 4.893
5.843 1.701 4.659
6.166 1.654 4.719
3.413 2.100 5.779
4.042 1.900 5.991
4.043 1.863 5.507
4.608 1.897 5.724
5.835 1.530 5.015
5.994 0.069 5.408
6.366 0.064 5.606
5.725 0.216 5.597
5.909 0.496 5.484
6.038 0.694 5.747
6.300 0.419 5.438
5.770 0.777 5.590
5.968 0.534 5.650
5.904 0.797 5.398
6.147 0.633 5.137
5.622 0.898 5.540
5.821 1.082 5.618
5.930 1.139 5.534
6.405 1.298 5.352
4.419 1.393 6.255
4.376 1.287 6.150
5.822 1.080 5.136
5.870 1.265 5.310
6.382 1.264 5.128
3.909 1.884 5.984
4.540 1.594 5.834
4.399 1.730 6.029
5.986 1.310 5.209
6.262 1.470 4.929
3.790 2.353 6.057
3.817 2.054 6.288
4.170 1.997 6.223
4.782 2.197 5.870
4.954 1.801 5.506
6.230 0.072 5.973
5.622 -0.023 6.010
5.987 -0.009 5.940
5.889 0.251 5.839
5.720 0.363 6.184
6.024 0.171 6.227
6.223 0.327 5.949
6.296 0.551 5.808
5.547 0.547 6.271
6.002 0.843 5.823
5.948 0.848 5.570
6.311 0.884 5.550
5.913 1.218 5.631
6.033 0.762 5.671
5.912 1.339 5.681
6.045 1.255 5.693
4.774 1.634 6.418
4.236 2.302 6.040
4.706 1.956 6.260
4.881 2.024 6.152
5.876 0.779 6.391
5.820 1.260 6.197
4.995 2.317 6.424
3.787 0.196 5.386
3.998 -0.080 5.501
4.384 -0.127 5.157
4.299 -0.159 5.224
6.014 -0.223 3.970
3.528 0.675 5.317
3.503 0.356 5.137
4.008 0.595 5.225
4.444 0.544 4.900
4.706 0.155 4.944
6.101 0.296 4.272
6.041 0.453 4.121
2.957 1.093 5.788
3.664 1.046 5.521
3.923 0.789 5.384
4.053 0.480 4.999
4.487 0.552 4.894
5.730 0.868 3.958
5.798 0.667 4.095
6.076 0.616 3.865
3.324 1.240 5.455
3.218 0.978 5.466
3.789 1.168 5.110
3.782 1.051 4.878
5.361 0.983 4.205
5.533 1.021 3.947
5.768 1.026 4.118
6.326 0.716 3.721
3.012 1.503 5.426
3.353 1.356 5.113
3.462 1.374 5.105
5.487 0.917 4.190
5.467 1.455 4.159
5.775 1.259 3.686
5.702 1.311 3.939
6.251 1.252 3.408
3.165 1.648 5.025
3.347 1.720 5.062
4.984 1.201 4.166
5.141 1.366 3.965
-0.110 1.613 -0.094
0.144 1.971 -0.022
0.189 0.349 0.701
-0.142 1.731 -0.065
0.077 2.048 0.626
0.452 2.258 0.211
0.393 2.606 -0.023
0.069 3.010 -0.142
0.199 0.532 1.072
0.056 1.880 0.430
0.034 2.063 0.850
0.498 2.009 0.710
0.181 2.348 0.798
0.282 2.467 0.541
-0.053 2.913 0.315
0.446 2.757 0.528
0.062 2.824 0.522
0.492 3.139 0.273
0.198 3.129 0.021
0.156 1.903 0.925
0.420 1.541 0.802
0.114 1.978 0.770
0.299 1.967 0.836
-0.020 2.328 1.229
0.402 2.139 1.233
0.334 2.319 0.924
0.009 2.307 1.022
0.157 2.337 0.885
0.682 2.462 0.969
0.324 2.804 0.898
0.718 2.965 0.750
0.506 2.967 0.664
0.242 4.310 0.449
0.355 4.368 0.108
0.341 4.781 0.216
-0.208 1.563 1.304
0.266 1.748 1.447
0.439 1.605 1.086
-0.107 1.731 1.430
0.495 1.891 1.013
0.803 1.611 0.801
0.213 2.344 1.180
0.057 2.067 0.842
0.695 2.023 0.717
0.106 2.232 1.425
0.480 2.398 1.172
0.917 2.227 1.374
0.212 2.394 1.397
0.443 2.428 1.264
0.590 2.732 1.128
0.014 3.904 0.708
0.334 4.364 0.617
0.391 4.196 0.674
0.399 4.704 0.791
0.221 4.491 0.628
-0.074 4.856 0.655
0.214 5.082 0.455
0.681 4.928 0.361
0.037 5.300 0.270
0.415 5.344 0.248
0.523 5.263 0.121
0.158 5.621 0.221
0.662 5.579 0.252
-0.030 1.126 2.074
0.355 1.668 1.790
0.661 1.334 1.654
0.041 1.920 1.630
0.562 1.686 1.365
0.274 1.935 1.328
0.198 2.054 1.251
0.910 2.134 1.177
0.163 2.592 1.552
0.590 2.303 1.280
0.508 2.128 0.925
-0.087 2.452 1.977
0.107 2.423 1.639
0.525 2.384 1.512
0.087 3.924 1.082
0.224 3.735 1.122
-0.088 4.355 1.358
0.429 4.379 0.876
0.615 4.049 0.756
-0.125 4.782 1.010
0.161 4.281 1.146
0.808 4.581 0.945
-0.185 5.081 0.905
0.299 4.616 1.018
0.646 4.739 0.481
-0.016 5.248 0.829
0.348 4.976 0.761
0.771 4.984 0.576
0.173 5.672 0.636
0.523 5.293 0.482
0.337 5.087 0.319
-0.104 1.235 2.216
0.323 0.913 2.234
0.138 1.144 2.293
0.150 1.284 2.167
0.403 1.167 2.083
-0.095 1.492 2.019
0.443 1.522 2.259
0.657 1.509 2.018
0.158 2.000 1.979
0.354 1.944 1.854
0.582 1.710 1.713
-0.025 2.120 2.185
0.195 2.278 1.981
0.574 1.908 1.748
0.066 2.341 1.685
0.309 2.598 1.708
0.629 2.319 1.660
0.291 2.373 1.995
0.496 2.377 1.757
0.214 4.233 1.334
0.488 3.791 1.218
0.772 3.986 1.505
0.306 4.316 1.259
0.676 4.115 1.270
0.606 4.329 1.228
0.171 4.507 1.120
0.598 4.393 0.952
0.722 4.392 1.087
0.039 4.747 1.230
0.288 4.746 0.937
0.798 5.052 0.764
-0.052 5.419 1.077
0.323 5.187 1.183
0.728 5.053 0.764
0.004 5.775 0.932
0.414 5.449 1.032
0.335 1.010 2.621
0.701 0.850 2.721
0.950 0.852 2.177
0.364 1.238 2.311
0.364 1.277 2.327
0.969 1.096 2.300
0.078 1.570 2.244
0.317 1.610 2.155
0.706 1.409 2.241
0.302 2.026 2.338
0.338 1.756 1.937
0.968 1.954 1.892
0.414 2.402 2.314
0.608 2.313 1.955
0.868 2.141 1.833
0.006 2.775 1.922
0.509 2.406 1.729
-0.035 2.701 2.326
0.358 2.654 2.590
0.753 3.669 1.995
0.769 3.675 1.515
1.167 3.517 1.311
-0.036 4.020 1.867
0.551 4.016 1.561
0.486 3.872 1.660
1.038 3.802 1.601
1.273 4.094 1.225
0.236 4.561 1.956
0.509 4.394 1.747
0.481 4.249 1.784
1.121 4.557 1.544
1.406 4.346 1.037
-0.133 4.780 1.670
0.419 4.647 1.837
0.662 4.585 1.223
0.874 4.726 1.341
0.253 4.869 1.870
0.204 5.227 1.290
0.482 4.758 1.509
1.122 4.721 1.327
-0.039 5.541 1.465
0.430 5.299 1.542
0.827 5.184 1.382
0.236 5.719 1.507
0.251 5.451 1.086
0.024 1.429 3.009
0.514 1.340 2.844
0.496 1.038 2.933
0.664 0.859 2.702
0.938 1.261 2.423
0.039 1.536 3.126
0.133 1.607 2.947
0.817 1.413 2.676
0.844 1.427 2.701
1.366 1.417 2.185
-0.029 1.737 3.016
0.392 1.786 2.887
0.745 1.739 2.661
0.882 1.456 2.559
-0.123 2.272 2.493
0.343 2.228 2.523
0.784 1.903 2.419
1.128 1.793 2.370
0.259 2.545 2.699
0.462 2.300 2.330
0.390 2.170 2.546
-0.041 2.684 2.571
0.581 2.533 2.183
0.460 2.641 2.739
1.173 2.979 2.000
0.860 3.781 2.179
1.370 3.616 2.079
0.775 3.751 2.260
1.167 3.915 2.072
1.339 3.857 1.735
0.594 4.365 2.066
0.946 4.216 1.829
1.123 4.187 1.994
1.159 4.162 1.855
0.219 4.435 2.175
0.753 4.676 2.040
0.778 4.254 1.645
0.994 4.476 1.613
1.492 4.211 1.713
0.013 4.723 2.175
0.624 4.905 1.702
0.805 4.724 1.548
1.238 4.529 1.536
0.248 5.387 1.931
0.392 5.062 1.889
0.955 5.314 1.780
0.262 5.396 1.784
0.565 5.567 1.600
0.298 5.680 1.669
1.383 6.171 1.002
0.358 1.191 3.000
1.025 1.023 3.184
1.273 1.320 2.976
1.337 1.342 2.852
0.186 1.470 3.331
0.684 1.485 3.263
0.979 1.445 3.084
1.012 1.393 2.815
1.217 1.351 2.832
0.138 2.146 3.075
0.502 1.804 2.778
0.603 1.804 2.829
1.302 1.830 2.601
0.121 2.148 2.939
0.686 2.140 3.027
0.828 1.987 2.618
0.080 2.529 2.704
0.681 2.607 2.555
0.117 3.016 2.893
0.313 3.190 3.374
0.221 3.437 3.269
1.376 2.822 2.388
0.984 3.278 2.557
1.670 3.166 2.187
1.151 3.745 2.276
1.289 3.645 2.074
0.917 4.004 2.078
1.005 4.178 1.989
1.634 3.867 1.782
1.095 4.380 2.033
1.189 3.989 2.204
1.664 4.351 2.025
0.886 4.695 2.091
1.123 4.524 1.862
1.705 4.476 1.636
0.289 5.866 2.334
0.253 5.763 2.219
0.005 6.298 2.162
1.462 6.140 1.293
1.317 6.248 1.130
1.097 1.269 3.269
1.169 1.419 2.984
1.321 1.113 3.132
0.911 1.446 3.171
1.058 1.627 3.095
1.737 1.292 2.659
0.298 2.825 3.501
0.059 2.889 3.384
0.126 3.232 3.563
1.866 2.872 2.614
-0.134 3.185 3.327
1.608 2.972 2.858
1.544 3.287 2.573
1.390 3.413 2.528
1.432 3.468 2.493
1.482 3.916 2.264
1.572 3.531 2.152
1.505 3.943 2.458
1.394 4.087 2.430
1.471 4.220 2.352
1.479 4.122 2.057
1.716 5.587 1.434
1.295 6.279 1.736
1.705 6.109 1.242
1.482 1.420 3.315
1.724 1.340 3.372
-0.244 3.300 3.756
1.647 2.913 2.921
1.706 3.071 2.867
1.913 2.979 2.751
-0.054 3.723 3.849
1.359 3.215 2.776
1.755 3.260 2.866
0.187 3.739 3.490
1.412 3.360 3.004
1.987 3.348 2.695
-0.025 4.338 3.435
1.597 3.946 2.763
1.835 3.618 2.412
0.238 4.515 3.172
1.570 4.323 2.432
1.791 4.213 2.410
-0.040 4.510 3.157
1.545 4.499 2.246
1.692 5.923 1.917
1.900 5.985 1.967
1.325 6.298 1.708
1.864 6.103 1.808
0.360 1.800 4.145
1.930 1.276 3.695
1.751 3.104 3.084
1.811 3.036 2.977
1.573 2.999 3.361
1.689 2.843 3.515
1.710 3.207 3.022
-0.190 3.913 3.998
1.165 3.295 3.423
1.432 3.452 3.110
1.811 3.308 3.198
-0.070 4.160 4.072
0.205 3.861 3.722
1.645 3.887 2.973
2.190 3.666 2.739
-0.169 4.457 3.776
0.404 3.982 3.986
1.655 4.064 2.974
2.163 4.018 2.681
0.152 4.714 3.540
0.493 4.571 3.686
0.523 4.505 3.494
1.833 4.199 2.693
-0.112 4.793 3.443
0.546 4.699 3.510
0.393 4.803 3.248
0.121 4.993 3.570
0.546 4.972 3.400
0.326 4.804 3.356
1.405 5.956 2.477
1.843 5.467 2.512
2.034 5.763 2.426
1.302 6.201 2.265
1.649 5.895 2.251
1.843 5.744 1.908
1.701 6.133 1.862
-0.008 1.723 4.692
0.473 2.049 4.598
0.655 1.988 4.603
-0.157 2.388 4.593
0.387 1.888 4.679
0.829 2.290 4.573
1.341 2.749 3.512
1.695 2.804 3.370
2.088 2.855 3.439
1.363 2.921 3.305
1.559 3.021 3.498
1.843 2.900 3.173
1.316 3.434 3.708
1.351 3.157 3.851
1.742 3.292 3.808
1.973 3.163 3.532
1.321 3.268 3.823
1.933 3.513 3.247
1.964 3.348 3.108
0.088 4.061 4.333
1.678 3.701 3.213
2.274 3.484 3.207
0.071 4.344 4.084
0.360 4.461 4.044
1.879 4.182 3.100
0.182 4.431 3.957
0.276 4.704 3.785
0.505 4.742 3.678
0.229 4.897 3.910
0.631 5.114 3.598
0.541 5.074 3.464
1.231 4.768 3.696
0.279 5.268 3.950
0.360 5.099 3.702
0.520 5.188 3.288
0.865 4.999 3.609
1.310 4.874 3.302
0.240 5.703 3.327
0.602 5.660 3.456
1.230 5.535 3.306
1.355 5.567 3.120
1.351 5.174 3.184
0.873 5.892 3.363
1.182 5.912 3.046
1.165 5.393 2.901
1.637 5.410 2.997
1.750 5.601 2.643
1.080 6.200 3.183
1.202 5.676 2.748
1.513 5.613 2.611
1.901 5.840 2.400
2.243 5.909 2.635
1.045 6.344 2.690
1.761 6.186 2.835
1.687 6.047 2.334
1.901 6.269 2.595
0.423 1.912 5.259
0.273 1.736 4.769
0.822 1.688 4.598
0.937 1.860 4.482
0.261 2.438 5.054
0.534 2.116 4.952
0.646 2.190 4.710
0.918 2.266 4.401
1.334 1.864 4.339
0.408 2.722 4.540
0.505 2.376 4.437
0.920 2.535 4.525
1.186 2.471 4.131
1.439 2.427 4.231
0.778 2.605 4.263
0.898 2.794 4.500
1.503 2.415 4.053
1.371 2.833 3.957
1.787 2.474 3.886
0.827 2.898 4.394
1.305 3.114 3.908
1.470 2.708 4.059
1.993 2.609 3.490
1.973 2.950 3.423
1.040 3.299 3.660
1.708 3.191 3.732
1.993 3.109 3.438
2.045 2.914 3.490
1.037 3.236 4.297
1.329 3.529 3.998
1.680 3.173 4.137
2.093 3.304 3.925
2.371 3.155 3.889
1.573 3.345 3.741
2.229 3.757 3.955
2.157 3.685 3.790
0.441 4.547 4.053
0.544 4.638 4.281
1.117 4.749 4.108
0.423 5.233 4.425
0.516 5.076 3.789
0.720 4.767 3.658
1.139 4.964 3.566
1.584 4.659 3.519
0.180 5.460 3.843
0.697 5.396 4.068
1.005 5.002 3.540
0.999 5.344 3.796
1.441 5.183 3.640
1.958 5.056 3.292
0.576 5.764 3.879
1.032 5.456 3.716
1.193 5.447 3.664
1.406 5.598 3.555
1.671 5.316 3.401
1.729 5.408 2.999
0.767 5.911 3.702
0.829 5.778 3.497
1.400 5.659 3.387
1.511 5.475 3.453
1.634 5.700 3.143
1.982 5.501 2.853
0.688 6.314 3.501
1.294 5.892 3.276
1.496 6.197 3.050
1.920 6.167 2.831
1.808 5.954 2.955
2.261 5.739 2.715
1.640 6.380 2.904
1.835 5.949 2.876
2.076 6.339 2.768
0.478 2.242 5.347
0.654 1.830 5.333
0.794 1.832 4.801
1.324 1.701 4.966
1.577 2.078 4.600
0.115 2.316 4.958
0.747 2.152 4.934
0.796 2.269 5.033
0.934 2.065 4.925
1.523 2.247 4.748
1.533 2.316 4.345
0.684 2.579 4.851
0.801 2.349 4.968
1.102 2.749 4.399
1.251 2.705 4.490
1.778 2.262 4.084
1.832 2.340 4.366
0.871 3.084 4.589
0.711 2.990 4.515
1.024 2.923 4.401
1.421 2.822 4.156
1.469 2.478 4.133
2.122 2.812 4.287
0.713 3.118 4.466
1.322 3.358 4.608
1.619 3.301 4.134
1.677 2.865 4.154
1.918 2.978 3.953
2.466 3.028 4.021
1.220 3.506 4.348
1.389 3.451 3.975
1.947 3.379 4.191
2.230 3.411 3.674
2.115 3.145 3.918
0.989 3.751 4.585
1.358 3.622 4.636
1.493 3.451 4.505
2.068 3.508 4.087
2.343 3.337 4.268
1.010 5.219 4.365
0.898 5.271 4.226
1.278 5.014 4.176
1.809 5.093 3.859
1.704 4.751 3.844
0.902 5.479 4.348
1.123 5.227 3.830
1.195 5.513 3.722
1.650 5.113 3.794
2.036 5.019 3.746
1.986 5.202 3.531
0.538 5.419 4.005
1.149 5.777 4.144
1.093 5.675 3.885
1.480 5.605 3.577
1.728 5.353 3.651
2.068 5.216 3.517
0.725 6.163 4.185
0.993 5.682 4.012
1.382 5.851 3.853
1.684 5.982 3.317
2.049 5.509 3.369
2.044 5.709 3.459
0.749 6.099 3.829
0.936 6.302 3.661
1.361 6.080 3.398
1.347 6.225 3.324
2.035 5.964 3.184
2.164 5.742 3.328
1.035 2.001 5.609
1.077 1.866 5.336
1.253 1.801 5.007
1.755 2.131 4.958
1.658 2.098 4.885
0.977 2.310 5.082
1.054 2.248 5.210
1.158 2.457 4.911
1.831 2.382 4.647
1.736 1.998 4.838
2.347 1.941 4.592
0.618 2.861 4.945
1.132 2.787 4.869
1.330 2.739 4.809
1.601 2.751 4.677
1.934 2.561 4.350
2.310 2.590 4.343
0.566 2.770 4.867
0.871 2.798 5.020
1.536 3.042 5.012
1.389 2.890 4.690
2.098 2.588 4.364
2.251 2.916 4.428
0.775 3.189 4.940
1.245 3.449 4.551
1.541 3.000 4.746
1.772 2.990 4.670
1.766 3.262 4.456
2.373 3.136 4.286
1.103 3.393 4.927
1.546 3.321 4.703
1.720 3.228 4.337
1.960 3.277 4.046
2.059 3.428 3.961
0.983 3.646 4.959
1.085 3.870 5.053
1.716 3.604 4.982
1.853 3.780 4.795
1.936 3.344 4.736
1.230 5.138 4.210
1.485 5.163 4.277
1.978 5.156 4.025
2.250 4.983 3.923
2.434 4.794 3.653
1.010 5.681 4.388
1.417 5.457 4.341
1.490 5.286 4.175
1.627 5.064 3.970
2.031 5.189 3.736
2.145 5.035 3.647
0.738 6.012 4.320
1.160 5.749 4.010
1.231 5.567 3.885
1.648 5.627 3.879
2.060 5.588 3.841
2.511 5.460 3.604
0.806 5.855 4.135
1.414 6.073 4.077
1.308 5.891 4.023
1.806 6.069 4.019
2.081 5.975 3.779
2.045 5.837 3.438
1.437 6.316 3.957
1.755 6.389 3.579
2.011 6.078 3.723
2.475 6.262 3.414
1.189 2.055 5.639
1.252 2.059 5.213
1.863 2.106 5.364
1.853 1.861 4.968
2.356 1.829 5.062
0.923 2.667 5.486
1.356 2.471 5.294
1.575 2.201 5.070
1.632 2.171 4.998
1.934 2.440 4.810
2.397 2.190 4.988
0.979 2.950 5.611
1.019 3.014 5.244
1.526 2.929 5.320
1.967 2.722 5.200
1.888 2.413 4.694
2.424 2.744 4.852
1.025 3.231 5.461
1.410 2.816 5.383
1.700 3.192 5.164
1.636 3.128 4.912
2.236 3.039 4.683
2.265 2.927 4.723
1.091 3.280 5.197
1.111 3.546 5.294
1.610 3.298 5.160
2.004 3.393 4.700
2.119 3.278 4.749
2.518 3.145 4.423
0.909 3.581 5.054
0.981 3.759 4.881
1.238 3.464 4.612
1.946 3.561 4.475
1.880 3.438 4.277
0.835 3.967 5.511
1.315 3.635 5.241
1.311 3.619 5.115
1.411 3.694 5.281
1.772 3.538 5.137
0.868 4.344 5.175
1.005 4.063 5.141
1.225 4.125 5.015
2.162 4.685 4.521
2.267 4.946 4.171
2.533 4.647 4.162
1.842 5.378 4.496
1.856 4.976 4.319
2.291 5.057 4.276
2.411 4.791 4.170
2.885 5.067 3.826
1.391 5.654 4.608
1.769 5.484 4.361
2.001 5.245 4.307
2.094 5.310 4.136
2.340 5.392 4.140
2.467 5.375 3.587
1.319 5.636 4.445
1.256 5.629 4.232
1.791 5.865 4.262
1.796 5.599 4.142
1.926 5.897 4.194
2.446 5.682 3.859
1.143 6.218 4.425
1.242 6.187 4.577
1.786 5.819 4.078
1.657 6.152 4.185
2.345 5.970 3.854
2.238 5.822 3.814
1.951 6.393 3.719
1.400 2.086 5.477
1.880 2.375 5.692
2.393 2.134 5.162
2.220 1.879 5.314
2.550 1.851 4.965
1.549 2.507 5.558
1.626 2.687 5.705
1.802 2.586 5.164
2.230 2.247 4.987
2.525 2.467 5.127
2.531 2.291 4.901
1.228 3.020 5.597
1.120 2.622 5.371
1.604 3.000 5.431
2.120 2.906 5.073
1.987 2.478 4.901
2.231 2.896 5.107
1.320 3.416 5.656
1.129 3.110 5.573
1.557 2.865 5.479
1.903 3.259 5.308
2.249 3.008 4.782
2.473 2.801 4.955
0.883 3.458 5.562
1.217 3.683 5.500
1.466 3.335 5.196
1.569 3.235 5.344
2.150 3.275 4.863
2.409 3.298 4.884
0.630 3.800 5.555
1.120 3.763 5.326
1.125 3.819 5.128
1.525 3.743 4.888
1.980 3.608 4.739
0.945 4.105 5.886
0.902 3.752 5.990
1.433 3.799 5.849
1.567 3.870 5.537
1.681 3.664 5.503
0.419 4.419 5.811
0.520 4.143 5.962
0.950 4.369 5.570
1.303 4.296 5.652
1.451 4.010 5.359
0.197 4.716 6.118
0.622 4.479 6.010
0.752 4.731 5.517
0.794 4.700 5.337
1.337 4.231 5.147
2.977 4.357 4.344
0.086 4.850 6.048
0.209 5.122 5.871
0.475 5.052 5.581
0.806 5.075 5.207
2.659 4.328 4.444
2.834 4.309 4.187
0.113 5.151 5.926
0.288 4.991 5.598
0.797 4.956 5.245
2.573 5.050 4.746
2.564 4.591 4.388
2.907 4.869 4.057
0.244 5.656 5.662
0.312 5.664 5.326
1.842 5.242 4.403
2.219 5.150 4.388
2.511 5.061 4.151
3.086 4.848 3.963
0.001 5.783 5.544
1.623 5.440 4.542
2.268 5.535 4.477
2.135 5.244 4.607
2.545 5.540 4.305
2.626 5.238 4.206
1.750 5.783 4.898
1.902 5.927 4.782
1.916 5.662 4.386
2.474 5.671 4.129
2.352 5.603 4.137
1.356 6.226 4.677
1.406 6.144 4.746
1.928 6.125 4.544
1.889 5.876 4.300
2.279 6.267 4.277
2.288 2.484 5.833
2.447 2.211 5.645
2.692 2.223 5.528
2.685 2.229 5.425
1.940 2.849 5.861
2.290 2.629 5.829
2.133 2.637 5.391
2.686 2.591 5.205
2.736 2.624 5.283
1.590 2.838 5.775
1.750 2.881 5.511
2.018 2.766 5.405
2.510 2.885 5.408
2.643 2.935 5.156
1.029 3.272 5.745
1.768 3.170 5.906
1.773 3.433 5.775
2.174 3.213 5.243
2.440 3.197 5.452
0.835 3.894 5.652
1.004 3.485 5.773
1.594 3.624 5.322
1.553 3.373 5.638
1.900 3.691 5.281
0.868 4.135 5.690
1.162 3.958 5.964
1.159 3.764 5.393
1.298 3.640 5.238
1.707 3.641 5.317
0.631 4.231 6.030
1.251 4.213 6.032
1.205 3.878 5.624
1.638 4.062 5.589
0.341 4.262 6.204
0.776 4.275 6.271
1.109 4.369 5.712
1.566 4.159 5.657
1.790 4.059 5.824
2.904 3.989 4.883
0.135 4.997 6.282
0.516 4.944 6.134
1.056 4.538 5.988
1.145 4.828 5.542
1.598 4.393 5.571
2.974 4.198 5.159
3.034 4.420 4.567
0.166 5.352 6.486
0.146 5.173 6.348
0.454 5.093 5.876
0.814 4.733 5.981
0.954 5.155 5.728
1.234 4.639 5.297
2.875 4.642 4.642
2.838 4.743 4.527
0.204 5.057 6.368
0.265 5.559 5.965
0.361 5.312 6.041
0.636 5.420 5.628
0.793 5.271 5.818
0.965 5.287 5.332
2.450 4.706 4.769
2.517 4.797 4.916
2.839 4.853 4.404
0.172 5.390 5.996
-0.138 5.832 6.067
0.087 5.907 5.841
0.501 5.464 5.700
0.784 5.468 5.427
2.347 5.053 4.781
2.690 5.045 4.432
3.071 5.281 4.534
0.233 5.767 6.032
-0.005 6.070 5.900
0.394 6.159 5.855
2.526 5.553 4.865
2.934 5.394 4.600
3.120 5.251 4.108
0.268 6.234 6.031
2.486 2.181 5.739
2.546 2.207 5.782
3.054 2.162 5.423
2.267 2.357 5.558
2.981 2.316 5.337
2.845 2.506 5.240
1.093 3.533 5.902
1.162 3.524 6.205
1.781 3.740 5.650
0.860 4.133 6.070
1.214 4.004 5.883
1.395 3.819 5.853
1.866 3.753 5.953
1.209 4.372 6.029
1.413 4.198 5.914
3.142 3.793 5.306
1.464 4.231 6.101
1.378 4.559 6.061
2.816 4.343 5.424
3.300 4.085 4.990
1.131 4.638 5.997
1.285 4.792 5.820
1.415 4.759 5.722
3.102 4.508 4.927
2.961 4.537 5.167
0.657 5.350 6.234
1.060 4.981 6.096
1.401 4.778 5.990
1.664 4.765 5.776
2.909 4.547 4.933
3.104 4.411 5.062
0.512 5.687 6.242
0.968 5.457 6.099
0.754 5.497 5.839
1.226 5.460 5.787
1.383 5.102 5.933
2.888 5.021 5.027
3.304 4.740 4.745
0.626 5.749 6.120
0.904 5.834 6.012
1.091 5.901 5.615
1.481 5.358 5.886
2.843 5.544 4.712
3.261 5.178 4.721
2.886 2.364 6.056
3.072 2.207 5.984
1.377 4.145 6.253
1.794 4.096 6.309
3.256 3.727 5.108
3.269 4.142 5.616
3.456 4.075 5.472
1.927 4.650 6.455
3.058 4.328 5.708
3.387 4.077 5.382
1.500 4.720 6.139
2.826 4.400 5.511
3.108 4.394 5.355
1.611 4.979 6.254
1.648 4.919 6.101
3.233 4.965 5.555
3.318 4.702 5.335
1.204 5.254 6.012
1.647 5.436 6.190
1.639 5.323 6.106
3.068 4.999 5.148
3.259 4.951 4.893
1.004 5.639 6.417
1.271 5.787 5.945
1.309 5.702 5.845
1.608 5.635 5.864
3.392 5.374 4.725
3.485 2.536 6.078
3.162 3.720 5.861
3.573 3.619 5.615
3.060 3.986 6.066
3.303 4.024 5.730
3.449 3.754 5.848
2.924 4.529 5.721
3.345 4.105 5.700
3.534 4.292 5.405
3.201 4.471 5.910
3.575 4.493 5.350
3.013 4.678 5.662
3.539 4.662 5.606
1.884 5.277 6.270
2.168 5.182 5.819
3.378 5.350 5.101
1.607 5.973 6.057
1.936 5.968 5.899
2.112 5.879 5.753
1.681 5.966 5.960
1.867 6.055 5.926
1.936 5.880 5.656
2.895 3.990 6.269
3.189 3.551 6.230
3.345 3.744 5.860
3.026 3.813 6.071
3.298 3.947 6.130
3.737 3.983 5.614
3.508 4.332 6.141
3.560 4.114 6.145
3.020 4.624 6.030
3.265 4.442 6.071
3.897 4.363 5.812
3.303 4.607 5.902
3.516 4.597 5.787
3.437 5.078 5.697
2.462 5.553 6.095
2.453 5.658 5.875
2.187 6.150 6.186
2.267 5.922 5.868
2.584 6.251 5.778
2.714 6.192 5.928
2.998 6.154 5.767
3.070 6.156 5.403
3.301 3.715 6.228
3.886 3.724 6.066
3.407 3.961 6.160
3.594 3.822 5.797
3.640 4.157 6.059
3.811 4.533 6.082
2.738 5.940 6.335
2.773 6.094 6.040
2.739 6.107 6.261
3.199 5.850 5.711
3.520 6.190 5.589
3.615 3.929 6.251
3.555 6.003 6.275
3.496 6.341 5.996
3.927 6.180 6.066
3.848 5.929 6.482
0.882 3.925 5.893
0.719 4.167 5.804
1.047 3.655 5.452
1.414 3.924 5.669
1.951 3.936 5.181
0.354 4.575 6.101
0.669 4.160 5.897
0.980 4.401 5.407
1.021 4.137 5.285
1.327 4.369 5.183
0.238 4.788 6.206
0.214 4.657 5.676
0.491 4.683 5.690
1.090 4.748 5.656
1.452 4.350 5.202
3.122 4.328 4.613
0.203 4.943 5.898
0.594 4.795 5.632
0.471 4.706 5.808
0.896 4.768 5.469
2.580 4.522 4.696
2.716 4.286 4.424
0.373 5.367 5.616
0.639 5.429 5.790
0.687 5.064 5.572
2.133 4.652 4.658
2.408 4.992 4.417
2.915 4.890 4.351
0.370 5.568 5.660
0.542 5.743 5.732
1.979 5.259 4.872
2.124 5.192 4.645
2.813 4.928 4.212
2.899 5.088 3.999
0.366 6.023 5.544
2.002 5.575 4.488
1.968 5.663 4.271
2.264 5.662 4.376
2.623 5.533 4.250
3.052 5.513 4.265
1.516 5.912 4.479
1.608 6.006 4.672
2.118 5.930 4.521
2.119 5.700 4.184
2.503 5.803 4.308
1.311 6.024 4.914
1.559 6.071 4.771
1.966 5.941 4.662
1.807 6.178 4.214
2.487 5.799 4.055
2.127 2.124 5.869
2.532 2.094 5.381
2.671 1.912 5.392
3.115 2.135 5.116
1.675 2.391 5.906
2.261 2.514 5.536
2.589 2.416 5.570
2.802 2.561 5.287
2.684 2.521 5.349
1.744 3.185 5.741
1.760 2.743 5.764
1.949 3.058 5.306
2.201 2.571 5.327
2.841 2.534 5.216
1.015 3.473 5.585
1.512 3.461 5.908
1.844 3.320 5.572
2.262 3.030 5.324
2.560 2.923 5.427
1.118 3.660 5.897
1.232 3.415 5.904
1.427 3.563 5.443
1.775 3.691 5.608
2.268 3.493 5.028
0.815 4.008 5.976
0.845 4.078 5.676
1.479 4.011 5.683
1.535 3.862 5.277
1.990 3.629 5.422
6.215 2.871 2.934
3.500 3.360 4.369
3.827 3.179 4.236
4.177 3.279 4.074
4.121 3.367 4.207
4.280 3.305 3.683
6.000 3.525 3.097
5.921 3.302 2.929
3.114 3.893 4.663
3.452 3.903 4.274
3.734 3.793 4.398
4.115 3.886 4.067
4.097 3.852 3.783
5.703 3.704 3.271
5.869 3.554 2.859
5.953 3.509 2.571
3.022 4.193 4.563
3.237 4.246 4.422
3.805 4.122 4.034
3.893 3.730 4.068
5.135 3.923 2.879
5.477 3.756 3.135
6.016 3.691 2.690
6.393 3.885 2.712
2.965 4.355 4.186
3.519 4.288 4.112
3.500 4.109 4.160
5.187 4.166 3.249
5.542 4.347 3.154
5.360 4.219 2.714
5.851 4.093 2.625
6.354 4.325 2.451
3.150 4.572 4.108
3.205 4.708 4.170
4.983 4.446 3.188
5.563 4.427 3.221
5.412 4.516 3.077
5.725 4.445 2.543
5.774 4.285 2.473
3.068 5.081 3.821
5.014 4.471 3.355
5.028 4.453 3.051
5.127 4.577 3.070
5.273 4.640 2.576
5.753 4.821 2.502
4.569 5.013 3.240
4.925 4.845 2.943
5.237 5.140 2.805
5.163 4.639 2.902
5.248 5.153 2.803
3.987 5.535 3.103
4.415 5.389 3.329
4.747 5.066 3.167
4.974 5.298 2.558
5.373 5.191 2.695
4.171 5.620 3.215
4.033 5.714 3.175
4.327 5.786 3.169
4.910 5.329 2.639
5.286 5.504 2.692
3.721 5.846 3.350
3.829 6.258 3.144
4.344 5.735 3.255
4.443 6.143 3.057
4.740 5.823 2.706
6.047 5.786 1.749
4.287 6.332 2.973
4.513 6.289 2.838
5.657 6.230 1.936
6.076 6.275 2.005
5.320 1.868 3.761
5.776 1.802 4.008
5.742 1.623 3.806
2.995 1.821 5.327
5.009 1.694 4.129
4.892 1.444 4.021
5.573 1.480 4.087
5.239 1.833 3.925
5.726 1.664 3.504
4.458 1.990 4.351
4.981 2.095 4.066
5.134 1.933 3.854
5.109 1.823 3.747
5.146 2.183 3.977
4.103 2.468 4.554
4.680 2.363 4.095
4.999 2.271 3.996
5.045 2.418 3.955
5.543 2.432 3.541
3.984 2.685 4.197
4.315 2.696 4.242
4.383 2.655 4.296
4.850 2.703 3.861
4.866 2.776 3.952
3.694 3.046 4.224
4.146 2.925 4.065
4.072 2.778 4.364
4.516 2.954 3.852
4.925 2.683 3.607
6.275 3.084 2.839
3.594 3.710 4.614
3.936 3.296 4.366
4.197 3.451 4.401
4.221 3.308 3.838
4.550 3.081 3.822
5.827 3.181 3.427
3.206 3.535 4.742
3.666 3.430 4.755
3.890 3.329 4.392
3.918 3.380 4.470
4.627 3.250 4.139
5.887 3.517 3.261
6.255 3.312 3.449
3.160 3.895 4.586
3.578 3.938 4.461
3.960 3.584 4.508
4.176 3.956 4.059
4.179 3.799 3.920
5.393 3.716 3.340
5.907 3.807 3.502
6.081 3.533 3.135
3.388 4.366 4.595
3.480 4.020 4.645
3.936 4.167 4.167
4.183 4.072 4.163
5.561 3.920 3.210
5.487 3.975 3.479
5.941 4.220 3.205
