5.193 0.336 5.625
5.402 0.996 5.381
5.283 0.857 5.419
5.100 0.656 5.580
4.987 0.542 5.728
5.399 1.398 5.214
5.278 1.172 5.345
5.128 1.009 5.536
4.966 0.837 5.668
5.309 1.663 5.218
5.146 1.518 5.327
5.001 1.357 5.452
4.941 1.227 5.608
5.351 2.057 5.159
5.115 1.927 5.197
5.036 1.763 5.367
4.841 1.570 5.540
5.421 2.600 4.922
5.242 2.417 5.006
5.182 2.249 5.200
5.023 2.118 5.251
4.842 1.938 5.408
5.345 2.906 4.849
5.270 2.708 4.994
5.121 2.599 5.128
4.917 2.466 5.178
4.798 2.239 5.343
4.674 2.066 5.418
5.367 3.279 4.716
5.256 3.056 4.889
5.098 2.970 5.037
4.954 2.758 5.148
4.809 2.593 5.233
4.651 2.373 5.354
5.269 3.584 4.725
5.235 3.446 4.800
4.992 3.247 4.967
4.925 3.100 5.112
4.801 2.928 5.208
4.617 2.732 5.351
5.213 0.093 5.449
5.052 0.241 5.451
5.456 2.711 4.546
5.343 2.524 4.742
5.194 2.345 4.814
5.034 2.124 4.932
4.877 2.007 5.050
5.365 2.984 4.490
5.307 2.884 4.588
5.141 2.647 4.728
4.967 2.549 4.928
4.789 2.325 4.982
4.733 2.219 5.085
5.391 3.425 4.405
5.240 3.204 4.515
5.135 2.991 4.624
4.957 2.861 4.832
4.792 2.688 4.935
4.668 2.537 5.025
4.556 2.417 5.177
5.345 3.677 4.297
5.217 3.512 4.466
5.024 3.362 4.571
4.904 3.209 4.774
4.806 3.024 4.839
4.675 2.933 5.011
4.527 2.682 5.126
4.324 2.507 5.224
6.135 4.708 3.559
5.345 3.756 4.390
6.292 0.353 4.402
6.182 0.660 4.351
6.250 1.004 4.211
6.041 0.901 4.366
6.200 1.344 4.217
6.059 1.203 4.339
6.145 1.726 4.123
5.431 2.797 4.269
5.267 2.613 4.326
5.194 2.423 4.479
5.027 2.258 4.569
5.372 3.191 4.158
5.303 2.953 4.295
5.175 2.767 4.469
4.970 2.585 4.561
4.877 2.484 4.656
4.766 2.254 4.808
5.339 3.479 4.060
5.280 3.295 4.197
5.058 3.123 4.329
4.917 2.971 4.494
4.880 2.863 4.557
4.671 2.639 4.757
4.597 2.505 4.797
4.358 2.294 4.984
6.216 4.490 3.365
5.383 3.522 4.056
5.186 3.672 4.096
5.034 3.492 4.235
4.960 3.363 4.446
4.826 3.151 4.519
4.639 2.988 4.628
4.541 2.806 4.749
4.326 2.646 4.878
4.197 2.439 4.995
3.522 1.655 5.614
6.167 4.851 3.270
6.027 4.630 3.377
5.172 3.653 4.132
6.237 0.429 4.117
6.158 0.330 4.218
6.254 0.830 3.954
6.127 0.594 4.134
5.937 0.518 4.253
6.222 1.173 3.941
6.092 0.966 4.016
5.894 0.774 4.217
6.196 1.520 3.877
6.081 1.312 3.953
5.864 1.105 4.067
5.767 1.044 4.183
6.069 1.677 3.931
5.932 1.532 4.027
5.486 2.912 3.896
5.267 2.761 3.995
5.232 2.549 4.110
4.998 2.426 4.242
5.383 3.288 3.774
5.335 3.082 3.962
5.195 2.938 4.078
5.054 2.791 4.245
4.907 2.525 4.278
4.717 2.364 4.489
4.562 2.284 4.526
5.479 3.273 3.804
5.283 3.460 3.864
5.125 3.238 4.028
4.945 3.078 4.107
4.879 2.905 4.237
4.703 2.774 4.427
4.527 2.573 4.492
4.431 2.475 4.589
3.608 1.378 5.355
6.273 4.575 2.976
6.039 4.463 3.122
5.266 3.397 3.855
5.095 3.641 3.950
4.918 3.397 4.003
4.791 3.287 4.194
4.724 3.079 4.272
4.532 2.957 4.430
4.406 2.790 4.612
4.259 2.646 4.731
4.129 2.385 4.756
3.402 1.607 5.482
6.187 4.992 2.962
6.059 4.775 3.059
5.900 4.625 3.155
5.095 3.596 3.934
6.131 0.407 3.830
6.301 0.888 3.609
6.113 0.708 3.770
6.024 0.575 3.924
5.847 0.378 3.989
6.263 1.219 3.626
6.065 1.126 3.732
5.903 0.947 3.840
5.817 0.800 3.933
5.668 0.634 4.061
6.209 1.604 3.480
6.104 1.467 3.641
5.948 1.304 3.714
5.738 1.060 3.861
5.658 0.979 4.035
5.545 0.729 4.147
5.720 1.460 3.754
5.655 1.231 3.887
5.534 1.113 4.079
5.434 2.991 3.558
5.319 2.866 3.706
5.196 2.729 3.798
5.030 2.494 3.975
3.841 1.025 5.100
5.434 3.052 3.535
5.340 3.209 3.605
5.194 3.067 3.784
5.074 2.821 3.829
4.856 2.726 3.977
4.715 2.569 4.159
4.649 2.311 4.295
3.598 1.162 5.139
5.449 3.364 3.463
5.276 3.215 3.618
5.190 3.327 3.673
4.972 3.200 3.819
4.841 3.078 3.904
4.749 2.825 4.003
4.527 2.708 4.220
4.413 2.493 4.280
4.260 2.340 4.372
3.420 1.339 5.200
6.229 4.698 2.615
6.064 4.528 2.766
5.308 3.529 3.508
5.168 3.373 3.638
5.005 3.572 3.691
4.810 3.372 3.826
4.647 3.261 3.931
4.575 3.005 4.112
4.407 2.852 4.269
4.299 2.717 4.302
4.108 2.563 4.485
3.351 1.579 5.283
6.260 5.106 2.566
6.074 4.934 2.693
5.940 4.690 2.816
5.794 4.602 2.966
4.918 3.497 3.758
5.463 0.123 6.169
5.211 0.298 6.217
5.104 0.455 6.251
5.335 0.059 5.919
5.113 0.175 5.943
4.942 0.031 6.101
4.919 0.419 6.102
5.020 0.177 5.836
4.863 0.016 5.882
4.785 0.327 5.801
3.703 1.249 6.259
3.605 1.600 6.187
4.844 0.064 5.539
3.584 0.459 6.238
3.677 1.013 6.038
3.641 0.832 6.085
3.500 0.712 6.298
3.730 1.403 5.931
3.551 1.204 6.024
3.460 1.085 6.156
3.499 1.516 6.017
3.424 1.383 6.131
3.207 1.238 6.238
3.659 0.594 5.880
3.536 0.398 6.027
3.340 0.293 6.105
3.246 0.142 6.197
3.800 1.133 5.694
3.591 0.974 5.772
3.499 0.833 5.977
3.283 0.669 6.056
3.215 0.514 6.155
3.604 1.311 5.691
3.442 1.109 5.833
3.270 0.973 5.986
3.154 0.838 6.132
3.034 0.673 6.231
3.357 1.456 5.753
3.283 1.271 5.954
3.167 1.207 6.059
3.018 1.020 6.103
2.835 0.856 6.257
3.668 0.734 5.522
3.510 0.558 5.674
3.366 0.416 5.783
3.245 0.177 5.887
3.618 1.037 5.458
3.480 0.936 5.600
3.381 0.714 5.748
3.237 0.628 5.830
3.018 0.454 5.941
2.960 0.254 6.101
3.457 1.284 5.549
3.267 1.070 5.694
3.201 0.866 5.735
3.065 0.750 5.847
2.916 0.636 6.021
2.772 0.374 6.154
2.644 0.232 6.262
3.270 1.420 5.575
3.145 1.287 5.723
2.976 1.122 5.779
2.871 0.924 5.961
2.737 0.777 6.048
2.552 0.565 6.200
3.625 0.870 5.212
3.543 0.664 5.288
3.364 0.488 5.397
3.238 0.387 5.540
3.487 1.072 5.306
3.352 0.880 5.362
3.255 0.645 5.496
3.034 0.495 5.584
2.892 0.321 5.799
3.299 1.167 5.291
3.178 1.054 5.445
3.025 0.811 5.524
2.940 0.711 5.705
2.756 0.492 5.779
2.618 0.398 5.935
3.120 1.420 5.377
3.001 1.161 5.501
2.854 1.035 5.656
2.697 0.895 5.764
2.623 0.716 5.874
2.505 0.535 5.985
2.378 0.427 6.163
5.959 0.045 1.687
5.938 0.448 1.588
5.709 0.314 1.786
5.556 0.143 1.870
5.912 0.761 1.524
5.753 0.609 1.624
5.573 0.493 1.756
5.417 0.258 1.909
5.298 0.161 1.991
5.786 1.139 1.508
5.672 0.927 1.586
5.535 0.806 1.698
5.379 0.608 1.786
5.281 0.462 1.910
5.176 0.346 2.106
5.839 1.083 1.444
5.695 1.266 1.493
5.540 1.153 1.684
5.437 1.030 1.712
5.253 0.798 1.886
5.150 0.617 1.999
5.768 1.439 1.408
5.685 1.304 1.550
5.533 1.446 1.581
5.361 1.285 1.721
5.204 1.118 1.763
5.096 0.970 1.911
5.727 1.880 1.260
5.575 1.709 1.400
5.445 1.440 1.584
5.359 1.655 1.577
5.148 1.521 1.723
5.090 1.332 1.853
4.018 0.172 2.756
5.787 2.210 1.290
5.629 1.988 1.367
5.454 1.849 1.511
5.269 1.702 1.598
5.204 1.829 1.661
5.004 1.632 1.802
3.994 0.562 2.719
3.926 0.350 2.847
3.746 0.175 2.906
3.620 0.027 3.083
5.675 2.499 1.143
5.594 2.336 1.325
5.400 2.210 1.451
5.348 1.968 1.524
5.116 1.879 1.639
5.030 2.054 1.704
4.015 0.908 2.608
3.878 0.725 2.715
3.737 0.527 2.874
3.557 0.357 3.000
3.453 0.140 3.077
3.359 -0.006 3.258
5.649 2.899 1.079
5.518 2.655 1.199
5.434 2.553 1.288
5.253 2.365 1.502
5.134 2.235 1.608
4.972 2.021 1.773
3.956 1.162 2.560
3.887 1.010 2.623
3.694 0.860 2.831
3.594 0.666 2.885
3.375 0.499 3.060
3.247 0.376 3.160
5.632 3.160 0.999
5.558 3.062 1.163
5.410 2.920 1.234
5.255 2.758 1.434
5.120 2.511 1.506
5.001 2.375 1.667
3.901 1.530 2.480
3.789 1.409 2.572
3.671 1.221 2.695
3.576 0.995 2.782
3.398 0.879 2.901
3.272 0.672 3.106
5.659 3.535 0.988
5.503 3.413 1.087
5.375 3.260 1.173
5.197 3.005 1.360
5.043 2.837 1.414
4.946 2.689 1.588
3.874 1.935 2.358
3.807 1.783 2.498
3.683 1.608 2.678
3.461 1.403 2.805
3.392 1.220 2.878
3.260 1.031 2.973
5.568 3.863 0.823
5.429 3.701 1.015
5.359 3.612 1.134
5.156 3.384 1.269
4.990 3.204 1.373
4.923 3.058 1.534
3.924 2.275 2.305
3.780 2.050 2.435
3.619 1.877 2.525
3.449 1.692 2.714
3.362 1.621 2.761
3.199 1.361 2.899
5.536 4.274 0.764
5.390 4.090 0.921
5.283 3.871 1.022
5.187 3.726 1.137
5.028 3.598 1.346
4.876 3.393 1.400
3.848 2.575 2.201
3.708 2.461 2.340
3.613 2.292 2.448
3.408 2.086 2.580
3.267 1.915 2.763
3.170 1.733 2.873
5.572 4.576 0.677
5.429 4.475 0.890
5.298 4.215 0.963
5.080 4.148 1.142
4.928 3.927 1.166
4.870 3.806 1.325
3.845 2.990 2.121
3.650 2.720 2.230
3.509 2.589 2.435
3.411 2.481 2.572
3.227 2.233 2.681
3.085 2.124 2.811
5.552 4.959 0.630
5.377 4.745 0.781
5.199 4.661 0.916
5.132 4.441 1.012
4.995 4.308 1.186
4.814 4.158 1.275
5.980 0.225 1.396
5.838 0.038 1.487
5.870 0.500 1.257
5.751 0.340 1.356
5.605 0.227 1.483
5.473 0.102 1.599
5.885 0.862 1.212
5.761 0.717 1.363
5.562 0.614 1.422
5.411 0.426 1.559
5.290 0.183 1.754
5.225 0.022 1.813
5.901 0.853 1.239
5.677 1.043 1.249
5.611 0.932 1.341
5.401 0.720 1.485
5.264 0.547 1.585
5.201 0.419 1.795
5.006 0.280 1.865
4.865 0.032 2.004
5.664 1.103 1.227
5.584 1.218 1.318
5.382 1.126 1.438
5.283 0.951 1.547
5.151 0.803 1.722
4.928 0.536 1.832
4.807 0.429 1.950
5.640 1.392 1.187
5.537 1.227 1.349
5.368 1.487 1.318
5.233 1.225 1.439
5.128 1.095 1.584
4.929 0.906 1.718
4.762 0.784 1.818
5.511 1.627 1.176
5.379 1.490 1.327
5.145 1.594 1.355
5.026 1.449 1.478
4.884 1.261 1.630
5.450 1.967 1.146
5.317 1.745 1.301
5.230 1.621 1.371
5.052 1.848 1.404
5.309 2.100 1.214
5.189 1.966 1.328
5.003 1.748 1.458
3.659 1.283 2.365
3.596 1.168 2.490
3.445 0.971 2.590
5.488 3.467 0.702
5.340 3.305 0.804
5.197 3.139 0.961
3.806 1.884 2.179
3.624 1.690 2.282
3.550 1.538 2.394
3.374 1.385 2.584
3.192 1.167 2.683
5.631 4.013 0.476
5.424 3.894 0.694
5.305 3.731 0.775
5.179 3.562 0.942
5.040 3.390 1.067
3.917 2.359 1.978
3.761 2.223 2.080
3.589 2.029 2.171
3.462 1.873 2.341
3.349 1.728 2.461
3.229 1.519 2.550
5.614 4.414 0.413
5.437 4.234 0.585
5.292 4.085 0.761
5.190 3.823 0.859
5.007 3.715 0.964
4.838 3.502 1.114
3.929 2.664 1.869
3.764 2.546 2.008
3.605 2.319 2.109
3.517 2.208 2.237
3.377 2.012 2.430
3.154 1.875 2.488
3.081 1.645 2.592
5.589 4.739 0.431
5.400 4.575 0.473
5.280 4.420 0.630
5.167 4.187 0.772
4.936 3.990 0.836
4.824 3.892 0.962
4.693 3.718 1.178
3.902 3.040 1.852
3.723 2.920 1.904
3.528 2.730 2.064
3.429 2.582 2.231
3.336 2.327 2.348
3.119 2.265 2.429
2.982 2.036 2.564
2.834 1.877 2.655
5.490 5.082 0.287
5.419 4.857 0.410
5.245 4.681 0.584
5.108 4.580 0.653
4.956 4.396 0.858
4.874 4.219 0.989
4.719 4.009 1.010
3.807 3.075 1.832
5.978 0.335 0.959
5.776 0.111 1.101
5.950 0.655 0.895
5.797 0.449 1.004
5.678 0.335 1.219
5.510 0.195 1.268
5.950 0.643 0.916
5.724 0.831 0.944
5.580 0.637 1.060
5.524 0.543 1.269
5.368 0.363 1.324
5.158 0.186 1.526
5.030 0.045 1.611
5.744 0.800 1.010
5.545 1.078 1.037
5.409 0.826 1.217
5.274 0.735 1.332
5.189 0.563 1.399
5.035 0.398 1.516
4.872 0.222 1.638
4.736 0.012 1.840
5.611 1.070 1.001
5.364 1.200 1.131
5.314 1.001 1.259
5.120 0.922 1.317
5.018 0.729 1.493
4.833 0.500 1.579
4.683 0.350 1.739
4.547 0.148 1.828
5.565 1.379 0.928
5.405 1.161 1.056
5.216 1.420 1.174
5.148 1.266 1.321
4.971 1.007 1.383
4.831 0.908 1.536
4.709 0.720 1.627
4.548 0.510 1.804
5.197 1.329 1.158
5.046 1.568 1.236
4.927 1.381 1.271
4.804 1.237 1.462
4.703 1.076 1.591
5.024 1.546 1.210
3.776 1.912 1.870
3.658 1.827 1.961
3.498 1.573 2.122
3.371 1.469 2.171
5.595 4.179 0.226
5.492 3.971 0.267
5.395 3.761 0.477
5.208 3.615 0.542
5.116 3.426 0.682
3.884 2.434 1.657
3.818 2.336 1.724
3.610 2.096 1.923
3.453 1.915 2.059
3.370 1.754 2.160
3.194 1.645 2.211
3.117 1.417 2.336
5.643 4.471 0.088
5.462 4.310 0.298
5.334 4.145 0.379
5.166 3.979 0.539
5.045 3.827 0.672
4.870 3.662 0.769
3.879 2.777 1.540
3.715 2.658 1.704
3.564 2.534 1.769
3.436 2.294 1.955
3.334 2.161 2.104
3.208 2.016 2.129
3.071 1.765 2.348
2.956 1.636 2.429
5.606 4.865 0.076
5.449 4.666 0.126
5.248 4.523 0.253
5.159 4.348 0.414
5.048 4.123 0.523
4.834 3.942 0.632
4.766 3.783 0.760
3.888 2.764 1.514
3.768 2.971 1.650
3.585 2.881 1.717
3.480 2.631 1.806
3.285 2.495 1.928
3.218 2.283 2.080
3.071 2.108 2.273
2.902 2.045 2.376
2.744 1.871 2.431
2.076 0.981 3.089
5.365 5.026 0.056
5.236 4.796 0.223
5.160 4.641 0.306
5.014 4.517 0.445
4.863 4.291 0.627
4.729 4.167 0.770
4.534 4.006 0.803
3.745 3.018 1.607
6.037 0.064 0.691
5.918 0.413 0.625
5.795 0.247 0.775
5.690 0.045 0.960
5.984 0.429 0.659
5.821 0.592 0.754
5.705 0.493 0.814
5.561 0.228 1.019
5.415 0.107 1.068
5.746 0.648 0.733
5.648 0.808 0.727
5.496 0.603 0.872
5.336 0.425 1.049
5.209 0.314 1.109
5.101 0.176 1.293
5.622 0.804 0.742
5.495 1.004 0.834
5.337 0.762 0.973
5.188 0.595 1.119
5.003 0.432 1.216
4.852 0.246 1.347
4.761 0.162 1.492
5.406 0.931 0.788
5.335 1.146 0.864
5.143 1.016 1.017
5.048 0.842 1.119
4.889 0.639 1.214
4.746 0.451 1.358
4.609 0.354 1.508
4.409 0.158 1.646
6.154 2.158 0.156
5.304 1.199 0.909
5.087 1.315 0.882
5.018 1.198 1.056
4.870 0.946 1.183
4.743 0.860 1.300
4.607 0.626 1.394
4.418 0.463 1.540
4.286 0.360 1.680
6.049 2.508 0.048
5.166 1.312 0.959
4.632 1.205 1.258
4.559 1.038 1.361
4.408 0.836 1.489
3.787 2.026 1.461
3.662 1.910 1.663
3.555 1.697 1.710
3.396 1.610 1.850
5.363 3.941 0.107
5.260 3.705 0.281
3.918 2.558 1.279
3.845 2.423 1.451
3.626 2.241 1.506
3.558 2.085 1.715
3.386 1.933 1.771
3.238 1.742 1.877
3.151 1.576 2.015
5.316 4.293 -0.020
5.164 4.073 0.173
5.069 3.922 0.261
4.935 3.701 0.411
3.910 2.616 1.319
3.744 2.793 1.394
3.597 2.634 1.437
3.512 2.472 1.610
3.335 2.263 1.774
3.170 2.112 1.819
3.043 1.917 2.018
2.933 1.747 2.085
2.121 0.765 2.885
5.206 4.378 0.105
5.046 4.241 0.184
4.913 4.067 0.380
4.741 3.886 0.495
4.565 3.758 0.636
3.773 2.754 1.392
3.629 2.964 1.417
3.418 2.816 1.526
3.330 2.620 1.593
3.194 2.437 1.765
3.098 2.321 1.872
2.893 2.125 2.010
2.746 1.939 2.123
2.634 1.807 2.246
1.981 0.890 2.885
5.075 4.825 0.042
4.976 4.598 0.179
4.843 4.414 0.250
4.696 4.229 0.338
4.575 4.072 0.495
4.466 3.976 0.693
3.547 2.963 1.388
6.005 0.039 0.728
6.026 0.221 0.377
5.849 0.056 0.518
6.004 0.236 0.434
5.867 0.428 0.467
5.680 0.262 0.602
5.546 0.040 0.672
5.848 0.343 0.451
5.648 0.509 0.548
5.548 0.359 0.657
5.346 0.182 0.811
5.242 0.011 0.931
5.709 0.501 0.535
5.458 0.745 0.589
5.402 0.606 0.658
5.218 0.351 0.773
5.031 0.233 0.906
4.966 0.112 1.108
5.546 0.727 0.522
5.337 0.961 0.600
5.195 0.766 0.732
5.088 0.627 0.904
4.883 0.424 1.004
4.755 0.220 1.146
4.637 0.046 1.251
5.364 0.951 0.659
5.156 1.142 0.634
4.978 0.947 0.797
4.919 0.704 0.943
4.792 0.599 0.990
4.657 0.466 1.184
4.504 0.282 1.282
4.377 0.057 1.391
5.167 1.073 0.659
4.872 1.057 0.818
4.708 0.918 0.992
4.548 0.770 1.062
4.445 0.613 1.207
4.311 0.478 1.296
4.192 0.303 1.464
4.437 0.991 1.122
4.309 0.789 1.321
4.083 0.567 1.427
3.964 2.335 0.999
3.809 2.221 1.183
3.729 2.020 1.326
3.596 1.888 1.414
3.398 1.662 1.557
3.939 2.373 1.030
3.849 2.524 1.038
3.697 2.314 1.241
3.574 2.215 1.317
3.421 1.989 1.497
3.311 1.800 1.627
3.068 1.635 1.697
2.108 0.476 2.543
4.910 3.809 0.099
4.777 3.662 0.175
3.834 2.485 1.089
3.606 2.749 1.108
3.479 2.528 1.217
3.409 2.359 1.346
3.252 2.216 1.459
3.068 2.085 1.600
2.905 1.897 1.771
2.761 1.668 1.903
1.958 0.682 2.629
4.758 4.040 0.070
4.622 3.922 0.238
3.655 2.757 1.176
3.491 2.867 1.139
3.392 2.705 1.301
3.216 2.519 1.477
3.054 2.398 1.561
2.972 2.227 1.719
2.788 2.010 1.773
2.653 1.933 1.928
1.812 0.835 2.736
4.698 4.412 0.063
4.566 4.236 0.166
4.442 4.057 0.263
4.364 3.870 0.422
3.482 2.858 1.207
6.061 0.175 0.360
5.886 0.031 0.506
5.959 0.215 0.452
5.877 0.114 0.193
5.988 0.318 0.112
5.858 0.148 0.192
5.682 0.317 0.218
5.537 0.109 0.342
5.895 0.533 0.117
5.750 0.270 0.264
5.574 0.537 0.311
5.458 0.353 0.401
5.320 0.192 0.584
5.732 0.627 0.143
5.542 0.523 0.255
5.403 0.657 0.320
5.199 0.505 0.523
5.057 0.354 0.571
4.986 0.229 0.674
4.841 -0.017 0.891
5.393 0.711 0.357
5.187 0.894 0.442
5.095 0.728 0.502
4.885 0.505 0.675
4.828 0.331 0.817
4.635 0.185 0.868
4.563 0.060 1.047
5.190 0.842 0.454
4.935 0.877 0.581
4.813 0.686 0.709
4.599 0.520 0.881
4.486 0.328 0.991
4.346 0.171 1.062
4.155 -0.003 1.157
4.632 0.902 0.773
4.496 0.759 0.859
4.293 0.519 1.020
4.183 0.403 1.091
4.006 0.204 1.246
3.925 0.058 1.344
4.186 0.767 1.075
4.056 0.551 1.161
3.914 0.356 1.280
3.753 0.233 1.414
4.044 2.153 0.712
2.316 0.055 2.297
4.187 2.243 0.672
4.032 2.124 0.794
3.840 2.307 0.801
3.710 2.118 0.953
3.531 1.934 1.102
3.403 1.773 1.241
2.328 0.416 2.169
2.225 0.245 2.298
3.950 2.486 0.713
3.832 2.279 0.840
3.669 2.504 0.899
3.540 2.307 0.993
3.424 2.145 1.173
3.312 1.962 1.271
3.099 1.794 1.410
2.034 0.463 2.355
3.871 2.608 0.789
3.638 2.504 0.820
3.513 2.656 0.968
3.414 2.460 1.076
3.286 2.311 1.209
3.103 2.111 1.351
3.021 2.021 1.429
2.864 1.789 1.537
1.802 0.616 2.483
4.474 3.780 0.078
3.677 2.768 0.800
3.530 2.649 0.966
3.358 2.810 0.958
3.265 2.647 1.149
3.106 2.507 1.244
2.897 2.285 1.388
2.766 2.191 1.477
2.706 1.958 1.642
2.493 1.821 1.762
1.646 0.769 2.524
4.305 3.993 0.122
3.302 2.847 0.947
6.182 0.109 0.028
5.935 0.142 0.214
5.990 0.292 0.019
5.907 0.190 0.172
5.614 0.306 0.041
5.482 0.087 0.127
5.565 0.302 0.059
5.381 0.402 0.102
5.320 0.305 0.177
5.182 0.117 0.354
5.468 0.453 0.086
5.271 0.622 0.177
5.110 0.428 0.216
5.023 0.290 0.439
4.878 0.136 0.526
5.291 0.601 0.184
4.943 0.687 0.285
4.859 0.433 0.470
4.613 0.350 0.607
4.571 0.161 0.675
4.655 0.695 0.441
4.446 0.433 0.609
4.409 0.331 0.766
4.269 0.114 0.927
4.364 0.625 0.684
4.174 0.452 0.789
4.094 0.322 0.898
3.861 0.199 1.020
3.931 0.492 0.986
3.729 0.288 1.085
3.584 0.184 1.273
3.626 0.500 1.155
3.465 0.299 1.276
3.336 0.153 1.390
3.152 0.018 1.573
4.845 2.019 0.066
3.309 0.526 1.364
3.074 0.331 1.433
3.042 0.155 1.535
2.844 -0.027 1.737
4.665 2.230 0.062
4.504 2.017 0.208
4.106 1.897 0.478
2.954 0.569 1.499
2.812 0.318 1.651
2.690 0.194 1.778
2.541 -0.011 1.856
4.435 2.354 0.093
4.367 2.247 0.303
4.156 2.084 0.381
4.119 1.925 0.447
3.877 2.063 0.603
3.804 1.878 0.677
2.697 0.597 1.671
2.522 0.375 1.802
2.360 0.199 1.920
2.238 0.070 2.118
4.286 2.546 0.182
4.185 2.348 0.316
3.997 2.167 0.406
3.949 2.087 0.558
3.707 2.273 0.584
3.550 2.083 0.776
3.472 1.927 0.834
2.315 0.612 1.853
2.154 0.361 1.960
2.046 0.236 2.063
3.999 2.526 0.318
3.847 2.443 0.482
3.685 2.217 0.595
3.591 2.447 0.651
3.452 2.229 0.761
3.305 2.062 0.898
3.202 1.881 0.990
2.025 0.590 2.000
1.932 0.448 2.164
3.817 2.713 0.428
3.716 2.625 0.518
3.601 2.466 0.660
3.384 2.606 0.718
3.267 2.429 0.834
3.166 2.295 1.007
3.013 2.132 1.066
2.894 1.889 1.216
1.721 0.554 2.256
3.512 2.771 0.624
3.399 2.571 0.730
3.235 2.753 0.706
3.076 2.657 0.842
2.981 2.380 0.959
2.777 2.305 1.182
2.723 2.144 1.227
2.532 1.901 1.418
3.282 2.774 0.800
5.149 0.194 0.002
5.058 0.078 0.107
4.839 0.258 0.185
4.708 0.103 0.345
4.548 0.281 0.398
4.378 0.069 0.448
4.282 0.278 0.546
4.088 0.112 0.607
3.903 0.292 0.730
3.760 0.138 0.796
3.752 0.392 0.731
3.646 0.262 0.854
3.449 0.062 0.965
3.481 0.404 0.966
3.257 0.326 1.077
3.225 0.094 1.149
4.369 1.602 0.051
4.081 1.622 0.199
3.264 0.617 1.038
3.109 0.423 1.122
3.025 0.293 1.212
2.879 0.154 1.416
4.231 1.773 0.167
4.172 1.686 0.262
3.897 1.778 0.256
2.977 0.605 1.217
2.788 0.431 1.278
2.703 0.276 1.478
2.572 0.185 1.493
4.217 2.110 0.035
4.111 1.972 0.126
3.946 1.853 0.248
3.830 2.019 0.345
3.614 1.885 0.428
2.715 0.621 1.306
2.560 0.455 1.480
2.357 0.360 1.652
2.297 0.176 1.752
4.090 2.314 0.099
3.928 2.212 0.165
3.774 1.966 0.369
3.607 2.167 0.357
3.469 2.009 0.535
2.338 0.713 1.494
2.166 0.469 1.634
2.120 0.320 1.745
1.893 0.207 1.876
4.046 2.697 -0.001
3.907 2.533 0.136
3.784 2.360 0.252
3.633 2.170 0.385
3.446 2.352 0.455
3.249 2.148 0.617
3.125 2.067 0.672
2.048 0.676 1.672
1.915 0.511 1.870
1.729 0.388 1.978
3.692 2.733 0.192
3.611 2.574 0.275
3.485 2.410 0.478
3.318 2.571 0.447
3.114 2.389 0.636
2.983 2.166 0.798
1.628 0.548 2.048
3.397 2.700 0.420
3.247 2.558 0.448
2.973 2.564 0.641
2.875 2.406 0.775
2.652 2.247 0.903
3.637 -0.005 0.613
3.518 0.217 0.680
3.345 0.015 0.804
3.366 0.367 0.696
3.139 0.188 0.894
3.001 0.088 1.030
3.958 1.602 0.068
3.109 0.584 0.775
3.027 0.423 0.898
2.829 0.238 1.069
2.781 0.059 1.191
3.986 1.563 -0.024
3.805 1.760 0.048
2.953 0.741 0.887
2.811 0.589 0.914
2.707 0.382 1.117
2.552 0.265 1.226
2.381 0.121 1.360
3.775 1.778 0.054
3.651 1.963 0.143
3.523 1.815 0.219
2.649 0.816 0.993
2.523 0.562 1.159
2.350 0.391 1.238
2.225 0.272 1.442
2.078 0.080 1.479
3.792 2.080 -0.016
3.652 1.901 0.117
3.443 2.125 0.191
3.386 1.962 0.341
2.423 0.732 1.206
2.285 0.619 1.312
2.148 0.448 1.439
1.910 0.318 1.568
1.812 0.101 1.700
3.628 2.298 0.005
3.499 2.122 0.177
3.358 2.269 0.200
2.119 0.748 1.311
1.931 0.642 1.488
1.816 0.485 1.594
1.681 0.315 1.787
3.466 2.483 0.100
3.321 2.285 0.265
3.343 0.187 0.515
3.193 0.373 0.549
3.073 0.196 0.662
2.933 -0.004 0.779
3.006 0.543 0.559
2.932 0.327 0.653
2.808 0.150 0.858
2.571 -0.020 0.967
2.916 0.705 0.592
2.702 0.568 0.764
2.542 0.354 0.819
2.470 0.218 1.042
2.335 -0.021 1.077
2.733 0.871 0.622
2.512 0.694 0.750
2.402 0.494 0.967
2.282 0.378 1.092
2.139 0.164 1.186
2.028 0.072 1.282
2.366 0.843 0.820
2.265 0.757 1.030
2.164 0.537 1.052
1.962 0.419 1.251
1.843 0.183 1.352
1.667 0.113 1.442
2.078 0.868 1.079
1.980 0.695 1.168
1.772 0.526 1.247
1.696 0.368 1.434
3.035 0.236 0.346
2.890 0.159 0.410
2.867 0.431 0.348
2.775 0.285 0.507
2.672 0.137 0.593
2.726 0.670 0.378
2.608 0.531 0.533
2.505 0.298 0.636
2.317 0.116 0.841
2.625 0.828 0.515
2.453 0.619 0.621
2.281 0.533 0.765
2.197 0.321 0.846
1.970 0.152 0.945
2.363 1.005 0.481
2.221 0.874 0.585
2.171 0.631 0.722
1.986 0.490 0.891
1.813 0.323 1.033
1.693 0.135 1.101
1.518 0.025 1.257
2.143 1.047 0.684
2.012 0.838 0.870
1.791 0.712 0.939
1.696 0.547 1.059
2.861 0.087 0.259
2.827 0.439 0.127
2.665 0.297 0.254
2.472 0.083 0.451
2.564 0.646 0.146
2.484 0.474 0.380
2.348 0.282 0.503
2.234 0.066 0.583
2.462 0.769 0.244
2.294 0.592 0.396
2.164 0.396 0.469
2.062 0.267 0.608
1.929 0.094 0.755
2.398 1.078 0.185
2.298 0.977 0.268
2.182 0.818 0.466
1.997 0.666 0.565
1.817 0.415 0.731
1.753 0.256 0.791
1.636 0.074 0.927
2.124 1.178 0.319
2.021 1.008 0.506
1.850 0.778 0.592
1.642 0.599 0.724
2.482 0.144 0.056
2.383 0.049 0.210
2.304 0.336 0.142
2.177 0.215 0.210
2.045 0.009 0.357
2.283 0.762 0.005
2.217 0.538 0.112
2.006 0.341 0.321
1.897 0.264 0.448
1.732 0.073 0.504
2.157 0.917 0.089
2.033 0.692 0.271
1.880 0.522 0.289
1.737 0.345 0.479
1.651 0.219 0.614
2.084 1.186 0.072
2.036 1.068 0.129
1.867 0.945 0.320
1.744 0.788 0.349
1.982 1.442 0.038
1.855 1.224 0.221
1.643 1.055 0.367
1.736 1.564 0.101
2.075 0.165 -0.024
1.965 0.309 0.136
1.763 0.135 0.244
1.904 0.656 -0.011
1.791 0.516 0.111
1.690 0.884 0.050
1.641 0.679 0.212
1.530 0.996 0.071
1.487 1.376 0.046
0.453 0.268 0.414
0.497 -0.029 0.113
0.314 0.227 0.205
6.207 0.542 3.473
5.995 0.392 3.655
6.336 1.065 3.326
6.179 0.842 3.489
5.961 0.734 3.621
5.903 0.568 3.662
5.707 0.373 3.860
6.270 1.333 3.292
6.102 1.184 3.367
6.003 1.012 3.470
5.783 0.894 3.599
5.728 0.726 3.776
5.591 0.548 3.894
5.896 1.423 3.465
5.768 1.254 3.574
5.636 1.101 3.628
5.529 0.831 3.836
5.383 0.678 3.977
5.273 0.532 4.037
5.669 1.386 3.543
5.448 1.175 3.754
5.331 1.061 3.857
5.195 0.855 4.005
5.081 0.709 4.118
5.232 1.244 3.930
5.022 1.076 3.993
4.917 0.949 4.132
4.827 0.772 4.249
4.758 1.070 4.188
4.617 0.909 4.376
4.480 0.708 4.478
6.299 2.937 2.835
4.479 1.116 4.386
4.262 0.916 4.558
4.102 0.794 4.676
6.048 3.052 2.837
5.971 2.950 3.036
5.800 2.789 3.119
5.557 2.797 3.355
5.360 2.660 3.374
4.089 1.061 4.508
4.019 0.958 4.713
3.889 0.789 4.826
5.779 3.147 3.068
5.636 2.995 3.206
5.480 2.753 3.249
5.303 2.982 3.345
5.264 2.817 3.443
5.094 2.610 3.621
3.811 1.097 4.732
3.713 0.979 4.812
5.628 3.312 3.143
5.445 3.075 3.212
5.295 2.997 3.306
5.150 3.170 3.409
5.018 3.021 3.518
4.873 2.777 3.626
4.767 2.669 3.736
4.600 2.518 3.946
3.654 1.248 4.772
3.525 1.184 4.959
5.281 3.356 3.236
5.135 3.172 3.414
4.976 3.340 3.453
4.837 3.184 3.564
4.781 3.025 3.708
4.641 2.840 3.797
4.418 2.652 4.006
4.276 2.438 4.105
3.381 1.364 4.929
6.305 4.809 2.270
6.165 4.694 2.429
5.119 3.530 3.375
4.969 3.370 3.471
4.788 3.450 3.534
4.658 3.342 3.657
4.616 3.190 3.765
4.465 3.020 3.914
4.292 2.869 3.967
4.125 2.646 4.166
3.983 2.493 4.302
3.179 1.504 4.991
6.194 5.207 2.248
6.113 5.007 2.349
5.943 4.782 2.552
5.813 4.628 2.615
4.862 3.504 3.506
6.142 0.628 3.230
5.993 0.425 3.279
6.101 0.998 3.080
6.043 0.855 3.240
5.850 0.606 3.313
5.752 0.506 3.462
6.015 1.176 3.130
5.899 0.926 3.252
5.732 0.798 3.360
5.539 0.662 3.570
5.421 0.446 3.677
5.727 1.189 3.285
5.578 1.024 3.485
5.414 0.845 3.579
5.259 0.658 3.658
5.076 0.517 3.880
4.980 0.320 3.954
5.340 1.208 3.509
5.241 1.005 3.657
5.072 0.892 3.797
4.964 0.670 3.865
4.872 0.479 4.032
4.658 0.297 4.134
5.090 1.190 3.665
4.904 1.015 3.767
4.830 0.828 3.941
4.698 0.696 4.088
4.533 0.482 4.152
4.369 0.373 4.344
6.136 2.520 2.729
4.944 1.355 3.785
4.761 1.222 3.866
4.645 1.026 3.956
4.437 0.813 4.144
4.347 0.665 4.219
4.184 0.571 4.358
4.011 0.391 4.536
6.123 2.873 2.599
6.026 2.688 2.723
5.857 2.542 2.869
5.579 2.573 3.080
4.534 1.344 3.972
4.482 1.234 4.073
4.297 1.064 4.220
4.185 0.820 4.242
4.038 0.744 4.374
3.847 0.548 4.558
6.203 3.407 2.387
6.118 3.238 2.533
5.996 3.032 2.668
5.821 2.865 2.740
5.701 2.745 2.960
5.580 2.593 3.053
5.402 2.702 3.079
5.226 2.512 3.253
4.271 1.403 4.095
4.137 1.219 4.194
4.045 1.053 4.292
3.833 0.933 4.438
3.764 0.738 4.652
5.986 3.362 2.561
5.788 3.232 2.659
5.681 3.112 2.808
5.494 2.850 2.928
5.369 2.755 3.130
5.204 2.892 3.122
5.120 2.791 3.219
4.899 2.614 3.372
3.974 1.361 4.217
3.782 1.183 4.432
3.734 1.104 4.537
3.567 0.947 4.607
5.638 3.363 2.796
5.544 3.202 2.849
5.351 3.097 3.026
5.275 2.905 3.103
5.021 3.127 3.180
4.954 2.889 3.269
4.755 2.762 3.419
3.574 1.260 4.586
3.348 1.099 4.687
5.364 3.415 2.983
5.179 3.267 3.077
5.076 3.132 3.208
4.857 3.288 3.233
4.735 3.073 3.408
4.554 2.894 3.525
4.414 2.792 3.657
3.193 1.265 4.789
6.222 4.890 2.033
6.123 4.749 2.094
5.023 3.379 3.139
4.919 3.249 3.226
4.741 3.431 3.348
4.610 3.271 3.366
4.444 3.133 3.547
4.347 2.952 3.664
4.194 2.801 3.835
6.272 5.326 1.907
6.074 5.104 2.075
5.942 4.916 2.173
5.842 4.793 2.261
4.702 3.481 3.241
5.587 0.746 3.218
5.491 0.577 3.315
5.261 0.427 3.431
5.385 0.908 3.204
5.285 0.772 3.413
5.139 0.606 3.487
5.007 0.394 3.660
4.840 0.278 3.724
5.232 1.157 3.260
5.151 0.952 3.474
5.016 0.817 3.505
4.879 0.622 3.732
4.659 0.440 3.835
4.607 0.294 3.921
4.446 0.099 4.007
6.260 2.322 2.418
4.986 1.115 3.451
4.855 0.935 3.626
4.691 0.842 3.754
4.529 0.602 3.821
4.378 0.418 4.015
4.226 0.340 4.084
4.122 0.111 4.193
6.212 2.671 2.369
6.036 2.439 2.459
5.937 2.339 2.615
5.653 2.358 2.800
4.739 1.251 3.577
4.591 1.177 3.655
4.459 0.963 3.828
4.330 0.823 3.888
4.256 0.621 3.980
4.052 0.418 4.212
3.942 0.271 4.338
6.197 2.999 2.220
5.977 2.824 2.404
5.890 2.656 2.520
5.790 2.523 2.650
5.585 2.320 2.783
5.450 2.492 2.864
4.499 1.269 3.688
4.347 1.177 3.820
4.170 0.931 4.000
4.028 0.787 4.126
3.935 0.615 4.198
3.824 0.471 4.285
6.239 3.511 2.055
6.163 3.339 2.147
5.972 3.197 2.325
5.841 2.985 2.397
5.759 2.847 2.609
5.623 2.612 2.713
5.487 2.495 2.791
5.271 2.701 2.830
5.109 2.534 2.963
4.277 1.455 3.762
4.120 1.316 3.878
4.026 1.122 4.028
3.899 1.045 4.112
3.737 0.826 4.304
3.556 0.617 4.431
5.969 3.465 2.283
5.875 3.335 2.339
5.677 3.144 2.456
5.496 3.024 2.635
5.444 2.840 2.751
5.321 2.643 2.855
5.047 2.852 2.903
4.942 2.641 3.026
3.941 1.539 3.896
3.889 1.319 4.014
3.692 1.190 4.185
3.607 1.037 4.265
3.382 0.832 4.472
5.626 3.558 2.370
5.490 3.313 2.511
5.355 3.156 2.723
5.214 3.025 2.809
5.117 2.863 2.911
4.969 3.011 2.987
4.801 2.895 3.117
3.582 1.319 4.205
3.396 1.189 4.318
3.318 1.004 4.540
5.348 3.522 2.655
5.159 3.319 2.703
5.023 3.183 2.859
4.983 3.069 2.983
4.782 3.229 3.034
4.585 3.010 3.125
4.731 3.156 2.985
5.131 0.667 3.107
4.980 0.521 3.264
4.892 0.332 3.409
4.724 0.184 3.489
4.559 0.084 3.683
6.248 2.093 2.178
4.994 0.923 3.223
4.792 0.722 3.297
4.724 0.546 3.426
4.615 0.401 3.573
4.402 0.252 3.698
4.267 0.110 3.844
6.233 2.426 2.117
6.148 2.177 2.238
5.990 2.115 2.354
5.641 2.058 2.557
4.820 1.042 3.268
4.728 0.932 3.380
4.492 0.700 3.469
4.400 0.521 3.612
4.237 0.365 3.803
4.162 0.232 3.857
4.007 0.103 4.061
6.246 2.710 1.963
6.012 2.585 2.095
5.969 2.458 2.219
5.740 2.255 2.335
5.673 2.066 2.525
5.482 2.206 2.605
4.624 1.222 3.349
4.467 1.135 3.472
4.372 0.905 3.531
4.212 0.772 3.665
4.097 0.596 3.799
3.948 0.391 3.994
3.829 0.254 4.043
6.176 3.050 1.915
6.024 2.882 2.019
5.900 2.704 2.219
5.805 2.537 2.260
5.583 2.391 2.478
5.502 2.282 2.537
5.290 2.392 2.634
4.500 1.454 3.410
4.355 1.250 3.440
4.255 1.114 3.636
4.043 0.908 3.700
3.956 0.805 3.872
3.820 0.642 4.051
3.664 0.375 4.112
6.123 3.445 1.877
6.032 3.236 2.028
5.905 3.051 2.105
5.714 2.938 2.204
5.579 2.768 2.314
5.434 2.625 2.526
5.318 2.382 2.664
5.145 2.609 2.673
4.153 1.387 3.559
4.081 1.256 3.651
3.915 1.129 3.840
3.805 0.925 3.969
3.615 0.817 4.025
3.513 0.653 4.148
5.973 3.609 1.860
5.826 3.458 2.028
5.665 3.261 2.124
5.602 3.101 2.309
5.389 2.975 2.448
5.284 2.799 2.554
5.129 2.666 2.636
5.030 2.747 2.741
4.021 1.673 3.587
3.892 1.418 3.748
3.675 1.303 3.826
3.602 1.086 3.962
3.392 0.899 4.067
3.317 0.767 4.184
5.666 3.578 2.045
5.479 3.410 2.187
5.411 3.323 2.353
5.236 3.088 2.450
5.068 3.003 2.569
4.967 2.751 2.760
4.809 2.993 2.745
3.581 1.442 3.944
3.418 1.248 4.001
3.314 1.127 4.114
3.113 0.986 4.241
5.366 3.663 2.317
5.234 3.504 2.377
5.086 3.314 2.566
4.953 3.111 2.636
4.753 2.923 2.792
4.725 0.321 3.165
4.649 0.162 3.274
6.270 2.209 1.824
6.187 2.021 1.946
5.987 1.832 2.109
5.731 1.878 2.242
4.672 0.614 3.079
4.622 0.528 3.308
4.390 0.341 3.432
4.313 0.131 3.557
4.132 -0.015 3.679
6.242 2.480 1.768
6.074 2.337 1.817
6.021 2.226 1.967
5.807 2.023 2.101
5.700 1.813 2.254
5.487 1.981 2.254
4.724 0.995 3.008
4.593 0.825 3.194
4.393 0.629 3.351
4.222 0.478 3.436
4.099 0.329 3.508
3.970 0.148 3.633
3.808 0.037 3.759
6.207 2.860 1.671
6.064 2.678 1.743
5.948 2.482 1.873
5.774 2.399 2.004
5.656 2.156 2.225
5.529 1.980 2.258
5.393 2.192 2.348
4.548 1.144 3.158
4.347 0.984 3.196
4.233 0.837 3.403
4.056 0.694 3.462
3.979 0.480 3.664
3.808 0.360 3.764
3.673 0.206 3.899
6.167 3.200 1.625
6.054 3.048 1.742
5.944 2.834 1.889
5.729 2.688 1.985
5.627 2.531 2.086
5.550 2.416 2.177
5.306 2.149 2.299
5.146 2.403 2.427
4.309 1.323 3.115
4.195 1.170 3.257
4.106 0.990 3.370
3.940 0.886 3.541
3.848 0.656 3.654
3.707 0.509 3.759
3.524 0.403 3.890
6.199 3.502 1.485
6.020 3.347 1.593
5.910 3.182 1.755
5.710 3.001 1.895
5.631 2.930 2.058
5.515 2.756 2.099
5.296 2.587 2.244
5.160 2.428 2.356
5.074 2.599 2.492
4.172 1.534 3.155
4.032 1.432 3.333
3.950 1.242 3.424
3.818 1.072 3.611
3.670 0.854 3.708
3.451 0.720 3.838
3.366 0.600 3.910
5.904 3.610 1.733
5.755 3.410 1.788
5.573 3.236 1.918
5.423 3.029 2.031
5.256 2.935 2.217
5.187 2.770 2.332
5.051 2.577 2.421
4.894 2.737 2.472
3.916 1.517 3.393
3.742 1.394 3.482
3.632 1.277 3.688
3.408 1.038 3.767
3.275 0.883 3.848
3.179 0.745 4.018
5.706 3.742 1.788
5.538 3.596 1.854
5.389 3.412 2.056
5.235 3.205 2.166
5.138 3.094 2.280
4.936 2.921 2.361
4.883 2.719 2.503
3.558 1.606 3.578
3.471 1.463 3.671
3.284 1.233 3.774
3.165 1.126 3.940
5.419 3.719 1.908
5.202 3.582 2.071
5.130 3.411 2.183
4.985 3.248 2.313
5.730 1.627 2.000
4.501 0.119 3.128
6.104 2.160 1.650
6.020 1.893 1.708
5.914 1.761 1.828
5.767 1.607 1.941
5.594 1.832 2.057
5.476 1.593 2.178
4.610 0.655 2.897
4.409 0.448 3.078
4.355 0.274 3.221
4.197 0.080 3.274
6.234 2.626 1.394
6.105 2.462 1.548
6.010 2.283 1.616
5.897 2.161 1.737
5.672 1.968 1.904
5.576 1.739 2.068
5.411 1.929 2.060
5.217 1.754 2.160
4.472 0.783 2.996
4.241 0.679 3.095
4.169 0.453 3.261
4.003 0.259 3.347
3.877 0.128 3.506
6.226 3.014 1.358
6.056 2.808 1.414
5.962 2.605 1.621
5.764 2.427 1.726
5.651 2.249 1.841
5.527 2.095 1.985
5.376 1.947 2.044
5.242 2.190 2.129
4.450 1.175 2.920
4.220 0.958 3.057
4.136 0.793 3.193
4.020 0.627 3.280
3.802 0.469 3.361
3.725 0.281 3.541
3.528 0.136 3.677
6.103 3.134 1.394
5.924 2.993 1.551
5.772 2.859 1.685
5.608 2.596 1.782
5.476 2.452 1.939
5.340 2.334 2.011
5.212 2.134 2.101
5.048 2.335 2.246
4.276 1.370 2.998
4.103 1.194 3.035
3.912 1.000 3.172
3.838 0.767 3.364
3.702 0.663 3.471
3.490 0.461 3.566
3.435 0.296 3.724
6.013 3.445 1.263
5.905 3.278 1.480
5.812 3.208 1.522
5.637 3.031 1.669
5.444 2.862 1.834
5.309 2.627 1.893
5.184 2.454 2.033
5.062 2.342 2.204
4.884 2.476 2.294
4.078 1.458 3.007
3.890 1.368 3.121
3.821 1.119 3.227
3.656 1.030 3.371
3.552 0.796 3.512
3.341 0.615 3.622
3.219 0.530 3.706
5.839 3.652 1.371
5.723 3.559 1.500
5.636 3.329 1.616
5.484 3.119 1.752
5.301 2.986 1.859
5.188 2.836 1.964
5.068 2.639 2.140
4.913 2.554 2.213
3.899 1.624 3.063
3.704 1.513 3.173
3.607 1.340 3.260
3.483 1.158 3.411
3.347 0.964 3.536
3.232 0.840 3.661
5.712 3.831 1.461
5.578 3.702 1.522
5.403 3.480 1.621
5.258 3.315 1.812
5.103 3.221 1.958
5.027 2.994 2.012
4.812 2.851 2.146
3.699 1.880 3.090
3.537 1.699 3.241
3.439 1.548 3.308
3.355 1.395 3.426
3.119 1.225 3.625
5.403 3.893 1.547
5.225 3.676 1.762
5.107 3.498 1.813
4.925 3.316 1.923
5.811 1.341 1.687
5.594 1.193 1.818
5.535 1.088 1.992
5.898 1.494 1.625
5.804 1.403 1.704
5.566 1.504 1.813
5.478 1.337 1.902
6.062 2.104 1.434
5.861 1.867 1.566
5.706 1.691 1.665
5.565 1.532 1.774
5.432 1.757 1.798
5.337 1.564 1.991
4.378 0.396 2.813
4.141 0.235 2.935
4.043 0.027 3.064
6.016 2.396 1.341
5.870 2.236 1.419
5.732 2.038 1.557
5.597 1.909 1.703
5.469 1.774 1.872
5.298 1.871 1.862
5.188 1.715 1.967
4.349 0.723 2.727
4.164 0.559 2.874
4.016 0.410 3.049
3.935 0.233 3.184
3.733 0.071 3.261
6.001 2.777 1.205
5.835 2.619 1.395
5.679 2.420 1.490
5.582 2.200 1.597
5.419 2.038 1.797
5.292 1.939 1.912
5.122 2.085 1.909
4.138 0.904 2.761
4.031 0.722 2.991
3.895 0.589 3.007
3.739 0.439 3.154
3.623 0.236 3.291
3.403 0.083 3.479
5.926 3.064 1.171
5.760 2.939 1.351
5.700 2.770 1.414
5.474 2.613 1.542
5.353 2.433 1.724
5.292 2.221 1.858
5.137 2.032 1.968
4.901 2.229 1.993
4.135 1.266 2.681
3.984 1.047 2.906
3.864 0.908 2.991
3.667 0.786 3.167
3.529 0.639 3.217
3.438 0.480 3.336
3.284 0.260 3.510
5.892 3.416 1.129
5.805 3.273 1.204
5.646 3.049 1.300
5.465 2.987 1.526
5.302 2.796 1.580
5.268 2.600 1.783
5.092 2.467 1.802
4.956 2.275 1.986
4.068 1.658 2.617
3.979 1.390 2.772
3.801 1.260 2.857
3.627 1.141 3.046
3.498 0.975 3.190
3.361 0.779 3.297
3.223 0.636 3.372
5.785 3.629 1.201
5.647 3.459 1.230
5.464 3.303 1.445
5.342 3.153 1.519
5.168 2.986 1.613
5.077 2.744 1.776
4.960 2.647 1.886
3.906 1.749 2.677
3.798 1.653 2.837
3.681 1.408 2.941
3.547 1.327 3.127
3.360 1.076 3.228
3.173 0.938 3.334
5.526 3.834 1.170
5.383 3.670 1.308
5.287 3.432 1.442
5.112 3.273 1.549
5.061 3.137 1.755
4.911 2.958 1.873
3.763 1.928 2.746
3.581 1.802 2.893
3.495 1.631 2.981
3.303 1.482 3.111
3.203 1.337 3.299
5.515 4.103 1.107
5.364 3.952 1.233
5.277 3.802 1.401
5.131 3.618 1.469
4.953 3.475 1.630
3.530 2.171 2.853
3.441 1.926 2.958
3.331 1.784 3.086
5.425 4.337 1.156
5.275 4.187 1.257
5.093 3.974 1.405
5.898 0.116 1.683
5.882 0.429 1.593
5.732 0.314 1.770
5.565 0.135 1.836
5.887 0.752 1.511
5.687 0.673 1.640
5.623 0.509 1.827
5.402 0.301 1.960
5.285 0.123 2.016
5.823 1.119 1.433
5.679 0.982 1.639
5.503 0.809 1.678
5.392 0.654 1.844
5.277 0.413 1.982
5.137 0.333 2.137
5.868 1.104 1.430
5.644 1.295 1.482
5.554 1.097 1.617
5.387 1.003 1.722
5.255 0.834 1.887
5.115 0.621 2.028
5.841 1.457 1.406
5.607 1.302 1.524
5.459 1.524 1.571
5.336 1.339 1.659
5.268 1.214 1.826
5.065 0.976 1.928
5.799 1.855 1.273
5.660 1.684 1.446
5.497 1.518 1.573
5.290 1.638 1.632
5.170 1.549 1.699
5.083 1.299 1.842
4.049 0.219 2.772
5.695 2.212 1.277
5.651 1.984 1.367
5.457 1.857 1.477
5.295 1.725 1.614
5.181 1.901 1.663
4.969 1.644 1.827
4.032 0.521 2.719
3.853 0.375 2.780
3.792 0.185 2.943
3.680 0.049 3.104
5.674 2.537 1.210
5.627 2.357 1.306
5.452 2.226 1.408
5.260 2.005 1.515
5.117 1.811 1.616
4.963 2.018 1.764
4.055 0.839 2.565
3.916 0.734 2.704
3.741 0.505 2.857
3.588 0.413 2.980
3.435 0.136 3.148
3.363 0.001 3.248
5.715 2.874 1.082
5.579 2.742 1.197
5.423 2.520 1.356
5.224 2.352 1.483
5.138 2.230 1.556
4.980 2.004 1.670
3.929 1.160 2.508
3.798 1.082 2.617
3.663 0.869 2.785
3.545 0.668 2.867
3.452 0.501 2.975
3.294 0.343 3.208
5.702 3.199 1.013
5.523 3.042 1.180
5.422 2.925 1.301
5.233 2.762 1.439
5.129 2.505 1.561
4.964 2.399 1.591
3.936 1.556 2.405
3.804 1.380 2.548
3.717 1.220 2.753
3.499 1.047 2.836
3.431 0.871 2.999
3.222 0.701 3.108
5.639 3.602 0.939
5.519 3.434 1.098
5.288 3.230 1.191
5.253 3.072 1.363
5.067 2.847 1.395
4.932 2.747 1.607
3.979 1.935 2.368
3.797 1.734 2.506
3.661 1.546 2.575
3.484 1.355 2.792
3.313 1.202 2.840
3.275 1.013 2.950
5.608 3.931 0.880
5.464 3.786 0.939
5.321 3.581 1.125
5.193 3.359 1.242
5.019 3.252 1.376
4.872 3.078 1.526
3.886 2.205 2.277
3.709 2.097 2.419
3.627 1.894 2.520
3.520 1.752 2.633
3.307 1.543 2.787
3.212 1.394 2.884
5.542 4.258 0.766
5.394 4.136 0.870
5.325 3.961 1.086
5.169 3.712 1.222
4.970 3.536 1.316
4.831 3.423 1.439
3.891 2.646 2.234
3.685 2.469 2.375
3.569 2.258 2.500
3.393 2.066 2.634
3.328 1.949 2.772
3.204 1.804 2.881
5.531 4.580 0.767
5.398 4.377 0.793
5.239 4.274 0.972
5.110 4.085 1.087
4.936 3.883 1.212
4.801 3.798 1.308
3.818 2.988 2.103
3.711 2.723 2.278
3.531 2.570 2.432
3.373 2.430 2.477
3.236 2.311 2.655
3.157 2.119 2.744
5.497 4.949 0.640
5.388 4.736 0.746
5.276 4.557 0.863
5.100 4.421 1.070
4.978 4.250 1.188
4.828 4.059 1.259
2.072 0.020 3.936
2.015 0.455 3.820
1.907 0.281 3.936
1.805 0.035 4.082
1.988 0.792 3.836
1.858 0.618 3.942
1.778 0.436 4.042
1.598 0.213 4.150
1.464 0.146 4.253
2.070 0.192 3.638
1.985 -0.026 3.734
2.035 0.544 3.563
1.912 0.329 3.661
1.772 0.194 3.741
1.644 -0.026 3.894
2.076 0.879 3.470
1.917 0.718 3.605
1.819 0.525 3.706
1.591 0.382 3.815
1.493 0.185 3.962
1.338 0.069 4.092
2.074 0.316 3.302
2.010 0.118 3.378
2.035 0.610 3.207
1.916 0.437 3.340
1.761 0.357 3.468
1.686 0.095 3.568
1.936 0.805 3.225
1.733 0.695 3.421
1.610 0.428 3.452
1.507 0.303 3.593
1.348 0.202 3.789
2.173 0.034 2.947
2.127 0.436 2.937
2.016 0.278 3.059
1.847 0.103 3.164
1.907 0.634 2.932
1.794 0.415 3.122
1.691 0.210 3.275
1.538 0.038 3.305
1.809 0.735 2.992
1.672 0.556 3.107
1.566 0.448 3.255
1.392 0.312 3.378
1.292 0.069 3.530
2.184 0.159 2.658
2.035 0.057 2.739
2.032 0.341 2.733
1.834 0.135 2.800
1.754 0.059 2.945
1.820 0.556 2.782
1.727 0.354 2.871
1.510 0.191 3.038
1.390 0.048 3.166
1.693 0.751 2.872
1.553 0.565 2.905
1.422 0.336 3.117
1.206 0.235 3.163
1.077 0.081 3.375
2.071 0.092 2.493
1.832 0.269 2.458
1.779 0.129 2.629
1.669 0.468 2.507
1.574 0.262 2.668
1.485 0.082 2.858
1.530 0.672 2.574
1.413 0.533 2.762
1.216 0.272 2.886
1.184 0.094 2.953
1.898 0.051 2.218
1.796 0.255 2.307
1.621 0.083 2.386
1.541 0.378 2.295
1.452 0.298 2.459
1.274 0.057 2.606
1.465 0.600 2.392
1.338 0.407 2.525
1.188 0.270 2.655
0.989 0.044 2.759
1.853 -0.038 2.029
1.654 0.137 2.058
1.496 -0.012 2.170
1.490 0.311 2.116
1.278 0.155 2.266
1.163 -0.023 2.397
1.135 0.396 2.352
1.064 0.226 2.414
0.885 0.015 2.617
1.500 0.122 1.824
0.586 0.243 0.887
0.367 0.068 0.995
0.419 0.151 0.712
0.357 0.115 0.471
0.134 0.005 0.241
3.688 0.598 4.906
3.503 0.749 5.008
3.437 0.659 5.095
3.263 0.446 5.233
3.417 0.942 5.089
3.207 0.802 5.173
3.043 0.678 5.314
2.977 0.512 5.455
3.172 1.143 5.139
3.052 0.919 5.233
2.921 0.836 5.335
2.805 0.609 5.455
2.629 0.456 5.597
3.060 1.323 5.099
2.863 1.113 5.319
2.804 0.963 5.446
2.568 0.781 5.520
2.474 0.654 5.677
2.298 0.430 5.800
3.539 0.602 4.699
3.409 0.771 4.730
3.255 0.581 4.947
3.207 0.882 4.838
3.157 0.713 4.923
3.002 0.526 5.076
3.090 1.064 4.928
2.955 0.933 5.051
2.854 0.773 5.149
2.686 0.612 5.287
2.913 1.219 4.896
2.813 1.125 5.096
2.590 0.895 5.236
2.483 0.777 5.328
2.338 0.592 5.458
3.588 0.324 4.492
3.445 0.522 4.481
3.294 0.673 4.576
3.076 0.864 4.617
2.947 0.649 4.740
2.974 1.024 4.657
3.652 0.114 4.163
3.507 0.303 4.195
3.332 0.474 4.347
3.194 0.581 4.337
3.524 -0.018 4.034
3.371 0.149 4.094
3.176 0.355 4.066
3.259 0.162 3.782
1.955 0.106 4.282
2.055 0.075 3.972
2.029 0.402 3.867
1.908 0.265 3.968
1.783 0.027 4.167
2.010 0.746 3.798
1.865 0.651 3.861
1.733 0.455 4.007
1.587 0.225 4.221
1.515 0.060 4.283
6.055 4.230 6.244
6.220 5.585 5.763
6.140 5.843 5.688
6.010 5.725 5.751
5.853 5.512 5.871
6.160 6.242 5.585
5.982 6.092 5.729
5.851 5.912 5.841
5.714 5.730 6.010
5.570 5.566 6.142
5.887 6.205 5.777
5.715 6.093 5.914
5.537 5.884 6.000
5.424 5.797 6.119
5.296 5.534 6.332
5.544 6.252 5.927
5.373 6.108 6.049
5.216 5.898 6.187
5.234 6.302 6.087
5.100 6.081 6.234
4.827 6.240 6.088
4.706 6.023 6.274
4.459 6.244 6.323
5.636 3.837 6.291
6.222 5.281 5.477
6.267 5.665 5.444
6.129 5.533 5.497
5.901 5.287 5.701
6.179 5.986 5.372
6.079 5.811 5.483
5.919 5.729 5.634
5.797 5.529 5.712
5.605 5.364 5.836
6.035 6.241 5.378
5.909 5.984 5.480
5.767 5.876 5.634
5.618 5.675 5.805
5.524 5.470 5.944
5.287 5.366 5.998
5.027 5.338 6.218
5.680 6.185 5.596
5.599 6.008 5.707
5.390 5.892 5.793
5.318 5.698 5.898
5.133 5.494 6.065
5.027 5.336 6.235
4.840 5.535 6.276
5.437 6.217 5.727
5.282 6.017 5.858
5.157 5.904 6.044
4.999 5.716 6.069
4.815 5.510 6.220
5.143 6.251 5.906
5.013 6.064 6.099
4.881 5.896 6.126
4.792 6.224 6.098
4.633 6.065 6.199
4.409 5.857 6.100
4.265 5.730 6.258
4.683 6.231 5.883
4.523 6.038 5.984
4.421 5.896 6.173
4.200 6.020 6.224
4.349 6.240 6.070
4.260 6.060 6.193
6.270 5.439 5.193
6.175 5.300 5.237
6.289 5.783 5.016
6.089 5.611 5.202
5.913 5.446 5.268
5.808 5.263 5.428
5.634 5.056 5.620
6.192 6.091 5.040
6.125 5.942 5.118
5.947 5.790 5.255
5.840 5.659 5.399
5.646 5.446 5.535
5.508 5.272 5.662
5.415 5.085 5.778
5.075 5.180 5.909
5.936 6.085 5.201
5.794 6.010 5.325
5.653 5.831 5.430
5.543 5.680 5.545
5.358 5.480 5.732
5.216 5.325 5.784
5.022 5.155 5.894
4.910 5.265 6.021
5.597 6.106 5.305
5.465 5.966 5.524
5.323 5.801 5.626
5.142 5.608 5.676
5.030 5.470 5.909
4.914 5.346 5.972
4.729 5.462 6.056
4.626 5.295 6.120
5.319 6.132 5.511
5.172 5.972 5.615
5.060 5.837 5.814
4.870 5.610 5.909
4.735 5.495 5.978
4.537 5.670 6.127
4.431 5.517 6.247
4.983 6.162 5.711
4.828 5.955 5.846
4.745 5.883 5.981
4.585 5.666 6.038
4.355 5.866 6.175
4.233 5.713 6.239
4.682 6.182 5.830
4.533 6.008 6.023
4.406 5.844 6.175
4.291 5.767 5.938
4.578 6.150 5.623
4.409 5.934 5.816
4.247 5.748 5.873
6.016 5.261 5.109
5.820 5.026 5.220
6.146 5.690 4.901
6.020 5.544 4.980
5.826 5.343 5.098
5.743 5.165 5.196
5.510 5.064 5.371
5.452 4.885 5.497
5.123 4.874 5.697
5.968 5.930 4.957
5.828 5.754 5.079
5.700 5.618 5.121
5.579 5.450 5.344
5.358 5.179 5.451
5.239 5.079 5.488
5.118 4.907 5.675
4.925 5.043 5.702
5.973 6.192 4.878
5.771 6.049 4.968
5.638 5.926 5.122
5.462 5.793 5.260
5.390 5.607 5.376
5.233 5.425 5.448
5.075 5.228 5.544
4.974 5.058 5.663
4.778 5.224 5.810
5.645 6.235 4.971
5.418 6.080 5.189
5.352 5.916 5.315
5.220 5.784 5.444
5.057 5.635 5.493
4.915 5.447 5.643
4.823 5.203 5.752
4.644 5.487 5.848
5.345 6.308 5.166
5.206 6.135 5.266
5.030 5.946 5.490
4.888 5.730 5.607
4.711 5.585 5.738
4.616 5.471 5.776
4.462 5.627 5.899
4.972 6.327 5.350
4.903 6.096 5.521
4.685 5.913 5.603
4.562 5.783 5.760
4.400 5.583 5.835
4.220 5.776 5.976
4.548 6.140 5.625
4.421 5.901 5.807
4.254 5.800 5.916
4.545 6.271 5.390
4.389 6.055 5.439
4.253 5.855 5.547
5.726 4.945 4.991
5.572 4.827 5.132
5.478 4.680 5.257
5.167 4.605 5.366
5.904 5.526 4.771
5.731 5.278 4.950
5.608 5.125 4.982
5.387 4.940 5.167
5.343 4.799 5.303
5.105 4.662 5.437
4.964 4.783 5.507
5.856 5.889 4.694
5.711 5.667 4.856
5.600 5.559 4.980
5.411 5.386 5.133
5.300 5.209 5.195
5.101 5.046 5.355
4.970 4.879 5.438
4.849 4.966 5.549
4.032 4.067 6.269
5.646 5.985 4.754
5.529 5.840 4.828
5.424 5.687 5.051
5.211 5.470 5.151
5.047 5.399 5.203
4.981 5.162 5.403
4.847 5.053 5.485
4.687 5.218 5.554
5.506 6.256 4.798
5.356 6.024 4.895
5.167 5.820 5.007
5.086 5.711 5.175
4.938 5.482 5.275
4.800 5.392 5.458
4.671 5.246 5.594
4.512 5.344 5.650
5.138 6.249 5.012
5.052 6.091 5.087
4.954 5.842 5.178
4.790 5.700 5.309
4.599 5.590 5.528
4.517 5.386 5.659
4.372 5.571 5.695
4.849 6.212 5.116
4.722 6.072 5.304
4.578 5.905 5.357
4.498 5.713 5.577
4.358 5.586 5.634
4.523 6.198 5.283
4.396 6.036 5.516
4.325 5.849 5.602
3.288 4.820 6.152
3.149 4.716 6.270
4.432 6.164 5.166
4.317 6.013 5.296
5.201 4.396 5.127
5.032 4.270 5.264
5.448 4.769 4.941
5.300 4.562 5.007
5.229 4.380 5.130
5.021 4.591 5.165
4.882 4.390 5.293
3.951 3.281 6.191
5.559 5.269 4.657
5.435 5.109 4.846
5.297 4.895 4.922
5.154 4.719 5.047
5.013 4.607 5.186
4.840 4.746 5.258
4.710 4.612 5.407
3.922 3.643 6.086
3.797 3.498 6.232
5.587 5.588 4.563
5.381 5.443 4.710
5.310 5.280 4.878
5.110 5.063 4.951
4.964 4.951 5.118
4.886 4.789 5.219
4.657 4.922 5.302
3.723 3.790 6.190
5.584 6.013 4.517
5.425 5.753 4.696
5.202 5.656 4.748
5.100 5.512 4.944
4.946 5.310 5.082
4.838 5.076 5.196
4.729 4.916 5.284
4.510 5.119 5.383
3.644 4.107 6.109
3.560 3.930 6.197
5.412 6.171 4.639
5.260 6.006 4.697
5.095 5.788 4.895
4.947 5.596 4.976
4.808 5.496 5.127
4.657 5.264 5.224
4.482 5.152 5.342
4.393 5.374 5.403
3.496 4.337 6.141
3.345 4.141 6.225
5.019 6.117 4.806
4.873 6.019 4.866
4.770 5.805 5.005
4.588 5.697 5.163
4.473 5.527 5.265
4.388 5.360 5.414
3.468 4.693 6.076
3.373 4.537 6.255
4.800 6.176 4.940
4.578 6.048 5.079
4.477 5.837 5.193
4.328 5.681 5.310
3.284 4.854 6.145
3.159 4.657 6.263
4.465 6.228 5.095
4.336 5.988 5.246
3.312 4.909 5.801
3.242 4.773 5.885
3.101 4.614 6.042
2.934 4.433 6.177
4.349 6.157 4.944
3.141 5.110 5.859
2.992 4.915 5.999
2.856 4.828 6.092
2.728 4.574 6.259
3.134 5.433 5.783
3.046 5.363 5.849
2.892 5.146 5.990
2.743 4.993 6.110
3.110 5.867 5.740
3.023 5.688 5.789
2.834 5.534 5.905
2.681 5.290 6.021
3.125 6.190 5.609
2.909 6.012 5.775
2.825 5.815 5.894
2.616 5.621 6.001
2.776 6.192 5.761
2.617 6.036 5.979
5.260 3.859 4.903
5.106 3.730 5.088
4.963 3.513 5.149
4.895 3.326 5.310
5.295 4.166 4.833
5.082 3.972 4.956
4.980 3.849 5.168
4.868 3.718 5.262
5.201 4.240 4.826
5.054 4.377 4.949
4.960 4.184 5.021
4.858 4.070 5.139
5.402 4.727 4.684
5.215 4.549 4.803
5.051 4.400 4.969
4.875 4.586 4.941
4.755 4.410 5.054
4.588 4.202 5.255
3.694 3.000 6.164
3.561 2.889 6.253
5.330 5.054 4.570
5.179 4.928 4.698
5.040 4.696 4.890
4.901 4.568 5.006
4.719 4.762 4.993
4.572 4.511 5.125
3.626 3.350 6.038
3.539 3.249 6.213
5.297 5.400 4.535
5.169 5.252 4.682
5.020 5.075 4.834
4.890 4.840 4.953
4.742 4.698 4.983
4.576 4.883 5.061
3.573 3.750 5.971
3.484 3.536 6.063
3.286 3.441 6.192
5.320 5.758 4.435
5.117 5.567 4.605
5.039 5.424 4.687
4.872 5.220 4.858
4.672 5.067 4.986
4.540 4.855 5.043
4.385 5.064 5.187
3.486 3.889 6.032
3.309 3.761 6.132
3.196 3.631 6.224
5.250 6.115 4.422
5.113 5.873 4.503
4.994 5.736 4.659
4.834 5.624 4.724
4.629 5.417 4.873
4.504 5.303 5.028
4.357 5.113 5.145
3.424 4.250 5.950
3.283 4.102 6.046
3.096 3.921 6.180
5.083 6.322 4.452
4.927 6.109 4.553
4.844 5.926 4.702
4.621 5.750 4.809
4.494 5.553 4.928
4.375 5.456 5.021
3.371 4.634 5.908
3.285 4.478 6.010
3.111 4.247 6.129
3.007 4.106 6.227
4.791 6.292 4.573
4.657 6.086 4.695
4.454 5.984 4.815
4.315 5.813 5.009
3.328 4.906 5.832
3.163 4.836 5.909
3.033 4.642 5.993
2.893 4.460 6.156
4.262 6.157 4.893
3.335 5.050 5.494
3.227 4.860 5.568
3.052 4.691 5.726
2.966 4.571 5.884
2.790 4.396 6.004
2.670 4.247 6.058
4.300 6.182 4.594
3.380 5.439 5.383
3.228 5.191 5.516
3.059 5.088 5.608
2.911 4.893 5.731
2.734 4.789 5.904
2.655 4.554 6.017
3.298 5.763 5.359
3.162 5.611 5.432
3.010 5.418 5.607
2.918 5.199 5.696
2.793 5.085 5.814
2.587 4.866 5.917
2.471 4.732 6.060
3.302 6.058 5.275
3.151 5.906 5.416
3.033 5.729 5.491
2.814 5.652 5.637
2.661 5.441 5.741
2.626 5.259 5.865
2.448 5.074 6.028
3.217 6.145 5.235
3.143 6.279 5.264
2.947 6.087 5.425
2.779 5.931 5.554
2.731 5.767 5.659
2.593 5.567 5.779
2.452 5.396 5.903
3.148 6.284 5.293
2.687 6.140 5.543
2.545 5.950 5.757
2.366 5.743 5.823
2.308 6.166 5.820
5.313 3.941 4.600
5.118 3.778 4.777
5.038 3.566 4.855
4.834 3.460 5.024
4.784 3.314 5.114
4.626 3.115 5.209
4.406 2.901 5.398
6.292 5.137 3.756
5.348 3.933 4.615
5.104 4.148 4.636
4.963 3.947 4.759
4.869 3.831 4.943
4.727 3.586 5.084
4.579 3.490 5.171
4.442 3.334 5.244
3.446 2.127 6.189
6.189 5.466 3.668
5.242 4.289 4.567
5.086 4.150 4.709
5.008 4.367 4.685
4.816 4.194 4.853
4.636 4.000 4.959
4.526 3.798 5.095
4.442 3.591 5.270
3.379 2.421 6.080
3.278 2.290 6.282
6.209 5.806 3.556
5.122 4.511 4.563
4.924 4.261 4.716
4.843 4.518 4.771
4.679 4.302 4.844
4.509 4.195 4.979
3.249 2.645 6.140
3.162 2.503 6.321
6.126 6.214 3.517
5.098 4.805 4.550
4.939 4.677 4.672
4.830 4.502 4.776
4.648 4.660 4.835
4.518 4.557 4.928
3.272 2.982 6.104
3.055 2.815 6.203
5.065 5.172 4.483
4.939 5.002 4.575
4.786 4.891 4.714
4.644 4.621 4.858
4.434 4.882 4.889
3.222 3.366 6.046
3.101 3.191 6.158
2.895 2.999 6.229
5.052 5.506 4.423
4.859 5.407 4.440
4.767 5.188 4.585
4.592 4.999 4.696
4.496 4.818 4.883
3.121 3.686 5.941
