5.299 1.853 1.792
5.346 1.797 1.866
5.162 1.975 2.240
4.924 1.781 2.514
4.808 1.922 2.707
4.656 1.843 2.683
4.534 1.888 3.024
4.400 1.860 3.170
5.640 2.245 1.532
5.410 2.236 1.636
5.211 2.058 1.889
5.005 2.270 2.069
5.082 2.205 2.325
4.965 1.986 2.457
4.779 2.170 2.633
4.555 2.101 2.832
4.516 2.195 2.875
5.459 2.318 1.354
5.239 2.324 1.579
5.293 2.404 1.945
5.206 2.494 1.854
5.016 2.209 2.318
4.929 2.399 2.233
4.666 2.452 2.689
4.534 2.242 2.727
5.439 2.693 1.345
5.325 2.763 1.685
5.234 2.691 1.802
5.034 2.549 1.846
4.859 2.552 2.129
4.752 2.651 2.198
4.696 2.478 2.678
5.547 2.663 1.142
5.283 2.536 1.439
5.149 2.737 1.548
5.139 2.570 1.732
4.821 2.486 1.952
4.748 2.530 2.073
4.567 2.383 2.110
5.388 2.956 0.798
5.470 2.854 1.017
5.288 2.940 1.421
5.186 2.783 1.494
4.907 2.703 1.557
4.776 2.775 1.735
4.850 2.761 1.959
5.550 3.087 0.636
5.574 3.069 0.913
5.351 3.157 1.046
5.218 3.024 1.418
4.952 2.929 1.534
4.769 3.086 1.576
5.791 3.464 0.636
5.588 3.429 0.826
5.303 3.411 0.794
5.146 3.200 1.149
5.112 3.365 1.336
5.770 3.566 0.237
5.601 3.480 0.619
5.484 3.459 0.816
5.398 3.665 0.951
5.129 3.651 0.989
3.833 3.240 2.868
5.670 3.817 0.254
5.756 3.660 0.194
5.660 3.719 0.435
5.331 3.735 0.636
5.417 3.648 0.910
4.149 3.711 2.425
4.125 3.658 2.723
3.999 3.474 2.747
5.836 3.940 0.264
5.872 4.050 0.241
5.645 4.080 0.482
5.622 4.061 0.617
5.282 3.957 0.802
4.435 3.925 2.045
4.096 3.667 2.329
3.964 3.938 2.565
4.064 3.729 2.602
3.728 3.864 2.990
5.871 3.989 0.212
5.833 4.213 0.145
5.536 4.142 0.190
5.560 4.296 0.504
4.504 4.196 1.996
4.151 4.082 2.013
4.265 4.106 2.432
4.097 3.878 2.360
4.055 4.073 2.766
3.694 3.888 2.907
5.770 4.157 0.272
5.593 4.404 0.125
5.585 4.531 0.455
5.295 4.392 0.458
4.623 4.227 1.725
4.607 4.322 1.833
4.234 4.216 2.021
4.293 4.191 2.024
4.119 4.099 2.368
4.035 4.175 2.603
3.889 4.276 2.697
3.620 4.311 2.963
5.784 4.569 0.115
5.769 4.760 0.109
5.627 4.724 0.159
4.499 4.517 1.659
4.574 4.452 1.820
4.447 4.443 1.821
4.282 4.390 2.034
4.017 4.353 2.167
3.866 4.331 2.556
3.720 4.568 2.638
3.716 4.381 2.873
5.772 4.740 0.008
5.539 4.788 0.175
5.318 4.864 0.255
4.529 4.797 1.268
4.579 4.629 1.534
4.389 4.833 1.851
4.187 4.669 1.950
4.282 4.590 2.159
3.997 4.593 2.189
3.944 4.554 2.629
3.737 4.683 2.524
3.719 4.608 2.821
5.439 4.925 0.015
5.606 5.253 0.178
4.735 4.930 1.185
4.531 5.156 1.391
4.449 4.993 1.680
4.251 5.019 1.864
4.222 5.013 1.783
4.017 4.900 2.150
3.874 5.024 2.422
3.975 4.904 2.580
3.811 4.909 2.606
5.412 5.041 0.026
4.777 5.094 1.125
4.585 5.206 1.349
4.525 5.227 1.525
4.184 5.231 1.851
4.343 5.085 2.031
4.062 5.025 2.082
3.820 5.241 2.203
3.818 5.096 2.332
4.865 5.623 0.994
4.778 5.358 1.047
4.679 5.567 1.371
4.346 5.421 1.603
4.181 5.278 1.858
4.267 5.464 1.957
4.009 5.296 1.949
3.986 5.324 2.334
3.842 5.314 2.586
4.822 5.846 1.004
4.612 5.565 1.028
4.360 5.523 1.282
4.300 5.690 1.497
4.102 5.585 1.810
3.966 5.698 1.922
3.978 5.565 2.207
4.798 6.015 0.681
4.692 6.044 1.094
4.436 5.801 1.195
4.560 5.995 1.268
4.292 6.009 1.624
4.049 5.946 1.585
4.082 5.681 1.996
5.006 6.310 0.640
4.768 6.045 0.656
4.513 5.994 0.822
4.518 6.173 1.070
4.523 6.034 1.324
4.230 5.966 1.359
6.334 1.295 0.547
6.200 1.506 0.782
5.214 1.310 1.736
5.071 1.200 1.775
4.919 1.360 2.101
4.858 1.099 2.328
4.655 1.296 2.506
4.553 1.208 2.639
4.607 1.054 2.758
4.348 1.142 2.968
6.117 1.482 0.445
5.273 1.378 1.804
5.204 1.467 1.844
4.915 1.496 2.212
4.858 1.270 2.331
4.765 1.355 2.405
4.558 1.525 2.491
4.445 1.337 2.964
4.311 1.239 3.115
6.106 1.896 0.315
6.235 1.918 0.432
5.312 1.568 1.537
5.306 1.642 1.806
5.050 1.705 1.922
4.827 1.810 2.208
4.762 1.673 2.248
4.733 1.516 2.291
4.667 1.697 2.649
4.417 1.473 2.886
4.296 1.603 2.944
6.139 1.700 0.203
6.179 2.009 0.204
5.524 1.938 1.275
5.282 1.842 1.669
5.222 1.966 1.644
4.888 1.895 1.754
4.992 1.843 1.962
4.813 1.802 2.144
4.692 1.982 2.380
4.563 1.766 2.556
4.488 1.739 2.786
6.143 2.088 0.398
5.380 2.033 1.413
5.230 2.054 1.514
4.974 2.257 1.625
5.123 2.223 1.943
4.860 2.235 1.904
4.795 2.135 2.275
4.660 2.183 2.433
4.448 2.161 2.564
6.402 2.458 0.022
5.453 2.266 1.138
5.188 2.273 1.392
5.320 2.440 1.494
5.201 2.458 1.707
4.855 2.226 1.972
4.648 2.225 2.122
4.674 2.350 2.122
4.391 2.211 2.509
4.376 2.242 2.606
6.331 2.458 0.172
5.388 2.686 0.979
5.235 2.642 1.422
5.121 2.517 1.486
5.017 2.709 1.663
5.032 2.424 1.950
4.722 2.561 1.978
4.524 2.592 2.076
5.330 2.472 0.964
5.098 2.472 0.863
5.094 2.581 1.302
4.983 2.485 1.252
4.920 2.652 1.453
4.719 2.554 1.632
4.573 2.636 1.784
5.459 2.989 0.612
5.271 2.966 0.670
5.176 2.934 0.955
5.114 2.923 1.035
4.820 2.693 1.395
4.845 2.871 1.469
4.648 2.645 1.673
5.623 2.943 0.578
5.422 3.205 0.718
5.137 2.927 0.837
5.086 2.970 0.899
5.136 2.969 1.297
4.997 3.122 1.427
4.861 2.922 1.558
5.572 3.265 0.273
5.353 3.405 0.537
5.349 3.324 0.604
5.162 3.244 0.870
5.009 3.311 0.898
4.983 3.312 1.163
4.975 3.128 1.449
3.898 3.056 2.739
5.576 3.633 -0.010
5.533 3.473 0.181
5.525 3.636 0.546
5.289 3.617 0.564
5.083 3.487 0.870
4.992 3.492 1.007
4.884 3.578 1.004
3.992 3.264 2.475
3.668 3.161 2.901
5.765 3.651 0.180
5.513 3.718 -0.043
5.506 3.776 0.102
5.452 3.594 0.404
5.212 3.838 0.722
4.976 3.761 0.753
5.039 3.696 0.961
3.874 3.381 2.363
3.739 3.462 2.699
3.559 3.617 2.787
5.568 3.732 0.083
5.700 3.962 0.108
5.376 4.071 0.124
5.458 3.840 0.386
5.124 3.914 0.448
4.949 3.969 0.662
4.052 3.910 2.059
3.963 3.731 2.432
3.823 3.824 2.486
3.774 3.815 2.681
5.578 3.873 0.083
5.648 4.214 0.019
5.449 4.177 0.299
5.441 4.165 0.460
5.100 4.191 0.521
4.171 4.006 2.165
3.974 4.040 2.170
3.905 3.885 2.516
3.777 4.054 2.499
3.719 3.919 2.678
5.562 4.302 -0.058
5.516 4.419 -0.054
5.321 4.277 0.192
5.210 4.351 0.334
4.078 4.112 1.967
4.008 4.171 2.081
3.928 4.149 2.221
3.853 4.182 2.220
3.670 4.189 2.423
3.419 4.269 2.763
5.519 4.522 0.130
5.204 4.647 0.189
4.181 4.543 1.615
4.291 4.536 1.855
3.874 4.459 2.026
3.931 4.512 2.285
3.868 4.381 2.217
3.610 4.235 2.517
3.636 4.456 2.654
4.504 4.813 1.510
4.391 4.604 1.520
4.133 4.718 1.715
3.840 4.756 1.889
3.729 4.507 2.013
3.808 4.767 2.202
3.456 4.694 2.582
4.445 5.065 1.306
4.184 4.999 1.429
4.126 4.816 1.607
3.981 4.938 1.908
3.939 4.887 1.849
3.895 4.841 2.037
3.821 4.843 2.214
4.572 5.232 1.172
4.527 5.174 1.175
4.270 5.073 1.324
4.162 5.212 1.683
4.078 5.011 1.873
3.734 5.213 2.097
3.603 5.061 2.077
4.703 5.348 0.953
4.358 5.312 1.191
4.215 5.512 1.357
4.321 5.271 1.509
4.050 5.354 1.439
4.097 5.215 1.764
3.856 5.329 1.820
4.806 5.684 0.571
4.648 5.602 0.930
4.440 5.512 0.923
4.236 5.491 1.187
4.059 5.649 1.546
4.184 5.650 1.466
3.811 5.525 1.649
4.707 5.988 0.614
4.782 5.882 0.615
4.670 5.890 0.910
4.369 5.898 1.021
4.175 5.775 1.186
4.191 5.845 1.468
4.142 5.924 1.419
4.826 6.255 0.139
4.631 6.117 0.459
4.615 6.116 0.527
4.372 5.991 0.742
4.385 6.209 1.101
4.204 6.097 1.261
4.106 5.909 1.355
4.200 6.360 1.086
3.105 6.189 2.547
6.158 1.252 0.262
6.093 1.332 0.256
5.892 1.248 0.429
4.777 1.292 1.981
4.627 1.142 2.226
4.733 1.117 2.455
4.352 1.209 2.622
4.380 0.979 2.731
4.236 1.000 2.740
6.156 1.449 0.087
6.188 1.627 0.089
6.055 1.486 0.184
4.943 1.433 1.887
4.753 1.285 2.094
4.674 1.512 2.274
4.696 1.279 2.176
4.478 1.481 2.564
4.436 1.173 2.754
4.065 1.352 2.917
5.981 1.445 0.080
5.916 1.763 0.169
5.000 1.607 1.481
4.824 1.680 1.667
4.881 1.629 1.848
4.627 1.542 2.089
4.650 1.615 2.161
4.457 1.556 2.362
4.105 1.494 2.596
6.034 1.721 0.141
5.061 2.010 1.362
4.957 1.834 1.469
4.858 1.817 1.771
4.856 1.946 1.812
4.487 1.668 2.179
4.459 1.705 2.376
4.434 1.631 2.553
5.250 2.096 1.234
5.061 2.026 1.468
4.910 2.102 1.520
4.668 2.052 1.722
4.603 2.062 1.950
4.422 2.031 2.045
4.262 2.080 2.293
5.306 2.439 0.967
5.043 2.265 1.262
4.898 2.345 1.310
4.791 2.451 1.491
4.658 2.200 1.792
4.514 2.154 1.966
4.489 2.235 1.945
5.384 2.740 0.926
5.360 2.665 0.937
5.019 2.576 1.113
4.836 2.423 1.387
4.967 2.390 1.633
4.839 2.655 1.772
4.508 2.597 2.025
1.679 2.043 5.787
1.730 2.020 6.192
1.465 2.145 6.356
3.653 2.258 3.318
3.254 2.348 3.689
3.328 2.248 3.622
3.182 2.158 3.936
3.057 2.193 4.031
2.748 2.283 4.409
2.771 2.228 4.340
1.722 2.336 5.800
1.639 2.305 6.022
1.539 2.186 6.149
1.471 2.185 6.340
3.607 2.511 3.044
3.452 2.454 3.337
3.431 2.553 3.499
3.172 2.454 3.591
2.993 2.553 3.979
2.993 2.472 4.160
2.902 2.457 4.138
1.873 2.425 5.585
1.615 2.616 5.805
1.529 2.518 5.989
1.609 2.458 6.162
1.304 2.434 6.377
3.617 2.720 3.021
3.602 2.750 3.232
3.520 2.746 3.199
3.259 2.684 3.662
3.094 2.722 3.620
3.029 2.585 3.768
2.836 2.783 4.035
2.098 2.633 5.398
1.709 2.682 5.410
1.819 2.841 5.837
1.599 2.706 5.984
1.345 2.612 6.105
1.385 2.629 6.098
3.505 3.133 2.976
3.398 3.132 3.117
3.267 2.861 3.320
3.150 3.027 3.650
3.024 3.091 3.627
2.919 2.977 3.876
1.996 2.898 5.000
1.879 2.928 5.448
1.672 2.943 5.632
1.669 2.915 5.574
1.493 3.023 5.847
1.496 2.863 6.071
1.307 2.903 6.316
3.461 3.272 2.877
3.597 3.143 3.227
3.322 3.188 3.222
3.156 3.249 3.556
3.204 3.205 3.766
2.031 2.885 5.283
2.148 3.313 5.222
1.726 3.094 5.406
1.589 3.087 5.557
1.661 3.145 5.761
1.543 3.212 5.976
1.310 3.000 5.976
3.645 3.470 2.884
3.374 3.428 3.032
3.250 3.584 3.447
3.104 3.549 3.337
2.216 3.184 5.024
1.910 3.370 5.080
1.808 3.321 5.073
1.870 3.566 5.193
1.629 3.276 5.629
1.531 3.441 5.525
1.321 3.289 5.742
3.587 3.769 2.862
3.284 3.603 3.036
3.403 3.581 3.384
2.073 3.489 4.762
2.217 3.339 4.893
2.091 3.345 5.182
1.815 3.683 5.092
1.778 3.719 5.182
1.623 3.655 5.387
1.491 3.583 5.722
3.333 3.828 2.992
3.418 3.870 3.178
2.297 3.836 4.436
2.195 3.846 4.590
1.936 3.755 4.873
1.823 3.596 5.132
1.999 3.824 5.179
1.618 3.972 5.381
1.570 3.755 5.387
3.509 4.278 2.986
2.285 4.116 4.424
2.125 4.051 4.542
2.227 3.964 4.788
1.856 3.969 4.814
1.989 3.960 5.122
1.926 4.152 5.046
1.633 4.215 5.125
2.611 4.066 4.041
2.310 4.243 4.216
2.329 4.279 4.450
2.104 4.138 4.624
2.027 4.156 4.848
1.927 4.118 5.057
1.626 4.331 5.173
2.523 4.400 3.868
2.524 4.286 4.245
2.342 4.550 4.430
2.016 4.518 4.578
1.889 4.422 4.597
1.837 4.443 4.961
1.731 4.387 5.130
2.605 4.804 3.740
2.423 4.596 4.052
2.392 4.718 4.156
2.127 4.509 4.388
2.037 4.706 4.406
1.864 4.522 4.718
1.728 4.689 4.823
0.934 4.514 6.136
2.859 5.009 3.709
2.736 4.928 3.803
2.586 4.926 3.905
2.274 4.736 4.148
2.189 4.918 4.292
2.171 4.686 4.535
1.905 4.873 4.811
1.037 4.854 5.820
0.977 5.007 6.108
2.871 5.303 3.368
2.558 5.221 3.492
2.564 5.113 3.619
2.292 5.102 4.020
2.354 5.153 4.076
2.179 5.054 4.427
2.059 4.969 4.533
1.198 5.030 5.831
0.933 5.214 5.869
0.657 5.112 6.264
2.776 5.557 3.285
2.706 5.437 3.282
2.643 5.338 3.645
2.484 5.262 3.732
2.221 5.391 4.038
2.239 5.308 4.246
2.178 5.223 4.183
1.069 5.490 5.574
1.075 5.425 5.640
0.949 5.189 5.989
0.792 5.251 6.136
3.053 5.543 3.151
2.938 5.606 3.330
2.833 5.712 3.250
2.561 5.523 3.563
2.479 5.634 3.842
2.226 5.510 3.927
2.154 5.565 4.189
1.150 5.598 5.447
0.992 5.682 5.671
1.060 5.696 5.750
0.761 5.491 5.798
0.604 5.413 6.212
2.915 5.969 2.881
3.051 5.855 2.936
2.801 5.918 3.188
2.679 5.887 3.358
2.442 5.740 3.436
2.425 5.928 3.838
2.287 5.723 4.043
1.462 5.933 5.321
1.181 5.902 5.408
0.949 5.736 5.465
1.016 5.741 5.719
0.892 5.885 5.872
0.627 5.624 6.232
0.447 5.636 6.318
2.980 6.065 2.729
2.863 6.228 2.967
2.604 5.994 3.048
2.700 5.910 3.507
2.623 6.046 3.614
2.201 6.151 3.861
1.516 6.037 4.995
1.410 5.961 5.219
1.176 6.087 5.443
1.074 6.057 5.549
0.895 6.166 5.664
0.849 5.950 5.898
0.597 5.976 6.139
2.500 6.383 3.203
2.469 6.299 3.499
1.409 5.966 5.135
1.112 6.419 5.491
0.862 6.205 5.517
0.729 6.106 5.724
0.781 6.285 5.894
2.379 0.743 5.345
2.400 0.822 5.319
2.294 0.813 5.697
4.196 1.021 3.052
3.075 0.807 4.465
2.820 0.937 4.636
2.737 0.783 4.919
2.741 0.818 4.953
2.579 0.694 5.308
2.451 1.136 5.128
2.356 1.068 5.402
3.251 1.166 4.384
2.978 1.272 4.525
2.788 1.186 4.560
2.675 0.978 4.781
2.494 1.094 5.186
2.526 1.163 5.097
2.462 1.278 5.334
3.124 1.503 4.148
2.954 1.369 4.172
3.063 1.210 4.480
2.890 1.402 4.620
2.809 1.350 4.936
2.460 1.335 5.075
2.270 1.220 5.072
3.217 1.769 3.934
3.201 1.482 4.112
2.991 1.689 4.288
2.805 1.424 4.423
2.720 1.655 4.546
2.637 1.470 4.848
2.603 1.512 5.178
3.273 1.827 3.701
3.185 1.742 3.879
3.213 1.798 4.060
2.862 1.778 4.223
2.950 1.788 4.400
2.804 1.845 4.703
2.679 1.687 4.839
1.782 1.765 6.048
1.485 1.911 6.376
3.459 2.221 3.617
3.272 2.009 3.800
3.062 2.086 3.824
2.943 1.924 4.217
2.803 2.140 4.279
2.682 1.969 4.363
2.787 1.986 4.565
1.703 2.004 5.913
1.615 1.976 6.211
1.347 2.170 6.359
3.399 2.327 3.506
3.357 2.219 3.665
3.274 2.255 3.718
3.059 2.300 3.947
2.890 2.393 4.164
2.764 2.388 4.203
2.871 2.373 4.336
1.615 1.935 5.516
1.603 1.923 5.760
1.284 1.880 6.104
1.340 1.889 6.186
3.502 2.343 2.952
3.490 2.426 3.229
3.255 2.422 3.338
3.118 2.193 3.606
2.908 2.188 3.848
2.929 2.204 3.964
2.685 2.146 4.130
1.834 2.431 5.301
1.671 2.328 5.463
1.657 2.175 5.557
1.467 2.159 5.899
1.501 2.119 6.008
1.205 2.287 6.018
3.661 2.443 2.792
3.389 2.568 3.050
3.429 2.518 3.066
3.112 2.499 3.455
3.030 2.504 3.551
3.032 2.331 3.712
2.697 2.544 3.933
2.544 2.551 4.135
1.869 2.649 5.255
1.712 2.518 5.517
1.479 2.570 5.563
1.577 2.509 5.805
1.221 2.405 5.812
1.057 2.459 6.013
3.619 2.635 2.989
3.398 2.691 3.154
3.391 2.858 3.189
3.225 2.788 3.283
3.003 2.683 3.468
2.860 2.547 3.856
2.603 2.683 4.042
2.060 2.727 4.895
1.784 2.646 5.173
1.809 2.678 5.272
1.643 2.628 5.494
1.247 2.536 5.617
1.376 2.674 6.074
1.251 2.720 5.970
3.571 2.970 2.918
3.244 3.062 3.095
3.211 2.979 3.138
2.983 3.065 3.228
2.983 3.004 3.585
2.740 2.766 3.626
2.811 2.771 4.013
1.988 2.835 4.948
1.855 2.944 4.872
1.813 2.955 5.247
1.633 3.089 5.414
1.602 2.924 5.646
1.337 2.922 5.741
1.159 2.835 5.979
1.202 2.725 6.156
1.083 2.821 6.143
3.431 3.221 2.912
3.356 3.144 2.987
3.183 3.228 3.256
2.976 3.295 3.290
2.938 3.277 3.530
2.872 3.001 3.825
2.037 2.881 4.719
1.742 2.940 5.019
1.838 3.204 5.116
1.696 3.208 5.286
1.514 3.016 5.325
1.562 3.063 5.628
1.219 3.126 5.848
1.040 3.127 6.046
0.917 3.147 6.224
3.328 3.445 2.809
3.228 3.485 2.869
3.212 3.324 3.245
2.872 3.442 3.338
3.014 3.348 3.412
1.945 3.265 4.867
1.844 3.306 4.982
1.626 3.329 5.009
1.735 3.548 5.152
1.617 3.294 5.328
1.495 3.415 5.389
1.184 3.466 5.628
1.239 3.261 5.745
0.871 3.245 5.951
3.334 3.749 2.838
3.098 3.580 2.988
3.010 3.524 3.027
2.962 3.630 3.212
2.873 3.601 3.403
2.005 3.507 4.540
1.806 3.389 4.924
1.923 3.475 4.976
1.723 3.493 4.901
1.512 3.702 5.260
1.381 3.450 5.373
1.412 3.477 5.403
1.292 3.577 5.775
3.375 3.765 2.759
3.245 3.712 2.852
3.057 3.955 3.204
2.060 3.662 4.598
1.924 3.507 4.648
1.588 3.573 4.873
1.557 3.962 5.063
1.457 3.830 5.208
1.444 3.911 5.368
1.308 3.905 5.414
3.357 4.168 2.784
3.219 4.028 3.058
2.195 3.810 4.504
1.989 3.993 4.708
1.806 3.963 4.921
1.786 4.004 4.968
1.697 4.005 4.992
1.401 4.086 4.990
2.167 4.005 4.155
2.048 4.044 4.522
1.842 4.236 4.500
1.911 4.165 4.795
1.517 4.066 5.071
2.182 4.303 4.095
2.004 4.509 4.105
2.101 4.361 4.352
1.836 4.226 4.712
1.816 4.308 4.775
2.375 4.689 3.772
2.211 4.607 4.029
1.996 4.584 4.278
2.072 4.572 4.254
1.835 4.502 4.510
0.664 4.615 5.960
0.631 4.611 6.299
2.615 5.037 3.436
2.505 4.910 3.724
2.234 4.843 3.713
2.086 4.775 4.081
2.036 4.832 4.130
1.777 4.848 4.238
0.958 4.893 5.748
0.914 4.761 5.959
0.734 4.690 6.034
0.424 4.781 6.063
2.692 5.192 3.130
2.525 4.989 3.378
2.556 5.137 3.581
2.219 5.068 3.554
2.322 5.065 3.727
1.992 5.040 4.039
2.037 5.126 4.245
0.904 5.075 5.499
0.978 5.082 5.535
0.782 5.143 5.848
0.672 5.122 5.926
0.403 4.985 6.030
2.706 5.526 2.996
2.555 5.315 2.996
2.451 5.258 3.236
2.406 5.253 3.448
2.269 5.329 3.508
2.301 5.191 3.784
1.942 5.401 3.949
1.209 5.352 5.034
1.150 5.241 5.175
1.013 5.230 5.307
0.905 5.177 5.588
0.599 5.255 5.884
0.659 5.163 5.878
0.568 5.242 6.178
3.036 5.600 2.788
2.937 5.564 2.829
2.596 5.438 2.999
2.661 5.614 3.163
2.491 5.614 3.432
2.128 5.591 3.754
2.115 5.379 3.846
2.116 5.538 3.903
1.272 5.504 5.154
0.955 5.671 5.255
0.834 5.414 5.304
0.699 5.589 5.564
0.654 5.582 5.830
0.638 5.506 6.066
0.320 5.379 6.033
2.835 5.704 2.554
2.677 5.973 2.889
2.652 5.665 2.926
2.397 5.679 3.223
2.208 5.804 3.401
2.164 5.672 3.757
2.122 5.839 3.844
1.122 5.803 4.825
1.207 5.799 5.107
0.939 5.751 5.209
0.793 5.674 5.317
0.859 5.643 5.468
0.763 5.617 5.770
0.630 5.639 6.010
0.506 5.657 6.157
2.971 5.965 2.697
2.580 6.119 2.919
2.458 5.983 3.026
2.338 6.031 3.364
2.368 5.868 3.514
2.195 5.902 3.450
2.073 5.876 3.722
1.291 5.730 4.823
1.111 6.102 4.934
0.988 6.134 5.192
1.018 6.024 5.270
0.824 6.134 5.520
0.832 5.891 5.575
0.503 5.972 5.618
0.407 5.800 5.865
0.454 5.858 6.035
2.696 6.266 2.665
2.708 6.210 2.889
2.438 6.328 2.976
2.452 6.367 3.203
2.330 6.071 3.417
2.255 6.330 3.658
1.214 6.072 4.529
1.121 6.112 4.868
1.056 6.246 4.825
1.174 6.123 5.021
0.948 6.288 5.108
0.670 6.324 5.289
0.755 6.127 5.504
0.503 6.186 5.696
0.433 6.294 5.804
1.259 6.382 4.937
2.243 0.848 5.094
2.345 0.750 5.394
2.037 0.888 5.457
1.869 0.742 5.624
3.892 0.971 2.856
3.816 0.898 3.190
2.840 0.821 4.704
2.532 0.836 4.677
2.491 0.915 4.893
2.313 0.831 5.031
2.351 1.081 5.144
2.164 1.053 5.376
2.689 1.168 4.395
2.704 0.979 4.478
2.434 1.196 4.751
2.449 0.984 4.837
2.287 1.086 5.017
2.944 1.179 4.164
2.847 1.415 4.444
2.665 1.137 4.443
2.624 1.242 4.787
2.399 1.115 4.822
2.835 1.679 3.846
2.701 1.691 4.098
2.719 1.508 4.498
2.512 1.623 4.549
2.377 1.534 4.680
1.470 1.448 6.032
3.128 1.934 3.485
2.915 1.790 3.892
2.838 1.769 3.843
2.915 1.811 4.138
2.802 1.691 4.408
2.399 1.689 4.466
1.666 1.799 5.664
1.519 1.675 6.081
1.284 1.736 6.011
3.464 1.987 3.151
3.152 2.032 3.433
3.030 2.161 3.538
3.144 2.027 3.805
2.928 1.863 4.018
2.629 2.113 4.057
2.762 1.964 4.267
1.783 2.125 5.705
1.412 2.153 5.671
1.507 1.982 5.966
1.182 1.850 6.217
3.416 2.205 3.040
3.329 2.307 3.161
3.256 2.139 3.531
3.196 2.299 3.744
3.070 2.246 3.855
2.829 2.320 4.073
2.620 2.294 4.074
1.551 1.899 5.281
1.496 1.971 5.570
1.290 1.917 5.739
1.209 1.977 5.834
1.043 1.860 5.874
1.076 1.782 6.292
3.452 2.301 2.640
3.441 2.321 2.795
3.212 2.338 3.154
3.141 2.084 3.226
3.014 2.190 3.430
2.738 2.270 3.561
2.647 2.100 3.860
1.598 2.206 5.206
1.501 2.117 5.233
1.417 2.256 5.596
1.179 2.123 5.721
1.110 2.145 5.934
0.990 2.214 5.930
0.799 2.078 6.120
3.347 2.443 2.799
3.369 2.340 2.880
3.000 2.361 3.192
3.013 2.408 3.257
2.931 2.491 3.514
2.660 2.393 3.638
2.724 2.475 3.952
1.914 2.407 4.966
1.606 2.333 5.004
1.621 2.414 5.106
1.362 2.428 5.323
1.150 2.423 5.749
1.131 2.422 5.901
1.048 2.376 5.848
0.975 2.402 6.045
3.220 2.769 2.581
3.147 2.827 2.776
3.110 2.679 3.130
2.961 2.759 3.113
2.681 2.798 3.308
2.714 2.512 3.737
2.690 2.518 3.826
1.813 2.492 4.899
1.733 2.563 4.985
1.656 2.801 5.098
1.408 2.642 5.147
1.472 2.698 5.467
1.328 2.502 5.692
1.004 2.769 5.883
0.889 2.592 5.839
0.744 2.712 6.100
3.357 3.083 2.711
3.082 2.797 3.030
3.058 2.932 3.026
2.898 2.743 3.386
2.682 2.734 3.577
2.771 2.882 3.638
2.496 2.795 3.849
1.940 2.649 4.798
1.803 2.683 4.835
1.773 2.884 4.729
1.670 2.910 5.096
1.450 2.782 5.298
1.359 2.840 5.433
1.224 2.738 5.521
1.018 2.761 5.638
1.003 2.832 6.094
0.840 2.802 6.126
3.268 3.292 2.758
3.034 3.244 2.795
2.990 3.073 2.987
2.990 2.984 3.144
2.798 3.007 3.544
2.453 2.958 3.606
2.625 3.055 3.907
1.751 3.048 4.654
1.572 2.990 4.752
1.496 3.010 4.979
1.435 3.264 4.969
1.398 3.094 5.181
1.271 3.196 5.544
1.199 2.991 5.554
1.033 3.035 5.654
0.940 2.979 5.982
0.625 2.887 6.259
3.085 3.444 2.711
3.131 3.261 2.982
2.956 3.349 3.040
2.955 3.258 3.362
2.680 3.326 3.535
2.551 3.211 3.506
1.680 3.107 4.621
1.748 3.149 4.821
1.708 3.469 4.842
1.619 3.312 5.128
1.419 3.423 5.117
1.186 3.356 5.455
1.097 3.297 5.586
0.904 3.412 5.874
0.899 3.310 5.800
3.158 3.502 2.714
2.946 3.439 2.995
2.980 3.590 3.175
2.828 3.693 3.080
2.625 3.536 3.535
1.730 3.494 4.811
1.695 3.246 4.951
1.600 3.636 4.821
1.459 3.502 5.016
1.224 3.605 5.281
1.217 3.420 5.338
1.076 3.396 5.422
0.938 3.453 5.653
3.053 3.761 2.732
2.833 3.845 2.708
2.899 3.853 3.024
2.599 3.917 3.167
1.690 3.607 4.777
1.680 3.627 4.879
1.410 3.820 4.787
1.416 3.920 5.016
1.211 3.923 5.144
1.210 3.759 5.274
1.004 3.705 5.497
3.035 4.054 2.592
2.849 3.974 2.870
2.843 3.876 3.158
1.552 3.686 4.669
1.441 3.748 4.753
0.736 4.895 5.210
0.669 4.814 5.548
0.749 4.828 5.709
0.515 4.724 5.868
0.499 4.723 5.912
0.152 4.762 6.253
2.646 5.191 2.839
2.541 4.987 2.971
2.583 5.066 3.030
2.343 5.130 3.195
2.270 5.062 3.547
1.967 4.898 3.698
0.916 4.985 5.032
0.816 4.930 5.233
0.691 5.080 5.605
0.681 5.064 5.576
0.339 4.923 5.770
0.451 4.897 6.164
0.182 4.871 6.271
2.719 5.381 2.654
2.571 5.334 2.861
2.653 5.417 2.903
2.374 5.374 3.094
2.333 5.381 3.267
2.161 5.257 3.417
2.015 5.124 3.528
1.134 5.292 4.992
0.849 5.209 5.053
0.837 5.290 5.390
0.760 5.137 5.534
0.543 5.128 5.735
0.396 5.171 5.843
0.366 5.305 5.944
0.188 5.147 6.309
2.728 5.565 2.679
2.704 5.484 2.748
2.349 5.635 2.889
2.238 5.376 3.002
2.278 5.491 3.430
2.045 5.583 3.431
1.927 5.446 3.707
1.169 5.416 4.864
1.044 5.399 5.076
0.963 5.421 5.163
0.655 5.509 5.233
0.601 5.640 5.624
0.629 5.344 5.728
0.339 5.487 5.946
0.308 5.411 6.064
0.084 5.474 6.229
2.552 5.756 2.662
2.597 5.768 2.859
2.555 5.751 2.985
2.204 5.713 3.198
2.120 5.786 3.384
2.017 5.655 3.528
1.790 5.605 3.685
1.022 5.511 4.710
0.968 5.771 4.678
1.002 5.894 4.805
0.953 5.891 5.119
0.738 5.774 5.134
0.499 5.747 5.344
0.466 5.544 5.624
0.306 5.610 5.770
0.055 5.764 5.960
0.086 5.700 6.137
2.770 5.951 2.442
2.397 5.910 2.621
2.527 5.963 2.964
2.152 5.876 3.087
2.163 6.000 3.250
2.013 6.018 3.352
1.780 5.775 3.579
1.195 5.788 4.590
1.154 5.845 4.689
1.063 5.938 4.622
0.783 5.869 5.037
0.824 6.021 5.178
0.549 6.016 5.298
0.597 5.807 5.498
0.294 6.024 5.638
0.409 5.977 5.821
0.159 5.936 6.134
-0.043 5.838 6.278
2.555 6.177 2.509
2.602 6.240 2.821
2.421 6.271 3.018
2.314 6.133 2.985
2.069 6.134 3.284
2.094 6.026 3.505
1.671 6.167 3.558
1.146 5.917 4.406
1.094 6.096 4.876
1.090 6.222 4.719
0.727 6.351 4.822
0.723 6.284 5.032
0.621 6.104 5.326
0.603 6.159 5.470
0.225 6.225 5.498
0.275 6.175 5.810
0.114 6.128 5.931
1.178 6.391 4.455
0.947 6.260 4.821
2.059 0.678 5.045
2.045 0.574 5.184
1.800 0.809 5.255
1.642 0.590 5.557
1.676 0.816 5.667
3.848 0.919 2.670
3.628 1.074 2.861
3.344 1.056 3.054
2.232 0.685 4.939
2.015 0.769 4.826
1.647 1.825 5.460
1.276 1.880 5.619
1.344 1.706 5.871
1.173 1.581 5.927
0.889 1.806 6.091
3.293 2.163 3.013
3.365 2.182 3.238
3.084 2.149 3.142
2.938 2.058 3.473
2.898 1.998 3.627
2.830 2.029 3.916
1.727 2.159 5.345
1.575 1.860 5.529
1.246 1.905 5.627
1.110 1.978 5.847
1.225 1.814 6.084
1.007 1.884 6.041
3.292 2.206 2.741
3.402 2.276 2.762
3.035 2.390 3.098
3.104 2.349 3.348
3.049 2.120 3.475
2.746 2.069 3.744
2.637 2.261 3.949
1.668 2.133 4.863
1.548 2.100 5.190
1.225 1.961 5.259
1.192 1.867 5.552
1.056 1.998 5.752
1.021 1.828 5.985
0.818 1.928 6.172
3.122 2.143 2.561
3.237 2.332 2.912
2.856 2.210 3.025
2.995 2.067 3.214
2.878 2.134 3.230
2.485 2.019 3.595
1.685 2.088 4.869
1.514 2.078 4.826
1.325 2.225 5.239
1.227 2.205 5.291
1.178 2.138 5.373
0.868 2.187 5.672
0.898 2.216 5.846
0.895 2.250 6.032
0.653 2.114 6.151
3.208 2.514 2.446
3.217 2.399 2.690
2.963 2.453 3.101
2.723 2.399 3.143
2.807 2.313 3.344
2.598 2.406 3.450
2.318 2.460 3.595
1.771 2.081 4.893
1.762 2.412 4.644
1.410 2.585 5.062
1.413 2.267 5.182
1.285 2.501 5.370
0.988 2.413 5.373
0.888 2.267 5.751
0.886 2.457 5.865
0.690 2.172 6.122
0.649 2.221 6.089
3.031 2.817 2.675
3.192 2.619 2.910
2.985 2.593 3.069
2.722 2.750 3.096
2.725 2.498 3.421
2.669 2.540 3.494
2.463 2.670 3.546
1.676 2.352 4.487
1.613 2.568 4.797
1.590 2.668 4.791
1.374 2.574 4.879
1.222 2.505 5.166
1.285 2.463 5.169
1.095 2.620 5.391
0.881 2.431 5.759
0.843 2.594 5.896
0.579 2.544 6.127
0.468 2.647 6.152
2.999 2.953 2.689
3.100 2.939 2.793
2.887 2.906 2.828
2.803 2.776 3.163
2.602 2.932 3.261
2.471 2.892 3.499
2.487 2.903 3.736
1.591 2.624 4.652
1.515 2.548 4.632
1.659 2.918 4.697
1.473 2.925 4.986
1.263 2.740 5.087
1.273 2.718 5.144
0.937 2.855 5.586
0.906 2.913 5.508
0.864 2.781 5.764
0.756 2.643 5.869
0.356 2.880 6.127
3.027 3.176 2.635
2.796 3.028 2.686
2.864 2.976 2.940
2.569 2.931 3.087
2.640 2.967 3.301
2.527 2.926 3.340
2.189 2.988 3.520
1.555 3.032 4.411
1.558 2.932 4.663
1.410 3.166 4.658
1.487 3.153 4.808
1.279 3.221 5.129
0.957 2.960 5.303
1.051 3.052 5.327
0.759 2.974 5.688
0.567 3.002 5.782
0.589 2.867 6.001
0.433 2.942 6.169
2.983 3.195 2.457
2.761 3.222 2.881
2.641 3.322 3.046
2.640 3.146 3.210
2.614 3.278 3.217
2.365 3.339 3.498
2.103 3.226 3.581
1.661 3.129 4.604
1.334 3.008 4.825
1.273 3.178 4.854
1.210 3.359 4.852
1.204 3.234 5.027
1.109 3.330 5.240
0.922 3.233 5.321
0.669 3.343 5.695
0.493 3.349 5.909
0.382 3.090 5.971
3.077 3.551 2.396
2.826 3.537 2.815
2.632 3.430 3.044
2.713 3.368 3.026
2.534 3.425 3.127
2.358 3.390 3.357
1.495 3.326 4.489
1.292 3.471 4.615
1.422 3.700 4.824
1.291 3.447 4.757
1.024 3.424 5.115
1.046 3.635 5.126
0.727 3.386 5.380
0.632 3.448 5.475
0.512 3.377 5.952
2.977 3.668 2.430
2.801 3.778 2.753
2.777 3.605 3.030
2.416 3.770 3.138
2.297 3.655 3.149
1.418 3.574 4.571
1.128 3.760 4.813
1.203 3.833 5.178
0.826 3.704 5.223
0.759 3.637 5.455
0.719 3.800 5.678
2.949 4.058 2.482
2.876 4.061 2.793
2.685 3.903 2.771
2.582 4.011 3.118
0.792 4.731 5.022
0.617 4.760 5.122
0.703 4.825 5.280
0.439 4.697 5.418
0.373 4.866 5.616
2.528 5.076 2.508
2.528 5.062 2.758
2.456 4.953 2.810
2.291 5.040 3.128
2.075 4.932 3.334
0.943 5.115 4.879
0.840 4.968 4.892
0.622 5.138 5.295
0.621 5.023 5.352
0.397 5.050 5.548
0.322 4.821 5.690
0.148 4.984 5.982
2.710 5.457 2.311
2.372 5.380 2.719
2.493 5.246 2.746
2.211 5.396 2.911
2.223 5.315 3.248
1.999 5.321 3.278
1.064 5.378 4.776
0.842 5.284 4.703
0.827 5.179 5.090
0.515 5.145 5.037
0.349 5.085 5.440
0.372 5.091 5.563
0.333 5.166 5.768
0.019 5.139 5.995
2.703 5.645 2.576
2.317 5.563 2.615
2.212 5.369 2.903
2.290 5.569 2.941
2.163 5.488 3.181
1.926 5.584 3.418
1.835 5.556 3.446
0.857 5.252 4.527
0.965 5.441 4.484
0.874 5.408 4.805
0.842 5.369 4.948
0.680 5.547 5.062
0.294 5.350 5.328
0.302 5.423 5.664
0.296 5.324 5.695
0.034 5.429 5.838
2.572 5.734 2.499
2.380 5.785 2.612
2.254 5.686 2.786
2.005 5.760 2.895
2.078 5.523 3.178
2.005 5.704 3.251
1.883 5.695 3.674
1.220 5.679 4.446
0.980 5.383 4.688
0.911 5.606 4.672
0.645 5.756 4.868
0.687 5.759 4.910
0.571 5.804 5.024
0.380 5.582 5.284
0.140 5.662 5.656
0.103 5.771 5.683
0.058 5.541 5.832
2.412 6.067 2.338
2.443 5.896 2.512
2.246 5.998 2.934
2.056 5.841 3.037
1.819 5.895 3.262
1.956 5.783 3.334
1.634 5.798 3.401
0.892 5.720 4.331
0.877 5.810 4.624
0.992 5.951 4.561
0.687 5.896 4.761
0.578 5.988 5.075
0.553 6.013 5.082
0.387 5.996 5.208
0.198 5.740 5.448
0.075 5.820 5.541
2.455 6.118 2.282
2.407 6.153 2.565
2.104 6.030 2.815
2.133 6.022 2.853
1.929 6.132 3.104
1.641 6.007 3.176
1.628 6.164 3.647
1.102 6.099 4.558
0.888 5.842 4.621
0.798 6.140 4.708
0.673 6.221 4.756
0.454 6.052 4.950
0.416 6.188 5.040
0.196 6.088 5.175
0.108 5.973 5.484
-0.057 5.969 5.663
0.882 6.183 4.324
0.916 6.092 4.622
1.843 0.662 5.162
1.665 0.783 5.155
1.509 0.767 5.304
1.323 0.533 5.429
1.357 0.668 5.881
3.511 1.009 2.696
3.308 0.942 2.964
3.227 0.947 3.023
3.249 0.814 3.095
1.412 1.753 5.248
1.288 1.668 5.428
1.273 1.746 5.635
1.186 1.805 5.619
0.929 1.642 5.964
3.203 1.992 2.687
3.198 1.896 2.824
3.204 2.118 3.074
2.816 2.063 3.187
2.922 2.009 3.319
1.521 1.995 5.049
1.301 1.937 5.023
1.446 1.833 5.300
1.227 1.876 5.520
0.973 2.040 5.648
1.037 1.879 6.014
0.758 1.759 6.008
3.160 2.216 2.729
3.122 2.075 2.733
3.004 2.176 2.952
2.906 2.279 3.028
2.695 2.243 3.429
2.760 2.042 3.503
1.394 1.894 4.721
1.436 1.838 4.875
1.127 2.080 5.004
1.097 2.030 5.238
1.007 1.800 5.410
1.003 1.768 5.554
0.600 1.739 5.711
3.102 2.157 2.451
3.051 2.185 2.759
2.809 2.179 2.877
2.819 2.220 2.870
2.682 2.071 3.306
1.680 1.839 4.516
1.611 2.186 4.591
1.397 2.287 4.679
1.234 2.194 5.036
1.193 2.089 5.093
0.826 2.008 5.311
0.703 2.111 5.491
0.728 2.064 5.583
0.467 1.999 6.043
3.192 2.523 2.467
3.034 2.425 2.746
2.850 2.469 2.802
2.519 2.264 3.089
2.410 2.368 3.233
2.299 2.465 3.235
1.580 2.260 4.595
1.436 2.117 4.549
1.406 2.503 4.607
1.454 2.310 4.722
1.192 2.386 4.934
1.073 2.281 5.179
0.794 2.379 5.227
0.929 2.425 5.457
0.703 2.427 5.685
0.659 2.306 6.023
0.303 2.169 6.124
3.090 2.737 2.409
2.717 2.532 2.774
2.818 2.509 2.790
2.618 2.610 2.986
2.589 2.594 3.278
2.325 2.679 3.447
2.317 2.566 3.436
1.629 2.572 4.353
1.453 2.457 4.551
1.521 2.506 4.559
1.245 2.703 4.897
1.110 2.731 4.858
1.140 2.442 5.311
0.916 2.578 5.485
0.675 2.579 5.479
0.600 2.643 5.798
0.597 2.541 5.832
0.232 2.349 6.138
2.805 2.905 2.565
2.684 2.896 2.570
2.666 2.960 2.910
2.508 2.777 3.092
2.342 2.727 3.202
2.444 2.821 3.273
2.194 2.779 3.578
1.601 2.740 4.420
1.372 2.699 4.524
1.409 2.791 4.585
1.149 2.679 4.813
1.009 2.848 5.007
1.041 2.890 5.058
0.863 2.804 5.405
0.617 2.629 5.525
0.603 2.756 5.643
0.582 2.843 5.959
0.213 2.561 5.916
2.833 3.140 2.358
2.658 2.931 2.719
2.708 3.009 2.878
2.633 2.912 2.824
2.489 2.927 3.018
2.167 2.866 3.416
2.036 3.114 3.594
1.404 2.982 4.315
1.308 2.800 4.513
1.383 2.918 4.607
1.177 2.903 4.779
1.083 3.080 4.912
0.841 3.147 5.180
0.822 3.071 5.365
0.614 2.855 5.653
0.388 2.965 5.766
0.363 2.857 5.841
0.186 2.942 5.981
2.939 3.203 2.285
2.610 3.347 2.696
2.480 3.407 2.902
2.448 3.145 2.823
2.258 3.370 3.141
2.062 3.230 3.469
2.140 3.215 3.567
1.346 2.988 4.484
1.446 3.174 4.549
1.312 3.355 4.531
1.104 3.282 4.777
1.027 3.146 4.885
0.765 3.217 5.181
0.613 3.213 5.401
0.665 3.318 5.470
0.592 3.044 5.722
0.470 3.007 5.785
0.137 3.046 6.118
2.713 3.434 2.261
2.620 3.577 2.695
2.506 3.520 2.677
2.418 3.361 3.074
2.298 3.332 3.205
2.012 3.307 3.413
2.074 3.274 3.402
1.389 3.197 4.623
1.067 3.406 4.745
0.870 3.587 4.827
0.837 3.311 5.058
0.568 3.396 5.449
0.528 3.301 5.639
0.297 3.276 5.710
0.443 3.268 5.956
2.890 3.821 2.285
2.603 3.619 2.686
2.644 3.790 2.882
2.461 3.616 3.044
2.295 3.765 3.231
2.140 3.670 3.375
0.752 3.620 5.037
0.850 3.522 5.152
0.777 3.637 5.248
0.444 3.637 5.477
0.336 3.567 5.691
2.581 3.957 2.494
2.674 3.991 2.481
2.493 3.816 2.701
2.192 4.037 2.865
2.324 3.787 3.017
0.689 4.693 4.585
0.784 4.885 4.904
0.654 4.773 5.010
0.430 4.682 5.231
0.305 4.609 5.361
2.597 4.980 2.486
2.433 5.115 2.533
2.161 5.127 2.677
1.970 4.849 2.870
0.952 4.938 4.535
0.784 5.105 4.595
0.603 5.124 4.841
0.502 5.078 4.918
0.404 4.988 5.347
0.177 4.889 5.444
0.100 5.058 5.566
2.463 5.158 2.386
2.324 5.292 2.398
2.031 5.265 2.763
2.186 5.277 3.015
1.886 5.189 3.090
0.934 5.002 4.403
0.940 5.323 4.566
0.617 5.144 4.631
0.415 5.192 4.810
0.446 5.157 4.917
0.315 5.290 5.118
0.146 5.096 5.384
-0.063 5.059 5.537
2.482 5.627 2.288
2.217 5.593 2.622
2.170 5.546 2.736
2.146 5.469 3.002
1.734 5.428 3.164
1.827 5.360 3.159
0.885 5.425 4.183
0.725 5.357 4.556
0.754 5.598 4.604
0.655 5.491 4.549
0.666 5.368 4.918
0.482 5.357 5.011
0.147 5.442 5.210
0.048 5.326 5.395
0.143 5.467 5.547
2.491 5.775 2.330
2.081 5.735 2.611
2.000 5.730 2.712
1.893 5.629 2.709
1.842 5.718 3.035
1.690 5.572 3.292
1.523 5.481 3.449
1.058 5.549 4.324
0.848 5.354 4.412
0.869 5.817 4.384
0.593 5.817 4.625
0.572 5.559 4.744
0.238 5.494 5.018
0.135 5.644 5.225
0.013 5.570 5.522
2.340 6.077 2.301
2.213 6.018 2.619
2.046 5.747 2.718
2.051 5.937 2.820
1.683 5.872 2.957
1.776 5.912 3.207
1.581 5.706 3.337
0.925 5.758 4.237
0.582 5.800 4.574
0.566 5.862 4.368
0.548 6.009 4.577
0.325 5.758 4.819
0.344 5.734 4.953
0.107 5.961 5.146
0.180 5.803 5.493
2.143 6.083 2.323
2.022 6.145 2.476
1.891 6.085 2.729
1.883 6.161 2.697
1.667 6.024 2.862
1.520 6.201 3.084
1.437 5.970 3.438
0.853 5.864 4.413
0.812 5.976 4.609
0.621 6.119 4.474
0.486 6.239 4.738
0.458 6.208 4.743
0.247 6.027 5.014
0.042 6.195 5.295
1.634 6.212 3.178
1.332 6.238 3.436
0.837 6.027 4.201
0.577 5.992 4.566
-0.056 6.300 5.165
1.594 0.642 5.176
1.553 0.738 5.119
1.276 0.496 5.333
1.008 0.599 5.676
1.071 0.488 5.946
3.358 0.744 2.463
3.320 0.816 2.812
2.972 0.953 2.962
3.105 0.972 3.055
2.919 0.882 3.242
1.356 1.652 4.863
1.367 1.659 4.945
1.054 1.845 5.228
1.005 1.648 5.517
0.856 1.766 5.493
3.090 2.083 2.345
2.998 1.892 2.690
2.836 1.900 2.705
2.657 2.026 3.071
1.461 1.995 4.719
1.543 1.950 4.893
1.273 1.991 4.999
1.032 1.790 5.283
0.943 1.913 5.246
0.815 2.014 5.465
0.606 1.795 5.627
2.948 2.296 2.334
2.827 2.271 2.803
2.969 2.113 2.931
2.764 2.241 3.111
2.668 2.208 3.150
1.534 2.036 4.790
1.237 1.819 4.369
1.372 1.826 4.626
1.055 1.804 5.009
1.059 1.784 5.059
0.853 1.731 5.358
0.559 1.748 5.283
2.769 2.284 2.387
2.677 2.161 2.564
2.585 2.025 2.715
2.516 1.947 2.977
1.455 2.094 4.267
1.303 2.071 4.527
1.243 2.014 4.530
1.186 2.135 4.831
1.019 2.106 4.733
1.035 2.122 5.163
0.924 2.041 5.130
0.724 1.948 5.391
0.386 2.054 5.572
2.733 2.223 2.335
2.877 2.224 2.395
2.506 2.365 2.791
2.569 2.253 2.848
2.441 2.349 3.167
1.519 2.273 4.274
1.227 2.288 4.622
1.155 2.352 4.564
1.124 2.452 4.622
1.114 2.411 4.941
1.015 2.284 5.164
0.761 2.396 5.211
0.668 2.409 5.386
0.465 2.376 5.475
0.417 2.259 5.705
2.837 2.596 2.413
2.705 2.577 2.419
2.447 2.416 2.596
2.477 2.565 2.856
2.281 2.370 3.191
2.119 2.420 3.306
1.447 2.232 4.259
1.393 2.362 4.610
1.086 2.508 4.566
0.954 2.532 4.533
1.017 2.638 4.740
0.774 2.455 5.005
0.699 2.485 5.328
0.574 2.355 5.298
0.538 2.444 5.709
0.286 2.525 5.696
0.318 2.399 6.008
2.731 2.794 2.175
2.694 2.667 2.594
2.496 2.728 2.574
2.396 2.616 2.787
2.209 2.665 3.083
2.075 2.828 3.242
1.844 2.796 3.550
1.288 2.544 4.390
1.252 2.436 4.371
1.249 2.803 4.555
1.128 2.854 4.680
0.771 2.781 4.751
0.795 2.763 5.152
0.624 2.595 5.187
0.402 2.741 5.371
0.455 2.627 5.461
0.393 2.779 5.800
0.073 2.522 5.912
2.820 3.014 2.206
2.633 2.983 2.502
2.531 2.963 2.719
2.322 2.859 2.924
2.204 3.054 3.101
2.172 3.065 3.208
2.085 2.779 3.374
1.357 2.932 4.383
1.117 2.717 4.432
1.024 2.911 4.426
1.068 3.093 4.742
0.739 2.944 4.927
0.847 2.879 4.893
0.641 3.091 5.107
0.611 3.061 5.307
0.489 2.967 5.589
0.237 2.931 5.874
0.216 2.937 5.928
2.775 3.336 2.411
2.482 3.230 2.411
2.447 3.273 2.542
2.244 3.241 2.814
2.276 3.073 2.938
1.893 3.264 3.064
2.042 3.213 3.268
0.980 3.089 4.476
0.916 3.263 4.500
0.714 3.287 4.744
0.789 3.286 5.014
0.440 3.234 5.073
0.378 3.021 5.441
0.288 3.160 5.476
0.239 3.098 5.768
0.066 3.018 5.846
2.644 3.488 2.323
2.497 3.446 2.485
2.437 3.430 2.597
2.321 3.349 2.893
2.104 3.541 2.936
2.076 3.518 3.097
1.850 3.432 3.495
0.757 3.497 4.930
0.631 3.379 5.139
0.455 3.266 5.059
0.372 3.337 5.428
0.149 3.493 5.446
0.133 3.262 5.851
2.534 3.791 2.379
2.372 3.566 2.345
2.269 3.763 2.651
2.248 3.574 2.853
1.982 3.658 3.142
1.961 3.601 3.140
1.819 3.577 3.285
0.676 3.770 5.052
0.479 3.517 5.311
0.463 3.718 5.347
0.236 3.465 5.393
-0.053 3.530 5.814
2.322 3.963 2.569
2.282 3.951 2.761
2.039 3.704 2.686
1.893 3.874 3.050
1.944 3.731 3.240
1.675 3.769 3.332
0.896 4.801 4.425
0.593 4.782 4.523
0.496 4.622 4.872
0.492 4.634 4.826
0.077 4.755 5.199
2.380 5.091 2.146
2.064 5.033 2.403
2.014 4.933 2.655
1.005 4.823 4.177
0.827 4.785 4.397
0.819 5.038 4.424
0.518 5.060 4.707
0.418 4.836 4.858
0.286 4.912 4.935
0.062 4.773 4.993
-0.043 4.974 5.170
2.241 5.331 2.217
2.082 5.227 2.272
1.955 5.076 2.700
1.947 5.024 2.833
0.893 5.164 4.187
0.850 4.926 4.233
0.788 5.080 4.334
0.599 5.117 4.671
0.243 5.267 4.752
0.166 5.256 4.970
0.163 5.125 4.989
-0.063 5.064 5.426
2.152 5.486 2.079
2.079 5.545 2.318
1.914 5.290 2.698
1.831 5.458 2.778
1.586 5.359 2.787
0.816 5.379 4.295
0.769 5.155 4.370
0.579 5.365 4.507
0.333 5.322 4.557
0.203 5.494 4.821
0.096 5.445 4.759
0.107 5.392 4.939
2.298 5.534 2.207
2.114 5.612 2.420
1.889 5.474 2.555
1.778 5.740 2.808
1.782 5.705 2.898
1.454 5.685 3.030
0.706 5.535 4.323
0.637 5.586 4.425
0.560 5.520 4.467
0.379 5.701 4.518
0.366 5.617 4.674
0.126 5.705 5.032
0.174 5.717 5.176
2.260 5.890 2.054
1.973 5.877 2.231
1.978 5.907 2.637
1.578 5.936 2.619
1.612 5.775 2.791
1.424 5.766 3.186
1.425 5.834 3.202
0.559 5.698 4.021
0.505 5.720 4.423
0.417 5.746 4.455
0.352 5.774 4.544
0.240 5.740 4.634
0.103 5.905 4.837
2.066 6.196 2.199
2.029 5.978 2.247
1.716 6.127 2.436
1.553 5.928 2.612
1.446 5.946 2.985
1.490 6.040 2.967
1.151 6.122 3.175
0.530 6.028 4.169
0.627 5.910 4.319
0.556 6.124 4.260
0.436 6.043 4.523
0.104 6.080 4.600
0.212 6.158 4.901
1.701 6.359 2.654
1.462 6.109 2.736
1.519 6.365 2.964
1.231 6.357 3.145
0.591 6.229 4.345
0.137 6.270 4.764
-0.049 6.196 4.920
1.143 0.527 5.276
1.257 0.545 5.349
0.943 0.662 5.496
1.001 0.535 5.689
0.685 0.518 5.727
0.448 0.566 6.176
3.206 0.927 2.723
2.965 0.741 2.896
2.867 0.785 2.816
2.560 0.841 3.098
2.479 0.866 3.315
2.324 0.699 3.461
1.353 1.656 4.402
1.275 1.800 4.752
1.208 1.662 5.024
0.889 1.596 5.102
0.746 1.532 5.342
2.956 2.046 2.368
2.837 1.871 2.401
2.848 1.981 2.659
1.587 1.617 4.315
1.521 1.826 4.625
1.220 1.984 4.539
1.177 1.973 4.780
1.101 2.028 4.979
1.005 1.849 4.949
0.973 1.944 5.298
0.813 1.744 5.297
2.812 2.199 2.387
2.798 1.996 2.668
2.639 2.021 2.701
2.647 2.006 2.776
1.402 1.804 4.241
1.422 1.878 4.460
1.317 1.979 4.511
0.994 1.944 4.718
0.777 1.741 4.744
0.674 1.925 4.817
0.542 1.889 4.973
2.588 2.071 2.355
2.503 2.057 2.464
2.557 2.103 2.626
1.537 1.779 4.066
1.231 1.809 4.164
1.221 1.761 4.363
1.173 2.016 4.409
1.086 2.201 4.663
0.783 2.170 4.599
0.722 2.133 4.872
0.519 2.116 4.992
0.454 2.141 5.234
0.307 2.036 5.363
2.570 2.395 2.148
2.512 2.364 2.481
2.512 2.232 2.461
2.246 2.283 2.780
2.016 2.233 2.853
1.250 2.035 4.146
1.306 2.148 4.099
1.212 2.122 4.493
1.185 2.341 4.231
0.799 2.435 4.464
0.964 2.266 4.683
0.683 2.151 4.861
0.443 2.366 4.964
0.314 2.317 5.150
0.323 2.318 5.382
2.555 2.520 2.119
2.500 2.654 2.244
2.494 2.460 2.505
2.275 2.374 2.742
2.096 2.382 3.051
1.233 2.441 4.226
0.980 2.189 4.511
1.046 2.622 4.498
0.765 2.471 4.543
0.642 2.397 4.808
0.579 2.382 4.969
0.608 2.517 5.197
0.433 2.455 5.174
0.214 2.528 5.574
0.065 2.257 5.482
2.641 2.881 2.033
2.375 2.771 2.503
2.421 2.636 2.558
2.331 2.633 2.838
2.077 2.673 2.786
2.056 2.772 3.118
1.216 2.521 4.186
1.106 2.477 4.209
1.110 2.788 4.488
0.741 2.847 4.509
0.844 2.632 4.561
0.539 2.840 4.920
0.516 2.587 5.208
0.208 2.517 5.304
0.062 2.617 5.569
0.229 2.772 5.742
2.676 3.092 2.127
2.351 3.057 2.255
2.326 2.848 2.550
2.206 3.081 2.806
1.992 2.895 2.999
1.809 3.020 3.033
1.735 2.738 3.396
1.083 2.873 4.326
0.941 2.847 4.589
0.688 2.820 4.814
0.622 3.050 4.872
0.375 2.769 5.205
0.182 2.876 5.278
0.285 2.742 5.325
-0.050 2.790 5.668
2.529 3.275 2.237
2.278 3.047 2.235
2.325 3.128 2.482
2.099 3.184 2.728
1.851 3.072 2.926
1.989 3.227 3.195
1.698 3.112 3.256
0.768 3.175 4.565
0.751 3.087 4.614
0.452 3.053 4.829
0.513 3.135 5.095
0.115 2.983 5.089
0.161 3.201 5.485
2.421 3.332 2.257
2.195 3.329 2.250
2.307 3.251 2.458
1.948 3.357 2.680
1.884 3.312 2.908
1.810 3.407 3.146
1.774 3.392 3.323
1.455 3.268 3.389
0.328 3.418 4.815
0.321 3.268 5.095
0.062 3.431 5.091
-0.019 3.289 5.394
2.199 3.624 2.416
2.064 3.566 2.564
1.926 3.654 2.712
1.833 3.680 3.016
1.751 3.684 2.973
1.548 3.414 3.164
1.357 3.426 3.361
0.348 3.642 4.893
0.150 3.612 5.275
-0.077 3.652 5.266
2.048 3.924 2.550
1.979 3.660 2.802
1.993 3.837 2.845
1.837 3.895 2.955
1.724 3.714 3.075
1.302 3.619 3.366
1.371 3.577 3.551
1.860 4.015 2.910
1.725 4.114 2.987
1.520 3.967 3.207
1.446 3.920 3.464
1.375 4.082 3.431
1.098 3.931 3.755
1.628 4.294 3.209
1.412 4.127 3.315
1.343 4.068 3.539
1.007 4.137 3.797
0.851 4.247 3.773
1.458 4.339 3.395
1.278 4.439 3.551
0.991 4.260 3.808
0.843 4.200 3.880
0.682 4.461 4.127
0.488 4.550 4.348
0.441 4.587 4.393
1.195 4.607 3.584
1.122 4.658 3.659
0.885 4.672 3.859
0.699 4.412 3.980
0.725 4.482 4.130
0.688 4.581 4.346
0.448 4.614 4.319
0.178 4.746 4.595
0.077 4.573 4.729
2.198 4.914 2.173
2.107 5.015 2.137
1.031 4.772 3.583
0.830 4.653 3.900
0.766 4.714 3.984
0.515 4.703 4.331
0.447 5.019 4.121
0.355 4.923 4.300
0.388 4.966 4.580
0.073 4.913 4.855
-0.004 4.910 4.903
2.079 5.137 2.028
1.882 5.289 2.116
1.859 5.176 2.302
0.768 5.099 3.784
0.677 4.868 3.941
0.522 4.812 4.352
0.513 5.167 4.157
0.456 5.111 4.298
0.294 5.013 4.597
0.227 5.031 4.735
2.015 5.390 2.193
1.802 5.290 2.287
1.636 5.428 2.541
1.608 5.332 2.649
1.380 5.276 2.795
0.776 5.090 3.839
0.708 5.112 3.955
0.595 5.126 4.212
0.445 5.381 4.180
0.402 5.275 4.302
0.057 5.494 4.497
-0.097 5.184 4.750
2.123 5.745 2.135
1.881 5.578 2.195
1.813 5.711 2.352
1.628 5.547 2.506
1.328 5.622 2.912
0.626 5.297 4.096
0.411 5.522 4.088
0.501 5.496 4.243
0.326 5.627 4.389
0.248 5.710 4.501
2.008 5.913 2.047
1.686 5.706 2.095
1.707 5.947 2.281
1.588 5.884 2.477
1.280 5.747 2.749
1.147 5.802 2.956
0.661 5.478 4.158
0.466 5.637 4.198
0.263 5.768 4.180
0.168 5.857 4.350
-0.070 5.669 4.531
1.875 6.004 2.100
1.624 6.051 2.172
1.538 6.081 2.410
1.440 6.080 2.445
1.412 5.995 2.619
1.375 6.064 2.881
1.261 5.852 3.217
0.352 5.980 4.346
0.302 6.100 4.461
0.080 6.078 4.571
1.866 6.224 2.046
1.815 6.373 2.247
1.569 6.159 2.348
1.469 6.293 2.558
1.395 6.165 2.857
1.325 6.110 2.969
1.034 6.171 3.244
0.245 6.338 4.405
0.968 0.442 5.130
0.823 0.491 5.398
0.526 0.460 5.518
0.680 0.522 5.608
0.399 0.540 5.826
0.409 0.487 6.019
0.016 0.480 6.175
2.671 0.868 2.538
2.586 0.889 2.706
2.347 0.807 2.878
2.472 0.591 3.265
2.358 0.620 3.317
1.962 0.662 3.684
1.857 0.692 3.634
0.778 0.577 5.661
0.566 0.659 5.574
0.338 0.766 5.768
0.235 0.485 6.200
0.034 0.623 6.191
2.376 0.955 2.860
2.442 1.008 3.170
2.189 0.856 3.474
2.193 0.908 3.398
1.781 0.819 3.648
1.844 0.739 3.811
0.329 0.985 5.821
0.081 0.776 5.950
0.187 0.701 6.371
2.283 1.035 3.278
2.058 0.952 3.675
1.891 1.109 3.792
1.841 1.179 4.020
1.689 1.117 3.968
0.156 1.203 6.016
-0.047 0.881 6.214
2.087 1.353 3.600
1.833 1.441 3.633
1.583 1.234 3.814
1.439 1.401 3.924
1.449 1.253 4.332
1.236 1.441 4.490
1.157 1.551 4.450
1.748 1.437 3.711
1.559 1.402 3.977
1.473 1.595 4.048
1.350 1.612 4.219
1.123 1.512 4.289
1.140 1.793 4.376
1.040 1.508 4.525
0.855 1.577 4.811
0.691 1.652 5.065
2.902 1.963 2.254
2.789 1.906 2.516
1.553 1.728 3.717
1.402 1.555 3.988
1.256 1.816 4.191
1.283 1.621 4.439
1.195 1.901 4.271
1.075 1.823 4.632
0.924 1.798 4.673
0.812 1.952 4.788
0.730 1.881 5.100
2.749 2.046 2.099
2.486 2.145 2.276
2.489 2.021 2.655
1.411 1.872 4.124
1.195 1.795 4.187
1.278 1.896 4.293
0.927 1.971 4.328
0.738 1.677 4.451
0.807 1.864 4.484
0.525 1.720 4.913
2.602 1.938 2.195
2.293 1.934 2.236
1.263 1.933 3.818
1.371 1.924 3.779
0.978 1.928 3.945
1.074 1.943 4.335
0.884 2.090 4.398
0.705 1.929 4.297
0.554 2.119 4.630
0.631 2.010 4.729
0.369 1.903 5.088
2.393 2.211 2.068
2.467 2.327 2.225
2.185 2.184 2.466
1.261 2.200 3.862
1.073 2.011 4.046
0.896 2.194 4.212
0.873 2.369 4.090
0.713 2.398 4.326
0.659 2.332 4.502
0.551 2.254 4.863
0.376 2.184 4.923
0.207 2.167 5.132
2.527 2.562 1.930
2.407 2.597 2.133
2.110 2.523 2.527
2.182 2.363 2.482
1.043 2.357 4.005
0.967 2.190 4.104
1.000 2.386 4.324
0.683 2.529 4.393
0.448 2.424 4.604
0.345 2.577 4.761
0.311 2.338 4.922
0.068 2.521 5.163
0.124 2.519 5.388
2.298 2.584 1.978
2.409 2.570 2.318
2.114 2.729 2.535
1.924 2.596 2.573
2.010 2.768 2.812
0.772 2.550 4.077
0.754 2.716 4.351
0.488 2.604 4.463
0.542 2.742 4.701
0.268 2.514 5.091
0.227 2.695 5.211
-0.081 2.537 5.411
2.280 2.856 2.121
2.208 2.800 2.131
2.238 2.963 2.332
1.849 2.796 2.512
1.775 2.891 2.809
1.762 2.816 2.825
0.446 2.929 4.721
0.317 2.928 4.618
0.206 2.842 4.792
0.230 2.990 5.128
2.280 3.122 2.145
2.068 3.249 2.189
2.125 3.254 2.308
1.937 2.961 2.538
1.899 2.963 2.756
1.588 3.114 3.025
1.412 2.925 3.082
0.478 3.198 4.704
0.067 3.096 4.953
0.070 3.040 5.193
2.165 3.505 2.179
1.916 3.397 2.231
1.813 3.237 2.675
1.712 3.226 2.636
1.730 3.402 3.048
1.568 3.127 3.086
1.410 3.342 3.321
0.065 3.149 4.930
-0.092 3.145 5.214
1.903 3.511 2.252
1.785 3.670 2.617
1.596 3.394 2.743
1.562 3.644 3.065
1.422 3.336 3.035
1.202 3.566 3.320
1.226 3.589 3.578
1.859 3.626 2.605
1.676 3.600 2.826
1.505 3.689 2.970
1.384 3.731 3.037
1.378 3.786 3.357
1.023 3.777 3.440
0.973 3.522 3.722
1.615 3.991 2.809
1.570 3.985 2.905
1.510 4.029 3.040
1.222 3.861 3.169
1.058 3.751 3.438
1.084 3.926 3.660
0.761 3.869 3.922
1.312 4.029 2.853
1.178 4.294 2.976
1.108 4.119 3.398
1.085 4.149 3.524
0.981 4.197 3.737
0.716 3.927 3.724
0.676 3.940 3.922
0.488 4.242 4.169
1.304 4.505 3.134
1.098 4.368 3.238
0.973 4.368 3.410
1.001 4.340 3.517
0.745 4.312 3.919
0.705 4.155 4.070
0.577 4.110 4.153
0.557 4.321 4.007
0.372 4.555 4.302
1.041 4.439 3.129
1.101 4.498 3.488
0.743 4.403 3.642
0.558 4.625 3.698
0.470 4.354 4.039
0.381 4.483 4.082
0.434 4.742 3.983
0.258 4.806 4.352
0.005 4.772 4.459
1.924 4.833 1.855
0.999 4.633 3.507
0.865 4.793 3.651
0.505 4.794 3.848
0.369 4.761 4.039
0.494 4.539 4.108
0.486 4.883 4.183
0.187 5.014 4.296
0.189 4.739 4.486
1.789 5.066 1.888
1.647 5.180 2.121
0.727 4.988 3.618
0.452 4.829 3.772
0.445 4.930 3.871
0.236 4.762 4.095
0.152 5.201 3.996
0.205 5.206 4.261
0.070 5.230 4.578
1.972 5.465 1.892
1.699 5.278 2.062
1.737 5.312 2.278
0.438 5.045 3.765
0.565 5.288 3.806
0.390 4.994 4.096
0.266 5.421 4.092
-0.009 5.312 4.137
1.686 5.463 1.984
1.721 5.707 2.054
1.700 5.520 2.130
1.337 5.432 2.518
0.322 5.339 3.787
0.383 5.441 4.172
0.290 5.713 3.984
0.164 5.561 4.362
1.909 5.676 2.013
1.497 5.830 2.057
1.509 5.688 2.149
1.260 5.863 2.389
1.244 5.614 2.508
0.203 5.678 4.226
-0.099 5.805 4.368
1.644 6.061 1.768
1.481 5.933 1.967
1.379 6.085 2.268
1.217 6.106 2.536
1.082 6.018 2.510
1.100 6.033 2.936
1.673 6.296 1.758
1.574 6.207 2.067
1.328 6.157 2.099
1.405 6.223 2.287
1.246 6.063 2.758
1.088 6.013 2.821
0.878 5.992 3.001
0.491 0.495 5.318
0.346 0.535 5.397
0.327 0.265 5.640
0.277 0.276 5.762
0.060 0.376 6.005
2.438 0.573 2.611
2.251 0.811 2.946
2.161 0.798 3.046
2.105 0.558 3.204
1.937 0.704 3.359
1.877 0.618 3.724
1.735 0.595 3.772
0.371 0.507 5.258
0.461 0.629 5.705
0.153 0.615 5.781
-0.034 0.693 5.934
2.194 0.925 2.931
2.081 0.759 3.040
2.025 0.728 3.360
1.738 0.717 3.461
1.613 0.674 3.676
1.582 0.894 3.653
1.362 0.778 3.926
0.254 0.862 5.508
0.270 0.948 5.711
0.067 0.830 5.898
2.047 0.967 2.892
2.059 1.007 3.195
1.969 1.182 3.411
1.553 1.053 3.495
1.510 0.996 3.701
1.376 0.863 4.032
1.318 1.070 4.056
1.201 1.214 4.309
0.217 0.879 5.878
1.792 1.447 3.319
1.747 1.354 3.429
1.783 1.349 3.702
1.536 1.214 3.605
1.451 1.182 3.775
1.417 1.217 4.002
1.236 1.180 4.203
1.079 1.255 4.263
0.918 1.306 4.530
1.654 1.476 3.508
1.705 1.559 3.634
1.562 1.556 3.869
1.453 1.536 3.831
1.116 1.396 4.199
0.972 1.402 4.349
0.948 1.610 4.263
0.881 1.554 4.406
0.827 1.594 4.725
2.702 1.989 2.046
1.545 1.819 3.452
1.295 1.798 3.853
1.373 1.578 3.863
1.123 1.736 4.157
0.923 1.716 4.367
0.889 1.833 4.238
0.958 1.880 4.575
0.792 1.873 4.512
0.460 1.754 4.749
2.674 2.063 2.011
2.380 2.071 2.139
1.376 2.002 3.717
1.241 1.792 3.752
1.238 1.855 3.928
0.901 1.826 4.277
0.728 1.879 4.039
0.579 1.849 4.332
0.552 1.797 4.480
2.359 1.976 2.060
1.357 1.835 3.345
1.263 1.830 3.514
1.164 1.682 3.779
1.093 1.863 3.951
0.787 1.712 4.183
0.743 1.880 4.006
0.721 1.912 4.428
0.443 2.016 4.628
0.240 1.900 4.645
2.379 2.137 1.950
2.299 2.373 2.022
1.262 2.099 3.683
0.927 2.078 3.804
0.837 1.961 3.993
0.839 1.914 4.230
0.760 2.210 4.101
0.574 2.317 4.339
0.561 2.164 4.562
0.441 2.096 4.506
0.317 2.033 4.725
2.209 2.600 1.800
2.255 2.534 2.104
2.136 2.456 2.231
0.890 2.296 3.851
0.762 2.112 4.053
0.499 2.309 4.252
0.491 2.332 4.339
0.227 2.480 4.510
0.212 2.463 4.772
-0.012 2.408 5.095
2.108 2.541 1.808
1.996 2.545 1.974
1.855 2.692 2.233
1.793 2.658 2.359
0.372 2.764 4.337
0.112 2.559 4.745
0.133 2.449 4.904
2.156 2.912 1.996
2.001 2.976 2.153
1.787 2.909 2.135
1.919 2.789 2.562
1.753 2.937 2.749
0.140 2.960 4.674
0.044 2.791 4.767
1.912 3.045 2.142
2.004 3.006 2.247
1.670 3.021 2.316
1.502 2.941 2.487
1.370 2.917 2.878
1.293 2.905 2.857
-0.033 2.905 4.765
1.979 3.198 2.182
1.641 3.253 2.295
1.485 3.319 2.618
1.556 3.203 2.875
1.390 3.210 3.113
1.148 3.158 3.138
1.027 3.072 3.271
1.619 3.472 2.485
1.541 3.483 2.462
1.281 3.344 2.694
1.280 3.596 3.117
1.070 3.290 3.012
1.089 3.462 3.311
1.029 3.356 3.377
1.722 3.844 2.445
1.479 3.644 2.537
1.386 3.559 2.773
1.344 3.642 3.103
1.143 3.634 3.118
1.073 3.739 3.383
0.737 3.600 3.474
0.661 3.688 3.696
0.469 3.625 3.788
1.579 3.941 2.569
1.446 3.961 2.786
1.239 3.975 2.802
1.128 3.721 3.182
