-0.111 1.158 3.887
0.116 1.197 3.779
-0.049 1.114 3.955
0.334 1.043 3.940
-0.028 0.995 4.239
0.196 2.034 3.082
0.236 1.898 3.338
0.279 1.735 3.583
0.236 1.703 3.745
0.135 1.560 3.666
0.248 1.529 3.867
0.112 1.413 3.670
-0.058 1.251 3.811
0.142 1.033 3.625
-0.021 0.882 3.766
0.194 0.869 3.856
-0.016 0.863 4.009
0.171 0.917 4.178
0.054 0.582 4.287
0.111 1.674 3.113
0.272 1.658 3.194
0.138 1.317 3.459
0.231 1.209 3.560
2.578 1.396 3.219
2.865 1.468 3.354
3.102 1.321 3.433
3.382 1.301 3.236
3.434 1.532 3.135
3.832 1.354 3.100
4.035 1.418 3.265
5.917 1.502 2.971
6.029 1.571 2.958
6.158 1.451 3.043
0.348 1.171 3.425
0.708 1.303 3.570
0.868 1.310 3.547
2.567 1.303 3.533
2.657 1.278 3.624
2.967 1.222 3.516
3.083 1.361 3.518
3.482 1.350 3.425
3.531 1.399 3.434
3.812 1.214 3.452
5.708 1.403 3.080
5.829 1.401 3.120
6.074 1.370 3.046
6.135 1.300 3.210
0.421 1.139 3.716
0.604 1.209 3.602
2.205 1.009 3.808
2.431 1.207 3.773
2.802 1.082 3.668
2.964 1.120 3.521
3.138 1.079 3.690
3.273 1.031 3.447
3.716 1.179 3.451
5.450 1.277 3.472
5.762 1.270 3.475
5.844 1.270 3.391
6.079 1.332 3.342
0.491 0.942 3.921
2.191 0.740 3.907
2.286 0.860 3.923
2.455 0.797 3.788
2.791 0.960 3.932
2.981 0.960 3.748
3.091 1.012 3.805
3.467 0.986 3.746
5.326 0.994 3.660
5.444 1.176 3.607
5.746 1.016 3.455
5.756 1.017 3.559
5.965 0.937 3.377
1.934 0.821 4.138
2.059 0.781 4.035
2.190 0.691 3.952
2.402 0.874 3.843
2.771 0.744 3.983
2.998 0.763 3.989
3.228 0.897 3.983
5.105 0.925 3.808
5.309 0.824 3.651
5.506 1.006 3.805
5.720 1.015 3.711
5.944 0.872 3.501
6.096 0.784 3.532
1.907 0.758 3.892
1.981 0.597 4.274
2.011 0.417 4.080
2.397 0.525 4.005
2.642 0.661 4.121
2.667 0.710 4.217
3.095 0.652 4.009
4.925 0.550 3.889
4.949 0.581 3.814
5.253 0.842 3.811
5.501 0.743 3.834
5.593 0.817 3.912
5.970 0.617 3.726
6.217 0.654 3.734
1.781 0.456 4.291
1.846 0.536 4.247
1.938 0.328 4.422
2.042 0.418 4.293
2.460 0.290 4.206
2.639 0.285 4.148
2.699 0.498 4.347
4.738 0.627 4.027
4.906 0.398 4.109
4.973 0.547 3.959
5.177 0.643 3.903
5.454 0.481 4.035
5.841 0.596 3.884
5.854 0.670 3.882
1.375 0.432 4.471
1.637 0.332 4.240
2.054 0.316 4.467
1.994 0.081 4.609
2.195 0.323 4.455
2.330 0.364 4.478
2.650 0.272 4.503
4.527 0.441 4.351
4.580 0.250 4.128
4.850 0.271 4.105
5.132 0.346 4.317
5.209 0.490 4.120
5.495 0.510 4.049
5.705 0.326 4.016
1.258 0.161 4.523
1.603 0.059 4.473
1.588 0.267 4.620
1.933 0.081 4.496
2.050 -0.091 4.510
2.165 0.051 4.474
2.434 0.152 4.474
4.108 0.146 4.295
4.514 0.017 4.283
4.529 0.184 4.262
4.729 0.225 4.268
4.985 0.235 4.455
5.222 0.176 4.301
5.416 0.353 4.237
1.312 -0.050 4.628
1.538 0.026 4.631
1.850 0.003 4.783
1.984 -0.103 4.608
4.542 0.023 4.391
4.857 0.139 4.388
5.138 0.161 4.570
5.418 0.106 4.459
1.707 2.327 2.475
1.967 2.293 2.551
2.156 2.358 2.357
3.914 2.418 2.394
4.207 2.408 2.428
4.205 2.397 2.309
4.651 2.439 2.286
4.856 2.595 2.189
4.968 2.555 2.307
5.262 2.591 2.292
0.733 2.199 2.563
0.897 2.448 2.503
1.214 2.266 2.658
1.397 2.317 2.514
1.679 2.303 2.563
1.718 2.221 2.587
1.940 2.118 2.599
3.668 2.404 2.568
3.779 2.164 2.451
4.116 2.450 2.572
4.217 2.371 2.494
4.592 2.371 2.290
4.886 2.470 2.356
4.905 2.226 2.311
0.597 2.273 2.852
0.854 2.077 2.865
0.977 2.130 2.816
1.156 2.147 2.658
1.419 2.311 2.602
1.592 2.203 2.600
1.572 2.153 2.974
3.455 2.087 2.550
3.621 2.060 2.759
3.844 2.250 2.683
4.289 2.095 2.718
4.310 2.196 2.667
4.719 2.244 2.606
4.788 2.150 2.507
0.255 1.833 3.003
0.529 1.842 2.960
0.738 2.055 2.957
0.925 1.963 2.977
1.375 1.968 2.943
1.521 1.890 2.809
1.711 2.131 2.770
3.263 2.015 2.714
3.525 2.092 2.693
3.712 1.924 2.794
3.880 2.089 2.711
4.181 1.906 2.714
4.479 2.122 2.860
4.637 2.086 2.819
0.509 1.901 3.247
0.695 1.870 3.184
0.882 1.951 2.984
1.078 1.877 3.118
1.370 1.709 3.159
1.567 1.716 3.046
3.008 1.779 3.112
3.311 1.719 3.073
3.384 1.800 2.843
3.694 1.890 2.849
3.962 1.895 3.029
4.227 1.728 2.912
4.412 1.893 2.798
6.334 2.038 2.695
0.364 1.765 3.234
0.625 1.600 3.380
0.989 1.657 3.320
0.956 1.745 3.326
1.262 1.591 3.212
2.846 1.445 3.259
3.174 1.562 3.020
3.192 1.519 3.045
3.541 1.730 3.252
3.694 1.561 3.181
3.944 1.577 2.960
4.155 1.735 3.113
6.015 1.726 2.734
6.279 1.739 2.884
0.504 1.334 3.514
0.555 1.561 3.469
0.922 1.424 3.324
1.084 1.400 3.470
2.801 1.483 3.361
3.014 1.388 3.332
2.983 1.447 3.219
3.333 1.484 3.354
3.697 1.423 3.383
3.658 1.480 3.207
4.089 1.564 3.273
5.907 1.568 3.152
5.927 1.543 3.013
6.243 1.583 3.130
0.389 1.211 3.472
0.626 1.309 3.637
0.948 1.289 3.664
2.504 1.323 3.112
2.664 1.274 3.215
2.760 1.189 3.100
3.162 1.160 3.143
3.304 1.213 3.052
3.686 1.439 3.163
3.915 1.401 3.049
5.679 1.473 2.821
5.854 1.538 2.790
5.897 1.467 2.929
6.303 1.365 2.794
0.473 1.117 3.312
0.656 1.290 3.426
2.213 1.201 3.260
2.391 1.171 3.365
2.677 0.982 3.305
2.818 1.107 3.369
3.252 1.203 3.156
3.349 0.986 3.365
3.508 1.002 3.267
3.725 1.073 3.266
5.232 1.284 3.205
5.456 1.157 2.938
5.878 1.172 3.052
6.163 1.283 3.134
6.241 1.321 3.016
0.444 1.096 3.503
0.771 0.895 3.422
1.904 1.010 3.610
2.176 0.849 3.573
2.376 0.872 3.447
2.694 0.928 3.570
2.978 0.852 3.581
3.088 0.921 3.482
3.335 0.980 3.362
3.464 1.102 3.409
5.267 1.177 3.109
5.423 0.995 3.264
5.614 1.150 3.129
5.917 1.215 3.041
6.184 1.227 3.272
6.388 1.188 3.017
0.417 0.837 3.744
1.942 0.773 3.743
2.072 0.703 3.837
2.172 0.844 3.815
2.584 0.823 3.511
2.726 0.763 3.581
2.929 0.787 3.744
3.244 0.879 3.577
3.345 0.912 3.516
3.737 0.930 3.507
4.955 0.862 3.462
5.324 0.824 3.368
5.470 0.770 3.490
5.643 0.782 3.220
5.849 1.006 3.382
6.184 0.827 3.244
0.487 0.586 3.787
1.952 0.812 3.836
1.968 0.599 3.866
2.120 0.664 3.912
2.403 0.648 3.960
2.555 0.652 3.833
2.782 0.622 3.797
2.955 0.656 3.838
3.306 0.706 3.812
3.562 0.613 3.829
4.861 0.825 3.597
5.082 0.664 3.479
5.242 0.644 3.519
5.407 0.805 3.647
5.700 0.637 3.438
5.814 0.642 3.367
6.124 0.634 3.340
1.747 0.482 3.929
1.746 0.576 3.785
1.913 0.384 4.028
2.108 0.448 4.081
2.203 0.357 3.953
2.695 0.402 3.910
2.670 0.413 3.804
3.018 0.354 3.897
3.195 0.362 3.753
4.670 0.506 3.641
4.903 0.652 3.821
5.348 0.586 3.676
5.442 0.641 3.540
5.752 0.619 3.738
5.792 0.459 3.659
6.091 0.636 3.497
1.599 0.333 4.006
1.800 0.520 4.114
1.933 0.084 4.218
2.275 0.373 4.281
2.289 0.303 4.207
2.604 0.288 4.092
2.883 0.166 4.034
2.963 0.228 4.185
4.530 0.214 3.845
4.681 0.242 4.011
4.973 0.461 3.848
5.127 0.266 3.716
5.353 0.374 3.811
5.737 0.295 3.677
6.030 0.551 3.866
6.131 0.451 3.771
1.471 0.269 4.122
1.623 0.339 4.128
1.969 0.311 4.186
1.858 -0.007 4.241
2.180 0.115 4.388
2.380 0.207 4.401
2.676 0.205 4.319
2.952 0.189 4.243
4.695 0.239 4.164
4.708 0.230 3.897
5.046 0.242 4.093
5.145 0.128 3.923
5.627 0.196 4.110
5.840 0.158 3.888
5.863 0.365 3.999
1.591 0.143 4.257
1.662 0.140 4.406
1.937 0.069 4.225
4.461 -0.025 4.349
4.588 0.118 4.182
4.940 -0.049 4.145
5.184 0.020 4.090
5.298 -0.031 4.012
5.483 0.008 4.101
5.825 -0.057 4.208
1.721 2.336 2.311
1.728 2.181 2.317
1.964 2.152 2.275
2.341 2.377 2.220
4.114 2.453 2.030
4.323 2.220 2.048
4.609 2.472 2.014
4.718 2.337 2.203
5.096 2.438 1.928
5.272 2.356 1.902
5.297 2.533 1.909
1.088 2.245 2.458
1.253 2.052 2.441
1.371 2.114 2.289
1.782 2.239 2.412
1.742 2.166 2.646
1.762 2.141 2.618
4.159 2.097 2.308
4.431 2.062 2.252
4.436 2.303 2.252
4.861 2.333 2.087
5.149 2.294 2.285
0.937 2.102 2.731
1.328 1.935 2.565
1.401 1.942 2.661
1.580 1.999 2.529
3.839 1.995 2.388
4.239 2.136 2.560
4.362 2.131 2.439
4.469 2.139 2.279
0.724 1.908 2.620
0.920 1.992 2.733
1.373 1.832 2.809
1.358 1.814 2.738
3.432 1.693 2.775
3.637 1.709 2.701
3.830 1.823 2.690
4.094 1.751 2.620
0.442 1.655 2.967
0.464 1.630 2.913
0.930 1.776 2.986
1.054 1.604 2.822
3.076 1.728 2.976
3.321 1.747 2.950
3.472 1.636 2.735
3.792 1.695 2.771
3.947 1.654 2.866
6.298 1.767 2.539
0.364 1.394 3.052
0.575 1.434 2.939
0.869 1.599 2.915
2.732 1.431 3.083
2.990 1.534 3.018
3.005 1.416 3.041
3.333 1.495 2.828
3.658 1.405 2.850
3.897 1.610 2.826
3.985 1.600 2.963
5.645 1.437 2.731
5.878 1.545 2.704
6.226 1.710 2.745
0.556 1.293 3.146
0.576 1.458 3.160
0.989 1.297 3.091
2.314 1.293 3.234
2.740 1.203 3.046
2.790 1.195 3.121
3.192 1.267 3.069
3.375 1.261 3.007
3.671 1.295 3.099
3.666 1.437 3.209
5.659 1.524 2.883
5.807 1.397 2.979
5.934 1.391 2.936
6.220 1.373 2.950
0.341 1.172 3.481
0.715 1.136 3.429
2.213 1.010 3.140
2.537 1.023 3.050
2.622 0.984 2.963
2.760 1.213 3.006
3.143 1.214 2.861
3.336 1.009 2.809
3.472 1.112 2.898
5.276 1.126 2.743
5.562 1.303 2.860
5.894 1.188 2.832
5.883 1.266 2.620
6.310 1.140 2.592
0.296 1.008 3.324
1.996 0.807 3.262
2.192 0.860 3.286
2.539 1.069 3.330
2.754 0.825 3.151
2.867 0.988 3.067
3.006 1.082 3.024
3.401 1.004 3.004
3.637 0.857 3.070
5.148 1.095 2.875
5.481 0.989 2.791
5.623 1.199 2.971
5.757 1.227 2.733
6.101 1.202 2.725
6.130 1.090 2.676
0.467 0.811 3.460
1.758 0.787 3.299
1.895 0.847 3.493
2.246 0.646 3.447
2.595 0.634 3.300
2.711 0.698 3.268
3.007 0.684 3.335
3.075 0.936 3.370
3.246 0.784 3.330
3.499 0.830 3.366
4.826 0.885 3.057
5.229 0.920 2.991
5.249 0.942 3.055
5.658 0.942 2.935
5.901 0.998 2.887
6.033 1.067 3.067
6.345 0.972 2.937
0.376 0.797 3.602
1.689 0.605 3.282
1.762 0.582 3.419
2.142 0.450 3.617
2.331 0.666 3.453
2.511 0.741 3.465
2.845 0.638 3.542
2.980 0.692 3.374
3.251 0.660 3.456
3.431 0.774 3.320
3.622 0.741 3.242
4.850 0.702 3.115
5.312 0.852 3.190
5.404 0.827 3.086
5.673 0.649 3.209
5.713 0.830 3.219
6.132 0.808 3.108
0.456 0.506 3.716
1.872 0.432 3.486
1.833 0.347 3.770
2.010 0.458 3.699
2.310 0.476 3.612
2.596 0.463 3.507
2.669 0.320 3.572
3.083 0.409 3.684
3.247 0.480 3.446
3.430 0.355 3.441
4.682 0.578 3.442
5.001 0.628 3.460
5.295 0.558 3.238
5.317 0.621 3.355
5.780 0.702 3.452
5.901 0.624 3.338
6.225 0.537 3.277
1.746 0.282 3.767
1.837 0.446 3.574
1.941 0.254 3.959
2.200 0.159 3.810
2.197 0.187 3.844
2.584 0.322 3.803
2.707 0.326 3.817
2.916 0.384 3.699
3.156 0.179 3.863
3.490 0.438 3.557
4.886 0.384 3.528
5.030 0.258 3.641
5.164 0.385 3.432
5.421 0.365 3.596
5.803 0.417 3.567
5.979 0.408 3.576
6.219 0.492 3.388
1.744 0.343 3.978
1.767 0.161 3.749
1.983 0.171 3.994
2.004 -0.018 4.104
2.335 0.175 3.980
2.619 0.084 3.807
2.905 0.120 3.955
3.113 0.189 3.880
3.284 0.024 4.010
4.847 0.316 3.809
5.161 0.095 3.660
5.252 0.165 3.760
5.357 0.261 3.552
5.828 0.251 3.517
5.973 0.267 3.720
6.022 0.211 3.483
1.651 0.020 3.994
1.897 0.021 4.093
4.782 0.186 3.788
4.908 -0.062 3.731
5.243 0.069 3.808
5.537 0.174 3.873
5.701 0.143 3.914
5.880 -0.020 3.674
6.270 0.003 3.656
1.661 1.946 2.304
1.945 1.959 2.227
2.187 2.099 2.271
2.424 1.965 2.248
4.479 2.091 2.035
4.748 2.150 1.953
5.067 2.163 1.888
5.093 2.239 1.981
5.332 2.364 1.915
1.534 2.054 2.266
1.687 2.196 2.296
2.597 1.386 2.850
2.929 1.383 2.873
3.091 1.329 2.697
3.370 1.238 2.827
3.525 1.445 2.774
5.822 1.408 2.664
6.087 1.499 2.587
6.249 1.317 2.459
0.442 1.199 3.181
2.203 1.200 3.192
2.316 1.145 3.111
2.689 1.164 3.158
2.857 1.109 2.865
3.094 1.157 3.114
3.219 1.234 3.034
3.544 1.209 2.879
5.468 1.180 2.804
5.420 1.159 2.729
5.878 1.395 2.668
5.929 1.224 2.720
6.125 1.327 2.590
0.489 0.867 3.334
2.077 0.844 2.863
2.110 0.870 2.869
2.533 0.864 2.845
2.633 1.088 2.990
3.007 1.052 2.782
3.130 1.025 2.742
3.240 0.968 2.767
5.118 1.114 2.733
5.349 1.064 2.732
5.421 1.154 2.452
5.907 1.125 2.547
5.927 1.095 2.516
6.181 1.003 2.581
1.878 0.882 3.037
1.903 0.647 3.193
2.093 0.693 2.918
2.580 0.895 2.881
2.667 0.809 2.984
2.865 0.768 3.038
3.187 0.922 2.843
3.329 0.712 3.059
3.528 0.933 2.949
4.863 0.982 2.647
5.214 0.967 2.656
5.258 0.818 2.852
5.434 0.864 2.838
5.766 0.929 2.694
6.122 0.844 2.620
6.347 1.029 2.753
0.410 0.582 3.258
1.889 0.747 3.131
1.927 0.592 3.291
2.085 0.687 3.164
2.125 0.466 3.261
2.576 0.757 3.074
2.798 0.750 3.122
2.907 0.687 3.117
3.202 0.727 3.061
3.475 0.683 3.196
3.553 0.623 3.156
5.042 0.796 2.868
5.154 0.761 2.854
5.378 0.682 2.839
5.463 0.627 2.781
5.702 0.914 2.887
6.050 0.830 2.960
6.169 0.673 2.919
0.588 0.427 3.264
1.936 0.516 3.184
1.714 0.298 3.436
2.160 0.506 3.269
2.171 0.300 3.217
2.450 0.445 3.220
2.677 0.534 3.347
2.935 0.574 3.392
3.086 0.579 3.235
3.247 0.369 3.311
3.486 0.567 3.251
4.795 0.466 3.174
5.005 0.553 2.954
5.085 0.540 2.954
5.268 0.733 3.137
5.579 0.715 2.957
5.697 0.530 3.075
6.109 0.559 2.924
0.495 0.407 3.600
1.738 0.517 3.280
1.781 0.436 3.302
1.983 0.251 3.497
2.052 0.330 3.509
2.222 0.293 3.460
2.608 0.401 3.429
2.611 0.228 3.323
3.087 0.325 3.534
3.092 0.453 3.516
3.325 0.376 3.304
3.689 0.218 3.376
4.726 0.428 3.243
4.950 0.502 3.211
5.061 0.491 3.263
5.411 0.462 3.111
5.598 0.509 3.092
5.783 0.358 3.235
6.209 0.534 3.112
0.641 0.131 3.561
1.683 0.380 3.508
1.831 0.330 3.586
1.942 0.092 3.650
1.955 0.153 3.527
2.257 0.107 3.528
2.615 0.006 3.514
2.901 0.023 3.499
2.895 0.224 3.564
3.234 0.069 3.574
3.356 0.107 3.390
4.873 0.107 3.293
5.115 0.121 3.406
5.333 0.172 3.370
5.496 0.392 3.314
5.753 0.182 3.339
5.936 0.319 3.221
6.160 0.361 3.133
1.571 0.054 3.797
1.792 0.196 3.649
4.855 0.119 3.648
5.030 0.015 3.556
5.374 0.064 3.402
5.451 0.129 3.604
5.774 0.037 3.472
5.788 0.065 3.336
6.001 0.091 3.417
1.790 1.992 1.994
2.016 1.982 1.874
2.205 2.026 2.059
2.398 1.831 2.000
5.022 1.932 1.709
5.136 1.983 1.684
5.326 2.038 1.719
5.593 2.240 1.603
2.297 1.176 2.818
2.726 1.143 2.628
2.750 1.170 2.796
3.170 1.031 2.724
5.527 1.304 2.547
5.782 1.400 2.258
5.969 1.292 2.244
6.224 1.167 2.409
1.879 0.962 2.918
2.160 0.808 2.903
2.551 0.920 2.907
2.515 1.007 2.833
2.749 1.019 2.876
2.967 0.837 2.925
3.270 1.084 2.805
5.085 1.149 2.599
5.295 1.218 2.665
5.612 1.094 2.614
5.674 1.109 2.623
6.138 1.097 2.602
6.223 1.126 2.583
1.838 0.814 2.834
2.106 0.748 2.822
2.089 0.819 2.668
2.288 0.694 2.833
2.643 0.740 2.752
3.007 0.783 2.750
3.053 0.841 2.533
4.901 0.798 2.494
5.222 0.973 2.491
5.376 1.004 2.333
5.652 1.019 2.371
5.688 1.058 2.402
6.108 1.012 2.374
6.233 1.005 2.277
1.826 0.636 2.762
1.775 0.557 2.879
1.868 0.480 2.969
2.140 0.706 2.832
2.546 0.493 2.800
2.757 0.593 2.795
2.780 0.564 2.896
3.117 0.715 2.859
3.202 0.772 2.826
4.694 0.800 2.676
4.972 0.831 2.636
5.170 0.729 2.727
5.327 0.721 2.471
5.679 0.878 2.433
5.687 0.709 2.417
6.127 0.923 2.519
6.354 0.686 2.450
1.410 0.681 3.079
1.738 0.693 3.050
1.817 0.403 3.020
2.028 0.569 2.922
2.211 0.585 3.066
2.411 0.358 2.905
2.608 0.356 2.888
2.830 0.351 2.866
3.236 0.559 2.821
3.377 0.370 2.824
4.571 0.436 2.905
4.901 0.551 2.781
5.010 0.679 2.763
5.238 0.539 2.826
5.590 0.521 2.714
5.786 0.568 2.694
6.166 0.592 2.667
6.226 0.523 2.587
1.650 0.507 3.016
1.685 0.408 3.052
1.854 0.244 3.343
2.069 0.211 3.326
2.395 0.333 3.190
2.580 0.271 3.282
2.792 0.412 3.224
2.994 0.439 3.038
3.135 0.423 3.228
3.402 0.307 3.059
3.527 0.433 3.173
4.618 0.297 2.934
4.856 0.336 2.794
5.097 0.500 2.757
5.379 0.517 2.770
5.538 0.504 2.795
5.713 0.377 2.868
6.064 0.484 2.914
6.174 0.597 2.896
0.500 0.211 3.292
1.593 0.184 3.374
1.781 0.139 3.103
1.918 -0.002 3.368
2.017 -0.015 3.282
2.280 0.226 3.444
2.389 0.172 3.406
2.743 0.036 3.231
2.891 0.164 3.337
3.197 0.287 3.259
3.512 0.271 3.078
3.570 0.165 3.219
4.835 0.131 3.015
4.939 0.333 3.105
5.242 0.211 3.032
5.288 0.251 3.104
5.541 0.308 3.049
5.836 0.158 2.992
6.061 0.344 3.012
0.422 0.108 3.368
1.702 -0.006 3.322
1.898 0.159 3.282
3.343 -0.000 3.444
3.547 -0.078 3.346
4.981 -0.009 3.174
5.277 0.224 3.136
5.501 0.153 3.091
5.681 0.155 3.125
5.935 0.167 3.077
5.976 0.120 3.203
2.414 1.808 1.890
2.563 1.800 1.661
2.618 1.955 1.760
3.073 1.935 1.631
5.361 1.803 1.558
5.687 1.850 1.492
5.866 1.923 1.328
6.031 1.977 1.400
1.864 0.804 2.658
2.213 1.089 2.534
2.300 1.062 2.672
2.476 1.095 2.521
5.054 1.040 2.283
5.312 1.129 2.208
5.453 1.016 2.216
5.739 1.028 2.369
1.686 0.687 2.774
2.043 0.820 2.767
2.329 0.920 2.807
2.300 0.667 2.768
2.591 0.790 2.759
2.727 0.854 2.685
2.983 0.953 2.571
4.802 0.992 2.579
5.219 1.071 2.580
5.184 0.811 2.408
5.559 0.991 2.295
5.645 0.843 2.322
6.054 1.087 2.409
6.253 0.965 2.401
1.761 0.846 2.766
1.670 0.550 2.525
1.842 0.523 2.647
2.167 0.581 2.570
2.442 0.672 2.467
2.699 0.667 2.499
2.937 0.588 2.411
4.667 0.716 2.363
4.780 0.726 2.410
5.002 0.855 2.413
5.386 0.765 2.310
5.400 0.922 2.320
5.626 0.692 2.092
5.872 0.743 2.318
1.618 0.567 2.519
1.787 0.568 2.604
1.899 0.375 2.719
2.084 0.368 2.591
2.238 0.497 2.712
2.519 0.453 2.612
2.682 0.571 2.789
2.830 0.636 2.511
3.166 0.499 2.601
4.656 0.632 2.445
4.999 0.615 2.332
5.126 0.658 2.343
5.235 0.539 2.327
5.475 0.673 2.459
5.680 0.660 2.426
5.897 0.657 2.407
6.283 0.587 2.434
1.516 0.481 2.777
1.723 0.511 2.721
1.706 0.390 2.847
2.090 0.256 2.962
2.184 0.399 2.737
2.331 0.376 2.974
2.589 0.210 2.811
2.762 0.333 2.805
3.244 0.381 2.815
3.481 0.412 2.622
4.743 0.522 2.537
4.921 0.449 2.461
5.221 0.349 2.653
5.237 0.483 2.679
5.469 0.338 2.398
5.720 0.596 2.589
5.937 0.549 2.578
6.264 0.577 2.373
1.452 0.168 2.884
1.882 0.140 2.912
1.750 0.082 2.964
2.078 0.268 3.098
2.320 0.188 3.011
2.391 0.236 2.931
2.792 0.059 2.909
2.853 0.231 2.852
3.091 0.057 2.808
3.407 0.158 2.919
4.668 0.155 2.865
5.009 0.207 2.629
5.181 0.186 2.859
5.357 0.172 2.745
5.590 0.394 2.668
5.731 0.204 2.712
6.115 0.393 2.606
6.316 0.277 2.655
1.724 0.245 2.941
1.848 0.104 3.046
2.894 -0.087 3.060
3.122 -0.121 3.212
3.253 0.136 2.927
3.727 0.040 2.926
4.834 0.181 2.797
5.110 0.008 2.772
5.304 0.088 2.825
5.636 0.120 2.870
5.799 0.187 2.927
5.965 0.076 2.767
2.436 1.777 1.552
2.728 1.665 1.659
2.931 1.642 1.674
3.043 1.770 1.617
3.308 1.650 1.676
5.661 1.714 1.353
5.750 1.862 1.288
6.156 1.760 1.335
0.386 1.668 1.777
1.745 0.837 2.413
2.003 0.787 2.297
2.136 0.841 2.432
2.261 0.936 2.451
4.668 0.952 2.109
4.774 0.860 2.279
5.065 0.918 2.233
5.185 1.018 2.057
5.551 1.093 2.117
1.394 0.722 2.492
1.737 0.856 2.388
1.767 0.556 2.545
1.845 0.600 2.565
2.278 0.631 2.529
2.423 0.721 2.441
2.707 0.628 2.467
2.986 0.776 2.632
4.642 0.737 2.230
4.830 0.656 2.399
5.165 0.868 2.278
5.452 0.772 2.248
5.596 0.777 2.190
5.774 0.922 2.303
5.967 0.717 2.184
1.426 0.602 2.657
1.854 0.638 2.537
1.643 0.366 2.478
2.015 0.527 2.390
2.300 0.601 2.403
2.264 0.559 2.465
2.555 0.567 2.304
4.452 0.544 2.281
4.664 0.614 2.140
4.868 0.574 2.236
4.973 0.550 2.165
5.249 0.626 1.952
5.432 0.576 2.127
5.755 0.552 2.112
1.151 0.487 2.551
1.547 0.539 2.477
1.718 0.420 2.523
1.647 0.425 2.676
1.884 0.405 2.640
2.162 0.370 2.449
2.530 0.383 2.475
2.653 0.317 2.434
2.840 0.214 2.496
4.429 0.555 2.209
4.668 0.502 2.203
4.773 0.438 2.353
5.219 0.438 2.397
5.188 0.412 2.353
5.641 0.428 2.224
5.800 0.376 2.318
6.084 0.549 2.109
1.265 0.381 2.643
1.670 0.164 2.652
1.702 0.413 2.610
1.714 0.159 2.863
1.951 0.128 2.788
2.342 0.156 2.835
2.322 0.226 2.632
2.681 0.198 2.628
2.881 0.085 2.486
3.036 0.059 2.593
4.667 0.182 2.431
5.034 0.392 2.322
5.000 0.421 2.498
5.341 0.381 2.436
5.633 0.442 2.374
5.872 0.437 2.332
5.896 0.397 2.442
6.255 0.396 2.280
1.547 0.178 2.715
1.743 0.041 2.735
2.622 -0.128 2.760
2.840 0.021 2.819
3.004 -0.080 2.863
3.253 -0.017 2.867
4.621 0.168 2.563
4.932 -0.013 2.699
5.134 0.255 2.697
5.403 0.094 2.647
5.552 0.077 2.484
5.831 0.170 2.528
6.131 0.215 2.507
6.262 0.265 2.513
6.184 -0.005 2.587
6.264 0.060 2.616
2.385 1.571 1.449
2.631 1.408 1.444
3.041 1.534 1.456
3.103 1.625 1.284
3.353 1.444 1.486
3.723 1.595 1.411
3.788 1.575 1.400
5.744 1.559 1.078
5.933 1.614 1.106
5.949 1.651 1.063
6.340 1.585 1.085
0.282 1.373 1.602
0.441 1.362 1.792
0.730 1.372 1.679
2.965 1.499 1.433
3.235 1.401 1.617
3.451 1.476 1.645
3.695 1.414 1.496
3.712 1.300 1.374
6.115 1.396 1.175
0.205 1.170 1.884
0.422 1.300 1.670
0.620 1.309 1.764
3.374 1.097 1.728
3.594 1.259 1.593
3.914 1.110 1.728
4.207 1.368 1.599
0.386 1.168 2.058
0.453 0.935 2.055
0.817 1.117 1.795
1.092 1.176 1.832
3.837 0.987 1.709
4.114 0.989 1.685
4.303 1.114 1.665
4.612 1.209 1.688
0.640 0.977 2.028
1.019 0.799 1.982
1.222 0.800 1.988
1.518 0.995 1.871
1.804 0.821 2.178
2.031 0.686 2.106
4.089 1.006 1.958
4.461 0.867 1.900
4.671 0.797 1.945
4.692 0.975 1.897
5.007 0.909 1.878
1.142 0.762 2.098
1.335 0.825 2.254
1.322 0.886 2.147
1.774 0.807 2.059
1.601 0.487 2.298
1.997 0.642 2.148
2.193 0.723 2.345
2.284 0.658 2.138
4.071 0.677 2.016
4.304 0.725 1.987
4.536 0.802 1.986
4.966 0.738 1.964
5.050 0.827 1.958
5.219 0.822 1.957
5.555 0.802 1.814
1.177 0.691 2.341
1.121 0.725 2.247
1.464 0.557 2.260
1.795 0.681 2.414
1.831 0.492 2.502
1.889 0.358 2.375
2.118 0.482 2.263
2.455 0.372 2.267
2.492 0.410 2.416
4.518 0.621 2.276
4.558 0.671 2.184
4.892 0.667 2.001
4.984 0.596 2.249
5.410 0.578 2.104
5.519 0.564 2.075
5.867 0.603 1.906
1.259 0.307 2.389
1.539 0.360 2.598
1.838 0.461 2.533
1.699 0.318 2.300
2.023 0.200 2.289
2.035 0.454 2.124
2.402 0.450 2.335
4.237 0.416 2.062
4.490 0.583 2.095
4.571 0.447 1.955
4.853 0.330 1.928
5.087 0.357 2.036
5.217 0.543 1.888
5.514 0.372 1.820
1.151 0.328 2.478
1.158 0.214 2.220
1.556 0.397 2.436
1.730 0.199 2.212
1.876 0.279 2.337
2.040 0.041 2.314
2.130 0.200 2.255
2.315 0.047 2.402
2.760 0.281 2.329
4.557 0.337 2.169
4.756 0.288 2.281
4.992 0.172 2.100
5.098 0.402 2.216
5.365 0.179 1.966
5.633 0.292 2.044
5.631 0.258 1.896
1.194 0.145 2.575
1.517 0.171 2.547
1.875 0.017 2.362
2.229 0.019 2.517
2.531 -0.002 2.630
2.754 -0.006 2.354
2.834 -0.079 2.458
4.802 0.166 2.332
4.777 0.084 2.138
5.034 0.287 2.141
5.326 0.293 2.220
5.428 0.048 2.255
5.774 0.161 2.076
5.972 0.131 2.102
5.671 0.011 2.307
6.100 0.041 2.391
6.115 0.093 2.220
2.779 1.408 1.398
2.803 1.443 1.340
3.272 1.382 1.336
3.474 1.322 1.118
3.594 1.521 1.043
3.700 1.372 1.083
4.156 1.552 1.100
5.807 1.624 0.833
6.046 1.391 0.816
6.307 1.586 0.908
0.190 1.132 1.496
0.438 1.124 1.619
0.738 1.158 1.522
0.900 1.324 1.582
3.047 1.228 1.510
3.191 1.164 1.315
3.514 1.332 1.332
3.664 1.107 1.380
3.896 1.395 1.369
4.165 1.186 1.393
4.397 1.376 1.198
6.097 1.487 1.201
0.307 1.032 1.602
0.583 1.036 1.683
0.648 1.151 1.693
0.899 1.006 1.703
1.043 1.068 1.435
3.082 1.098 1.603
3.274 1.148 1.448
3.537 1.216 1.515
3.798 1.000 1.343
3.994 1.124 1.410
4.201 1.081 1.315
4.630 1.260 1.281
0.307 1.033 1.758
0.431 1.000 1.686
0.607 0.798 1.884
0.980 0.939 1.832
1.122 0.840 1.594
1.294 0.981 1.629
1.682 0.735 1.774
3.508 0.990 1.715
3.530 1.023 1.600
3.830 0.903 1.630
4.098 0.982 1.516
4.266 0.833 1.515
4.539 0.817 1.417
4.637 1.033 1.517
0.354 0.813 1.968
0.557 0.752 1.970
0.651 0.666 1.948
0.898 0.834 1.947
1.213 0.748 1.744
1.450 0.923 1.801
1.558 0.678 1.920
1.684 0.740 1.941
2.017 0.783 2.074
3.603 0.849 1.669
3.965 0.663 1.756
4.042 0.895 1.851
4.488 0.868 1.856
4.533 0.757 1.557
4.832 0.743 1.597
4.972 0.747 1.633
0.448 0.560 1.996
0.907 0.527 2.181
0.988 0.732 2.060
1.272 0.747 1.920
1.310 0.541 2.056
1.782 0.661 1.965
1.617 0.498 2.112
1.869 0.480 1.975
2.085 0.548 1.988
4.072 0.486 1.965
4.247 0.674 1.875
4.305 0.678 1.804
4.706 0.545 1.758
4.872 0.658 1.915
5.157 0.547 1.816
5.156 0.632 1.643
0.690 0.404 2.200
0.887 0.377 2.170
1.239 0.559 2.245
1.441 0.367 2.277
1.738 0.481 1.986
1.765 0.340 2.384
2.064 0.255 2.169
2.064 0.365 2.260
2.436 0.216 2.286
4.265 0.461 2.105
4.447 0.560 2.077
4.546 0.383 1.971
4.763 0.559 1.918
5.120 0.442 1.917
5.341 0.489 1.902
5.510 0.388 1.955
1.019 0.169 2.349
1.194 0.194 2.310
1.374 0.234 2.363
1.761 0.454 2.414
1.841 0.289 2.228
1.922 0.039 2.017
2.182 0.263 2.119
3.868 0.241 1.822
4.087 0.150 1.908
4.286 0.208 1.956
4.731 0.242 1.782
4.786 0.423 1.724
5.121 0.347 1.757
5.280 0.316 1.808
0.813 0.128 2.079
1.136 0.100 2.063
1.342 0.143 2.152
1.419 0.148 2.218
1.609 0.037 2.126
1.947 0.089 2.111
2.274 0.108 2.326
2.387 0.055 2.192
4.303 0.146 1.883
4.281 0.078 2.004
4.568 0.025 2.070
4.839 0.051 1.973
4.962 0.163 1.909
5.330 0.227 1.907
5.494 0.130 1.786
5.339 0.019 2.098
5.655 0.049 1.988
2.697 1.135 1.137
2.979 1.123 1.221
3.278 1.343 0.923
3.254 1.105 1.041
3.575 1.179 0.901
3.897 1.156 0.963
3.999 1.222 0.854
4.247 1.172 1.016
5.865 1.501 0.795
6.002 1.421 0.843
6.153 1.504 0.664
0.326 1.182 1.246
0.358 1.144 1.216
0.568 0.994 1.351
0.997 1.100 1.344
1.236 1.203 1.187
2.923 0.959 1.159
3.042 1.149 1.165
3.391 1.164 1.086
3.537 1.033 1.196
3.926 1.218 1.140
4.039 1.016 1.130
4.388 1.023 1.168
4.523 1.211 0.979
5.948 1.322 1.022
0.308 1.058 1.449
0.586 0.967 1.551
0.699 0.873 1.438
0.950 0.822 1.355
1.140 0.892 1.541
1.237 1.065 1.421
1.604 0.704 1.420
2.859 0.960 1.491
3.093 1.009 1.358
3.443 0.966 1.281
3.649 1.067 1.446
3.828 1.017 1.170
4.162 0.824 1.174
4.309 1.078 1.346
4.396 0.886 1.342
4.795 0.886 1.242
6.066 0.942 0.935
0.301 0.678 1.567
0.643 0.633 1.647
0.690 0.710 1.609
0.819 0.774 1.512
1.285 0.926 1.664
1.535 0.918 1.403
1.537 0.783 1.431
1.681 0.718 1.526
1.862 0.710 1.723
3.095 0.840 1.395
3.464 0.792 1.526
3.602 0.778 1.376
3.917 0.729 1.470
4.222 0.841 1.353
4.444 0.792 1.507
4.527 0.920 1.495
4.893 0.677 1.491
4.939 0.774 1.346
0.198 0.606 1.873
0.398 0.618 1.892
0.860 0.502 1.625
1.011 0.695 1.847
1.271 0.714 1.726
1.303 0.529 1.660
1.614 0.685 1.538
1.576 0.420 1.673
1.802 0.616 1.798
3.352 0.653 1.671
3.705 0.512 1.555
3.924 0.505 1.556
4.118 0.706 1.513
4.443 0.592 1.691
4.614 0.624 1.446
4.848 0.608 1.605
5.127 0.596 1.596
0.466 0.414 1.973
0.442 0.463 2.030
0.804 0.396 1.852
0.946 0.561 1.746
1.354 0.407 1.713
1.495 0.407 1.742
1.688 0.500 1.676
1.613 0.440 2.049
1.872 0.230 2.067
2.077 0.323 1.787
3.642 0.463 1.761
4.021 0.372 1.811
4.184 0.520 1.611
4.427 0.510 1.823
4.724 0.342 1.791
4.909 0.345 1.756
5.109 0.422 1.550
5.338 0.485 1.599
0.646 0.271 2.045
0.922 0.426 2.011
0.978 0.229 2.135
1.222 0.334 1.869
1.519 0.258 2.009
1.630 0.440 1.947
1.572 0.235 2.163
2.022 0.313 2.201
2.180 0.159 2.191
3.814 0.161 1.820
4.169 0.369 1.935
4.301 0.218 1.813
4.577 0.435 1.781
4.938 0.376 1.943
5.059 0.229 1.806
5.146 0.228 1.878
0.790 0.241 2.326
1.057 0.196 2.307
1.378 0.051 2.059
1.570 0.239 2.215
1.700 0.234 2.098
1.703 -0.122 1.955
2.013 -0.039 2.009
3.833 -0.013 1.846
3.972 0.212 1.586
4.242 0.164 1.620
4.304 0.123 1.624
4.609 0.279 1.792
4.754 0.204 1.536
5.151 0.185 1.663
1.476 -0.042 1.846
1.615 -0.103 1.820
5.035 -0.012 1.679
2.786 1.055 0.794
3.181 1.021 0.975
3.305 1.105 0.966
3.700 1.147 0.820
3.694 1.244 0.710
3.991 1.176 0.883
4.273 1.229 0.718
4.509 1.142 0.773
5.966 1.123 0.595
6.297 1.363 0.595
0.231 0.972 1.039
0.310 0.967 1.280
0.680 0.867 1.051
1.004 0.877 1.022
1.185 0.938 1.161
1.309 0.937 1.052
1.612 0.722 1.332
2.936 0.923 1.164
3.268 1.035 1.030
3.517 0.915 1.156
3.666 0.833 1.074
3.684 0.924 1.009
3.980 0.863 1.091
4.381 0.990 0.850
4.530 1.073 0.818
4.706 1.038 0.881
6.048 1.040 0.853
6.283 0.996 0.605
0.204 0.663 1.205
0.512 0.922 1.419
0.588 0.920 1.254
0.955 0.686 1.386
1.137 0.916 1.215
1.403 0.765 1.082
1.723 0.838 1.237
1.648 0.802 1.199
2.896 0.769 1.269
3.072 0.793 1.333
3.423 0.789 1.124
3.742 0.675 1.197
3.744 0.742 1.074
4.166 0.827 1.110
4.401 0.672 0.998
4.567 0.885 1.193
4.720 0.902 0.914
6.097 0.756 0.892
0.268 0.662 1.459
0.591 0.752 1.540
0.732 0.663 1.527
1.004 0.666 1.430
1.054 0.700 1.479
1.438 0.652 1.399
1.488 0.804 1.281
1.665 0.432 1.571
1.971 0.502 1.590
3.093 0.446 1.229
3.366 0.619 1.364
3.717 0.720 1.413
3.857 0.581 1.156
4.038 0.607 1.258
4.243 0.627 1.268
4.501 0.604 1.323
4.885 0.589 1.162
5.077 0.717 1.178
0.308 0.575 1.610
0.431 0.475 1.716
0.729 0.525 1.436
1.098 0.558 1.500
1.134 0.412 1.508
1.501 0.570 1.385
1.500 0.636 1.567
1.679 0.488 1.535
1.801 0.214 1.513
3.265 0.346 1.609
3.515 0.435 1.582
3.722 0.448 1.553
4.029 0.395 1.463
4.145 0.464 1.473
4.226 0.522 1.366
4.668 0.518 1.497
4.807 0.414 1.462
4.952 0.573 1.385
0.447 0.394 1.700
0.552 0.239 1.891
0.702 0.393 1.802
1.088 0.450 1.778
1.253 0.374 1.782
1.316 0.301 1.610
1.758 0.299 1.690
1.582 0.292 1.813
1.976 0.263 1.810
3.557 0.382 1.599
3.744 0.337 1.497
4.012 0.173 1.448
4.147 0.399 1.435
4.472 0.288 1.609
4.503 0.379 1.575
4.843 0.355 1.345
5.084 0.220 1.400
0.473 0.156 2.053
0.490 0.210 1.879
0.821 0.048 1.894
0.955 0.117 1.813
1.310 0.151 1.902
1.456 0.065 1.831
1.594 0.229 1.794
1.839 -0.106 1.944
1.928 0.073 2.032
3.657 -0.016 1.664
3.957 0.219 1.830
4.069 0.050 1.805
4.375 0.224 1.645
4.580 0.251 1.596
4.751 0.176 1.636
4.979 0.036 1.481
1.564 -0.049 1.936
1.805 0.067 2.012
4.489 0.056 1.534
4.884 0.127 1.531
1.616 0.851 0.800
3.000 0.906 0.790
3.213 0.930 0.787
3.206 1.014 0.708
3.501 0.886 0.632
3.918 0.834 0.703
4.107 1.068 0.689
4.104 1.061 0.578
4.581 0.908 0.639
4.755 1.104 0.716
5.980 0.975 0.548
6.212 0.987 0.384
0.090 0.819 0.890
0.442 0.791 1.008
0.626 0.688 0.868
0.798 0.760 1.035
1.049 0.751 0.955
1.281 0.714 0.944
1.648 0.776 0.844
1.659 0.673 0.932
2.999 0.650 0.883
3.004 0.730 0.916
3.378 0.768 0.755
3.596 0.751 0.807
3.755 0.922 0.902
4.009 0.672 0.905
4.359 0.912 0.741
4.569 0.723 0.784
4.577 0.725 0.781
6.036 0.951 0.656
6.388 1.031 0.445
0.267 0.726 1.097
0.356 0.528 1.184
0.567 0.682 1.248
0.831 0.622 1.121
1.050 0.701 1.130
1.318 0.603 0.975
1.677 0.616 1.089
1.544 0.610 1.090
1.740 0.614 1.188
2.828 0.542 0.961
3.257 0.665 1.133
3.334 0.725 1.052
3.500 0.502 0.865
3.712 0.732 0.987
3.921 0.788 0.844
4.308 0.593 0.852
4.373 0.662 0.925
4.669 0.584 0.864
5.048 0.743 0.798
5.946 0.650 0.649
0.124 0.509 1.199
0.487 0.337 1.364
0.664 0.404 1.255
1.050 0.406 1.149
1.105 0.434 1.315
1.311 0.540 1.079
1.575 0.562 1.115
1.720 0.254 1.335
1.809 0.342 1.416
2.960 0.559 1.158
3.214 0.301 1.102
3.300 0.565 1.022
3.591 0.542 1.059
3.935 0.333 1.154
3.942 0.352 1.173
4.366 0.489 1.126
4.416 0.396 1.181
4.833 0.470 1.152
4.934 0.469 0.903
6.215 0.476 0.916
0.413 0.395 1.563
0.527 0.346 1.307
0.807 0.175 1.426
0.853 0.206 1.299
1.199 0.217 1.275
1.341 0.231 1.460
1.592 0.447 1.433
1.570 0.231 1.422
1.940 0.346 1.362
3.326 0.400 1.185
3.450 0.369 1.275
3.519 0.167 1.351
3.959 0.339 1.308
4.118 0.422 1.313
4.205 0.453 1.301
4.471 0.251 1.290
4.824 0.236 1.301
5.079 0.459 1.084
0.277 0.243 1.727
0.423 0.229 1.567
0.648 0.031 1.444
0.839 0.264 1.536
1.202 0.139 1.535
1.445 0.223 1.572
1.737 0.160 1.594
1.654 0.015 1.715
1.959 0.151 1.565
3.201 0.230 1.519
3.403 0.025 1.554
3.761 0.187 1.472
4.020 0.117 1.322
4.249 0.258 1.366
4.283 0.204 1.452
4.589 0.141 1.411
4.711 0.072 1.364
5.055 0.143 1.355
1.290 0.039 1.803
1.592 0.138 1.778
1.732 0.009 1.485
4.609 -0.099 1.566
4.832 -0.121 1.566
1.687 0.624 0.594
1.898 0.803 0.719
3.075 0.858 0.539
3.193 0.702 0.577
3.447 0.721 0.396
3.802 0.874 0.467
4.071 0.897 0.405
4.230 0.697 0.457
4.407 0.822 0.558
4.595 0.917 0.501
4.877 0.935 0.414
6.152 0.955 0.327
0.157 0.643 0.735
0.409 0.781 0.813
0.640 0.599 0.862
0.998 0.607 0.694
1.014 0.678 0.837
1.451 0.574 0.740
1.587 0.621 0.703
1.528 0.492 0.810
1.878 0.593 0.708
3.109 0.508 0.788
3.383 0.609 0.625
3.529 0.504 0.733
3.678 0.679 0.697
4.035 0.661 0.655
4.134 0.793 0.600
4.456 0.543 0.482
4.684 0.560 0.649
4.932 0.644 0.661
6.252 0.672 0.383
0.183 0.367 0.920
0.553 0.530 0.972
0.620 0.417 0.949
0.999 0.421 0.918
1.247 0.474 0.961
1.394 0.452 0.862
1.479 0.473 0.972
1.599 0.499 1.039
1.909 0.480 1.088
2.978 0.475 0.809
3.222 0.543 0.772
3.311 0.606 0.744
3.635 0.567 0.808
3.921 0.604 0.795
3.941 0.511 0.827
4.283 0.377 0.634
4.605 0.408 0.715
4.745 0.641 0.629
4.816 0.545 0.704
6.173 0.560 0.716
6.420 0.673 0.462
0.178 0.305 1.125
0.535 0.399 1.025
0.634 0.278 1.204
0.853 0.267 1.215
1.053 0.259 0.946
1.275 0.253 0.955
1.556 0.480 1.062
1.515 0.138 1.116
1.809 0.314 1.128
2.847 0.328 0.956
3.227 0.214 1.043
3.475 0.212 1.022
3.491 0.320 0.851
3.880 0.361 1.082
4.121 0.284 0.901
4.188 0.312 0.858
4.437 0.420 0.816
4.632 0.226 0.811
5.100 0.454 0.809
5.984 0.565 0.856
0.332 0.080 1.259
0.549 0.189 1.286
0.774 0.144 1.351
0.979 0.169 1.129
1.211 0.116 1.339
1.315 0.158 1.203
1.489 0.224 1.112
1.550 0.149 1.325
3.122 0.004 1.093
3.338 0.089 1.124
3.527 0.133 1.054
3.575 0.138 0.985
3.882 0.124 1.086
4.099 0.024 0.963
4.237 0.053 1.002
4.604 0.196 1.138
4.723 0.094 1.066
6.183 0.173 0.841
0.611 0.096 1.264
0.829 0.042 1.364
1.324 0.120 1.343
1.279 0.082 1.210
1.599 0.036 1.322
4.413 0.048 1.198
4.422 0.139 1.091
4.774 -0.103 1.077
6.103 0.075 0.885
1.600 0.539 0.417
1.664 0.497 0.583
3.225 0.776 0.370
3.513 0.531 0.231
3.711 0.716 0.246
3.954 0.728 0.193
4.129 0.817 0.316
4.345 0.672 0.395
4.701 0.613 0.252
4.770 0.827 0.146
0.115 0.400 0.696
0.341 0.563 0.781
0.711 0.572 0.544
0.971 0.389 0.513
1.047 0.441 0.650
1.386 0.663 0.624
1.553 0.627 0.591
1.645 0.463 0.728
1.681 0.418 0.571
3.241 0.446 0.547
3.476 0.380 0.631
3.544 0.402 0.451
3.757 0.555 0.419
4.024 0.536 0.519
4.176 0.532 0.447
4.573 0.550 0.346
4.608 0.519 0.411
4.833 0.535 0.421
6.241 0.649 0.118
0.196 0.326 0.789
0.524 0.268 0.769
0.657 0.346 0.859
0.885 0.346 0.728
1.082 0.498 0.675
1.483 0.498 0.610
1.556 0.334 0.725
1.727 0.310 0.758
1.932 0.207 0.926
3.277 0.364 0.665
3.489 0.390 0.810
3.499 0.181 0.748
3.792 0.457 0.732
4.109 0.476 0.493
4.402 0.441 0.452
4.515 0.491 0.656
4.699 0.480 0.624
4.886 0.308 0.402
6.153 0.490 0.501
0.227 0.135 0.860
0.466 0.035 0.990
0.697 0.320 0.921
0.960 0.100 0.787
1.185 0.227 0.957
1.462 0.345 0.947
1.721 0.261 0.710
1.621 0.045 1.098
2.983 0.211 0.983
3.156 0.004 0.879
3.325 0.102 0.925
3.545 0.272 0.824
3.816 0.265 0.722
4.049 0.264 0.716
4.418 0.275 0.619
4.367 0.062 0.710
4.607 0.231 0.806
6.214 0.354 0.552
0.543 0.004 1.108
0.597 0.025 1.168
1.057 -0.089 1.009
1.205 0.065 0.967
1.495 0.066 0.894
1.680 0.044 0.880
3.794 -0.035 0.839
4.156 -0.095 0.814
4.208 0.081 0.970
4.508 0.114 0.878
4.897 0.052 0.881
6.125 -0.017 0.587
1.420 0.323 0.272
1.813 0.309 0.459
2.114 0.428 0.361
3.637 0.636 0.062
3.757 0.398 0.191
3.973 0.398 0.236
4.258 0.566 0.131
4.481 0.558 0.117
4.742 0.417 -0.060
4.886 0.500 0.095
5.153 0.467 0.002
0.415 0.448 0.486
0.743 0.312 0.585
0.968 0.375 0.548
1.046 0.342 0.463
1.207 0.367 0.477
1.470 0.340 0.331
1.670 0.291 0.462
1.906 0.234 0.498
3.420 0.327 0.245
3.637 0.323 0.432
3.680 0.389 0.177
4.057 0.270 0.164
4.233 0.340 0.246
4.480 0.370 0.243
4.634 0.407 0.315
4.831 0.493 0.324
0.242 0.203 0.558
0.448 0.184 0.715
0.754 0.079 0.520
0.966 0.240 0.483
1.061 0.149 0.548
1.347 0.190 0.666
1.568 0.219 0.567
1.448 0.006 0.684
1.897 0.093 0.724
3.001 0.171 0.630
3.425 0.074 0.514
3.485 0.075 0.600
3.893 0.273 0.372
4.046 0.260 0.411
4.273 0.118 0.433
4.585 0.347 0.294
4.628 0.268 0.252
5.029 0.188 0.284
6.176 0.293 0.178
0.135 -0.069 0.670
0.538 0.090 0.884
0.742 0.036 0.892
0.813 0.122 0.626
1.255 0.097 0.749
1.228 -0.062 0.619
1.661 -0.055 0.757
3.605 -0.105 0.704
3.798 -0.009 0.623
4.181 0.074 0.685
4.235 0.059 0.612
4.625 -0.011 0.470
4.641 -0.014 0.555
5.941 0.158 0.301
1.498 0.295 0.123
1.670 0.136 0.097
2.069 0.263 0.035
0.517 0.121 0.188
0.891 0.229 0.166
0.948 0.322 0.249
1.440 0.258 0.324
1.516 0.188 0.254
1.583 -0.014 0.452
1.737 0.085 0.341
3.469 0.196 0.285
3.656 0.129 0.086
3.899 0.281 0.090
4.224 0.105 0.184
4.574 0.218 0.167
4.606 0.384 -0.024
4.947 0.252 -0.072
0.507 -0.027 0.538
0.621 -0.038 0.450
0.808 0.010 0.357
1.000 -0.011 0.491
1.191 0.180 0.511
1.637 -0.031 0.280
3.258 -0.083 0.432
3.465 0.161 0.369
3.700 0.141 0.344
3.955 0.158 0.253
4.195 -0.077 0.388
4.564 0.172 0.168
4.602 0.145 0.233
1.486 0.050 0.079
1.649 0.235 -0.005
2.061 0.085 -0.017
0.944 0.215 0.114
1.077 -0.007 0.233
1.257 0.165 -0.058
1.606 0.041 0.014
2.266 3.323 5.465
2.441 3.254 5.321
2.721 3.188 5.342
2.893 3.240 5.394
3.125 3.209 5.431
3.350 3.264 5.352
3.586 3.121 5.300
5.505 3.216 4.989
5.542 3.446 5.153
5.879 3.232 4.982
6.269 3.241 5.017
0.513 3.242 5.649
2.089 3.103 5.618
2.418 2.947 5.623
2.555 3.100 5.613
2.925 3.042 5.482
2.970 3.048 5.545
3.183 3.149 5.543
3.437 3.149 5.301
3.639 2.967 5.382
5.231 3.297 5.276
5.416 3.136 5.355
5.830 3.179 5.078
6.031 3.254 5.214
6.133 3.078 5.152
0.438 2.980 5.780
1.989 2.901 5.635
2.146 2.903 5.836
2.247 2.876 5.739
2.602 2.903 5.651
2.913 3.011 5.606
3.193 2.825 5.512
3.232 2.845 5.457
3.532 2.801 5.536
3.660 2.876 5.574
5.060 3.109 5.495
5.176 2.937 5.519
5.607 2.964 5.351
5.868 2.890 5.272
5.913 3.000 5.478
6.305 3.033 5.381
0.686 2.880 5.787
1.822 2.773 5.607
2.066 2.540 5.974
2.263 2.729 5.955
2.470 2.790 5.907
2.724 2.618 5.810
2.870 2.630 5.887
3.066 2.627 5.898
3.171 2.851 5.872
3.426 2.872 5.689
3.600 2.791 5.711
5.187 2.884 5.684
5.255 2.733 5.659
5.396 2.712 5.575
5.777 2.959 5.421
6.065 2.729 5.410
6.276 3.007 5.605
0.677 2.741 5.884
1.856 2.642 5.806
2.058 2.514 6.040
2.316 2.446 5.874
2.455 2.461 5.984
2.537 2.583 5.831
2.942 2.450 5.812
2.959 2.532 6.018
3.253 2.654 5.974
3.558 2.530 5.980
4.804 2.555 5.846
5.093 2.569 5.818
5.328 2.658 5.641
5.446 2.781 5.819
5.640 2.748 5.669
5.852 2.844 5.538
6.139 2.782 5.520
1.674 2.597 5.980
1.929 2.443 5.966
2.073 2.228 6.083
2.265 2.323 6.146
2.305 2.280 6.249
2.552 2.434 6.198
2.964 2.412 6.097
3.043 2.299 5.945
3.337 2.421 6.178
3.540 2.368 6.019
4.986 2.576 5.960
5.166 2.497 5.949
5.477 2.619 5.832
5.607 2.421 5.826
5.822 2.419 5.870
5.944 2.438 5.847
6.313 2.630 5.672
1.882 2.445 6.260
2.046 2.421 6.157
2.544 2.239 6.318
2.580 2.084 6.164
2.945 2.324 6.297
3.159 2.115 6.188
3.245 2.336 6.303
4.898 2.306 6.010
5.028 2.463 5.948
5.488 2.251 5.946
5.491 2.464 6.020
5.874 2.323 5.873
6.059 2.507 5.895
6.121 2.326 5.784
4.827 2.283 6.189
5.130 2.253 6.039
5.254 2.123 6.213
5.519 2.132 6.001
5.848 2.203 6.243
6.192 2.248 6.214
5.646 1.967 6.163
5.988 2.138 6.254
1.810 4.243 4.521
2.041 4.277 4.406
2.081 4.092 4.382
2.476 4.206 4.438
4.595 4.429 4.235
4.785 4.300 4.341
5.019 4.337 4.266
5.311 4.331 4.122
5.424 4.361 4.143
1.400 4.061 4.584
1.716 4.225 4.539
2.618 3.462 5.203
2.969 3.503 5.219
3.280 3.425 5.088
3.303 3.536 5.145
3.604 3.509 5.011
5.951 3.560 5.015
6.224 3.663 4.878
0.442 3.339 5.326
2.458 3.144 5.355
2.574 3.227 5.390
2.664 3.303 5.243
2.922 3.115 5.276
3.204 3.381 5.158
3.476 3.113 5.399
3.685 3.287 5.133
5.560 3.442 4.989
5.716 3.405 5.018
5.891 3.241 5.084
6.234 3.508 5.027
0.474 3.194 5.583
2.138 3.103 5.266
2.373 3.049 5.277
2.649 2.946 5.293
2.891 3.064 5.285
2.967 3.046 5.207
3.149 3.222 5.114
3.496 3.031 4.969
5.369 3.106 4.916
5.412 3.158 4.860
5.605 3.166 4.998
5.809 3.361 4.960
6.145 3.120 4.871
2.005 2.985 5.284
2.038 2.992 5.252
2.371 2.926 5.278
2.583 3.023 5.277
2.792 2.894 5.304
2.963 3.036 5.266
3.330 2.909 5.391
3.493 2.994 5.399
3.764 2.954 5.203
5.126 3.095 5.198
5.199 3.073 5.036
5.598 3.135 5.094
5.726 3.049 5.094
5.821 3.054 5.131
6.044 3.046 5.029
0.667 2.891 5.525
1.820 2.865 5.303
1.846 2.827 5.610
2.191 2.742 5.484
2.319 2.686 5.507
2.600 2.692 5.503
2.738 2.875 5.595
3.012 2.739 5.344
3.252 2.799 5.498
3.352 2.702 5.497
3.723 2.900 5.272
5.005 2.922 5.324
5.224 2.734 5.278
5.627 2.815 5.254
5.665 2.955 5.293
5.822 3.029 5.162
6.245 2.825 5.244
0.460 2.589 5.731
2.010 2.803 5.666
1.984 2.441 5.589
2.231 2.573 5.827
2.314 2.451 5.666
2.598 2.694 5.668
2.884 2.619 5.627
3.178 2.548 5.487
3.167 2.651 5.489
3.469 2.601 5.605
3.596 2.479 5.633
4.932 2.767 5.469
5.151 2.808 5.486
5.330 2.574 5.265
5.389 2.792 5.299
5.671 2.634 5.268
6.058 2.770 5.206
6.155 2.609 5.344
0.689 2.468 5.726
1.696 2.458 5.736
1.903 2.400 5.683
1.983 2.254 5.977
2.169 2.375 5.838
2.405 2.280 5.812
2.552 2.295 5.675
2.805 2.276 5.812
3.217 2.388 5.623
3.274 2.457 5.631
3.411 2.414 5.590
3.726 2.585 5.654
4.804 2.630 5.523
5.235 2.459 5.659
5.179 2.388 5.428
5.544 2.646 5.443
5.761 2.413 5.370
5.853 2.427 5.394
6.269 2.466 5.516
0.628 2.252 5.847
1.632 2.462 5.937
1.957 2.432 5.861
2.030 2.245 5.958
2.101 2.090 5.852
2.412 2.294 5.834
2.598 2.281 5.860
2.773 2.182 6.012
3.209 2.151 5.867
3.265 2.192 5.798
3.543 2.152 5.906
4.862 2.460 5.864
5.163 2.297 5.843
5.260 2.335 5.737
5.643 2.393 5.724
5.924 2.261 5.634
6.098 2.516 5.685
6.364 2.329 5.713
1.768 2.067 6.116
2.049 2.180 6.095
2.005 2.118 6.265
2.325 2.065 6.232
2.441 1.950 6.046
2.779 2.110 6.088
2.967 2.151 6.090
3.269 2.060 6.121
3.282 2.093 5.889
3.648 2.123 5.878
5.014 2.089 5.875
5.234 2.219 5.926
5.229 2.291 5.784
5.579 2.225 5.769
5.775 2.245 5.856
6.133 2.218 5.740
6.154 2.253 5.752
1.930 1.895 6.157
1.874 2.097 6.208
2.520 1.931 6.232
2.761 1.957 6.110
2.859 1.819 6.326
3.054 1.932 6.108
3.384 1.892 6.278
5.120 1.976 5.896
5.365 2.070 6.109
5.592 2.060 5.962
5.735 2.121 6.061
6.183 2.159 6.036
6.164 2.043 5.826
5.517 1.910 6.112
5.520 1.882 6.217
5.920 1.771 6.210
6.010 2.009 5.990
1.829 4.136 4.425
2.124 3.950 4.333
2.552 4.161 4.190
2.549 4.112 4.412
5.001 4.107 4.003
5.280 4.245 4.090
5.610 4.109 3.960
5.884 4.183 3.892
2.445 3.210 5.166
2.765 3.154 5.164
3.054 3.133 4.891
3.193 3.360 5.070
5.704 3.470 4.702
5.813 3.324 4.611
6.026 3.440 4.765
2.241 3.142 5.131
2.203 2.947 5.294
2.548 3.110 5.216
2.901 3.129 5.231
3.118 3.211 5.265
3.196 3.194 5.039
3.492 3.050 5.091
5.306 3.104 4.909
5.588 3.083 5.056
5.581 3.092 5.010
5.892 3.281 4.801
6.153 3.332 4.853
1.795 2.810 4.984
2.141 2.762 5.038
2.408 3.001 5.005
2.684 2.922 5.006
2.859 2.813 5.048
2.935 2.799 5.050
3.267 2.807 4.884
4.938 3.012 4.818
5.111 3.090 4.714
5.561 3.027 4.763
5.732 3.056 4.841
5.995 3.200 4.783
6.242 2.966 4.825
1.803 2.895 4.980
2.004 2.834 5.300
2.199 2.794 5.208
2.369 2.833 5.104
2.700 2.733 5.128
2.902 2.657 5.169
3.080 2.695 5.245
3.315 2.712 4.979
3.381 2.801 5.128
4.822 2.906 4.998
4.964 2.916 5.069
5.312 2.792 4.922
5.364 3.000 4.775
5.722 2.835 4.936
5.793 2.900 4.724
6.226 2.848 4.727
1.527 2.652 5.185
1.793 2.695 5.190
1.969 2.544 5.447
2.037 2.474 5.394
2.381 2.424 5.294
2.673 2.555 5.229
2.833 2.646 5.208
3.000 2.607 5.357
3.124 2.568 5.255
3.572 2.714 5.368
4.849 2.632 5.141
5.132 2.590 5.208
5.388 2.764 5.002
5.476 2.776 5.021
5.708 2.784 5.086
5.902 2.741 5.105
6.060 2.854 5.036
1.707 2.592 5.473
1.987 2.642 5.466
1.856 2.439 5.506
2.214 2.309 5.555
2.468 2.314 5.514
2.566 2.528 5.472
2.778 2.333 5.600
2.923 2.464 5.403
3.412 2.399 5.470
3.488 2.404 5.446
3.688 2.476 5.462
4.808 2.524 5.384
4.931 2.430 5.186
5.252 2.645 5.097
5.540 2.414 5.164
5.709 2.676 5.036
5.887 2.658 5.081
6.259 2.618 5.148
0.731 2.232 5.796
1.745 2.343 5.501
1.951 2.283 5.658
2.057 2.278 5.591
2.133 2.152 5.637
2.538 2.181 5.764
2.513 2.212 5.690
2.958 2.169 5.730
3.178 2.331 5.466
3.231 2.276 5.575
3.459 2.256 5.459
3.764 2.361 5.664
4.721 2.335 5.433
4.969 2.438 5.432
5.258 2.342 5.417
5.625 2.496 5.415
5.686 2.490 5.242
5.966 2.545 5.309
6.102 2.427 5.234
0.502 2.229 5.792
1.806 2.126 5.634
1.903 2.312 5.558
1.996 2.136 5.972
2.140 2.128 5.775
2.481 2.178 5.776
2.612 2.202 5.914
2.760 2.097 5.812
3.166 2.163 5.659
3.449 1.992 5.630
3.592 2.081 5.746
3.724 2.088 5.702
5.023 2.337 5.505
5.390 2.202 5.518
5.488 2.220 5.430
5.668 2.207 5.402
6.080 2.171 5.423
6.307 2.296 5.441
0.737 1.888 6.012
2.109 2.052 5.936
1.940 1.978 5.852
2.259 2.003 6.010
2.498 1.924 5.911
2.601 2.026 6.020
2.897 1.925 5.797
3.178 2.012 5.747
3.476 1.922 5.887
3.437 1.873 5.717
3.719 2.040 5.694
5.070 2.004 5.801
5.382 2.086 5.559
5.582 2.174 5.562
5.810 2.109 5.643
6.024 2.078 5.491
6.299 2.055 5.445
0.801 1.750 6.214
2.100 1.966 5.943
2.178 1.612 6.203
2.526 1.795 6.239
2.615 1.673 6.068
3.023 1.714 5.974
3.096 1.767 5.956
3.380 1.785 5.898
3.683 1.763 6.101
5.478 1.797 5.921
5.561 1.912 5.687
5.891 1.830 5.803
6.181 1.891 5.790
6.291 2.017 5.744
2.709 1.501 6.324
2.901 1.562 6.199
3.100 1.630 6.142
3.315 1.691 6.116
5.777 1.662 5.898
5.983 1.841 5.763
2.352 3.761 4.029
2.545 3.773 4.131
2.859 3.853 4.197
3.193 3.895 4.184
5.540 4.161 3.787
5.752 4.162 3.814
6.006 3.949 3.840
6.336 4.161 3.899
2.007 2.974 4.844
2.427 3.172 4.899
2.584 3.026 4.886
2.806 3.081 4.911
5.177 3.282 4.518
5.399 3.121 4.495
5.698 3.177 4.634
5.759 3.355 4.441
1.927 2.897 4.970
2.068 3.022 5.089
2.299 3.018 4.986
2.436 3.024 4.892
2.635 2.893 5.146
3.078 2.796 4.964
3.350 3.002 4.911
5.092 2.964 4.781
5.304 3.111 4.908
5.346 3.151 4.803
5.585 3.018 4.597
5.754 3.210 4.685
6.097 2.955 4.623
2.005 2.905 5.183
1.774 2.772 4.825
2.032 2.726 4.825
2.446 2.667 5.005
2.666 2.739 4.839
2.689 2.776 4.833
2.994 2.726 4.862
4.627 2.841 4.774
4.933 2.819 4.634
5.340 2.840 4.534
5.358 3.028 4.491
5.669 2.799 4.422
5.973 2.972 4.617
6.163 3.055 4.399
1.660 2.770 4.944
1.740 2.682 4.921
1.873 2.614 5.078
2.162 2.681 4.993
2.363 2.455 4.956
2.681 2.538 5.026
2.869 2.613 5.100
3.027 2.660 4.857
3.105 2.719 4.863
4.643 2.580 4.814
5.124 2.683 4.693
5.277 2.822 4.725
5.369 2.613 4.775
5.571 2.829 4.704
5.980 2.675 4.638
6.012 2.816 4.704
1.569 2.563 5.178
1.927 2.667 4.969
1.786 2.478 5.132
2.033 2.446 5.100
2.414 2.356 5.147
2.703 2.540 5.175
2.828 2.355 5.251
2.901 2.306 5.125
3.242 2.590 5.085
3.434 2.371 5.085
4.800 2.635 5.080
5.106 2.666 4.991
5.249 2.617 4.943
5.482 2.446 4.929
5.674 2.435 4.801
6.043 2.531 4.955
6.039 2.581 4.704
1.733 2.432 5.355
1.835 2.408 5.102
1.833 2.150 5.436
2.192 2.162 5.302
2.284 2.186 5.455
2.494 2.173 5.453
2.853 2.372 5.289
3.104 2.270 5.387
3.259 2.293 5.245
3.359 2.270 5.361
4.898 2.325 5.064
4.998 2.252 4.979
5.243 2.249 5.164
5.369 2.257 4.971
5.755 2.517 4.953
6.068 2.298 4.932
6.086 2.470 5.080
1.590 2.347 5.520
1.903 2.196 5.369
2.071 2.194 5.442
2.217 2.016 5.621
2.470 2.005 5.467
2.606 1.998 5.552
2.739 2.075 5.534
3.006 2.242 5.548
3.430 2.072 5.279
3.442 2.104 5.408
3.863 2.210 5.326
5.060 2.327 5.275
5.435 2.329 5.232
5.431 2.120 5.177
5.882 2.353 5.070
6.088 2.249 5.229
6.060 2.263 5.250
0.716 2.088 5.626
1.977 2.024 5.429
2.086 1.912 5.559
2.094 1.782 5.707
2.369 1.869 5.706
2.783 1.826 5.583
2.864 1.862 5.539
3.205 2.029 5.659
3.207 2.061 5.561
3.586 1.876 5.545
3.863 2.115 5.453
5.164 2.140 5.450
5.437 2.001 5.290
5.571 2.129 5.355
5.771 1.975 5.197
5.855 2.100 5.214
6.338 2.134 5.306
0.694 1.689 5.861
1.834 1.868 5.671
2.355 1.774 5.925
2.370 1.829 5.787
2.689 1.803 5.763
3.001 1.721 5.676
3.138 1.813 5.660
3.259 1.688 5.571
3.416 1.914 5.554
3.760 1.888 5.787
5.205 1.905 5.521
5.528 1.779 5.536
5.854 1.979 5.467
6.027 1.947 5.360
6.291 1.908 5.281
0.644 1.542 6.045
2.587 1.637 5.962
2.717 1.623 5.849
2.887 1.721 5.866
3.263 1.689 5.951
3.420 1.695 5.910
3.539 1.777 5.856
3.932 1.701 5.844
5.672 1.861 5.652
5.806 1.670 5.478
6.165 1.865 5.548
6.344 1.694 5.585
0.755 1.539 6.037
3.035 1.445 6.104
3.275 1.396 6.107
3.510 1.359 5.864
3.479 1.571 6.058
3.860 1.391 5.877
6.025 1.600 5.751
6.405 1.660 5.815
0.685 1.413 6.299
2.670 3.889 3.822
2.837 3.861 3.894
2.956 3.739 3.886
3.158 3.800 3.924
3.524 3.784 3.961
5.811 3.930 3.749
5.950 4.021 3.563
6.233 3.969 3.542
0.320 3.573 4.133
1.860 2.748 4.753
2.185 2.824 4.901
2.315 2.858 4.747
2.440 2.879 4.629
4.665 3.078 4.530
5.106 3.122 4.415
5.294 2.929 4.600
5.456 3.106 4.548
5.642 3.067 4.279
1.634 3.010 4.804
1.841 2.892 4.701
1.998 2.780 4.861
1.998 2.793 5.031
2.296 2.775 4.794
2.469 2.818 4.952
2.673 2.649 4.756
2.925 2.644 4.788
4.682 2.947 4.633
5.110 2.736 4.647
5.193 3.007 4.739
5.517 2.807 4.639
5.695 2.936 4.437
5.827 2.904 4.454
5.995 2.832 4.607
1.688 2.808 5.055
1.844 2.836 4.972
1.738 2.571 4.801
2.184 2.716 4.679
2.181 2.507 4.618
2.517 2.722 4.638
2.795 2.542 4.704
4.445 2.833 4.589
4.794 2.687 4.604
4.964 2.732 4.361
5.305 2.786 4.573
5.524 2.616 4.512
5.762 2.677 4.417
6.012 2.854 4.507
1.420 2.439 4.783
1.539 2.583 4.717
1.885 2.667 4.775
1.979 2.317 5.007
2.027 2.292 5.016
2.318 2.497 4.849
2.490 2.467 4.780
2.879 2.521 4.784
2.970 2.567 4.752
4.514 2.586 4.645
4.885 2.519 4.767
5.021 2.629 4.470
5.308 2.453 4.532
5.380 2.701 4.463
5.723 2.589 4.500
5.851 2.582 4.635
6.208 2.668 4.360
1.434 2.304 5.019
1.739 2.261 4.970
1.971 2.392 4.958
2.018 2.354 5.082
2.113 2.325 5.155
2.287 2.193 5.160
2.695 2.305 5.062
2.672 2.282 5.075
2.922 2.226 4.923
3.103 2.166 5.068
4.682 2.421 4.847
4.956 2.424 4.766
5.145 2.278 4.647
5.568 2.426 4.683
5.583 2.281 4.755
5.929 2.553 4.583
6.091 2.436 4.660
1.800 2.214 5.055
2.010 2.356 5.064
1.982 2.142 5.202
2.116 2.054 5.137
2.348 2.137 5.215
2.540 2.240 5.096
2.927 2.230 5.135
3.046 2.208 5.033
3.324 1.996 4.941
3.578 2.048 5.169
4.738 2.347 5.051
5.054 2.111 5.048
5.304 2.203 4.765
5.378 2.324 4.912
5.785 2.324 4.907
6.059 2.358 4.749
6.022 2.276 4.780
1.720 2.005 5.339
2.029 2.089 5.178
1.932 1.877 5.428
2.052 1.896 5.264
2.485 2.015 5.351
2.704 2.075 5.393
2.924 2.010 5.343
3.091 2.026 5.291
3.253 1.914 5.273
3.501 1.974 5.349
3.656 1.928 5.085
5.202 2.120 5.028
5.150 1.941 4.998
5.481 2.084 4.950
5.677 2.207 5.036
5.996 1.988 4.894
6.312 2.139 4.833
0.572 1.864 5.437
2.065 1.966 5.279
2.179 1.739 5.625
