1.141 -1.238 1.589
1.285 -1.377 1.794
2.436 -2.483 3.428
2.580 -2.621 3.632
2.724 -2.759 3.837
2.868 -2.897 4.041
0.542 -1.052 0.939
0.686 -1.191 1.144
0.830 -1.329 1.348
0.974 -1.467 1.552
2.125 -2.573 3.187
2.269 -2.711 3.391
2.413 -2.849 3.595
2.557 -2.988 3.800
0.231 -1.143 0.698
0.375 -1.281 0.903
0.519 -1.419 1.107
0.663 -1.557 1.311
1.814 -2.663 2.946
1.958 -2.802 3.150
2.102 -2.940 3.354
2.246 -3.078 3.559
-0.080 -1.233 0.457
0.064 -1.371 0.661
0.208 -1.510 0.866
0.352 -1.648 1.070
1.503 -2.754 2.704
1.647 -2.892 2.909
1.791 -3.030 3.113
1.935 -3.168 3.317
-0.080 -1.233 0.457
-0.247 -1.462 0.420
-0.103 -1.600 0.625
0.041 -1.738 0.829
1.192 -2.844 2.463
1.336 -2.982 2.668
1.480 -3.120 2.872
1.624 -3.259 3.076
-0.391 -1.323 0.216
-0.247 -1.462 0.420
-0.415 -1.690 0.383
-0.271 -1.828 0.588
0.881 -2.934 2.222
1.025 -3.073 2.426
1.169 -3.211 2.631
1.313 -3.349 2.835
-0.702 -1.414 -0.025
-0.558 -1.552 0.179
-0.415 -1.690 0.383
-0.582 -1.919 0.346
0.570 -3.025 1.981
0.714 -3.163 2.185
0.858 -3.301 2.390
1.001 -3.439 2.594
-1.014 -1.504 -0.266
-0.870 -1.642 -0.062
-0.726 -1.781 0.142
-0.582 -1.919 0.346
0.259 -3.115 1.740
0.402 -3.253 1.944
0.546 -3.392 2.148
0.690 -3.530 2.353
1.842 -4.636 3.987
-1.181 -1.733 -0.303
-1.037 -1.871 -0.099
-0.893 -2.009 0.105
-0.053 -3.205 1.499
0.091 -3.344 1.703
0.235 -3.482 1.907
0.379 -3.620 2.111
1.531 -4.726 3.746
1.675 -4.864 3.950
-1.348 -1.961 -0.340
-1.204 -2.099 -0.136
-0.364 -3.296 1.257
-0.220 -3.434 1.462
-0.076 -3.572 1.666
0.068 -3.710 1.870
1.219 -4.816 3.505
1.363 -4.955 3.709
1.507 -5.093 3.913
-1.515 -2.190 -0.377
-0.675 -3.386 1.016
-0.531 -3.524 1.221
-0.387 -3.663 1.425
-0.243 -3.801 1.629
0.908 -4.907 3.264
1.052 -5.045 3.468
1.196 -5.183 3.672
1.340 -5.321 3.877
-0.637 -3.349 0.616
-0.494 -3.487 0.820
-0.350 -3.625 1.024
-0.206 -3.764 1.229
0.946 -4.869 2.863
1.090 -5.008 3.067
1.234 -5.146 3.272
1.378 -5.284 3.476
-0.949 -3.439 0.375
-0.805 -3.577 0.579
-0.661 -3.716 0.783
-0.517 -3.854 0.988
-0.373 -3.992 1.192
0.635 -4.960 2.622
0.779 -5.098 2.826
0.923 -5.236 3.031
1.066 -5.375 3.235
1.210 -5.513 3.439
-1.260 -3.530 0.133
-1.116 -3.668 0.338
-0.972 -3.806 0.542
-0.828 -3.944 0.746
-0.684 -4.082 0.951
0.324 -5.050 2.381
0.467 -5.188 2.585
0.611 -5.327 2.789
0.755 -5.465 2.994
0.899 -5.603 3.198
-1.571 -3.620 -0.108
-1.427 -3.758 0.097
-1.283 -3.896 0.301
-1.139 -4.035 0.505
-0.995 -4.173 0.709
-0.851 -4.311 0.914
0.012 -5.141 2.140
0.156 -5.279 2.344
0.300 -5.417 2.548
0.444 -5.555 2.753
0.588 -5.693 2.957
0.732 -5.832 3.161
-1.571 -3.620 -0.108
-1.738 -3.848 -0.145
-1.594 -3.987 0.060
-1.450 -4.125 0.264
-1.306 -4.263 0.468
-1.162 -4.401 0.673
-0.155 -5.369 2.103
-0.011 -5.507 2.307
0.133 -5.646 2.511
0.277 -5.784 2.716
0.421 -5.922 2.920
-1.738 -3.848 -0.145
-1.905 -4.077 -0.181
-1.761 -4.215 0.023
-1.617 -4.354 0.227
-1.473 -4.492 0.431
-0.322 -5.598 2.066
-0.178 -5.736 2.270
-0.034 -5.874 2.474
0.110 -6.012 2.679
-1.905 -4.077 -0.181
-2.072 -4.306 -0.218
-1.929 -4.444 -0.014
-0.489 -5.826 2.029
-0.345 -5.964 2.233
-2.072 -4.306 -0.218
-2.477 -5.863 0.210
-2.333 -6.001 0.414
-2.189 -6.140 0.619
-2.045 -6.278 0.823
-0.893 -7.384 2.458
-0.750 -7.522 2.662
-0.606 -7.660 2.866
-0.462 -7.799 3.070
0.891 -0.925 0.780
1.035 -1.063 0.985
1.179 -1.201 1.189
1.322 -1.340 1.393
1.466 -1.478 1.597
2.474 -2.445 3.028
2.618 -2.584 3.232
2.762 -2.722 3.436
2.906 -2.860 3.640
3.050 -2.998 3.845
0.580 -1.015 0.539
0.724 -1.153 0.743
0.867 -1.292 0.948
1.011 -1.430 1.152
1.155 -1.568 1.356
2.163 -2.536 2.786
2.307 -2.674 2.991
2.451 -2.812 3.195
2.595 -2.951 3.399
2.739 -3.089 3.604
0.268 -1.105 0.298
0.412 -1.244 0.502
0.556 -1.382 0.706
0.700 -1.520 0.911
0.844 -1.658 1.115
0.988 -1.797 1.319
1.852 -2.626 2.545
1.996 -2.764 2.750
2.140 -2.903 2.954
2.283 -3.041 3.158
2.427 -3.179 3.362
2.571 -3.317 3.567
0.268 -1.105 0.298
0.101 -1.334 0.261
0.245 -1.472 0.465
0.389 -1.611 0.670
0.533 -1.749 0.874
0.677 -1.887 1.078
1.684 -2.855 2.508
1.828 -2.993 2.713
1.972 -3.131 2.917
2.116 -3.269 3.121
2.260 -3.408 3.326
0.101 -1.334 0.261
-0.066 -1.563 0.224
0.078 -1.701 0.428
0.222 -1.839 0.633
0.366 -1.977 0.837
1.517 -3.083 2.471
1.661 -3.222 2.676
1.805 -3.360 2.880
1.949 -3.498 3.084
-0.066 -1.563 0.224
-0.233 -1.791 0.187
-0.089 -1.929 0.392
1.350 -3.312 2.435
1.494 -3.450 2.639
-0.233 -1.791 0.187
-0.637 -3.349 0.616
-0.494 -3.487 0.820
-0.350 -3.625 1.024
-0.206 -3.764 1.229
0.946 -4.869 2.863
1.090 -5.008 3.067
1.234 -5.146 3.272
1.378 -5.284 3.476
-0.600 -3.312 0.215
-0.456 -3.450 0.420
-0.312 -3.588 0.624
-0.168 -3.726 0.828
0.983 -4.832 2.463
1.127 -4.971 2.667
1.271 -5.109 2.871
1.415 -5.247 3.076
-0.911 -3.402 -0.026
-0.767 -3.540 0.178
-0.623 -3.678 0.383
-0.479 -3.817 0.587
-0.335 -3.955 0.791
0.672 -4.923 2.222
0.816 -5.061 2.426
0.960 -5.199 2.630
1.104 -5.337 2.834
1.248 -5.476 3.039
-1.222 -3.492 -0.267
-1.078 -3.631 -0.063
-0.934 -3.769 0.142
-0.790 -3.907 0.346
-0.647 -4.045 0.550
-0.503 -4.184 0.755
0.361 -5.013 1.980
0.505 -5.151 2.185
0.649 -5.289 2.389
0.793 -5.428 2.593
0.937 -5.566 2.798
1.081 -5.704 3.002
-1.222 -3.492 -0.267
-1.389 -3.721 -0.304
-1.246 -3.859 -0.100
-1.102 -3.997 0.105
-0.958 -4.136 0.309
-0.814 -4.274 0.513
-0.670 -4.412 0.718
0.194 -5.242 1.943
0.338 -5.380 2.148
0.482 -5.518 2.352
0.626 -5.656 2.556
0.769 -5.795 2.761
0.913 -5.933 2.965
-1.389 -3.721 -0.304
-1.557 -3.949 -0.341
-1.413 -4.088 -0.136
-1.269 -4.226 0.068
-1.125 -4.364 0.272
-0.981 -4.502 0.476
-0.837 -4.641 0.681
0.027 -5.470 1.907
0.170 -5.608 2.111
0.314 -5.747 2.315
0.458 -5.885 2.520
0.602 -6.023 2.724
0.746 -6.161 2.928
-1.557 -3.949 -0.341
-1.724 -4.178 -0.378
-1.580 -4.316 -0.173
-1.436 -4.455 0.031
-1.292 -4.593 0.235
-1.148 -4.731 0.440
-0.141 -5.699 1.870
0.003 -5.837 2.074
0.147 -5.975 2.278
0.291 -6.113 2.483
0.435 -6.252 2.687
-1.724 -4.178 -0.378
-2.439 -5.826 -0.190
-2.295 -5.964 0.014
-2.151 -6.103 0.218
-2.007 -6.241 0.423
-0.856 -7.347 2.057
-0.712 -7.485 2.261
-0.568 -7.623 2.466
-0.424 -7.761 2.670
0.928 -0.888 0.380
1.072 -1.026 0.584
1.216 -1.164 0.788
1.360 -1.302 0.993
1.504 -1.441 1.197
2.511 -2.408 2.627
2.655 -2.546 2.831
2.799 -2.685 3.036
2.943 -2.823 3.240
3.087 -2.961 3.444
0.617 -0.978 0.139
0.761 -1.116 0.343
0.905 -1.254 0.547
1.049 -1.393 0.752
1.193 -1.531 0.956
1.337 -1.669 1.160
2.200 -2.499 2.386
2.344 -2.637 2.590
2.488 -2.775 2.795
2.632 -2.913 2.999
2.776 -3.052 3.203
2.920 -3.190 3.407
0.617 -0.978 0.139
0.450 -1.207 0.102
0.594 -1.345 0.306
0.738 -1.483 0.510
0.882 -1.621 0.715
1.026 -1.759 0.919
1.169 -1.898 1.123
2.033 -2.727 2.349
2.177 -2.865 2.553
2.321 -3.004 2.758
2.465 -3.142 2.962
2.609 -3.280 3.166
2.753 -3.418 3.371
0.450 -1.207 0.102
0.283 -1.435 0.065
0.427 -1.573 0.269
0.570 -1.712 0.473
0.714 -1.850 0.678
0.858 -1.988 0.882
1.002 -2.126 1.086
1.866 -2.956 2.312
2.010 -3.094 2.517
2.154 -3.232 2.721
2.298 -3.370 2.925
2.442 -3.509 3.129
2.585 -3.647 3.334
0.283 -1.435 0.065
0.115 -1.664 0.028
0.259 -1.802 0.232
0.403 -1.940 0.437
0.547 -2.078 0.641
0.691 -2.217 0.845
1.699 -3.184 2.275
1.843 -3.323 2.480
1.986 -3.461 2.684
2.130 -3.599 2.888
2.274 -3.737 3.093
0.115 -1.664 0.028
-0.600 -3.312 0.215
-0.456 -3.450 0.420
-0.312 -3.588 0.624
-0.168 -3.726 0.828
0.983 -4.832 2.463
1.127 -4.971 2.667
1.271 -5.109 2.871
1.415 -5.247 3.076
-0.563 -3.274 -0.185
-0.419 -3.413 0.019
-0.275 -3.551 0.224
-0.131 -3.689 0.428
1.021 -4.795 2.062
1.165 -4.933 2.267
1.309 -5.072 2.471
1.452 -5.210 2.675
-0.874 -3.365 -0.426
-0.730 -3.503 -0.222
-0.586 -3.641 -0.018
-0.442 -3.779 0.187
-0.298 -3.918 0.391
-0.154 -4.056 0.595
0.710 -4.885 1.821
0.853 -5.024 2.025
0.997 -5.162 2.230
1.141 -5.300 2.434
1.285 -5.438 2.638
1.429 -5.577 2.843
-0.874 -3.365 -0.426
-1.041 -3.593 -0.463
-0.897 -3.732 -0.259
-0.753 -3.870 -0.055
-0.609 -4.008 0.150
-0.465 -4.146 0.354
-0.321 -4.285 0.558
0.542 -5.114 1.784
0.686 -5.252 1.989
0.830 -5.390 2.193
0.974 -5.529 2.397
1.118 -5.667 2.601
1.262 -5.805 2.806
-1.041 -3.593 -0.463
-1.208 -3.822 -0.500
-1.064 -3.960 -0.296
-0.920 -4.098 -0.091
-0.776 -4.237 0.113
-0.632 -4.375 0.317
-0.488 -4.513 0.522
0.375 -5.343 1.747
0.519 -5.481 1.952
0.663 -5.619 2.156
0.807 -5.757 2.360
0.951 -5.896 2.565
1.095 -6.034 2.769
-1.208 -3.822 -0.500
-1.375 -4.051 -0.537
-1.231 -4.189 -0.333
-1.087 -4.327 -0.128
-0.944 -4.465 0.076
-0.800 -4.603 0.280
-0.656 -4.742 0.485
0.208 -5.571 1.710
0.352 -5.709 1.915
0.496 -5.848 2.119
0.640 -5.986 2.323
0.784 -6.124 2.528
0.928 -6.262 2.732
-1.375 -4.051 -0.537
-1.399 -4.417 -0.369
-1.255 -4.556 -0.165
-1.111 -4.694 0.039
-0.967 -4.832 0.243
-0.823 -4.970 0.448
0.185 -5.938 1.878
0.329 -6.076 2.082
0.472 -6.214 2.287
0.616 -6.353 2.491
0.760 -6.491 2.695
-2.402 -5.789 -0.591
-2.258 -5.927 -0.386
-2.114 -6.065 -0.182
-1.970 -6.204 0.022
-0.819 -7.309 1.657
-0.675 -7.448 1.861
-0.531 -7.586 2.065
-0.387 -7.724 2.270
0.966 -0.850 -0.021
1.110 -0.989 0.184
1.253 -1.127 0.388
1.397 -1.265 0.592
1.541 -1.403 0.797
1.685 -1.542 1.001
2.549 -2.371 2.227
2.693 -2.509 2.431
2.837 -2.648 2.635
2.981 -2.786 2.840
3.125 -2.924 3.044
3.268 -3.062 3.248
0.966 -0.850 -0.021
0.798 -1.079 -0.058
0.942 -1.217 0.147
1.086 -1.355 0.351
1.230 -1.494 0.555
1.374 -1.632 0.760
1.518 -1.770 0.964
2.382 -2.600 2.190
2.526 -2.738 2.394
2.669 -2.876 2.598
2.813 -3.014 2.803
2.957 -3.153 3.007
3.101 -3.291 3.211
0.798 -1.079 -0.058
0.631 -1.308 -0.094
0.775 -1.446 0.110
0.919 -1.584 0.314
1.063 -1.722 0.519
1.207 -1.860 0.723
1.351 -1.999 0.927
2.214 -2.828 2.153
2.358 -2.966 2.357
2.502 -3.105 2.562
2.646 -3.243 2.766
2.790 -3.381 2.970
2.934 -3.519 3.174
0.631 -1.308 -0.094
0.464 -1.536 -0.131
0.608 -1.674 0.073
0.752 -1.813 0.277
0.896 -1.951 0.482
1.040 -2.089 0.686
1.184 -2.227 0.890
2.047 -3.057 2.116
2.191 -3.195 2.320
2.335 -3.333 2.525
2.479 -3.471 2.729
2.623 -3.610 2.933
2.767 -3.748 3.138
0.464 -1.536 -0.131
0.441 -1.903 0.036
0.585 -2.041 0.240
0.729 -2.179 0.445
0.872 -2.318 0.649
1.016 -2.456 0.853
2.024 -3.424 2.284
2.168 -3.562 2.488
2.312 -3.700 2.692
2.456 -3.838 2.896
2.600 -3.977 3.101
-0.563 -3.274 -0.185
-0.419 -3.413 0.019
-0.275 -3.551 0.224
-0.131 -3.689 0.428
1.021 -4.795 2.062
1.165 -4.933 2.267
1.309 -5.072 2.471
1.452 -5.210 2.675
-0.525 -3.237 -0.586
-0.381 -3.375 -0.381
-0.237 -3.514 -0.177
-0.093 -3.652 0.027
1.058 -4.758 1.662
1.202 -4.896 1.866
1.346 -5.034 2.070
1.490 -5.173 2.275
-0.525 -3.237 -0.586
-0.692 -3.466 -0.622
-0.548 -3.604 -0.418
-0.404 -3.742 -0.214
-0.261 -3.881 -0.009
-0.117 -4.019 0.195
0.891 -4.986 1.625
1.035 -5.125 1.829
1.179 -5.263 2.034
1.323 -5.401 2.238
1.467 -5.539 2.442
-0.692 -3.466 -0.622
-0.860 -3.694 -0.659
-0.716 -3.833 -0.455
-0.572 -3.971 -0.251
-0.428 -4.109 -0.046
-0.284 -4.247 0.158
-0.140 -4.386 0.362
0.724 -5.215 1.588
0.868 -5.353 1.792
1.012 -5.492 1.997
1.155 -5.630 2.201
1.299 -5.768 2.405
1.443 -5.906 2.610
-0.860 -3.694 -0.659
-1.027 -3.923 -0.696
-0.883 -4.061 -0.492
-0.739 -4.199 -0.288
-0.595 -4.338 -0.083
-0.451 -4.476 0.121
-0.307 -4.614 0.325
0.556 -5.444 1.551
0.700 -5.582 1.756
0.844 -5.720 1.960
0.988 -5.858 2.164
1.132 -5.997 2.368
1.276 -6.135 2.573
-1.027 -3.923 -0.696
-1.050 -4.290 -0.529
-0.906 -4.428 -0.324
-0.762 -4.566 -0.120
-0.618 -4.705 0.084
-0.474 -4.843 0.289
0.533 -5.810 1.719
0.677 -5.949 1.923
0.821 -6.087 2.127
0.965 -6.225 2.332
1.109 -6.363 2.536
-1.073 -4.657 -0.361
-0.929 -4.795 -0.157
-0.785 -4.933 0.047
-0.642 -5.071 0.252
0.510 -6.177 1.886
0.654 -6.315 2.090
0.798 -6.454 2.295
0.942 -6.592 2.499
-2.364 -5.752 -0.991
-2.220 -5.890 -0.787
-2.077 -6.028 -0.582
-1.933 -6.166 -0.378
-0.781 -7.272 1.256
-0.637 -7.410 1.461
-0.493 -7.549 1.665
-0.349 -7.687 1.869
-2.364 -5.752 -0.991
1.147 -0.951 -0.217
1.291 -1.090 -0.012
1.435 -1.228 0.192
1.579 -1.366 0.396
1.723 -1.504 0.600
2.730 -2.472 2.031
2.874 -2.610 2.235
3.018 -2.749 2.439
3.162 -2.887 2.643
3.306 -3.025 2.848
1.147 -0.951 -0.217
0.980 -1.180 -0.254
1.124 -1.318 -0.049
1.268 -1.456 0.155
1.412 -1.595 0.359
1.555 -1.733 0.564
1.699 -1.871 0.768
2.563 -2.701 1.994
2.707 -2.839 2.198
2.851 -2.977 2.402
2.995 -3.115 2.607
3.139 -3.254 2.811
3.283 -3.392 3.015
0.980 -1.180 -0.254
0.813 -1.409 -0.291
0.956 -1.547 -0.086
1.100 -1.685 0.118
1.244 -1.823 0.322
1.388 -1.962 0.527
1.532 -2.100 0.731
2.396 -2.929 1.957
2.540 -3.067 2.161
2.684 -3.206 2.365
2.828 -3.344 2.570
2.971 -3.482 2.774
3.115 -3.620 2.978
0.813 -1.409 -0.291
0.789 -1.775 -0.123
0.933 -1.914 0.081
1.077 -2.052 0.286
1.221 -2.190 0.490
1.365 -2.328 0.694
2.372 -3.296 2.124
2.516 -3.434 2.329
2.660 -3.573 2.533
2.804 -3.711 2.737
2.948 -3.849 2.941
0.766 -2.142 0.044
0.910 -2.280 0.249
1.054 -2.419 0.453
1.198 -2.557 0.657
2.349 -3.663 2.292
2.493 -3.801 2.496
2.637 -3.939 2.700
2.781 -4.078 2.905
-0.525 -3.237 -0.586
-0.381 -3.375 -0.381
-0.237 -3.514 -0.177
-0.093 -3.652 0.027
1.058 -4.758 1.662
1.202 -4.896 1.866
1.346 -5.034 2.070
1.490 -5.173 2.275
-0.525 -3.237 -0.586
-0.344 -3.338 -0.782
-0.200 -3.476 -0.577
-0.056 -3.615 -0.373
1.096 -4.721 1.261
1.239 -4.859 1.466
1.383 -4.997 1.670
1.527 -5.135 1.874
-0.488 -3.200 -0.986
-0.344 -3.338 -0.782
-0.511 -3.567 -0.819
-0.367 -3.705 -0.614
-0.223 -3.843 -0.410
-0.079 -3.982 -0.206
1.072 -5.087 1.429
1.216 -5.226 1.633
1.360 -5.364 1.837
1.504 -5.502 2.042
-0.511 -3.567 -0.819
-0.678 -3.795 -0.855
-0.534 -3.934 -0.651
-0.390 -4.072 -0.447
-0.246 -4.210 -0.242
-0.102 -4.348 -0.038
0.905 -5.316 1.392
1.049 -5.454 1.596
1.193 -5.593 1.801
1.337 -5.731 2.005
1.481 -5.869 2.209
-0.678 -3.795 -0.855
-0.701 -4.162 -0.688
-0.558 -4.300 -0.484
-0.414 -4.439 -0.279
-0.270 -4.577 -0.075
-0.126 -4.715 0.129
0.882 -5.683 1.559
1.026 -5.821 1.764
1.170 -5.959 1.968
1.314 -6.098 2.172
1.457 -6.236 2.377
-0.725 -4.529 -0.521
-0.581 -4.667 -0.316
-0.437 -4.806 -0.112
-0.293 -4.944 0.092
0.858 -6.050 1.727
1.002 -6.188 1.931
1.146 -6.326 2.135
1.290 -6.464 2.340
-0.748 -4.896 -0.353
-0.604 -5.034 -0.149
-0.460 -5.172 0.056
-0.316 -5.311 0.260
0.835 -6.417 1.894
0.979 -6.555 2.099
1.123 -6.693 2.303
1.267 -6.831 2.507
-0.627 -5.401 0.019
-0.483 -5.539 0.223
0.956 -6.922 2.266
1.100 -7.060 2.470
-2.016 -5.624 -1.150
-0.577 -7.006 0.893
-0.433 -7.145 1.097
-2.160 -5.486 -1.355
-2.016 -5.624 -1.150
-2.183 -5.853 -1.187
-2.039 -5.991 -0.983
-1.895 -6.129 -0.779
-0.744 -7.235 0.856
-0.600 -7.373 1.060
-0.456 -7.512 1.264
-0.312 -7.650 1.469
-2.327 -5.714 -1.392
-2.183 -5.853 -1.187
1.328 -1.052 -0.413
1.472 -1.191 -0.209
1.616 -1.329 -0.004
1.760 -1.467 0.200
2.912 -2.573 1.834
3.055 -2.711 2.039
3.199 -2.850 2.243
3.343 -2.988 2.447
1.328 -1.052 -0.413
1.161 -1.281 -0.450
1.305 -1.419 -0.245
1.449 -1.557 -0.041
1.593 -1.696 0.163
1.737 -1.834 0.367
2.744 -2.802 1.798
2.888 -2.940 2.002
3.032 -3.078 2.206
3.176 -3.216 2.410
3.320 -3.355 2.615
1.161 -1.281 -0.450
1.138 -1.648 -0.282
1.282 -1.786 -0.078
1.426 -1.924 0.126
1.570 -2.063 0.331
1.714 -2.201 0.535
2.721 -3.168 1.965
2.865 -3.307 2.169
3.009 -3.445 2.374
3.153 -3.583 2.578
3.297 -3.721 2.782
1.115 -2.015 -0.115
1.258 -2.153 0.089
1.402 -2.291 0.294
1.546 -2.429 0.498
2.698 -3.535 2.132
2.842 -3.674 2.337
2.986 -3.812 2.541
3.130 -3.950 2.745
1.091 -2.381 0.053
1.235 -2.520 0.257
1.379 -2.658 0.461
1.523 -2.796 0.665
2.674 -3.902 2.300
2.818 -4.040 2.504
2.962 -4.179 2.708
3.106 -4.317 2.913
1.212 -2.887 0.424
1.356 -3.025 0.629
2.795 -4.407 2.672
2.939 -4.545 2.876
-0.177 -3.110 -0.745
1.263 -4.492 1.298
1.407 -4.630 1.503
-0.320 -2.971 -0.949
-0.177 -3.110 -0.745
-0.344 -3.338 -0.782
-0.200 -3.476 -0.577
-0.056 -3.615 -0.373
1.096 -4.721 1.261
1.239 -4.859 1.466
1.383 -4.997 1.670
1.527 -5.135 1.874
-0.488 -3.200 -0.986
-0.344 -3.338 -0.782
-0.162 -3.439 -0.978
-0.018 -3.578 -0.773
1.133 -4.683 0.861
1.277 -4.822 1.065
1.421 -4.960 1.270
1.565 -5.098 1.474
-0.450 -3.163 -1.386
-0.306 -3.301 -1.182
-0.162 -3.439 -0.978
-0.330 -3.668 -1.015
-0.186 -3.806 -0.810
1.254 -5.189 1.233
1.398 -5.327 1.437
-0.330 -3.668 -1.015
-0.279 -5.273 -0.141
-0.135 -5.412 0.064
1.304 -6.794 2.107
1.448 -6.932 2.311
-0.446 -5.502 -0.177
-0.302 -5.640 0.027
-0.158 -5.778 0.231
-0.014 -5.917 0.435
1.137 -7.023 2.070
1.281 -7.161 2.274
1.425 -7.299 2.478
-1.597 -4.396 -1.812
-0.469 -5.869 -0.010
-0.325 -6.007 0.194
-0.181 -6.145 0.399
-0.037 -6.284 0.603
1.114 -7.389 2.237
1.258 -7.528 2.442
-1.765 -4.625 -1.849
-1.621 -4.763 -1.644
-0.636 -6.097 -0.047
-0.493 -6.236 0.157
-0.349 -6.374 0.362
-0.205 -6.512 0.566
-0.061 -6.650 0.770
0.947 -7.618 2.200
1.091 -7.756 2.405
-1.932 -4.853 -1.886
-1.788 -4.991 -1.681
-1.644 -5.130 -1.477
-1.667 -5.497 -1.310
-0.660 -6.464 0.121
-0.516 -6.602 0.325
-0.372 -6.741 0.529
-0.228 -6.879 0.733
-0.084 -7.017 0.938
0.923 -7.985 2.368
-2.099 -5.082 -1.923
-1.955 -5.220 -1.718
-1.811 -5.358 -1.514
-1.667 -5.497 -1.310
-1.834 -5.725 -1.346
-0.683 -6.831 0.288
-0.539 -6.969 0.492
-0.395 -7.107 0.697
-0.251 -7.246 0.901
-2.266 -5.310 -1.959
-2.122 -5.449 -1.755
-1.978 -5.587 -1.551
-1.834 -5.725 -1.346
-2.002 -5.954 -1.383
-1.858 -6.092 -1.179
-0.706 -7.198 0.455
-0.562 -7.336 0.660
-0.418 -7.474 0.864
-0.275 -7.613 1.068
-2.290 -5.677 -1.792
-2.146 -5.815 -1.588
-2.002 -5.954 -1.383
1.510 -1.153 -0.609
1.654 -1.292 -0.405
3.093 -2.674 1.638
3.237 -2.812 1.843
1.510 -1.153 -0.609
1.560 -2.759 0.265
1.704 -2.897 0.469
3.144 -4.280 2.512
3.288 -4.418 2.717
1.393 -2.988 0.228
1.537 -3.126 0.432
1.681 -3.264 0.637
1.825 -3.402 0.841
2.977 -4.508 2.475
3.120 -4.646 2.680
3.264 -4.785 2.884
0.242 -1.882 -1.406
1.370 -3.354 0.396
1.514 -3.493 0.600
1.658 -3.631 0.804
1.802 -3.769 1.008
2.953 -4.875 2.643
3.097 -5.013 2.847
0.075 -2.110 -1.443
0.219 -2.248 -1.239
1.203 -3.583 0.359
1.347 -3.721 0.563
1.491 -3.859 0.767
1.635 -3.998 0.972
1.779 -4.136 1.176
2.786 -5.104 2.606
2.930 -5.242 2.810
-0.093 -2.339 -1.480
0.051 -2.477 -1.276
0.195 -2.615 -1.071
0.172 -2.982 -0.904
1.180 -3.950 0.526
1.323 -4.088 0.730
1.467 -4.226 0.935
1.611 -4.365 1.139
1.755 -4.503 1.343
2.763 -5.470 2.773
-0.260 -2.567 -1.517
-0.116 -2.706 -1.313
0.028 -2.844 -1.108
0.172 -2.982 -0.904
0.005 -3.211 -0.941
1.156 -4.317 0.694
1.300 -4.455 0.898
1.444 -4.593 1.102
1.588 -4.731 1.306
-0.427 -2.796 -1.554
-0.283 -2.934 -1.350
-0.139 -3.072 -1.145
0.005 -3.211 -0.941
-0.162 -3.439 -0.978
-0.018 -3.578 -0.773
1.133 -4.683 0.861
1.277 -4.822 1.065
1.421 -4.960 1.270
1.565 -5.098 1.474
-0.450 -3.163 -1.386
-0.306 -3.301 -1.182
-0.162 -3.439 -0.978
0.019 -3.540 -1.174
1.170 -4.646 0.461
1.314 -4.784 0.665
1.458 -4.923 0.869
1.602 -5.061 1.073
-0.413 -3.126 -1.787
-0.269 -3.264 -1.583
-0.125 -3.402 -1.378
0.019 -3.540 -1.174
-0.121 -5.741 -0.169
0.023 -5.879 0.035
0.167 -6.018 0.239
0.311 -6.156 0.444
1.463 -7.262 2.078
1.606 -7.400 2.282
-1.416 -4.497 -2.008
-1.272 -4.635 -1.804
-0.288 -5.970 -0.206
-0.144 -6.108 -0.002
-0.000 -6.246 0.202
0.144 -6.385 0.407
0.288 -6.523 0.611
1.295 -7.490 2.041
1.439 -7.629 2.245
-1.583 -4.726 -2.045
-1.439 -4.864 -1.841
-1.295 -5.002 -1.636
-1.319 -5.369 -1.469
-0.455 -6.198 -0.243
-0.311 -6.337 -0.039
-0.167 -6.475 0.166
-0.023 -6.613 0.370
0.121 -6.751 0.574
0.265 -6.890 0.778
1.128 -7.719 2.004
1.272 -7.857 2.209
-1.750 -4.954 -2.082
-1.607 -5.092 -1.877
-1.463 -5.231 -1.673
-1.319 -5.369 -1.469
-1.486 -5.598 -1.506
-0.622 -6.427 -0.280
-0.478 -6.565 -0.076
-0.334 -6.703 0.129
-0.191 -6.842 0.333
-0.047 -6.980 0.537
0.097 -7.118 0.742
0.961 -7.948 1.967
1.105 -8.086 2.172
-1.918 -5.183 -2.119
-1.774 -5.321 -1.914
-1.630 -5.459 -1.710
-1.486 -5.598 -1.506
-1.653 -5.826 -1.543
-0.646 -6.794 -0.112
-0.502 -6.932 0.092
-0.358 -7.070 0.296
-0.214 -7.209 0.500
-0.070 -7.347 0.705
0.938 -8.314 2.135
-2.085 -5.411 -2.156
-1.941 -5.550 -1.951
-1.797 -5.688 -1.747
-1.653 -5.826 -1.543
-1.820 -6.055 -1.579
-0.669 -7.161 0.055
-0.525 -7.299 0.259
-0.381 -7.437 0.464
-0.237 -7.575 0.668
-2.252 -5.640 -2.192
-2.108 -5.778 -1.988
-1.964 -5.916 -1.784
-1.820 -6.055 -1.579
1.719 -3.227 0.236
1.863 -3.365 0.441
2.006 -3.503 0.645
2.150 -3.642 0.849
3.302 -4.747 2.484
3.446 -4.886 2.688
0.423 -1.983 -1.602
0.567 -2.121 -1.398
1.551 -3.455 0.199
1.695 -3.594 0.404
1.839 -3.732 0.608
1.983 -3.870 0.812
2.127 -4.008 1.017
3.135 -4.976 2.447
3.279 -5.114 2.651
0.256 -2.211 -1.639
0.400 -2.349 -1.435
0.544 -2.488 -1.231
0.521 -2.855 -1.063
1.384 -3.684 0.163
1.528 -3.822 0.367
1.672 -3.960 0.571
1.816 -4.099 0.775
1.960 -4.237 0.980
2.104 -4.375 1.184
2.967 -5.205 2.410
3.111 -5.343 2.614
0.089 -2.440 -1.676
0.233 -2.578 -1.472
0.377 -2.716 -1.268
0.521 -2.855 -1.063
0.353 -3.083 -1.100
1.217 -3.913 0.126
1.361 -4.051 0.330
1.505 -4.189 0.534
1.649 -4.327 0.739
1.793 -4.466 0.943
1.937 -4.604 1.147
2.800 -5.433 2.373
2.944 -5.571 2.577
-0.078 -2.668 -1.713
0.066 -2.807 -1.509
0.209 -2.945 -1.304
0.353 -3.083 -1.100
0.186 -3.312 -1.137
1.194 -4.279 0.293
1.338 -4.418 0.497
1.482 -4.556 0.702
1.625 -4.694 0.906
1.769 -4.832 1.110
2.777 -5.800 2.540
-0.246 -2.897 -1.750
-0.102 -3.035 -1.546
0.042 -3.173 -1.341
0.186 -3.312 -1.137
0.019 -3.540 -1.174
1.170 -4.646 0.461
1.314 -4.784 0.665
1.458 -4.923 0.869
1.602 -5.061 1.073
-0.413 -3.126 -1.787
-0.269 -3.264 -1.583
-0.125 -3.402 -1.378
0.019 -3.540 -1.174
1.208 -4.609 0.060
1.352 -4.747 0.264
1.496 -4.886 0.469
1.640 -5.024 0.673
2.791 -6.130 2.307
-0.231 -3.227 -1.983
-0.088 -3.365 -1.779
0.056 -3.503 -1.574
0.061 -5.842 -0.365
0.205 -5.981 -0.161
0.349 -6.119 0.043
0.492 -6.257 0.247
0.636 -6.395 0.452
1.644 -7.363 1.882
1.788 -7.501 2.086
-1.235 -4.598 -2.204
-1.091 -4.736 -2.000
-0.947 -4.875 -1.796
-0.970 -5.241 -1.628
-0.107 -6.071 -0.402
0.037 -6.209 -0.198
0.181 -6.347 0.006
0.325 -6.486 0.211
0.469 -6.624 0.415
0.613 -6.762 0.619
1.477 -7.591 1.845
1.621 -7.730 2.049
-1.402 -4.827 -2.241
-1.258 -4.965 -2.037
-1.114 -5.103 -1.832
-0.970 -5.241 -1.628
-1.137 -5.470 -1.665
-0.274 -6.299 -0.439
-0.130 -6.438 -0.235
0.014 -6.576 -0.031
0.158 -6.714 0.174
0.302 -6.852 0.378
0.446 -6.991 0.582
1.309 -7.820 1.808
1.453 -7.958 2.012
-1.569 -5.055 -2.278
-1.425 -5.194 -2.074
-1.281 -5.332 -1.869
-1.137 -5.470 -1.665
-1.305 -5.699 -1.702
-0.441 -6.528 -0.476
-0.297 -6.666 -0.272
-0.153 -6.804 -0.067
-0.009 -6.943 0.137
0.135 -7.081 0.341
0.279 -7.219 0.545
1.142 -8.049 1.771
1.286 -8.187 1.976
-1.736 -5.284 -2.315
-1.592 -5.422 -2.110
-1.448 -5.560 -1.906
-1.305 -5.699 -1.702
-1.472 -5.927 -1.739
-0.608 -6.757 -0.513
-0.464 -6.895 -0.309
-0.320 -7.033 -0.104
-0.176 -7.171 0.100
-0.032 -7.310 0.304
0.111 -7.448 0.509
0.975 -8.277 1.734
1.119 -8.415 1.939
-1.904 -5.512 -2.352
-1.760 -5.651 -2.147
-1.616 -5.789 -1.943
-1.472 -5.927 -1.739
-0.631 -7.123 -0.345
-0.488 -7.262 -0.141
-0.344 -7.400 0.063
-0.200 -7.538 0.267
0.952 -8.644 1.902
-2.071 -5.741 -2.389
-1.927 -5.879 -2.184
-1.783 -6.017 -1.980
1.900 -3.328 0.040
2.044 -3.466 0.244
2.188 -3.604 0.449
2.332 -3.743 0.653
2.476 -3.881 0.857
3.483 -4.849 2.288
3.627 -4.987 2.492
0.605 -2.084 -1.799
0.749 -2.222 -1.594
0.892 -2.360 -1.390
0.869 -2.727 -1.223
1.733 -3.556 0.003
1.877 -3.695 0.208
2.021 -3.833 0.412
2.165 -3.971 0.616
2.308 -4.109 0.821
2.452 -4.248 1.025
3.316 -5.077 2.251
3.460 -5.215 2.455
0.437 -2.312 -1.835
0.581 -2.451 -1.631
0.725 -2.589 -1.427
0.869 -2.727 -1.223
0.702 -2.956 -1.259
1.566 -3.785 -0.034
1.709 -3.923 0.171
1.853 -4.062 0.375
1.997 -4.200 0.579
2.141 -4.338 0.784
2.285 -4.476 0.988
3.149 -5.306 2.214
3.293 -5.444 2.418
0.270 -2.541 -1.872
0.414 -2.679 -1.668
0.558 -2.817 -1.464
0.702 -2.956 -1.259
0.535 -3.184 -1.296
1.398 -4.014 -0.070
1.542 -4.152 0.134
1.686 -4.290 0.338
1.830 -4.428 0.542
1.974 -4.567 0.747
2.118 -4.705 0.951
2.982 -5.534 2.177
3.125 -5.673 2.381
0.103 -2.769 -1.909
0.247 -2.908 -1.705
0.391 -3.046 -1.501
0.535 -3.184 -1.296
0.368 -3.413 -1.333
1.231 -4.242 -0.107
1.375 -4.380 0.097
1.519 -4.519 0.301
1.663 -4.657 0.506
1.807 -4.795 0.710
1.951 -4.933 0.914
2.814 -5.763 2.140
2.958 -5.901 2.344
-0.064 -2.998 -1.946
0.080 -3.136 -1.742
0.224 -3.275 -1.537
0.368 -3.413 -1.333
1.208 -4.609 0.060
1.352 -4.747 0.264
1.496 -4.886 0.469
1.640 -5.024 0.673
2.791 -6.130 2.307
-0.231 -3.227 -1.983
-0.088 -3.365 -1.779
0.056 -3.503 -1.574
1.245 -4.572 -0.340
1.389 -4.710 -0.136
1.533 -4.848 0.068
1.677 -4.987 0.273
2.829 -6.092 1.907
2.972 -6.231 2.111
-0.050 -3.328 -2.179
0.094 -3.466 -1.975
-0.622 -5.114 -1.787
0.386 -6.082 -0.357
0.530 -6.220 -0.153
0.674 -6.358 0.051
0.818 -6.496 0.256
0.962 -6.634 0.460
1.969 -7.602 1.890
-1.053 -4.699 -2.400
-0.909 -4.837 -2.196
-0.765 -4.976 -1.992
-0.622 -5.114 -1.787
-0.789 -5.342 -1.824
0.075 -6.172 -0.598
0.219 -6.310 -0.394
0.363 -6.448 -0.190
0.507 -6.587 0.014
0.651 -6.725 0.219
0.794 -6.863 0.423
1.658 -7.693 1.649
1.802 -7.831 1.853
-1.221 -4.928 -2.437
-1.077 -5.066 -2.233
-0.933 -5.204 -2.029
-0.789 -5.342 -1.824
-0.956 -5.571 -1.861
-0.092 -6.400 -0.635
0.052 -6.539 -0.431
0.195 -6.677 -0.227
0.339 -6.815 -0.022
0.483 -6.953 0.182
0.627 -7.092 0.386
1.491 -7.921 1.612
1.635 -8.059 1.816
-1.388 -5.156 -2.474
-1.244 -5.295 -2.270
-1.100 -5.433 -2.065
-0.956 -5.571 -1.861
-1.123 -5.800 -1.898
-0.260 -6.629 -0.672
-0.116 -6.767 -0.468
0.028 -6.906 -0.264
0.172 -7.044 -0.059
0.316 -7.182 0.145
0.460 -7.320 0.349
1.324 -8.150 1.575
1.468 -8.288 1.779
-1.555 -5.385 -2.511
-1.411 -5.523 -2.307
-1.267 -5.661 -2.102
-1.123 -5.800 -1.898
-0.427 -6.858 -0.709
-0.283 -6.996 -0.505
-0.139 -7.134 -0.300
0.005 -7.272 -0.096
0.149 -7.411 0.108
1.156 -8.378 1.538
1.300 -8.517 1.743
-1.722 -5.613 -2.548
-1.578 -5.752 -2.343
-1.434 -5.890 -2.139
-0.594 -7.086 -0.746
-0.450 -7.224 -0.542
-0.306 -7.363 -0.337
-0.162 -7.501 -0.133
0.989 -8.607 1.501
1.133 -8.745 1.706
-1.889 -5.842 -2.585
-1.745 -5.980 -2.380
1.218 -2.599 -1.382
2.225 -3.567 0.048
2.369 -3.705 0.253
2.513 -3.844 0.457
2.657 -3.982 0.661
2.801 -4.120 0.866
3.808 -5.088 2.296
0.786 -2.185 -1.995
0.930 -2.323 -1.790
1.074 -2.461 -1.586
1.218 -2.599 -1.382
1.051 -2.828 -1.419
1.914 -3.657 -0.193
2.058 -3.796 0.011
2.202 -3.934 0.216
2.346 -4.072 0.420
2.490 -4.210 0.624
2.634 -4.349 0.829
3.497 -5.178 2.055
3.641 -5.316 2.259
0.619 -2.413 -2.032
0.763 -2.552 -1.827
0.907 -2.690 -1.623
1.051 -2.828 -1.419
0.883 -3.057 -1.456
1.747 -3.886 -0.230
1.891 -4.024 -0.025
2.035 -4.163 0.179
2.179 -4.301 0.383
2.323 -4.439 0.588
2.467 -4.577 0.792
3.330 -5.407 2.018
3.474 -5.545 2.222
0.452 -2.642 -2.068
0.595 -2.780 -1.864
0.739 -2.918 -1.660
0.883 -3.057 -1.456
0.716 -3.285 -1.492
1.580 -4.115 -0.267
1.724 -4.253 -0.062
1.868 -4.391 0.142
2.011 -4.529 0.346
2.155 -4.668 0.551
2.299 -4.806 0.755
3.163 -5.635 1.981
3.307 -5.774 2.185
0.284 -2.870 -2.105
0.428 -3.009 -1.901
0.572 -3.147 -1.697
0.716 -3.285 -1.492
1.412 -4.343 -0.303
1.556 -4.481 -0.099
1.700 -4.620 0.105
1.844 -4.758 0.309
1.988 -4.896 0.514
2.996 -5.864 1.944
3.140 -6.002 2.148
0.117 -3.099 -2.142
0.261 -3.237 -1.938
0.405 -3.376 -1.734
1.245 -4.572 -0.340
1.389 -4.710 -0.136
1.533 -4.848 0.068
1.677 -4.987 0.273
2.829 -6.092 1.907
2.972 -6.231 2.111
-0.050 -3.328 -2.179
0.094 -3.466 -1.975
1.283 -4.535 -0.741
1.427 -4.673 -0.536
1.571 -4.811 -0.332
1.714 -4.949 -0.128
2.866 -6.055 1.507
3.010 -6.193 1.711
3.154 -6.332 1.915
0.131 -3.429 -2.375
-0.273 -4.986 -1.947
1.166 -6.369 0.096
1.310 -6.507 0.301
-0.417 -4.848 -2.151
-0.273 -4.986 -1.947
-0.440 -5.215 -1.984
0.711 -6.321 -0.349
0.855 -6.459 -0.145
0.999 -6.597 0.060
1.143 -6.736 0.264
-0.872 -4.800 -2.596
-0.728 -4.938 -2.392
-0.584 -5.077 -2.188
-0.440 -5.215 -1.984
-0.607 -5.443 -2.020
0.400 -6.411 -0.590
0.544 -6.549 -0.386
0.688 -6.688 -0.182
0.832 -6.826 0.023
0.976 -6.964 0.227
1.983 -7.932 1.657
-1.039 -5.029 -2.633
-0.895 -5.167 -2.429
-0.751 -5.305 -2.225
-0.607 -5.443 -2.020
-0.775 -5.672 -2.057
0.089 -6.501 -0.831
0.233 -6.640 -0.627
0.377 -6.778 -0.423
0.521 -6.916 -0.219
0.665 -7.054 -0.014
0.809 -7.193 0.190
1.672 -8.022 1.416
1.816 -8.160 1.620
-1.206 -5.257 -2.670
-1.062 -5.396 -2.466
-0.919 -5.534 -2.262
-0.775 -5.672 -2.057
-0.078 -6.730 -0.868
0.066 -6.868 -0.664
0.210 -7.007 -0.460
0.354 -7.145 -0.255
0.497 -7.283 -0.051
1.505 -8.251 1.379
1.649 -8.389 1.583
-1.374 -5.486 -2.707
-1.230 -5.624 -2.503
-1.086 -5.762 -2.298
-0.389 -6.820 -1.109
-0.245 -6.959 -0.905
-0.101 -7.097 -0.701
0.042 -7.235 -0.497
0.186 -7.373 -0.292
1.194 -8.341 1.138
1.338 -8.479 1.342
1.482 -8.618 1.546
-1.541 -5.714 -2.744
-1.397 -5.853 -2.540
-0.557 -7.049 -1.146
-0.413 -7.187 -0.942
-0.269 -7.325 -0.738
-0.125 -7.464 -0.533
1.027 -8.570 1.101
1.171 -8.708 1.305
1.315 -8.846 1.510
-1.708 -5.943 -2.781
1.566 -2.472 -1.541
3.006 -3.854 0.502
3.150 -3.993 0.706
1.422 -2.334 -1.745
1.566 -2.472 -1.541
1.399 -2.700 -1.578
2.551 -3.806 0.057
2.694 -3.945 0.261
2.838 -4.083 0.465
2.982 -4.221 0.669
0.967 -2.286 -2.191
1.111 -2.424 -1.987
1.255 -2.562 -1.782
1.399 -2.700 -1.578
1.232 -2.929 -1.615
2.239 -3.897 -0.185
2.383 -4.035 0.020
2.527 -4.173 0.224
2.671 -4.311 0.428
2.815 -4.450 0.633
3.823 -5.417 2.063
0.800 -2.514 -2.228
0.944 -2.653 -2.023
1.088 -2.791 -1.819
1.232 -2.929 -1.615
1.065 -3.158 -1.652
1.928 -3.987 -0.426
2.072 -4.125 -0.222
2.216 -4.264 -0.017
2.360 -4.402 0.187
2.504 -4.540 0.391
2.648 -4.678 0.596
3.511 -5.508 1.822
3.655 -5.646 2.026
0.633 -2.743 -2.265
0.777 -2.881 -2.060
0.921 -3.019 -1.856
1.065 -3.158 -1.652
1.761 -4.216 -0.463
1.905 -4.354 -0.258
2.049 -4.492 -0.054
2.193 -4.630 0.150
2.337 -4.769 0.355
3.344 -5.736 1.785
3.488 -5.875 1.989
0.466 -2.972 -2.301
0.610 -3.110 -2.097
0.754 -3.248 -1.893
1.450 -4.306 -0.704
1.594 -4.444 -0.500
1.738 -4.582 -0.295
1.882 -4.721 -0.091
2.026 -4.859 0.113
3.033 -5.827 1.543
3.177 -5.965 1.748
3.321 -6.103 1.952
0.298 -3.200 -2.338
0.442 -3.338 -2.134
1.283 -4.535 -0.741
1.427 -4.673 -0.536
1.571 -4.811 -0.332
1.714 -4.949 -0.128
2.866 -6.055 1.507
3.010 -6.193 1.711
3.154 -6.332 1.915
0.131 -3.429 -2.375
1.320 -4.497 -1.141
1.464 -4.636 -0.937
1.608 -4.774 -0.733
1.752 -4.912 -0.528
2.903 -6.018 1.106
3.047 -6.156 1.310
3.191 -6.295 1.515
3.335 -6.433 1.719
1.009 -4.588 -1.382
1.153 -4.726 -1.178
1.297 -4.864 -0.974
1.441 -5.002 -0.769
2.592 -6.108 0.865
2.736 -6.247 1.069
2.880 -6.385 1.274
3.024 -6.523 1.478
0.698 -4.678 -1.624
0.842 -4.816 -1.419
0.986 -4.955 -1.215
1.130 -5.093 -1.011
2.281 -6.199 0.624
2.425 -6.337 0.828
2.569 -6.475 1.032
2.713 -6.613 1.237
0.387 -4.768 -1.865
0.531 -4.907 -1.660
0.675 -5.045 -1.456
0.819 -5.183 -1.252
1.970 -6.289 0.383
2.114 -6.427 0.587
2.258 -6.566 0.791
2.402 -6.704 0.996
0.076 -4.859 -2.106
0.220 -4.997 -1.902
0.363 -5.135 -1.697
0.507 -5.273 -1.493
1.659 -6.379 0.141
1.803 -6.518 0.346
1.947 -6.656 0.550
2.091 -6.794 0.754
0.076 -4.859 -2.106
-0.092 -5.087 -2.143
0.052 -5.226 -1.938
0.196 -5.364 -1.734
1.348 -6.470 -0.100
1.492 -6.608 0.105
1.636 -6.746 0.309
1.779 -6.884 0.513
-0.236 -4.949 -2.347
-0.092 -5.087 -2.143
-0.259 -5.316 -2.180
-0.115 -5.454 -1.975
1.037 -6.560 -0.341
1.180 -6.698 -0.137
1.324 -6.837 0.068
1.468 -6.975 0.272
-0.547 -5.039 -2.588
-0.403 -5.178 -2.384
-0.259 -5.316 -2.180
-0.426 -5.544 -2.217
0.725 -6.650 -0.582
0.869 -6.789 -0.378
1.013 -6.927 -0.173
1.157 -7.065 0.031
-0.858 -5.130 -2.829
-0.714 -5.268 -2.625
-0.570 -5.406 -2.421
-0.426 -5.544 -2.217
0.414 -6.741 -0.823
0.558 -6.879 -0.619
0.702 -7.017 -0.415
0.846 -7.155 -0.210
1.998 -8.261 1.424
-1.025 -5.358 -2.866
-0.881 -5.497 -2.662
-0.737 -5.635 -2.458
0.103 -6.831 -1.064
0.247 -6.969 -0.860
0.391 -7.108 -0.656
0.535 -7.246 -0.452
1.686 -8.352 1.183
1.830 -8.490 1.387
-1.192 -5.587 -2.903
-1.048 -5.725 -2.699
-0.208 -6.921 -1.306
-0.064 -7.060 -1.101
0.080 -7.198 -0.897
0.224 -7.336 -0.693
1.375 -8.442 0.942
1.519 -8.580 1.146
1.663 -8.719 1.350
-1.359 -5.816 -2.940
-0.519 -7.012 -1.547
-0.375 -7.150 -1.342
-0.231 -7.288 -1.138
-0.087 -7.427 -0.934
1.064 -8.532 0.701
1.208 -8.671 0.905
1.352 -8.809 1.109
1.496 -8.947 1.313
2.848 -2.073 -0.977
2.992 -2.212 -0.772
3.136 -2.350 -0.568
3.280 -2.488 -0.364
4.432 -3.594 1.271
4.575 -3.732 1.475
4.719 -3.870 1.679
4.863 -4.009 1.883
2.537 -2.164 -1.218
2.681 -2.302 -1.014
2.825 -2.440 -0.809
2.969 -2.578 -0.605
4.120 -3.684 1.029
4.264 -3.823 1.234
4.408 -3.961 1.438
4.552 -4.099 1.642
2.226 -2.254 -1.459
2.370 -2.392 -1.255
2.514 -2.530 -1.051
2.658 -2.669 -0.846
3.809 -3.775 0.788
3.953 -3.913 0.993
4.097 -4.051 1.197
4.241 -4.189 1.401
1.915 -2.344 -1.700
2.059 -2.483 -1.496
2.203 -2.621 -1.292
2.347 -2.759 -1.087
3.498 -3.865 0.547
3.642 -4.003 0.751
3.786 -4.141 0.956
3.930 -4.280 1.160
1.915 -2.344 -1.700
1.748 -2.573 -1.737
1.892 -2.711 -1.533
2.036 -2.849 -1.329
3.187 -3.955 0.306
3.331 -4.094 0.510
3.475 -4.232 0.714
3.619 -4.370 0.919
1.604 -2.435 -1.941
1.748 -2.573 -1.737
1.580 -2.802 -1.774
1.724 -2.940 -1.570
2.876 -4.046 0.065
3.020 -4.184 0.269
3.164 -4.322 0.473
3.308 -4.460 0.678
1.293 -2.525 -2.183
1.437 -2.663 -1.978
1.580 -2.802 -1.774
1.413 -3.030 -1.811
2.565 -4.136 -0.176
2.709 -4.274 0.028
2.853 -4.413 0.232
2.996 -4.551 0.436
0.981 -2.615 -2.424
1.125 -2.754 -2.220
1.269 -2.892 -2.015
1.413 -3.030 -1.811
2.254 -4.226 -0.418
2.397 -4.365 -0.213
2.541 -4.503 -0.009
2.685 -4.641 0.195
3.837 -5.747 1.830
0.814 -2.844 -2.461
0.958 -2.982 -2.256
1.102 -3.120 -2.052
1.942 -4.317 -0.659
2.086 -4.455 -0.455
2.230 -4.593 -0.250
2.374 -4.731 -0.046
3.526 -5.837 1.589
3.670 -5.976 1.793
0.647 -3.073 -2.498
0.791 -3.211 -2.293
1.631 -4.407 -0.900
1.775 -4.545 -0.696
1.919 -4.684 -0.491
2.063 -4.822 -0.287
3.215 -5.928 1.347
3.358 -6.066 1.552
3.502 -6.204 1.756
0.480 -3.301 -2.534
1.320 -4.497 -1.141
1.464 -4.636 -0.937
1.608 -4.774 -0.733
1.752 -4.912 -0.528
2.903 -6.018 1.106
3.047 -6.156 1.310
3.191 -6.295 1.515
3.335 -6.433 1.719
1.358 -4.460 -1.542
1.502 -4.598 -1.337
1.645 -4.737 -1.133
1.789 -4.875 -0.929
2.941 -5.981 0.706
3.085 -6.119 0.910
3.229 -6.257 1.114
3.373 -6.396 1.319
1.046 -4.551 -1.783
1.190 -4.689 -1.579
1.334 -4.827 -1.374
1.478 -4.965 -1.170
1.622 -5.103 -0.966
2.630 -6.071 0.465
2.774 -6.209 0.669
2.918 -6.348 0.873
3.061 -6.486 1.077
3.205 -6.624 1.282
0.735 -4.641 -2.024
0.879 -4.779 -1.820
1.023 -4.917 -1.615
1.167 -5.056 -1.411
1.311 -5.194 -1.207
2.319 -6.162 0.223
2.462 -6.300 0.428
2.606 -6.438 0.632
2.750 -6.576 0.836
2.894 -6.714 1.041
0.424 -4.731 -2.265
0.568 -4.869 -2.061
0.712 -5.008 -1.857
0.856 -5.146 -1.652
1.000 -5.284 -1.448
1.144 -5.422 -1.244
2.007 -6.252 -0.018
2.151 -6.390 0.187
2.295 -6.528 0.391
2.439 -6.667 0.595
2.583 -6.805 0.799
2.727 -6.943 1.004
0.424 -4.731 -2.265
0.257 -4.960 -2.302
0.401 -5.098 -2.098
0.545 -5.236 -1.893
0.689 -5.375 -1.689
0.833 -5.513 -1.485
1.840 -6.480 -0.055
1.984 -6.619 0.150
2.128 -6.757 0.354
2.272 -6.895 0.558
2.416 -7.033 0.763
0.257 -4.960 -2.302
0.090 -5.188 -2.339
0.234 -5.327 -2.135
0.378 -5.465 -1.930
0.522 -5.603 -1.726
1.673 -6.709 -0.092
1.817 -6.847 0.113
1.961 -6.985 0.317
2.105 -7.124 0.521
0.090 -5.188 -2.339
-0.077 -5.417 -2.376
0.066 -5.555 -2.171
1.506 -6.938 -0.128
1.650 -7.076 0.076
-0.077 -5.417 -2.376
-0.482 -6.975 -1.947
-0.338 -7.113 -1.743
-0.194 -7.251 -1.539
-0.050 -7.389 -1.334
1.102 -8.495 0.300
1.245 -8.633 0.504
1.389 -8.772 0.709
1.533 -8.910 0.913
2.886 -2.036 -1.377
3.030 -2.174 -1.173
3.174 -2.313 -0.969
3.318 -2.451 -0.764
3.461 -2.589 -0.560
4.469 -3.557 0.870
4.613 -3.695 1.074
4.757 -3.833 1.279
4.901 -3.971 1.483
5.045 -4.110 1.687
2.575 -2.126 -1.618
2.719 -2.265 -1.414
2.862 -2.403 -1.210
3.006 -2.541 -1.005
3.150 -2.679 -0.801
4.158 -3.647 0.629
4.302 -3.785 0.833
4.446 -3.924 1.038
4.590 -4.062 1.242
4.734 -4.200 1.446
2.263 -2.217 -1.860
2.407 -2.355 -1.655
2.551 -2.493 -1.451
2.695 -2.632 -1.247
2.839 -2.770 -1.042
2.983 -2.908 -0.838
3.847 -3.737 0.388
3.991 -3.876 0.592
4.135 -4.014 0.796
4.278 -4.152 1.001
4.422 -4.290 1.205
4.566 -4.429 1.409
2.263 -2.217 -1.860
2.096 -2.445 -1.896
2.240 -2.584 -1.692
2.384 -2.722 -1.488
2.528 -2.860 -1.284
2.672 -2.998 -1.079
3.679 -3.966 0.351
3.823 -4.104 0.555
3.967 -4.243 0.760
4.111 -4.381 0.964
4.255 -4.519 1.168
2.096 -2.445 -1.896
1.929 -2.674 -1.933
2.073 -2.812 -1.729
2.217 -2.950 -1.525
2.361 -3.089 -1.320
3.512 -4.195 0.314
3.656 -4.333 0.518
3.800 -4.471 0.723
3.944 -4.609 0.927
1.929 -2.674 -1.933
1.762 -2.903 -1.970
1.906 -3.041 -1.766
3.345 -4.423 0.277
3.489 -4.561 0.481
1.762 -2.903 -1.970
1.358 -4.460 -1.542
1.502 -4.598 -1.337
1.645 -4.737 -1.133
1.789 -4.875 -0.929
2.941 -5.981 0.706
3.085 -6.119 0.910
3.229 -6.257 1.114
3.373 -6.396 1.319
1.395 -4.423 -1.942
1.539 -4.561 -1.738
1.683 -4.699 -1.533
1.827 -4.838 -1.329
2.978 -5.944 0.305
3.122 -6.082 0.510
3.266 -6.220 0.714
3.410 -6.358 0.918
1.084 -4.513 -2.183
1.228 -4.652 -1.979
1.372 -4.790 -1.775
1.516 -4.928 -1.570
1.660 -5.066 -1.366
2.667 -6.034 0.064
2.811 -6.172 0.268
2.955 -6.310 0.473
3.099 -6.449 0.677
3.243 -6.587 0.881
0.773 -4.604 -2.424
0.917 -4.742 -2.220
1.061 -4.880 -2.016
1.205 -5.018 -1.812
1.348 -5.157 -1.607
1.492 -5.295 -1.403
2.356 -6.124 -0.177
2.500 -6.263 0.027
2.644 -6.401 0.232
2.788 -6.539 0.436
2.932 -6.677 0.640
3.076 -6.816 0.844
0.773 -4.604 -2.424
0.606 -4.832 -2.461
0.749 -4.970 -2.257
0.893 -5.109 -2.053
1.037 -5.247 -1.848
1.181 -5.385 -1.644
1.325 -5.523 -1.440
2.189 -6.353 -0.214
2.333 -6.491 -0.010
2.477 -6.629 0.195
2.621 -6.768 0.399
2.764 -6.906 0.603
2.908 -7.044 0.808
0.606 -4.832 -2.461
0.438 -5.061 -2.498
0.582 -5.199 -2.294
0.726 -5.337 -2.090
0.870 -5.476 -1.885
1.014 -5.614 -1.681
1.158 -5.752 -1.477
2.022 -6.581 -0.251
2.165 -6.720 -0.047
2.309 -6.858 0.158
2.453 -6.996 0.362
2.597 -7.134 0.566
2.741 -7.273 0.771
0.438 -5.061 -2.498
0.271 -5.289 -2.535
0.415 -5.428 -2.331
0.559 -5.566 -2.126
0.703 -5.704 -1.922
0.847 -5.842 -1.718
1.854 -6.810 -0.288
1.998 -6.948 -0.083
2.142 -7.087 0.121
2.286 -7.225 0.325
2.430 -7.363 0.530
0.271 -5.289 -2.535
-0.444 -6.937 -2.348
-0.300 -7.076 -2.143
-0.156 -7.214 -1.939
-0.012 -7.352 -1.735
1.139 -8.458 -0.100
1.283 -8.596 0.104
1.427 -8.734 0.308
1.571 -8.873 0.513
2.923 -1.999 -1.778
3.067 -2.137 -1.573
3.211 -2.275 -1.369
3.355 -2.414 -1.165
3.499 -2.552 -0.960
4.506 -3.520 0.470
4.650 -3.658 0.674
4.794 -3.796 0.878
4.938 -3.934 1.083
5.082 -4.073 1.287
2.612 -2.089 -2.019
2.756 -2.227 -1.815
2.900 -2.366 -1.610
3.044 -2.504 -1.406
3.188 -2.642 -1.202
3.332 -2.780 -0.997
4.195 -3.610 0.229
4.339 -3.748 0.433
4.483 -3.886 0.637
4.627 -4.025 0.841
4.771 -4.163 1.046
4.915 -4.301 1.250
2.612 -2.089 -2.019
2.445 -2.318 -2.056
2.589 -2.456 -1.851
2.733 -2.594 -1.647
2.877 -2.733 -1.443
3.021 -2.871 -1.238
3.164 -3.009 -1.034
4.028 -3.838 0.192
4.172 -3.977 0.396
4.316 -4.115 0.600
4.460 -4.253 0.805
4.604 -4.391 1.009
4.748 -4.530 1.213
2.445 -2.318 -2.056
2.278 -2.546 -2.093
2.422 -2.685 -1.888
2.565 -2.823 -1.684
2.709 -2.961 -1.480
2.853 -3.099 -1.275
2.997 -3.238 -1.071
3.861 -4.067 0.155
4.005 -4.205 0.359
4.149 -4.344 0.563
4.293 -4.482 0.768
4.437 -4.620 0.972
4.580 -4.758 1.176
2.278 -2.546 -2.093
2.110 -2.775 -2.129
2.254 -2.913 -1.925
2.398 -3.051 -1.721
2.542 -3.190 -1.517
2.686 -3.328 -1.312
3.694 -4.296 0.118
3.838 -4.434 0.322
3.981 -4.572 0.527
4.125 -4.710 0.731
4.269 -4.849 0.935
2.110 -2.775 -2.129
1.395 -4.423 -1.942
1.539 -4.561 -1.738
1.683 -4.699 -1.533
1.827 -4.838 -1.329
2.978 -5.944 0.305
3.122 -6.082 0.510
3.266 -6.220 0.714
3.410 -6.358 0.918
1.432 -4.386 -2.343
1.576 -4.524 -2.138
1.720 -4.662 -1.934
1.864 -4.800 -1.730
3.016 -5.906 -0.095
3.160 -6.045 0.109
3.304 -6.183 0.313
3.447 -6.321 0.518
1.121 -4.476 -2.584
1.265 -4.614 -2.379
1.409 -4.753 -2.175
1.553 -4.891 -1.971
1.697 -5.029 -1.766
1.841 -5.167 -1.562
2.705 -5.997 -0.336
2.848 -6.135 -0.132
2.992 -6.273 0.072
3.136 -6.411 0.277
3.280 -6.550 0.481
3.424 -6.688 0.685
1.121 -4.476 -2.584
0.954 -4.705 -2.621
1.098 -4.843 -2.416
1.242 -4.981 -2.212
1.386 -5.119 -2.008
1.530 -5.258 -1.803
1.674 -5.396 -1.599
2.537 -6.225 -0.373
2.681 -6.364 -0.169
2.825 -6.502 0.035
2.969 -6.640 0.240
3.113 -6.778 0.444
3.257 -6.917 0.648
0.954 -4.705 -2.621
0.787 -4.933 -2.657
0.931 -5.072 -2.453
1.075 -5.210 -2.249
1.219 -5.348 -2.045
1.363 -5.486 -1.840
1.507 -5.624 -1.636
2.370 -6.454 -0.410
2.514 -6.592 -0.206
2.658 -6.730 -0.001
2.802 -6.869 0.203
2.946 -7.007 0.407
3.090 -7.145 0.611
0.787 -4.933 -2.657
0.620 -5.162 -2.694
0.764 -5.300 -2.490
0.908 -5.438 -2.286
1.051 -5.577 -2.081
1.195 -5.715 -1.877
1.339 -5.853 -1.673
2.203 -6.682 -0.447
2.347 -6.821 -0.243
2.491 -6.959 -0.038
2.635 -7.097 0.166
2.779 -7.235 0.370
2.923 -7.374 0.575
0.620 -5.162 -2.694
0.596 -5.529 -2.527
0.740 -5.667 -2.323
0.884 -5.805 -2.118
1.028 -5.943 -1.914
1.172 -6.082 -1.710
2.180 -7.049 -0.280
2.324 -7.188 -0.075
2.468 -7.326 0.129
2.611 -7.464 0.333
2.755 -7.602 0.538
-0.407 -6.900 -2.748
-0.263 -7.038 -2.544
-0.119 -7.177 -2.339
0.025 -7.315 -2.135
1.176 -8.421 -0.501
1.320 -8.559 -0.296
1.464 -8.697 -0.092
1.608 -8.836 0.112
2.961 -1.962 -2.178
3.105 -2.100 -1.974
3.248 -2.238 -1.769
3.392 -2.376 -1.565
3.536 -2.515 -1.361
3.680 -2.653 -1.157
4.544 -3.482 0.069
4.688 -3.621 0.274
4.832 -3.759 0.478
4.976 -3.897 0.682
5.120 -4.035 0.886
5.263 -4.174 1.091
2.961 -1.962 -2.178
2.793 -2.190 -2.215
2.937 -2.329 -2.011
3.081 -2.467 -1.806
3.225 -2.605 -1.602
3.369 -2.743 -1.398
3.513 -2.881 -1.193
4.377 -3.711 0.032
4.521 -3.849 0.237
4.664 -3.987 0.441
4.808 -4.126 0.645
4.952 -4.264 0.850
5.096 -4.402 1.054
2.793 -2.190 -2.215
2.626 -2.419 -2.252
2.770 -2.557 -2.048
2.914 -2.695 -1.843
3.058 -2.834 -1.639
3.202 -2.972 -1.435
3.346 -3.110 -1.230
4.209 -3.940 -0.004
4.353 -4.078 0.200
4.497 -4.216 0.404
4.641 -4.354 0.608
4.785 -4.492 0.813
4.929 -4.631 1.017
2.626 -2.419 -2.252
2.459 -2.647 -2.289
2.603 -2.786 -2.084
2.747 -2.924 -1.880
2.891 -3.062 -1.676
3.035 -3.200 -1.471
3.179 -3.339 -1.267
4.042 -4.168 -0.041
4.186 -4.306 0.163
4.330 -4.445 0.367
4.474 -4.583 0.572
4.618 -4.721 0.776
4.762 -4.859 0.980
2.459 -2.647 -2.289
2.436 -3.014 -2.121
2.580 -3.153 -1.917
2.724 -3.291 -1.713
2.867 -3.429 -1.508
3.011 -3.567 -1.304
4.019 -4.535 0.126
4.163 -4.673 0.330
4.307 -4.811 0.535
4.451 -4.950 0.739
4.595 -5.088 0.943
1.432 -4.386 -2.343
1.576 -4.524 -2.138
1.720 -4.662 -1.934
1.864 -4.800 -1.730
3.016 -5.906 -0.095
3.160 -6.045 0.109
3.304 -6.183 0.313
3.447 -6.321 0.518
1.470 -4.349 -2.743
1.614 -4.487 -2.539
1.758 -4.625 -2.334
1.902 -4.763 -2.130
3.053 -5.869 -0.496
3.197 -6.007 -0.291
3.341 -6.146 -0.087
3.485 -6.284 0.117
1.470 -4.349 -2.743
1.303 -4.577 -2.780
1.447 -4.715 -2.576
1.591 -4.854 -2.371
1.734 -4.992 -2.167
1.878 -5.130 -1.963
2.886 -6.098 -0.532
3.030 -6.236 -0.328
3.174 -6.374 -0.124
3.318 -6.512 0.080
3.462 -6.651 0.285
1.303 -4.577 -2.780
1.135 -4.806 -2.817
1.279 -4.944 -2.612
1.423 -5.082 -2.408
1.567 -5.220 -2.204
1.711 -5.359 -1.999
1.855 -5.497 -1.795
2.719 -6.326 -0.569
2.863 -6.465 -0.365
3.007 -6.603 -0.161
3.150 -6.741 0.044
3.294 -6.879 0.248
3.438 -7.018 0.452
1.135 -4.806 -2.817
0.968 -5.034 -2.854
1.112 -5.173 -2.649
1.256 -5.311 -2.445
1.400 -5.449 -2.241
1.544 -5.587 -2.036
1.688 -5.725 -1.832
2.551 -6.555 -0.606
2.695 -6.693 -0.402
2.839 -6.831 -0.198
2.983 -6.970 0.007
3.127 -7.108 0.211
3.271 -7.246 0.415
0.968 -5.034 -2.854
0.945 -5.401 -2.686
1.089 -5.539 -2.482
1.233 -5.678 -2.278
1.377 -5.816 -2.073
1.521 -5.954 -1.869
2.528 -6.922 -0.439
2.672 -7.060 -0.234
2.816 -7.198 -0.030
2.960 -7.336 0.174
3.104 -7.475 0.378
0.922 -5.768 -2.519
1.066 -5.906 -2.314
1.210 -6.044 -2.110
1.354 -6.183 -1.906
2.505 -7.289 -0.271
2.649 -7.427 -0.067
2.793 -7.565 0.137
2.937 -7.703 0.342
-0.369 -6.863 -3.149
-0.225 -7.001 -2.944
-0.082 -7.139 -2.740
0.062 -7.278 -2.536
1.214 -8.384 -0.901
1.358 -8.522 -0.697
1.502 -8.660 -0.493
1.646 -8.798 -0.288
-0.369 -6.863 -3.149
3.142 -2.063 -2.374
3.286 -2.201 -2.170
3.430 -2.339 -1.966
3.574 -2.477 -1.761
3.718 -2.616 -1.557
4.725 -3.583 -0.127
4.869 -3.722 0.077
5.013 -3.860 0.282
5.157 -3.998 0.486
5.301 -4.136 0.690
3.142 -2.063 -2.374
2.975 -2.291 -2.411
3.119 -2.430 -2.207
3.263 -2.568 -2.002
3.407 -2.706 -1.798
3.550 -2.844 -1.594
3.694 -2.983 -1.390
4.558 -3.812 -0.164
4.702 -3.950 0.041
4.846 -4.088 0.245
4.990 -4.227 0.449
5.134 -4.365 0.653
5.278 -4.503 0.858
2.975 -2.291 -2.411
2.808 -2.520 -2.448
2.951 -2.658 -2.244
3.095 -2.796 -2.039
3.239 -2.935 -1.835
3.383 -3.073 -1.631
3.527 -3.211 -1.426
4.391 -4.041 -0.201
4.535 -4.179 0.004
4.679 -4.317 0.208
4.823 -4.455 0.412
4.966 -4.594 0.617
5.110 -4.732 0.821
2.808 -2.520 -2.448
2.784 -2.887 -2.281
2.928 -3.025 -2.076
3.072 -3.163 -1.872
3.216 -3.301 -1.668
3.360 -3.440 -1.463
4.367 -4.407 -0.033
4.511 -4.546 0.171
4.655 -4.684 0.375
4.799 -4.822 0.580
4.943 -4.960 0.784
2.761 -3.254 -2.113
2.905 -3.392 -1.909
3.049 -3.530 -1.704
3.193 -3.668 -1.500
4.344 -4.774 0.134
4.488 -4.912 0.339
4.632 -5.051 0.543
4.776 -5.189 0.747
1.470 -4.349 -2.743
1.614 -4.487 -2.539
1.758 -4.625 -2.334
1.902 -4.763 -2.130
3.053 -5.869 -0.496
3.197 -6.007 -0.291
3.341 -6.146 -0.087
3.485 -6.284 0.117
1.470 -4.349 -2.743
1.651 -4.450 -2.939
1.795 -4.588 -2.735
1.939 -4.726 -2.530
3.091 -5.832 -0.896
3.234 -5.970 -0.692
3.378 -6.108 -0.487
3.522 -6.247 -0.283
1.507 -4.311 -3.143
1.651 -4.450 -2.939
1.484 -4.678 -2.976
1.628 -4.816 -2.772
1.772 -4.955 -2.567
1.916 -5.093 -2.363
3.067 -6.199 -0.729
3.211 -6.337 -0.524
3.355 -6.475 -0.320
3.499 -6.614 -0.116
1.484 -4.678 -2.976
1.317 -4.907 -3.013
1.461 -5.045 -2.809
1.605 -5.183 -2.604
1.749 -5.321 -2.400
1.893 -5.460 -2.196
2.900 -6.427 -0.765
3.044 -6.566 -0.561
3.188 -6.704 -0.357
3.332 -6.842 -0.153
3.476 -6.980 0.052
1.317 -4.907 -3.013
1.294 -5.274 -2.845
1.437 -5.412 -2.641
1.581 -5.550 -2.437
1.725 -5.688 -2.232
1.869 -5.827 -2.028
2.877 -6.794 -0.598
3.021 -6.932 -0.394
3.165 -7.071 -0.189
3.309 -7.209 0.015
3.453 -7.347 0.219
1.270 -5.640 -2.678
1.414 -5.779 -2.474
1.558 -5.917 -2.269
1.702 -6.055 -2.065
2.854 -7.161 -0.431
2.997 -7.299 -0.226
3.141 -7.438 -0.022
3.285 -7.576 0.182
1.247 -6.007 -2.511
1.391 -6.145 -2.306
1.535 -6.284 -2.102
1.679 -6.422 -1.898
2.830 -7.528 -0.263
2.974 -7.666 -0.059
3.118 -7.804 0.145
3.262 -7.943 0.350
1.368 -6.512 -2.139
1.512 -6.651 -1.934
2.951 -8.033 0.109
3.095 -8.171 0.313
-0.021 -6.735 -3.308
1.418 -8.118 -1.265
1.562 -8.256 -1.060
-0.165 -6.597 -3.512
-0.021 -6.735 -3.308
-0.188 -6.964 -3.345
-0.044 -7.102 -3.140
0.100 -7.240 -2.936
1.251 -8.346 -1.302
1.395 -8.485 -1.097
1.539 -8.623 -0.893
1.683 -8.761 -0.689
-0.332 -6.826 -3.549
-0.188 -6.964 -3.345
3.323 -2.164 -2.570
3.467 -2.302 -2.366
3.611 -2.440 -2.162
3.755 -2.578 -1.957
4.907 -3.684 -0.323
5.050 -3.823 -0.119
5.194 -3.961 0.086
5.338 -4.099 0.290
3.323 -2.164 -2.570
3.156 -2.392 -2.607
3.300 -2.531 -2.403
3.444 -2.669 -2.199
3.588 -2.807 -1.994
3.732 -2.945 -1.790
4.739 -3.913 -0.360
4.883 -4.051 -0.156
5.027 -4.189 0.049
5.171 -4.328 0.253
5.315 -4.466 0.457
3.156 -2.392 -2.607
3.133 -2.759 -2.440
3.277 -2.897 -2.235
3.421 -3.036 -2.031
3.565 -3.174 -1.827
3.709 -3.312 -1.623
4.716 -4.280 -0.192
4.860 -4.418 0.012
5.004 -4.556 0.216
5.148 -4.695 0.420
5.292 -4.833 0.625
3.110 -3.126 -2.272
3.253 -3.264 -2.068
3.397 -3.402 -1.864
3.541 -3.541 -1.659
4.693 -4.647 -0.025
4.837 -4.785 0.179
4.981 -4.923 0.384
5.125 -5.061 0.588
3.086 -3.493 -2.105
3.230 -3.631 -1.901
3.374 -3.769 -1.696
3.518 -3.908 -1.492
4.670 -5.013 0.142
4.813 -5.152 0.347
4.957 -5.290 0.551
5.101 -5.428 0.755
3.207 -3.998 -1.733
3.351 -4.136 -1.529
4.790 -5.519 0.514
4.934 -5.657 0.718
1.818 -4.221 -2.902
3.258 -5.603 -0.859
3.402 -5.742 -0.655
1.675 -4.083 -3.106
1.818 -4.221 -2.902
1.651 -4.450 -2.939
1.795 -4.588 -2.735
1.939 -4.726 -2.530
3.091 -5.832 -0.896
3.234 -5.970 -0.692
3.378 -6.108 -0.487
3.522 -6.247 -0.283
1.507 -4.311 -3.143
1.651 -4.450 -2.939
1.833 -4.551 -3.135
1.977 -4.689 -2.931
3.128 -5.795 -1.296
3.272 -5.933 -1.092
3.416 -6.071 -0.888
3.560 -6.209 -0.684
1.545 -4.274 -3.544
1.689 -4.412 -3.340
1.833 -4.551 -3.135
1.665 -4.779 -3.172
1.809 -4.917 -2.968
3.249 -6.300 -0.925
3.393 -6.438 -0.720
1.665 -4.779 -3.172
1.716 -6.385 -2.298
1.860 -6.523 -2.094
3.299 -7.905 -0.051
3.443 -8.044 0.154
1.549 -6.613 -2.335
1.693 -6.752 -2.131
1.837 -6.890 -1.926
1.981 -7.028 -1.722
3.132 -8.134 -0.088
3.276 -8.272 0.117
3.420 -8.410 0.321
0.398 -5.507 -3.969
1.526 -6.980 -2.167
1.670 -7.118 -1.963
1.814 -7.257 -1.759
1.958 -7.395 -1.555
3.109 -8.501 0.080
3.253 -8.639 0.284
0.230 -5.736 -4.006
0.374 -5.874 -3.802
1.359 -7.209 -2.204
