5.399 0.834 0.980
5.353 1.020 1.178
5.296 1.193 1.528
5.243 1.350 1.177
5.295 0.621 1.770
5.345 1.157 1.695
5.544 1.294 1.260
5.821 1.236 1.559
5.665 1.258 1.551
5.491 1.774 1.672
5.266 0.975 1.750
5.783 1.478 1.793
5.537 1.163 1.896
6.017 1.525 1.879
5.997 1.849 1.921
6.032 1.786 1.823
5.829 1.159 1.992
5.893 1.523 2.392
6.287 1.949 2.035
6.437 2.140 1.915
5.994 2.222 2.062
6.151 1.542 2.553
5.325 0.152 3.209
5.669 0.322 3.035
5.409 0.249 3.659
5.514 0.315 3.243
5.654 0.393 3.989
5.936 0.395 3.933
5.793 0.699 3.474
6.000 0.627 3.894
6.270 0.428 4.081
6.499 1.159 3.990
4.806 0.307 0.409
4.470 0.267 0.505
5.133 0.379 0.348
5.554 2.087 -0.206
4.707 0.198 0.863
5.056 0.264 0.952
5.287 0.656 0.801
5.390 1.074 0.955
6.363 2.758 0.171
6.310 2.974 -0.097
4.848 0.083 0.887
4.871 0.333 0.803
5.539 0.942 1.119
5.171 0.925 0.506
5.502 0.926 0.992
5.086 -0.012 1.461
5.203 0.197 1.208
5.261 0.720 1.047
5.616 0.940 1.093
5.823 1.206 1.548
5.979 1.165 1.428
5.440 0.351 1.881
5.281 0.632 1.507
5.582 0.850 1.149
5.518 1.117 1.037
5.725 0.805 1.740
5.804 1.278 1.709
5.371 0.678 1.937
5.885 1.026 1.541
6.139 0.148 3.088
5.936 0.106 3.220
5.981 0.574 3.161
6.205 0.037 3.535
6.110 0.748 3.569
5.905 0.056 4.015
6.150 0.327 3.582
4.848 0.050 0.386
4.931 0.608 0.401
5.438 1.045 0.504
5.256 0.228 0.702
5.355 0.355 0.381
5.571 0.785 0.379
5.433 1.040 0.918
6.023 2.009 0.325
5.229 0.034 0.898
5.558 -0.002 0.637
5.572 0.779 0.993
5.669 0.646 0.470
5.861 1.018 1.128
5.250 -0.141 1.120
5.457 0.025 1.063
5.597 0.622 1.148
6.001 0.652 0.941
5.862 0.615 1.097
5.411 0.246 1.627
5.462 0.311 1.224
5.882 0.759 1.560
5.955 0.915 0.963
6.051 0.668 1.966
5.817 0.552 1.628
6.318 -0.167 3.000
5.451 0.831 -0.114
5.173 0.102 0.067
5.265 0.408 0.356
5.465 0.586 0.314
5.516 0.686 0.249
5.642 0.224 0.526
5.704 0.486 0.636
5.703 0.652 0.230
5.852 0.734 0.326
5.327 0.094 0.944
5.551 0.344 0.618
5.592 0.803 0.615
5.923 0.524 0.854
5.578 0.374 1.301
6.040 0.474 0.905
6.006 0.668 0.778
5.945 -0.072 1.042
6.117 0.575 1.348
5.763 0.007 0.132
5.878 0.668 0.022
5.927 0.169 0.224
5.717 0.499 -0.057
5.821 0.572 0.437
6.114 0.387 0.555
6.140 0.728 0.270
6.099 0.200 0.959
5.963 0.071 0.921
6.037 0.218 1.047
6.302 0.063 0.097
5.791 -0.087 0.248
6.346 0.204 -0.132
6.201 0.114 0.640
1.979 2.566 0.033
1.551 2.468 0.325
1.841 2.895 0.142
2.063 3.102 0.367
2.394 3.203 -0.061
1.058 0.512 0.824
2.408 2.675 0.553
2.275 3.087 0.506
2.397 3.294 0.286
1.219 0.600 1.209
1.254 0.393 1.564
1.547 0.644 1.263
2.720 3.421 0.790
2.824 3.619 0.401
2.669 3.530 0.597
1.213 0.728 1.552
1.696 0.636 1.646
1.597 0.945 1.537
2.661 3.547 0.475
3.095 3.852 0.586
3.058 3.947 0.739
2.927 4.187 0.484
1.535 0.570 1.600
1.655 1.122 1.739
1.887 1.118 1.425
2.155 1.278 1.690
3.033 3.980 1.038
3.364 4.251 0.746
3.421 4.189 0.545
3.400 4.613 0.367
1.564 0.949 1.995
2.024 0.949 1.700
1.782 1.570 1.991
2.278 1.794 1.499
3.345 3.992 1.406
3.308 4.182 0.898
3.638 4.112 1.030
3.462 4.836 1.126
3.667 4.794 0.512
1.893 1.200 1.996
1.864 1.668 1.787
2.459 1.934 2.129
2.198 1.894 1.801
3.591 3.950 1.320
3.452 4.410 1.196
3.822 4.383 1.339
3.886 4.953 0.995
4.123 5.436 1.123
2.187 1.688 2.503
2.582 1.595 2.279
2.306 2.172 1.863
2.529 2.308 1.858
2.779 2.911 1.971
3.748 4.117 1.241
3.892 4.854 1.097
4.172 4.830 1.381
4.240 4.890 1.455
4.063 5.682 1.068
2.284 2.060 2.365
2.563 2.245 2.243
2.989 2.490 2.164
2.670 2.864 2.317
2.949 2.624 2.173
2.934 2.839 2.124
3.770 4.729 1.721
4.058 4.900 1.526
4.457 5.465 1.408
4.107 5.533 1.572
2.639 1.953 2.861
3.165 2.148 2.503
2.924 2.934 2.582
3.366 2.814 2.985
3.539 2.783 2.334
3.234 3.058 2.393
4.334 5.060 1.922
4.255 5.178 1.656
4.471 5.709 1.795
4.560 5.966 1.704
3.258 2.692 2.690
2.975 2.547 2.606
3.187 2.569 2.831
3.518 2.898 2.742
3.738 3.187 3.002
4.489 5.417 1.774
4.950 5.826 1.692
2.457 0.611 3.993
3.117 2.603 3.028
3.773 3.505 2.794
3.841 3.437 2.741
4.808 5.573 1.973
2.362 0.545 4.141
2.496 1.083 3.929
3.793 3.358 3.162
3.922 4.045 3.074
4.020 3.844 3.176
2.309 0.587 4.110
2.821 0.850 3.964
2.816 1.296 4.288
4.274 3.375 3.345
4.140 4.118 3.577
4.135 3.866 2.981
4.486 4.240 2.983
3.151 0.751 4.657
3.116 1.372 4.311
3.324 1.594 3.986
4.156 3.730 3.764
4.459 4.411 3.332
4.406 4.461 3.345
4.617 4.715 3.361
3.270 1.215 4.648
2.967 1.599 4.477
3.072 1.724 4.226
3.506 2.340 4.532
4.462 4.050 4.004
4.963 4.173 3.429
5.080 4.479 3.564
4.629 5.113 3.577
3.249 1.860 4.657
3.660 1.789 4.861
3.418 2.237 4.426
3.997 2.296 4.643
4.765 4.699 3.702
4.978 4.977 3.822
4.766 4.775 3.625
5.010 5.422 3.438
3.448 1.954 4.955
3.384 1.639 4.817
3.887 2.313 5.097
3.619 2.197 4.752
3.858 2.506 4.366
3.129 3.506 0.286
3.080 3.812 0.306
3.246 4.116 0.311
1.747 1.302 1.582
1.863 1.390 1.346
2.164 1.611 1.317
3.352 3.885 0.500
3.507 3.869 0.452
3.589 4.245 0.830
3.426 4.251 0.407
3.812 4.557 0.368
1.750 0.748 2.107
2.355 0.894 1.565
2.109 1.539 1.439
2.343 1.697 1.772
2.236 2.093 1.483
3.475 3.757 1.038
3.670 4.133 1.051
3.530 4.199 1.137
3.900 4.422 1.052
4.183 4.961 0.804
4.169 4.981 0.447
2.500 1.314 1.962
2.663 1.206 1.662
2.448 1.423 1.945
2.845 2.136 1.740
2.546 2.269 1.687
3.139 2.241 2.035
3.396 3.683 0.958
3.739 4.514 1.300
3.881 4.652 0.997
4.114 4.673 1.110
4.023 5.025 0.829
2.456 1.335 2.424
2.797 1.268 2.059
2.684 1.536 1.864
2.504 1.852 1.934
3.079 2.444 1.979
2.953 2.233 1.602
3.351 2.263 1.913
3.687 4.010 1.354
3.883 4.242 1.583
4.277 4.302 1.385
4.099 4.804 1.372
4.197 5.264 1.203
4.607 5.204 1.254
2.367 1.520 2.674
2.765 1.668 2.556
2.742 2.159 2.299
2.852 2.498 1.923
3.067 2.584 2.248
2.981 2.609 2.236
4.130 4.198 1.478
4.430 4.469 1.660
4.305 4.836 1.439
4.526 5.014 1.220
4.511 5.203 1.258
3.075 1.984 2.445
2.742 1.872 2.327
2.888 2.497 2.624
3.125 2.237 2.434
3.434 2.647 2.871
4.742 4.597 1.984
4.700 5.392 1.849
3.384 2.183 2.979
3.399 2.075 2.513
3.460 2.543 2.573
4.419 4.485 3.016
4.685 3.935 3.213
4.676 4.421 3.449
4.607 4.305 3.239
4.819 4.723 3.302
3.753 1.379 4.161
3.643 1.427 4.089
3.968 1.720 3.995
3.656 2.240 4.409
4.703 4.326 3.732
4.630 4.412 3.441
5.208 4.682 3.621
5.223 4.662 3.232
5.386 4.869 3.044
3.627 1.645 4.612
3.485 1.487 4.561
3.864 2.060 4.180
3.951 2.034 4.426
3.820 2.307 4.405
4.178 2.590 4.367
4.716 4.166 4.133
4.953 4.493 3.902
4.921 4.498 3.591
5.469 5.016 3.519
5.263 5.252 3.470
5.228 5.146 3.650
3.827 1.582 4.816
3.632 1.769 4.933
3.857 1.911 4.718
3.968 2.046 4.877
4.375 2.492 4.602
4.584 2.915 4.465
3.586 3.938 0.599
3.562 4.210 0.285
3.865 4.106 -0.077
2.160 1.391 1.416
2.323 1.434 1.293
2.501 1.509 0.969
3.350 3.695 0.843
3.748 3.963 0.523
3.969 3.998 0.699
3.698 4.503 0.254
3.846 4.642 0.046
4.015 4.644 -0.046
2.103 0.898 1.436
2.435 1.032 1.341
2.320 1.452 1.237
2.959 1.600 1.557
2.874 2.195 1.502
2.990 2.320 1.629
3.604 3.316 1.079
4.034 3.596 0.886
4.134 3.922 0.723
3.930 4.561 0.759
3.979 4.673 0.458
4.181 4.937 0.679
2.563 0.830 1.930
2.623 1.332 1.833
2.785 1.516 1.652
3.096 1.734 1.529
2.957 2.262 1.514
2.936 2.459 1.353
3.338 2.506 1.629
3.890 3.289 1.362
3.753 3.669 1.066
3.841 3.848 0.775
4.285 4.145 0.686
4.326 4.558 0.611
4.400 4.890 0.650
4.309 4.993 0.718
2.681 0.794 2.041
2.766 1.329 2.209
3.076 1.487 2.262
2.955 2.008 2.060
3.036 1.965 1.771
3.140 2.120 1.863
3.089 2.391 1.728
4.058 4.020 1.517
4.239 3.839 1.157
4.288 4.124 1.024
4.481 4.683 0.974
4.538 4.885 1.152
2.732 1.147 2.481
2.899 1.332 2.572
2.770 1.653 2.228
3.260 1.684 2.050
3.259 2.184 2.257
3.349 2.553 1.922
3.666 2.381 2.370
4.121 4.051 1.668
4.559 3.951 1.501
4.217 4.387 1.659
4.354 4.610 1.574
4.764 5.035 1.384
3.278 1.423 2.629
3.052 1.476 2.261
3.374 1.824 2.609
3.332 1.835 2.434
3.532 2.489 2.060
4.835 4.277 1.918
3.234 2.056 2.822
4.768 4.266 3.189
5.378 4.461 2.911
5.316 4.675 2.749
5.195 5.092 3.139
3.643 1.293 4.402
3.943 1.725 4.360
4.211 1.688 4.101
3.883 2.101 3.819
4.313 2.049 3.791
4.193 2.748 4.266
5.067 4.039 3.360
5.046 4.271 3.785
5.397 4.643 3.429
5.218 4.425 3.259
5.520 5.079 3.179
5.793 5.427 3.399
3.571 1.411 4.814
3.698 1.505 4.648
4.039 1.938 4.420
4.357 2.012 4.069
4.330 2.577 4.013
4.549 2.587 4.237
4.660 2.666 4.306
5.410 4.028 4.003
5.401 3.992 4.056
5.386 4.642 3.759
5.394 4.737 3.759
5.716 5.204 3.184
5.854 5.201 3.467
3.780 1.559 4.641
3.912 1.759 4.569
3.946 1.809 4.908
4.159 2.154 4.493
4.559 2.243 4.634
4.798 2.422 4.566
3.854 4.099 0.052
2.918 1.275 1.182
2.842 1.341 0.934
2.843 1.940 1.109
3.421 2.285 1.283
4.192 3.322 0.763
4.170 3.834 0.183
3.982 4.253 0.479
4.392 4.284 0.344
4.079 4.346 0.312
2.657 0.812 1.442
2.715 1.142 1.192
2.978 1.670 1.037
3.184 1.944 1.016
3.069 1.882 1.037
3.506 1.943 1.449
4.288 3.647 0.792
4.030 3.848 0.623
4.403 3.998 0.489
4.444 4.216 0.684
4.587 4.664 0.267
4.523 5.127 0.415
2.747 0.990 1.595
2.830 0.810 1.542
3.258 1.263 1.722
3.107 1.755 1.405
2.937 2.060 1.356
3.508 2.053 1.279
3.567 1.979 1.578
3.962 3.299 1.221
4.160 3.738 1.193
4.353 4.049 0.949
4.464 3.941 0.876
4.245 4.492 0.496
4.446 4.772 0.564
2.839 0.878 2.071
2.811 0.899 2.260
3.338 1.385 1.763
3.369 1.458 1.687
3.627 2.152 1.783
3.454 2.425 1.690
3.716 1.992 1.696
4.025 3.327 1.375
4.382 3.912 1.308
4.385 3.782 1.238
4.826 4.100 1.371
4.390 4.239 0.980
4.612 4.579 1.018
3.297 0.848 2.110
2.905 1.110 2.420
3.385 1.542 1.947
3.268 1.473 1.773
3.600 2.019 1.720
3.683 2.122 1.924
4.530 3.492 1.374
4.192 3.539 1.456
4.766 4.162 1.615
4.387 4.390 1.498
4.973 4.738 1.434
3.253 0.683 2.524
3.533 1.334 2.245
3.668 1.702 2.353
3.626 1.419 2.117
3.432 1.878 2.520
4.781 3.922 1.417
3.247 1.234 3.076
3.667 1.347 2.507
4.711 2.725 3.954
5.444 4.321 3.123
5.351 4.272 2.887
5.346 4.855 2.863
5.833 5.084 2.552
3.801 1.186 4.179
4.183 1.682 4.020
4.231 1.643 3.626
4.531 2.437 3.551
4.746 2.608 3.556
4.876 2.201 3.823
5.525 3.826 3.425
5.768 4.094 3.556
5.518 4.461 2.969
5.589 4.975 3.278
5.971 5.064 3.039
5.796 5.117 3.156
3.959 1.069 4.471
4.046 1.559 4.241
4.164 1.631 4.059
4.390 2.011 4.320
4.815 2.161 3.794
4.476 2.381 3.730
4.672 2.464 4.056
5.376 3.803 3.647
5.437 4.247 3.789
5.553 4.013 3.503
6.035 4.780 3.479
5.872 4.669 3.344
6.216 4.789 3.237
6.043 5.188 3.298
4.127 0.943 4.990
4.508 1.360 4.894
4.520 1.927 4.465
4.563 2.082 4.671
4.436 2.490 4.239
4.687 2.500 4.086
3.566 2.156 0.507
2.890 1.129 0.944
3.293 1.684 0.985
3.062 1.959 0.732
3.199 1.728 1.020
4.458 3.956 0.177
4.472 4.028 0.358
4.392 4.404 -0.179
3.162 1.375 1.553
3.454 1.212 1.117
3.155 1.612 0.886
3.680 2.014 0.680
3.787 2.011 1.155
4.226 3.456 0.736
4.181 3.704 0.456
4.477 3.754 0.686
4.729 4.431 0.155
4.634 4.458 0.518
5.110 5.029 0.116
2.818 0.959 1.495
3.244 1.351 1.567
3.152 1.572 1.494
3.236 1.960 1.363
3.366 2.193 1.115
3.876 1.965 1.438
4.170 3.624 1.094
4.718 4.025 0.596
4.728 3.939 0.573
4.841 4.129 0.546
4.733 4.766 0.499
3.240 0.527 2.084
2.972 1.137 1.759
3.137 1.010 1.815
3.638 1.695 1.961
3.298 1.580 1.775
3.515 2.095 1.653
4.174 3.423 1.563
4.788 3.831 0.937
4.647 3.899 1.109
4.777 4.237 1.223
4.792 4.252 0.768
3.181 0.660 2.120
3.064 1.051 1.861
3.471 1.537 1.789
3.345 1.673 2.178
3.925 2.060 2.046
4.836 3.546 1.507
4.633 3.626 1.373
4.709 3.895 1.512
5.099 3.836 1.097
3.375 0.322 2.684
3.349 0.599 2.795
3.583 1.093 2.630
3.675 1.280 2.570
3.685 1.328 2.098
4.990 3.185 2.063
4.835 3.618 1.571
5.056 4.086 1.502
3.227 0.748 3.073
3.640 0.762 2.740
3.659 0.897 2.692
4.460 2.028 3.440
5.890 4.804 2.615
5.833 5.051 2.151
4.572 2.064 3.203
4.645 2.054 3.264
4.933 2.417 3.780
5.613 4.298 2.877
5.773 4.373 2.880
5.749 4.695 2.936
5.922 5.398 2.341
4.610 1.248 3.678
4.734 2.035 3.983
4.601 2.191 3.824
5.064 2.073 3.393
4.985 2.064 3.809
5.801 4.188 3.364
6.117 4.527 2.947
5.892 4.608 3.002
5.950 4.690 2.860
6.360 5.359 2.922
4.166 1.322 4.058
4.718 1.337 3.876
4.511 1.581 4.114
4.782 2.354 3.926
5.109 2.296 3.589
5.023 2.242 4.348
5.958 4.069 3.777
5.880 4.000 3.313
6.073 4.214 3.619
6.285 4.902 3.187
6.009 5.063 3.216
4.691 1.106 4.493
4.844 1.091 4.245
4.505 1.318 4.521
5.075 2.070 4.407
4.671 1.883 4.205
4.859 2.434 4.276
2.458 0.103 0.086
2.187 0.143 0.164
2.181 0.310 0.315
3.488 1.807 0.126
3.646 1.760 0.479
3.383 2.239 0.280
3.852 2.566 0.235
3.289 1.714 0.536
3.825 1.641 0.646
3.504 2.132 0.601
3.942 2.322 0.220
3.577 1.624 0.413
3.353 1.749 0.369
3.773 1.478 0.829
3.565 2.138 1.040
4.371 3.885 0.096
3.427 1.537 1.038
3.634 1.651 1.240
3.919 1.794 0.795
3.812 2.033 1.246
4.916 3.751 0.700
4.454 3.678 0.606
4.814 4.056 0.225
4.888 4.382 0.341
3.404 0.877 1.333
3.551 1.313 1.545
3.439 1.557 1.308
3.511 1.525 1.150
4.878 3.300 0.628
4.899 3.507 0.745
4.591 3.840 0.502
5.136 3.929 0.788
3.256 1.069 1.934
3.409 0.871 1.516
3.810 1.535 1.719
3.594 1.815 1.623
4.883 3.027 0.890
4.596 3.558 0.919
4.848 3.501 1.175
5.133 3.684 0.599
3.305 0.359 2.210
3.601 0.615 2.312
3.568 1.309 2.135
3.865 1.556 1.981
4.505 2.747 1.268
4.982 3.415 1.166
4.918 3.334 1.078
4.824 3.577 1.053
3.430 0.311 2.647
3.488 0.475 2.563
3.949 1.011 2.583
4.079 0.848 2.125
4.683 2.704 1.949
4.745 2.803 1.555
4.945 3.218 1.440
5.072 3.306 1.810
3.589 0.237 3.088
3.654 0.202 2.699
3.562 0.887 2.481
4.071 1.070 2.452
4.706 2.456 2.317
5.118 2.550 2.380
4.914 2.970 1.794
4.830 3.412 1.911
3.452 0.095 2.939
3.712 0.412 3.138
3.788 0.907 3.209
4.923 2.227 2.720
5.026 2.447 2.264
4.782 2.559 2.674
5.080 2.840 2.556
6.232 5.055 1.576
3.938 0.225 3.144
3.900 0.462 3.498
4.839 2.170 3.108
4.972 2.471 3.106
4.894 2.299 2.935
5.029 3.062 2.781
6.033 4.701 1.886
6.331 5.037 1.665
3.947 -0.275 3.857
4.027 0.118 3.863
4.566 2.038 2.733
5.122 1.989 3.503
5.034 2.600 3.128
5.324 2.534 3.033
6.124 4.911 2.444
6.026 4.779 2.387
3.758 -0.081 3.902
4.838 1.928 3.169
5.086 2.104 3.458
4.740 2.182 3.714
5.289 2.294 3.506
6.242 4.339 2.559
6.421 4.545 2.358
4.595 1.557 3.746
5.091 1.671 3.878
4.845 2.036 3.346
5.050 1.946 3.932
6.071 4.048 2.905
6.508 4.777 2.762
4.944 1.294 4.184
4.906 1.684 3.885
5.108 1.940 3.984
4.877 2.200 3.993
6.268 4.196 3.212
6.493 4.185 3.410
4.697 1.458 4.575
5.137 1.228 4.154
4.827 1.780 4.380
5.457 1.812 4.183
-0.015 0.634 5.944
0.298 1.218 5.844
0.496 1.199 6.003
0.494 0.178 6.366
0.232 0.896 5.949
0.459 0.989 5.741
0.738 0.988 5.757
0.823 0.767 6.415
0.888 1.190 6.278
0.623 0.376 6.129
0.832 0.389 6.286
0.887 1.052 5.602
0.549 0.983 6.031
0.729 1.593 5.585
0.670 0.839 6.288
0.983 0.974 6.343
0.821 1.367 6.031
1.177 1.526 6.212
-0.121 0.478 3.600
-0.116 0.697 3.671
0.231 0.154 4.517
1.289 1.401 4.729
1.079 0.852 5.397
1.011 1.195 5.358
1.462 1.275 5.102
0.919 0.163 5.868
0.888 0.954 5.636
1.045 0.775 5.971
1.074 1.189 5.614
0.913 0.397 6.498
1.208 0.497 6.335
1.340 0.477 5.985
1.108 1.131 5.766
1.499 1.112 5.638
1.563 0.942 6.443
0.087 0.923 2.371
0.109 0.794 3.094
0.861 0.933 4.521
0.963 0.776 4.676
1.045 1.460 4.898
1.172 1.026 4.883
1.583 1.431 5.135
1.212 0.822 5.078
1.424 0.724 5.139
1.609 1.157 4.891
1.338 0.344 5.696
1.346 1.032 5.523
1.483 1.173 5.380
1.794 1.200 5.135
1.228 0.419 5.745
1.584 0.835 5.728
-0.057 0.801 2.047
-0.063 0.442 2.167
0.357 0.951 2.142
0.228 0.273 2.790
0.427 0.329 2.501
0.059 0.846 2.512
1.193 1.112 3.794
1.261 0.856 4.517
1.375 1.112 4.065
1.159 0.935 4.565
1.098 1.002 4.288
1.197 0.434 5.019
1.220 0.601 4.638
1.333 1.067 4.962
1.269 0.479 5.333
1.621 0.982 5.281
1.906 1.243 4.893
1.836 1.153 5.324
1.787 1.142 5.245
-0.225 0.318 1.450
0.016 0.295 1.688
0.127 0.747 1.453
-0.095 -0.108 1.711
0.200 0.377 1.900
0.522 0.234 1.713
0.298 0.167 2.000
0.608 0.425 1.739
0.451 0.223 2.498
0.818 0.313 2.589
1.071 0.553 3.946
1.189 0.789 3.694
1.214 0.690 4.526
1.545 1.082 4.159
1.797 0.900 4.601
1.839 1.068 4.187
1.405 0.554 4.888
1.474 0.643 4.440
1.994 0.876 4.779
2.182 0.772 4.907
2.326 0.745 5.237
0.266 0.047 0.672
-0.038 -0.181 1.271
0.473 0.368 1.190
0.485 -0.037 1.651
0.139 0.427 1.397
0.376 0.154 1.891
0.361 0.660 1.420
0.445 0.395 2.075
0.951 0.404 1.941
0.991 0.455 2.279
1.582 0.738 3.776
1.392 0.572 3.973
1.464 0.454 3.847
1.569 0.143 4.346
1.352 0.243 3.945
1.619 0.742 4.017
1.474 0.622 4.675
1.740 0.572 4.550
1.916 0.678 4.395
2.296 1.045 4.771
2.182 0.749 5.087
-0.020 0.481 0.620
0.454 0.016 0.586
0.519 -0.057 0.987
0.567 0.224 1.489
0.928 0.345 1.768
0.916 0.180 1.632
1.598 0.025 3.488
1.728 0.763 3.700
1.496 -0.203 4.091
1.993 0.355 3.566
1.730 0.428 3.767
1.522 -0.130 4.157
1.782 0.036 4.043
2.113 0.718 4.175
1.721 0.383 4.056
2.364 0.596 4.325
2.232 0.937 4.283
0.584 0.029 0.962
0.119 6.433 4.416
0.299 5.943 4.612
0.250 5.997 5.338
0.363 5.701 5.434
0.156 5.353 5.920
-0.143 4.872 6.211
-0.012 5.263 6.108
0.260 5.210 6.371
-0.177 6.462 3.725
0.042 5.699 3.631
0.353 6.341 3.566
-0.082 5.660 4.408
0.027 6.109 3.895
0.383 6.008 3.999
0.182 5.283 4.538
0.245 5.751 4.514
0.098 6.016 4.346
0.234 6.185 4.119
0.287 5.433 4.713
0.402 5.285 4.638
0.236 5.710 4.520
0.506 6.140 4.843
-0.192 4.982 4.979
0.269 5.167 5.046
0.150 5.646 5.132
0.217 6.109 5.215
-0.102 5.046 5.092
0.183 5.001 5.292
0.139 5.574 5.518
0.288 5.567 5.085
0.367 5.029 5.656
-0.264 5.750 3.436
-0.101 5.977 3.432
0.243 5.030 3.983
0.043 5.500 3.576
-0.013 5.813 3.588
0.376 6.042 3.432
-0.136 5.097 4.163
0.104 5.573 4.087
0.216 5.390 4.029
0.342 5.713 3.935
0.670 6.068 3.966
-0.016 4.766 4.356
0.171 5.203 4.750
0.583 5.635 4.661
0.517 5.386 4.586
0.497 5.852 4.284
0.424 6.164 3.868
0.119 4.666 4.791
0.128 4.936 4.856
0.068 5.349 4.540
0.567 5.197 4.685
0.312 5.622 4.373
0.746 6.104 4.469
1.045 5.896 4.324
0.200 4.741 4.629
0.325 5.015 5.375
0.201 5.365 5.306
0.792 5.256 4.943
0.900 5.870 4.870
0.691 5.863 4.725
0.228 5.022 5.450
0.701 5.240 5.087
0.444 5.676 5.232
0.767 5.611 5.027
0.099 5.189 3.621
-0.029 4.374 4.231
-0.038 4.966 3.824
0.057 5.260 3.658
0.140 5.343 3.501
0.682 5.462 3.767
0.248 4.448 4.256
0.279 4.428 4.209
0.366 4.966 4.473
0.531 4.964 3.856
0.490 5.372 4.206
0.728 5.475 3.799
0.650 5.975 3.958
-0.077 4.598 4.450
0.222 4.828 4.640
0.242 4.874 4.333
0.274 5.391 4.337
0.455 5.481 4.169
0.884 5.453 3.923
0.640 6.079 4.123
0.251 4.676 4.764
0.683 5.029 4.732
0.492 5.284 4.706
0.813 5.313 4.574
0.546 5.442 4.510
1.052 5.552 4.351
0.937 6.212 4.246
0.154 4.902 4.605
0.882 4.769 4.786
0.540 5.240 5.110
0.844 5.824 5.005
0.971 5.545 4.793
1.039 6.017 4.821
1.231 5.340 5.260
1.094 5.795 5.055
1.229 5.920 4.744
-0.145 3.153 5.944
-0.144 5.391 2.052
-0.032 4.622 3.553
0.274 4.691 3.446
0.096 5.079 3.668
0.013 4.656 3.939
0.503 4.560 4.114
0.303 4.826 3.928
0.553 4.846 3.791
0.442 5.455 3.522
0.038 4.440 3.630
0.691 4.460 4.334
0.541 4.612 4.297
0.911 4.872 3.728
0.598 5.472 3.678
1.059 5.657 3.784
0.217 4.462 4.043
0.475 4.664 4.350
0.624 4.569 4.575
0.808 4.855 4.192
0.719 5.209 4.021
0.914 5.682 4.053
1.104 5.736 3.958
0.398 4.807 4.522
0.512 5.005 4.661
0.631 5.068 4.496
0.860 5.567 4.321
1.099 5.683 4.381
1.490 5.813 4.299
0.140 3.390 5.071
1.326 5.135 4.501
1.295 5.371 4.517
1.457 5.451 4.465
1.634 5.640 4.466
1.383 5.901 4.123
0.187 2.946 5.427
0.461 3.526 5.436
1.172 5.676 4.750
1.688 5.744 4.882
1.393 5.934 4.725
0.049 2.702 5.918
0.378 3.010 5.545
0.648 3.098 5.682
0.191 6.051 0.212
-0.246 5.437 1.345
-0.053 4.937 1.752
0.012 5.168 1.312
0.338 4.840 1.931
-0.023 5.369 1.744
0.361 5.237 1.912
0.699 5.614 1.437
0.337 5.351 2.292
0.537 5.637 2.168
0.607 6.010 1.644
0.458 5.890 2.393
0.989 5.697 1.976
1.020 6.274 1.986
0.821 6.214 2.091
1.269 6.127 2.103
0.319 3.967 3.254
0.084 3.532 3.569
0.084 3.990 3.571
0.448 4.446 3.536
0.281 4.424 3.654
0.345 4.682 3.314
0.199 3.524 4.022
0.176 4.138 3.594
0.293 4.035 3.719
0.661 4.269 3.696
0.380 4.304 3.910
0.746 4.712 3.458
0.172 4.348 3.925
0.566 4.533 4.037
0.602 4.218 4.277
1.064 4.873 4.049
1.110 4.640 4.008
1.212 5.010 3.868
0.759 4.079 3.877
0.789 4.887 3.949
0.886 5.191 4.132
1.223 5.355 4.117
1.516 5.436 3.772
0.307 3.033 4.782
1.283 4.736 4.112
1.195 4.971 4.145
1.585 5.313 4.309
1.339 5.429 4.301
-0.138 2.805 5.368
-0.066 2.934 5.434
0.317 3.016 5.316
1.554 5.284 4.740
1.309 5.273 4.436
1.830 5.810 4.646
1.498 6.282 4.104
-0.150 2.331 5.704
0.342 2.688 5.603
0.332 3.031 5.299
0.701 2.910 5.093
1.488 5.355 4.787
1.637 5.905 4.518
2.077 6.152 4.776
0.199 2.642 5.840
0.768 3.089 5.947
0.774 3.102 5.857
0.990 3.474 5.636
1.933 6.125 4.993
2.062 6.335 4.670
0.480 3.173 5.707
1.062 3.311 6.053
1.228 3.923 5.410
2.015 5.857 4.777
1.168 3.364 6.206
1.294 3.560 6.136
1.393 4.311 5.809
0.011 6.129 0.096
0.330 5.634 0.296
0.679 5.335 1.514
0.691 5.399 1.777
0.969 6.026 1.185
0.615 5.457 1.990
0.955 5.645 1.871
0.855 6.032 1.571
0.926 6.130 1.482
0.959 5.455 2.106
1.214 5.393 1.815
1.317 5.589 2.161
1.395 5.801 1.954
0.174 3.918 2.710
0.321 4.142 2.658
1.087 5.361 2.321
1.396 5.587 2.432
1.409 5.901 2.344
0.187 3.330 3.159
0.167 3.514 3.066
0.107 3.898 3.110
0.414 4.396 3.124
1.425 5.917 2.348
1.373 6.226 2.308
-0.280 2.886 3.586
0.353 3.131 3.214
0.336 3.724 3.407
0.301 4.033 3.388
0.615 3.923 3.368
0.414 4.152 3.706
0.810 4.676 3.339
1.851 6.151 2.817
0.169 3.662 3.505
0.401 3.782 3.756
0.315 3.856 3.428
0.661 4.255 3.716
0.797 4.237 3.646
0.712 4.390 3.606
0.623 3.746 3.769
0.505 4.089 3.436
1.483 5.574 4.503
1.727 5.545 4.280
1.932 5.813 4.414
0.497 3.056 5.279
0.687 2.828 4.975
0.705 3.420 5.186
1.970 5.822 4.364
2.115 6.175 4.389
2.105 6.070 4.436
0.696 2.626 5.507
0.551 3.220 5.460
1.238 3.373 5.279
0.967 3.306 5.036
2.425 5.775 4.767
2.331 6.108 4.679
2.594 6.290 4.348
0.905 2.596 5.802
1.000 2.954 5.858
1.313 3.580 5.449
1.198 3.700 5.532
1.485 3.761 5.411
2.582 5.865 4.825
2.705 6.058 4.968
2.457 6.509 4.623
1.098 2.990 6.030
1.183 3.471 6.218
1.151 3.505 5.820
1.372 4.003 5.819
1.578 4.103 5.879
0.115 5.639 0.196
0.251 5.500 0.273
0.625 5.411 1.531
0.823 5.609 1.335
0.947 6.080 1.172
0.749 5.073 1.764
1.055 5.391 1.983
1.161 5.631 1.579
1.001 5.896 1.280
1.360 6.253 1.279
0.055 3.120 2.308
0.264 3.518 2.150
0.189 3.842 2.529
0.846 5.448 2.112
1.131 5.246 1.955
1.011 5.906 2.033
1.372 6.189 2.067
1.321 5.944 1.846
0.001 3.280 2.581
0.389 3.649 2.686
0.433 3.855 2.859
0.416 3.650 2.301
0.668 4.134 2.827
1.462 5.282 2.319
1.058 5.603 2.353
1.250 5.670 2.367
1.725 5.831 2.085
1.608 6.267 2.138
0.114 2.858 3.046
0.382 3.153 2.998
0.425 3.319 3.262
0.430 3.814 2.714
0.741 3.729 2.868
0.504 4.122 2.817
1.548 5.676 2.458
1.549 5.471 2.116
1.617 5.965 2.195
1.942 6.281 2.007
0.205 2.954 3.527
0.113 2.817 3.569
0.249 3.228 3.433
0.681 3.665 3.046
0.713 3.645 3.161
0.727 4.135 2.862
0.796 4.232 3.502
1.880 5.777 2.823
1.944 6.268 2.645
0.106 2.732 3.637
0.330 2.987 3.819
0.390 3.181 3.605
0.577 3.825 3.439
1.026 4.223 3.154
0.969 3.479 3.592
0.765 4.029 3.493
2.183 5.253 4.255
2.512 5.787 4.544
2.279 5.816 4.375
2.902 6.068 3.934
1.121 2.822 5.175
1.291 3.440 5.345
1.585 3.405 4.965
1.157 3.640 5.328
2.273 5.308 4.845
2.520 5.701 4.335
2.378 6.193 4.658
1.274 2.942 5.650
1.066 3.339 5.467
1.266 3.396 5.242
1.510 3.858 5.443
1.868 4.277 5.274
1.810 4.053 5.388
2.506 5.826 4.916
2.603 5.541 4.626
2.884 6.299 4.901
1.105 3.102 6.084
1.739 3.417 5.661
1.566 3.493 5.789
1.834 3.834 5.784
1.533 4.059 5.527
1.765 4.467 5.593
0.305 5.268 -0.115
0.682 4.832 0.083
1.375 5.283 1.403
1.091 5.572 1.212
1.416 5.908 0.797
0.322 2.683 2.004
-0.056 3.088 1.825
0.278 3.785 2.302
1.114 5.032 1.606
1.111 5.362 1.518
1.482 5.659 1.388
1.565 6.263 1.285
1.964 6.027 1.086
-0.117 2.574 2.462
0.469 3.081 2.220
0.340 3.002 2.542
0.242 3.341 2.275
0.820 3.782 2.163
0.534 3.790 2.675
1.556 4.761 1.903
1.650 5.249 1.689
1.717 5.728 1.732
1.635 5.531 1.709
1.509 5.905 1.301
0.382 2.286 3.033
0.226 2.803 2.633
0.493 3.171 2.614
0.424 3.280 2.392
0.312 3.182 2.287
0.752 3.665 2.709
0.725 3.975 2.772
1.391 5.068 1.994
1.558 5.447 1.961
1.614 5.325 2.172
1.544 5.901 1.892
2.171 6.369 1.914
0.000 2.213 3.185
0.288 2.493 2.991
0.488 3.284 3.229
0.661 3.208 2.649
0.706 3.736 2.777
0.754 3.974 2.538
0.931 3.730 2.709
1.417 5.229 2.703
1.748 5.286 2.148
1.686 5.854 2.065
2.152 5.968 2.121
2.152 6.252 2.146
0.299 2.412 3.681
0.638 2.721 3.424
0.426 2.799 3.539
0.894 3.386 3.443
0.825 3.433 3.022
0.804 3.565 3.136
2.082 5.188 2.779
1.714 5.930 2.699
2.131 6.001 2.514
1.999 6.297 2.228
0.529 2.832 3.468
0.668 3.062 3.834
0.548 3.334 3.504
0.977 3.408 3.481
0.972 3.738 3.581
0.710 3.103 3.885
2.444 5.753 4.144
2.987 5.736 3.890
2.854 6.074 3.962
1.700 2.996 4.957
1.411 3.011 5.309
1.559 3.413 5.057
1.751 3.664 4.965
2.044 4.034 5.242
2.844 5.719 4.535
3.001 5.884 4.192
3.091 6.099 4.475
1.711 2.580 5.403
1.862 3.108 5.414
1.598 3.428 5.527
1.968 3.417 5.060
1.888 3.721 5.329
2.039 3.897 5.367
2.187 4.237 5.419
2.740 5.199 4.743
3.147 5.420 4.813
2.931 6.058 4.951
2.838 6.275 4.561
1.636 3.006 5.930
1.642 3.237 5.850
1.962 3.115 5.542
2.103 3.826 5.435
1.977 3.604 5.501
2.197 3.972 5.595
0.431 4.954 -0.179
0.860 4.876 -0.099
0.545 3.700 2.101
1.890 5.381 0.993
2.012 5.837 0.757
1.762 5.895 0.563
0.431 2.904 1.776
0.413 3.027 1.735
0.721 3.695 1.747
0.512 3.565 1.895
1.898 5.103 1.640
1.591 5.552 1.084
2.022 5.648 1.084
1.815 6.335 0.867
0.469 2.708 2.342
0.615 2.970 2.142
0.674 3.016 2.501
0.671 3.160 2.383
0.881 3.548 1.870
0.951 3.856 2.406
1.693 4.851 1.944
1.830 5.298 1.712
1.753 5.884 1.678
1.958 5.663 1.456
2.286 5.938 1.254
0.207 2.223 2.914
0.556 2.791 2.838
0.630 3.025 2.624
0.472 3.338 2.460
0.735 3.289 2.324
0.645 3.507 2.194
0.975 3.758 2.519
1.676 4.752 2.160
1.591 4.962 2.152
2.176 5.707 2.154
1.910 5.423 1.802
1.972 5.685 1.900
2.361 6.260 1.529
0.181 2.047 3.089
0.337 2.590 3.239
0.619 2.768 3.035
0.720 3.028 2.698
1.182 3.412 2.547
1.159 3.409 2.492
1.945 4.827 2.600
2.129 5.482 2.152
2.188 5.187 2.260
2.431 5.729 2.081
2.543 5.957 2.256
2.190 6.306 1.782
0.575 2.102 3.141
0.998 2.406 3.557
0.690 2.793 3.269
1.024 2.990 2.888
1.243 3.582 2.690
1.950 4.929 2.448
1.760 4.978 2.641
1.982 5.736 2.605
2.484 5.781 2.458
2.383 6.120 2.070
0.800 2.308 3.866
0.998 2.760 3.410
0.776 2.708 3.252
1.134 3.233 3.618
1.901 4.977 2.601
2.111 5.344 2.729
0.621 2.689 3.626
0.714 2.734 3.723
2.090 3.721 4.507
3.046 5.975 4.338
2.966 6.132 3.945
3.482 6.239 3.559
1.670 2.991 5.207
1.798 3.702 5.106
2.056 3.630 4.842
2.073 3.936 4.910
2.514 3.766 5.114
2.858 5.488 4.442
3.020 5.756 4.078
3.307 5.922 4.265
3.435 6.040 4.404
1.895 2.885 5.310
2.113 2.968 5.077
2.116 3.719 4.952
2.346 3.432 4.815
2.118 4.141 4.905
2.614 4.240 5.020
3.161 5.441 4.680
3.137 6.040 4.362
3.231 6.209 4.523
1.644 2.986 5.960
1.801 3.252 5.514
2.232 3.469 5.412
2.081 3.696 5.321
2.342 3.756 5.551
2.549 3.822 5.528
0.866 4.838 0.091
0.569 4.142 -0.059
0.699 4.159 0.095
1.242 4.290 0.466
0.865 4.458 -0.035
0.579 3.908 0.385
0.843 4.026 0.729
0.627 3.549 0.727
0.997 3.514 1.697
1.155 3.388 1.636
0.976 3.935 1.299
2.152 6.377 0.126
0.559 3.416 1.520
1.143 3.644 1.950
0.936 3.320 1.734
1.844 5.741 0.787
2.200 5.891 0.619
1.987 6.005 0.658
0.892 2.935 2.032
0.584 3.184 1.798
0.819 3.550 1.709
1.062 3.674 1.959
0.926 3.815 2.066
2.103 5.480 0.947
2.131 5.887 0.825
1.946 6.222 0.884
2.623 5.950 0.710
0.571 2.777 2.023
0.593 3.174 2.275
0.747 2.947 1.995
0.747 3.519 1.798
0.996 3.714 2.335
2.173 5.101 1.628
2.348 5.191 1.230
1.996 5.555 1.311
2.581 5.949 1.335
0.523 2.371 2.346
0.876 2.896 2.659
0.795 3.123 2.729
1.170 2.959 2.147
1.386 3.436 2.234
1.933 5.106 2.177
2.114 5.078 1.783
2.382 5.752 1.965
2.575 5.524 1.437
2.595 6.040 1.675
0.565 2.070 3.180
0.786 2.736 2.780
1.128 2.690 2.819
1.257 2.817 2.825
0.923 3.333 2.509
1.852 4.583 2.463
2.205 4.770 2.393
2.114 5.011 1.993
2.383 5.491 1.904
2.532 5.762 2.142
1.056 2.074 3.192
0.802 2.759 3.197
1.131 2.488 3.010
0.931 2.992 3.031
2.148 5.101 2.398
1.994 5.055 2.547
2.589 5.313 2.073
2.783 5.481 2.426
1.142 2.134 3.555
1.256 2.250 3.569
1.239 2.692 3.273
0.988 2.792 3.156
2.366 4.728 2.843
2.498 4.801 2.620
2.441 4.972 2.482
0.731 2.010 3.646
1.154 2.583 3.638
1.016 2.679 3.673
2.032 4.482 3.117
2.256 4.953 3.009
1.252 1.871 4.438
1.403 2.340 4.344
2.616 4.326 3.799
2.525 4.090 4.063
2.143 4.089 4.196
2.298 3.794 4.124
2.492 3.916 4.257
2.258 3.661 4.406
2.425 3.963 4.280
2.304 3.981 4.330
2.777 3.904 4.431
3.426 6.017 3.655
3.211 6.173 3.456
2.072 3.486 4.860
2.316 3.585 4.840
2.177 3.643 4.388
2.383 3.926 4.808
3.599 5.799 4.306
3.179 5.708 4.071
3.830 6.306 4.257
1.936 2.941 5.070
2.069 3.164 4.879
2.228 3.274 5.209
2.561 3.998 4.608
2.363 3.881 5.172
3.408 5.535 4.368
3.319 5.692 4.362
3.447 5.876 4.305
3.791 6.153 4.433
2.063 2.748 5.418
2.517 3.333 5.181
2.232 3.131 5.512
2.334 3.692 5.543
2.434 3.793 5.408
0.906 4.484 -0.019
1.030 3.734 0.186
1.041 3.415 0.158
1.018 3.652 0.223
1.357 4.113 0.252
1.452 4.623 -0.046
-0.184 1.707 1.027
0.899 3.418 0.676
0.935 3.534 0.509
0.837 3.882 0.775
1.088 4.253 0.695
1.234 4.289 0.108
-0.004 1.475 1.193
0.078 1.557 1.453
0.590 3.059 1.148
1.137 3.137 0.908
1.360 3.684 0.672
1.243 4.110 0.584
1.336 4.222 0.731
2.092 5.865 0.240
0.059 1.213 1.516
0.340 1.359 1.733
1.038 2.894 0.811
0.776 3.441 1.099
1.056 3.142 1.159
1.385 3.585 1.396
1.313 3.974 1.030
2.329 5.634 0.480
2.110 6.044 0.304
2.235 6.472 0.200
0.036 1.045 2.423
0.246 1.294 2.283
1.109 3.001 1.523
1.378 3.357 1.431
1.373 3.460 1.684
1.379 3.523 1.181
2.472 5.858 0.783
2.281 6.124 0.436
0.090 0.961 2.512
0.751 3.111 1.741
1.323 2.942 1.565
1.544 3.154 2.131
1.286 3.564 1.964
2.562 5.712 1.031
2.696 5.568 0.837
2.341 6.266 0.883
1.179 3.255 2.231
1.135 3.532 1.835
2.406 5.726 1.540
0.896 2.827 2.406
1.403 2.953 1.974
1.068 2.426 2.939
2.388 4.638 2.359
2.327 5.330 1.973
1.384 2.163 3.399
1.071 2.050 2.797
2.377 4.620 2.821
2.220 4.385 2.618
2.670 5.218 2.447
0.902 1.659 3.429
1.067 2.247 3.229
1.045 2.282 3.588
2.274 4.281 2.686
2.693 4.564 2.744
2.654 4.524 2.589
2.641 5.178 2.340
1.161 1.232 4.267
1.157 1.599 3.776
1.413 1.874 4.053
1.447 2.393 3.731
2.458 4.083 3.209
2.493 4.066 3.152
2.573 4.216 3.107
2.462 4.594 3.010
1.237 1.187 4.316
1.206 1.848 4.195
1.268 1.802 3.992
1.533 2.478 4.178
2.205 3.906 3.608
2.421 3.891 3.805
2.486 4.492 3.169
2.602 4.272 3.433
2.817 4.689 3.415
1.273 1.697 4.300
1.121 1.748 4.240
1.804 1.891 4.605
2.649 3.267 4.015
2.662 3.742 3.645
2.589 4.336 3.967
2.750 4.229 3.559
2.855 4.865 3.754
1.488 1.551 4.552
1.822 1.911 4.697
2.269 3.674 4.182
2.388 3.599 4.109
2.653 3.822 4.146
2.925 3.842 4.228
2.590 4.637 3.828
3.954 6.272 3.366
1.413 1.333 4.858
2.398 3.116 4.233
2.612 3.514 4.367
2.751 3.426 4.266
2.953 4.169 4.637
2.647 3.924 4.617
3.906 5.835 3.603
3.988 6.005 3.719
2.769 3.242 4.739
2.494 3.376 4.680
3.018 3.775 4.548
3.807 5.749 3.913
3.831 6.310 4.032
2.404 3.090 5.094
2.740 3.599 4.999
2.858 3.367 4.617
3.730 5.529 4.201
2.917 3.258 5.129
0.710 3.772 -0.044
0.997 3.217 0.058
-0.116 1.410 0.562
1.019 3.046 0.412
1.192 3.457 0.497
1.224 3.742 0.161
1.532 4.052 0.263
0.100 1.313 0.915
-0.081 1.659 0.911
0.079 1.575 0.919
0.842 3.143 0.434
0.811 3.219 0.574
1.478 3.415 0.747
1.176 3.943 0.165
1.673 4.103 0.391
1.521 4.036 0.515
-0.189 1.093 1.776
0.293 0.877 1.294
0.372 1.106 1.498
0.190 1.403 1.385
1.224 3.082 0.557
0.919 2.719 1.001
1.080 3.297 0.616
1.118 3.573 0.598
1.746 3.766 0.585
1.735 3.730 0.347
1.455 4.012 0.338
0.308 1.134 1.800
0.299 1.050 1.636
0.253 1.471 1.305
1.133 2.887 0.770
1.085 3.288 1.512
1.158 2.994 1.319
1.650 3.392 1.131
1.323 3.604 0.776
1.583 4.275 0.937
2.611 5.667 0.459
2.749 5.890 0.303
2.539 5.991 0.348
0.185 0.785 2.134
0.548 1.330 2.186
0.679 1.337 1.725
1.507 3.202 1.099
1.300 3.243 1.550
1.559 3.458 1.282
1.405 3.546 1.176
1.443 3.614 1.417
2.455 5.816 0.736
2.388 6.157 0.579
2.535 5.923 0.270
0.339 1.166 2.016
0.265 1.021 1.916
1.534 2.786 1.303
2.384 4.162 2.610
2.657 4.406 2.250
1.393 1.666 3.751
1.225 1.672 3.338
2.376 4.064 3.022
2.505 4.194 2.789
2.610 4.339 2.598
2.687 4.533 2.365
0.983 1.180 4.058
1.067 1.558 3.554
1.631 2.028 3.421
1.841 2.206 3.764
2.223 3.435 3.315
2.476 3.988 3.215
2.690 3.834 3.066
2.963 4.223 3.136
2.945 4.871 2.994
3.818 6.388 2.495
1.138 1.187 4.418
1.379 1.377 3.898
1.486 1.806 4.091
1.481 1.976 3.733
2.549 3.348 3.615
2.445 3.632 3.775
2.769 3.587 3.542
3.050 3.854 3.052
2.691 4.649 3.035
3.237 4.908 3.423
4.024 5.923 2.647
1.426 1.297 4.529
1.665 1.495 4.532
1.690 1.967 4.251
2.060 2.063 4.033
2.586 3.245 3.593
2.718 3.388 3.645
2.995 3.491 3.976
3.106 3.779 3.415
2.667 3.973 3.548
3.071 4.301 3.648
2.908 4.745 3.628
3.546 6.262 2.818
3.768 6.357 2.603
1.920 1.553 4.751
1.938 1.786 4.484
1.704 2.107 4.605
2.439 3.357 4.092
2.916 3.643 4.294
2.559 3.968 4.013
3.222 3.969 4.112
2.890 4.258 3.864
3.054 4.372 3.642
3.921 6.286 3.243
3.939 6.051 3.176
1.866 1.199 4.784
1.815 1.678 4.648
2.610 3.310 3.910
2.670 3.421 4.470
2.911 3.664 4.561
2.939 3.973 4.362
1.653 1.213 5.126
2.836 3.454 4.509
0.833 3.108 0.277
0.255 1.664 0.787
-0.129 1.013 1.056
0.065 0.967 0.764
1.211 2.790 0.070
1.367 2.718 0.530
1.280 3.308 0.329
1.343 3.345 0.251
-0.004 0.630 1.117
0.355 1.167 0.968
0.332 0.930 1.168
0.813 2.826 0.209
1.086 3.010 0.475
1.533 2.943 0.364
1.613 3.225 0.330
1.621 3.669 0.186
1.468 3.939 0.398
1.691 4.120 0.286
0.115 0.563 1.385
0.105 1.205 1.229
0.713 1.347 1.221
0.688 1.730 1.206
1.189 2.606 0.628
1.302 2.694 1.153
1.327 3.080 0.717
1.612 3.436 0.719
1.538 3.815 0.399
1.924 3.674 0.512
1.697 4.051 0.298
0.189 0.725 1.673
0.302 1.029 1.650
0.513 1.541 1.591
0.888 1.305 1.169
1.312 3.112 0.827
1.704 2.649 1.316
1.783 2.933 1.188
1.923 3.649 1.108
1.931 3.607 0.895
1.974 3.952 0.729
2.081 4.198 0.473
2.526 5.817 -0.185
0.739 0.678 2.183
0.949 0.844 2.000
0.882 1.197 1.670
1.589 2.764 1.434
1.982 3.165 1.442
1.828 3.511 1.069
2.047 3.946 1.324
2.203 4.100 0.760
2.714 5.663 0.484
3.293 5.844 -0.023
0.824 0.635 2.429
0.801 1.329 2.241
0.785 1.297 1.830
2.640 3.639 2.716
2.577 3.607 2.623
2.644 3.519 2.959
2.775 4.002 2.512
2.991 3.879 2.786
3.003 4.412 2.551
3.834 6.254 2.005
4.089 6.311 1.756
1.324 1.129 3.913
1.675 1.279 3.833
1.960 1.644 3.799
2.586 3.164 3.033
2.881 3.721 3.071
2.872 3.747 3.120
3.211 3.674 3.019
2.832 4.318 2.804
2.877 4.563 2.912
3.660 6.296 2.139
3.783 6.289 1.946
1.689 0.892 4.301
1.683 1.660 3.875
1.580 1.640 3.850
2.160 1.954 3.991
2.545 3.281 3.017
2.911 3.218 3.777
3.007 3.596 3.706
2.886 3.660 3.427
2.914 3.829 3.522
3.032 4.329 3.032
3.310 4.365 3.177
3.751 6.293 2.712
1.653 0.976 4.094
1.897 1.211 4.014
1.911 1.561 4.036
2.055 2.163 4.139
2.646 3.486 3.268
3.025 3.517 3.737
3.030 3.302 3.824
2.860 3.664 3.518
3.385 4.247 3.613
3.587 4.428 3.202
3.482 4.615 3.249
4.270 6.180 3.015
1.959 0.920 4.651
2.227 1.557 4.553
2.000 1.580 4.101
2.329 2.259 4.550
2.770 3.311 3.705
2.906 3.187 4.157
2.863 3.492 3.840
3.336 3.774 3.582
3.393 4.213 3.639
3.623 4.571 3.743
3.776 4.732 3.835
4.444 6.114 3.012
1.776 0.986 4.837
2.105 1.303 4.801
2.237 1.692 4.375
2.673 3.130 4.019
3.240 3.937 3.918
3.277 4.216 3.900
2.167 1.426 5.112
2.492 1.582 5.079
0.236 0.818 0.826
0.388 1.372 0.668
-0.062 0.231 0.488
0.500 0.581 0.864
1.146 2.843 0.101
1.281 2.666 0.423
1.387 3.038 0.011
0.517 0.305 1.083
0.714 0.572 0.881
0.451 1.161 0.867
1.582 2.326 0.392
1.321 2.484 0.455
1.280 3.119 0.344
1.437 2.951 0.158
1.866 3.487 0.313
1.857 3.544 -0.144
2.019 3.924 -0.168
0.513 0.414 1.487
0.527 0.582 1.359
0.932 1.025 1.227
1.335 2.566 0.493
1.817 2.973 1.007
1.853 2.648 0.811
1.685 2.931 0.429
2.071 3.546 0.743
1.869 3.491 0.533
1.949 3.727 0.391
0.570 0.643 1.360
0.773 0.972 1.724
0.978 0.856 1.234
1.118 1.522 1.004
1.797 2.898 0.847
2.090 2.959 0.904
1.794 3.528 0.686
1.784 3.333 0.767
2.386 3.894 0.696
2.349 3.857 0.362
0.647 0.585 2.022
0.920 0.955 1.798
1.100 1.196 1.803
1.153 1.565 1.440
1.932 3.504 0.970
2.070 3.656 1.289
2.616 3.674 0.707
2.393 3.919 0.813
3.034 5.858 0.182
1.183 0.794 1.882
0.960 1.181 2.012
1.118 1.308 2.085
1.212 1.272 1.808
2.484 3.282 2.553
2.695 3.529 2.702
3.933 5.977 1.386
2.547 2.973 3.133
2.735 3.048 3.061
2.840 3.259 2.795
3.176 4.007 2.614
3.107 4.263 2.782
3.818 5.774 1.766
4.079 5.867 1.989
1.856 0.722 3.776
2.004 1.303 3.570
2.555 2.946 2.980
2.983 2.803 2.873
2.677 3.043 2.933
2.996 3.544 2.981
3.144 3.878 2.896
3.551 4.281 2.564
3.392 4.471 2.700
3.740 5.581 2.263
4.336 5.607 2.154
4.138 6.080 1.821
2.016 1.104 4.201
2.069 1.329 3.843
2.382 1.317 3.695
2.891 3.044 3.370
2.896 3.296 3.422
3.201 3.193 3.097
3.357 3.622 3.224
3.482 3.770 3.062
3.296 3.956 3.333
3.466 4.117 2.985
4.325 5.741 2.477
4.258 6.258 2.521
1.820 0.739 4.207
1.884 1.431 4.083
1.939 1.588 4.269
2.422 1.938 4.203
2.919 3.176 3.652
2.915 3.218 3.678
3.111 3.403 3.866
3.598 3.622 3.283
3.578 3.683 3.627
3.337 3.969 3.031
3.820 4.334 3.158
4.559 5.978 2.690
4.779 6.422 2.521
1.833 0.904 4.418
2.262 1.395 4.598
2.575 1.392 4.049
2.500 1.728 4.278
3.286 3.113 3.447
3.178 3.587 4.093
3.561 3.722 3.920
3.614 4.205 3.380
3.507 4.383 3.685
3.542 4.301 3.702
4.523 6.197 2.631
2.142 0.821 5.004
2.100 1.386 4.744
2.512 1.495 4.714
2.430 1.570 4.473
3.640 4.185 3.936
3.670 4.158 3.768
4.037 4.655 3.604
2.420 1.125 4.979
2.712 1.475 4.608
2.339 1.555 4.720
0.272 0.500 0.789
0.545 0.730 0.622
0.248 0.371 0.629
1.647 2.167 0.196
1.587 2.577 0.029
0.662 0.277 0.724
0.668 0.758 0.887
1.607 2.220 0.015
1.891 2.436 0.555
2.050 2.945 0.045
1.752 2.932 0.381
2.099 3.021 0.052
1.908 3.779 0.194
0.787 0.371 1.171
1.037 0.849 1.185
0.733 1.141 1.048
1.544 2.520 0.661
1.805 2.502 0.534
2.294 3.310 0.320
2.248 3.282 0.454
2.468 3.609 0.022
2.711 3.941 0.351
0.903 0.336 1.705
0.861 0.770 1.365
1.000 0.789 1.536
1.468 1.144 1.409
2.217 3.124 0.908
2.219 3.389 0.642
2.532 3.856 0.382
2.795 3.767 0.425
2.918 3.943 0.520
0.946 0.437 1.596
1.214 1.020 1.446
0.992 0.971 1.322
1.484 1.386 1.301
2.336 3.239 0.980
2.409 3.782 0.580
2.576 4.022 0.939
3.004 4.277 0.812
1.218 0.712 1.839
1.175 0.912 2.064
1.264 1.207 2.022
1.679 1.619 1.684
2.482 3.919 1.240
2.990 3.984 1.275
3.211 4.403 0.973
1.605 0.923 2.011
1.655 1.467 2.246
1.636 1.903 2.005
2.523 2.569 2.277
2.650 2.819 2.606
4.066 5.119 1.716
4.069 5.337 1.217
4.341 5.911 1.531
2.467 2.250 2.678
2.639 2.573 2.596
2.689 2.704 2.944
3.105 3.361 2.997
3.172 3.512 2.595
3.370 3.848 2.754
3.883 5.503 1.784
4.010 5.576 1.754
4.176 6.028 1.660
1.782 0.549 3.819
2.722 2.834 3.062
2.739 2.919 2.744
2.967 2.930 2.928
2.926 3.423 2.898
3.061 3.381 2.791
3.386 3.433 2.718
3.300 3.852 2.475
4.012 5.652 2.131
4.305 5.556 2.207
4.528 6.162 1.685
2.099 0.927 3.561
2.477 0.871 3.468
2.892 3.045 2.888
3.411 3.121 3.331
3.198 2.897 3.398
3.555 3.675 2.997
3.472 3.759 2.763
3.657 4.210 3.038
3.603 4.022 3.129
4.398 5.954 2.245
4.681 5.963 2.098
1.955 0.805 4.004
2.154 1.175 4.095
2.456 1.286 4.149
3.054 3.098 3.351
3.471 3.499 3.671
3.587 3.632 3.421
3.559 3.774 3.420
3.604 4.247 3.133
4.040 4.072 3.291
4.468 6.312 2.678
2.485 0.635 4.160
2.719 0.965 4.515
2.331 1.617 4.470
2.470 1.374 4.075
3.447 3.652 3.438
3.678 3.921 3.750
4.181 4.192 3.683
3.896 3.999 3.502
4.059 4.574 3.206
2.665 0.848 4.878
2.754 1.151 4.476
3.025 1.157 4.286
2.645 2.000 4.106
4.113 3.762 3.663
3.844 4.006 3.705
3.939 4.028 3.435
4.432 4.427 3.570
2.900 1.109 4.684
3.083 1.626 4.815
2.944 1.631 4.571
4.601 4.632 3.752
0.684 0.227 0.541
-0.004 5.361 6.334
-0.111 5.518 6.438
0.301 6.195 4.461
0.208 5.935 4.865
0.205 5.634 5.028
0.255 5.307 5.632
0.269 5.068 6.063
-0.117 4.873 5.812
0.254 5.257 5.810
0.406 4.919 6.392
2.867 6.157 0.125
3.228 5.879 0.072
4.240 5.938 1.239
4.672 6.101 1.993
4.462 6.055 2.083
0.841 -0.240 0.943
1.900 -0.096 3.002
2.064 0.223 3.132
2.215 0.284 3.529
1.899 0.529 3.283
1.975 0.231 3.820
2.440 0.377 3.803
2.423 0.451 3.996
5.690 5.866 0.271
6.244 6.048 -0.060
6.220 6.003 0.458
6.297 5.928 0.212
5.925 6.537 0.075
6.073 5.631 0.811
5.862 6.058 1.010
5.970 6.122 0.669
5.985 5.415 1.032
6.070 5.625 1.270
6.468 5.818 1.050
5.859 5.617 1.180
6.206 5.807 1.338
6.115 5.458 0.302
6.506 5.880 0.102
5.956 4.878 0.975
6.324 5.173 0.939
6.409 5.459 1.094
4.837 6.301 1.532
5.204 5.901 1.893
5.186 6.280 2.508
5.316 6.034 0.013
5.465 6.159 0.534
5.676 6.113 0.170
5.596 6.002 0.527
5.693 6.323 0.678
6.072 5.872 0.819
5.850 6.076 0.561
5.737 5.832 0.017
5.851 5.943 0.173
6.121 5.920 0.172
6.123 6.316 0.299
6.505 6.358 0.566
6.211 5.399 0.535
5.939 6.013 0.899
6.435 6.080 0.536
5.908 5.383 1.007
5.924 5.377 0.821
6.255 5.812 1.264
5.945 5.102 1.173
6.397 5.350 1.293
2.705 0.207 6.045
2.928 0.528 6.421
2.116 6.082 5.994
1.774 6.298 6.140
2.267 5.766 6.169
2.179 5.800 6.092
2.249 5.203 6.414
1.507 3.750 6.314
1.625 3.909 5.937
1.762 4.187 6.291
1.649 4.668 6.136
1.724 4.753 6.237
2.322 5.438 6.182
2.205 4.743 6.127
1.704 4.420 6.081
2.526 5.827 5.047
2.791 6.124 4.919
1.351 3.456 6.396
1.597 3.860 5.860
1.623 3.975 6.238
1.912 4.401 6.203
1.887 4.775 5.604
2.186 4.441 5.876
1.484 4.035 6.486
1.814 4.133 6.191
1.797 4.337 6.332
2.376 4.813 6.094
2.248 4.444 6.375
3.441 5.966 5.630
2.307 4.398 6.072
2.124 4.473 5.603
2.527 5.578 5.404
3.198 6.256 4.858
1.353 3.271 6.249
1.449 3.584 6.212
1.783 3.514 5.965
1.673 3.582 6.204
2.212 4.185 5.617
2.192 4.626 5.496
2.005 4.107 6.038
3.166 5.633 5.189
2.864 6.409 5.210
2.087 3.326 6.125
1.854 3.657 6.309
2.286 3.990 5.905
2.269 4.179 5.719
2.496 4.307 6.449
2.915 6.477 5.497
2.522 4.201 6.313
3.552 5.693 5.604
3.367 6.031 5.380
2.276 3.930 6.152
2.266 3.940 5.557
2.771 5.327 5.388
2.859 5.574 4.837
2.889 5.727 4.758
3.557 6.509 4.943
1.600 3.100 5.845
1.904 2.913 5.985
1.920 3.524 5.741
1.854 3.634 5.862
2.294 3.634 5.588
2.129 3.973 5.355
2.529 4.097 5.976
2.997 5.842 5.590
3.067 5.808 4.913
3.261 6.086 5.185
1.784 2.978 6.204
1.809 3.694 5.979
2.394 3.617 6.207
2.511 3.807 5.841
2.408 4.162 6.072
3.148 5.681 5.277
3.236 6.021 5.228
2.467 4.237 6.232
3.693 5.533 5.653
3.299 5.861 5.657
3.458 5.947 5.216
3.567 6.130 5.006
2.733 3.822 6.007
2.293 4.067 5.576
3.034 5.148 5.206
3.485 5.446 5.062
3.247 5.963 5.049
3.432 6.220 4.814
2.186 2.478 6.156
2.052 3.009 5.690
2.102 3.287 5.739
2.241 3.466 5.842
2.199 3.803 5.841
2.308 4.252 5.593
3.501 5.525 5.433
3.472 5.789 5.325
3.727 6.095 4.887
3.579 6.394 5.067
2.367 2.670 6.294
2.053 3.287 6.165
2.556 3.584 6.083
2.391 3.438 5.953
2.837 4.079 5.623
3.659 5.534 5.650
3.736 5.839 5.528
3.939 6.084 5.632
3.614 6.425 5.002
2.297 3.778 6.182
3.690 4.990 5.617
3.369 5.043 5.425
3.583 5.521 5.656
3.633 5.892 5.036
2.680 3.409 6.329
3.517 4.881 5.538
3.971 5.509 5.881
3.812 5.699 5.681
3.734 4.988 6.409
3.778 5.230 6.279
3.373 5.057 4.927
3.370 5.658 5.116
3.766 5.499 4.944
3.627 5.962 4.858
4.013 6.276 4.717
2.282 2.518 6.042
2.319 3.106 6.099
2.568 3.331 5.614
2.499 3.159 5.409
2.865 3.722 5.590
3.456 5.434 5.133
3.896 5.741 5.154
3.631 5.969 5.266
3.959 5.978 5.029
2.023 2.517 6.091
2.099 2.471 6.465
2.453 2.789 6.360
2.418 3.196 5.999
2.445 3.358 6.086
3.786 4.912 5.666
3.784 5.496 5.179
3.905 5.711 5.476
4.138 5.988 5.040
2.474 3.408 6.302
3.503 4.858 5.785
3.554 4.882 5.420
3.756 4.911 5.583
3.907 5.198 5.430
2.596 2.777 6.528
3.552 4.127 6.036
3.624 4.336 5.658
4.023 4.803 5.803
3.961 5.289 5.330
3.897 5.442 5.531
3.508 3.967 6.541
3.763 4.597 6.228
4.059 4.927 6.150
3.770 5.106 5.951
4.045 4.890 5.697
4.247 5.172 6.345
3.868 5.640 4.723
2.264 2.841 5.412
2.951 3.196 5.868
3.840 5.200 4.818
3.936 5.529 5.179
4.005 5.804 5.182
2.454 2.490 6.019
2.636 2.274 6.065
2.581 2.466 6.167
3.803 4.506 5.295
4.000 5.019 5.582
3.816 5.382 5.178
4.125 5.070 5.042
2.821 2.772 6.108
3.697 4.302 5.663
4.152 4.726 5.397
3.897 4.598 5.402
4.301 4.888 5.237
2.798 2.172 6.079
4.048 3.881 5.832
4.147 4.513 6.005
3.853 4.598 5.595
4.266 4.613 5.689
4.082 5.011 5.464
3.587 3.634 6.029
3.751 3.919 6.147
3.901 4.335 6.281
4.294 4.449 5.853
4.137 4.656 5.900
4.219 5.017 5.953
3.752 3.658 6.242
4.210 4.710 6.045
4.191 4.886 6.212
4.525 5.271 5.990
3.530 4.281 5.659
3.704 4.173 5.300
4.249 4.895 5.185
3.851 4.854 5.450
2.669 2.409 6.370
3.638 3.897 5.404
3.953 3.849 5.726
4.122 4.219 5.174
4.216 4.371 5.351
2.986 1.906 6.084
4.098 3.478 5.614
3.863 3.917 5.633
4.003 4.159 5.566
4.005 4.199 5.320
4.448 4.326 5.429
4.229 5.080 5.483
3.805 3.622 6.126
3.946 3.748 5.896
4.446 4.065 6.043
4.124 4.276 5.802
4.551 4.472 6.034
4.334 4.616 5.562
4.734 4.805 5.868
4.261 3.501 6.428
4.502 4.205 6.343
4.484 4.250 6.302
4.878 4.700 6.236
4.544 4.953 6.013
5.615 6.039 5.715
5.195 5.146 6.430
3.660 3.925 5.607
3.768 4.298 5.701
4.003 4.540 5.391
4.175 4.507 5.069
3.242 2.007 6.006
4.211 3.413 5.616
3.976 3.888 5.453
4.228 3.802 5.250
4.482 4.326 5.524
5.612 6.287 4.709
3.480 1.611 6.490
3.894 3.410 5.314
4.081 3.397 6.099
4.075 3.523 5.486
4.248 3.996 5.901
4.460 4.438 5.540
4.504 4.730 5.619
5.304 5.962 4.573
5.713 6.116 4.569
4.416 3.362 5.654
4.042 3.319 6.028
4.592 3.565 5.764
4.722 4.193 5.883
4.499 4.002 5.953
4.507 4.303 5.815
5.032 5.021 5.801
5.263 5.851 4.978
5.342 6.221 5.098
4.274 3.528 5.776
4.570 3.984 6.346
4.667 4.187 6.406
4.605 4.054 5.815
4.943 4.390 6.027
4.981 4.733 5.771
4.816 4.262 6.262
5.411 4.765 5.979
3.893 3.309 5.647
4.034 3.894 5.498
4.422 3.965 5.384
4.645 4.413 5.145
5.577 6.476 4.294
3.061 1.437 6.415
3.883 3.382 5.693
4.512 2.994 5.314
4.431 3.566 5.439
4.634 3.571 5.253
5.188 5.875 4.288
5.363 6.278 4.645
3.455 1.189 6.296
4.121 2.734 5.509
4.051 3.376 5.328
4.619 3.308 5.476
4.786 3.491 5.869
4.860 3.556 5.734
4.544 3.732 5.427
5.727 5.759 4.570
5.533 5.898 4.925
4.184 3.550 5.693
4.504 3.090 6.174
4.918 3.439 6.110
4.763 4.080 5.621
5.083 4.350 5.596
5.105 4.573 5.557
5.681 6.143 4.754
4.472 3.034 5.743
5.040 3.870 5.985
4.759 4.121 5.785
5.212 4.007 5.648
5.282 4.656 5.960
5.526 4.914 5.899
5.832 6.064 5.009
4.979 4.254 6.500
5.565 4.470 5.873
5.294 4.470 6.037
5.433 4.750 6.170
5.344 4.458 6.008
5.855 4.867 6.123
3.918 3.396 4.950
5.024 5.472 4.399
5.277 6.286 4.203
3.724 3.128 5.286
4.179 3.438 5.402
3.963 3.329 5.233
4.576 3.708 5.091
4.436 3.523 5.441
5.515 5.757 4.552
5.840 6.231 4.593
3.434 1.139 5.938
4.374 3.141 5.486
4.231 3.039 5.314
4.764 -0.055 6.090
3.609 0.898 6.060
2.744 0.214 6.051
3.279 0.218 6.163
3.366 0.289 6.007
3.270 0.488 6.209
3.443 0.208 6.267
3.218 0.225 5.711
3.370 0.454 5.587
3.050 -0.211 5.790
3.477 0.050 6.245
3.273 0.522 6.210
3.667 -0.035 5.333
5.026 -0.151 6.302
6.166 3.640 4.701
4.608 0.633 5.359
4.964 0.760 5.554
5.204 1.184 5.118
5.340 1.422 5.000
6.383 2.849 4.780
4.779 0.191 6.030
5.120 0.439 5.859
5.300 1.105 5.465
5.016 1.101 5.322
6.225 2.889 5.065
4.939 0.596 6.415
5.181 0.651 6.043
5.362 0.888 6.239
6.151 2.506 5.811
5.990 2.774 5.794
6.277 2.717 5.627
5.979 2.111 6.060
5.958 3.832 3.491
6.116 3.945 3.374
4.883 0.730 5.019
4.761 1.087 4.605
4.870 1.290 4.895
5.245 1.481 4.380
6.304 3.324 4.120
6.152 3.547 4.189
4.794 0.666 5.376
5.129 1.064 5.248
5.012 1.124 4.980
4.954 1.766 4.677
6.126 3.263 4.392
4.808 0.400 5.244
4.700 0.997 5.127
5.382 0.788 5.319
5.145 1.274 5.192
4.927 0.094 5.269
5.274 0.558 5.332
5.410 0.829 5.142
5.337 1.173 5.132
5.190 0.412 5.667
5.346 0.714 5.799
5.433 0.923 5.429
5.494 0.786 5.493
5.437 0.020 5.829
5.443 0.654 5.695
5.622 0.924 5.609
5.552 1.247 5.896
5.708 0.391 6.187
5.456 0.624 5.914
4.809 -0.147 5.501
4.930 0.280 5.685
5.304 0.559 5.373
5.383 0.909 5.222
5.194 0.212 5.312
5.286 0.486 4.962
5.239 -0.236 5.719
5.689 0.270 5.383
5.460 0.629 5.451
5.763 0.986 5.571
5.583 -0.037 5.848
5.876 0.426 5.739
5.941 0.740 5.951
5.666 0.636 5.929
5.781 0.349 6.101
5.964 0.307 6.023
5.668 0.743 6.203
6.020 0.956 6.124
5.944 0.650 6.438
5.564 0.003 5.023
5.328 0.428 4.928
5.485 -0.121 5.138
5.856 0.183 5.300
6.041 0.431 5.287
5.565 -0.029 5.838
6.251 0.611 5.565
5.938 0.839 5.455
6.116 0.060 6.117
6.260 0.530 5.616
6.294 0.941 5.683
6.342 0.511 6.386
6.372 0.521 6.155
5.415 0.310 5.512
5.887 0.220 5.859
6.340 0.052 5.753
6.250 0.183 5.639
6.265 1.011 3.887
4.783 2.876 5.108
4.368 3.035 5.006
5.633 5.567 4.186
5.642 5.846 4.381
5.871 5.684 4.244
5.984 6.090 3.928
4.527 2.411 5.633
4.501 3.023 5.591
4.493 3.133 5.511
4.339 2.821 5.543
5.045 3.657 5.285
4.989 3.570 5.445
5.581 5.542 4.619
6.193 6.175 4.511
6.270 6.089 4.354
4.349 2.983 5.628
4.935 3.674 5.774
4.752 3.681 5.857
4.887 4.122 5.702
6.220 6.128 4.690
5.963 6.150 4.450
4.858 3.716 6.125
5.485 4.141 5.692
5.624 4.455 5.448
5.421 4.107 6.079
5.570 4.249 5.755
5.807 4.687 5.746
5.641 4.536 6.478
5.692 4.785 6.083
5.730 5.075 6.143
5.840 5.233 6.058
6.382 5.082 6.420
6.047 5.324 5.943
4.495 3.240 4.654
5.112 4.506 4.420
5.212 4.840 4.188
5.030 5.216 3.877
5.138 5.787 3.612
3.816 1.799 5.004
3.783 2.107 4.998
4.004 2.578 5.121
3.913 2.909 4.660
