3.724 2.774 1.617
3.639 2.576 1.540
3.498 2.384 1.476
3.480 2.228 1.343
3.342 1.970 1.241
2.925 0.433 0.471
2.745 0.298 0.239
2.843 0.186 0.297
3.821 2.739 1.427
3.820 2.609 1.282
3.702 2.454 1.203
3.739 2.195 1.114
3.599 2.115 1.091
3.026 0.004 0.125
3.913 2.422 1.140
3.827 2.166 0.984
3.729 2.024 0.830
3.771 1.864 0.834
4.607 4.483 2.157
3.964 2.140 0.850
3.858 1.749 0.593
3.899 1.553 0.621
3.693 1.511 0.498
4.838 4.618 1.983
4.607 4.281 1.939
4.630 4.278 1.691
4.761 4.055 1.555
4.697 3.724 1.383
3.965 1.928 0.482
3.978 1.708 0.380
3.839 1.483 0.280
3.762 1.284 0.290
3.692 0.996 0.149
4.868 4.585 1.782
4.952 4.286 1.653
4.702 4.278 1.646
4.630 3.906 1.603
4.971 4.144 1.331
4.873 3.847 1.413
4.789 3.547 1.198
4.620 3.378 1.260
4.125 1.993 0.363
4.186 1.725 0.347
4.118 1.517 0.147
3.962 1.387 0.071
3.951 1.196 0.038
5.017 4.598 1.808
4.948 4.331 1.633
4.854 4.134 1.610
4.833 3.981 1.331
5.065 3.974 1.388
5.011 3.843 1.119
4.961 3.634 1.197
4.783 3.358 1.116
4.815 3.270 0.837
4.357 1.800 0.065
4.382 1.503 0.032
5.186 4.346 1.391
5.052 4.190 1.266
5.146 4.000 1.325
5.350 4.006 1.094
5.295 3.878 1.005
5.150 3.560 1.040
5.165 3.356 0.848
4.952 3.307 0.699
4.976 3.044 0.566
4.466 1.729 0.052
5.345 4.526 1.387
5.337 4.185 1.170
5.169 4.020 1.197
5.422 4.095 0.978
5.363 3.834 1.000
5.236 3.627 0.888
5.175 3.423 0.812
5.294 3.377 0.687
5.207 3.013 0.434
5.131 2.929 0.535
5.554 4.360 1.021
5.517 4.063 1.100
5.522 4.171 0.923
5.486 3.757 0.852
5.571 3.654 0.772
5.298 3.512 0.582
5.401 3.329 0.620
5.259 3.178 0.454
5.282 2.857 0.433
5.237 2.714 0.107
5.701 4.218 1.045
5.646 3.999 0.840
5.741 4.110 0.785
5.819 3.981 0.748
5.605 3.753 0.653
5.506 3.477 0.376
5.429 3.209 0.470
5.364 3.108 0.372
5.523 2.814 0.217
5.225 2.766 0.030
5.726 4.018 0.632
5.790 3.890 0.465
5.925 3.638 0.381
5.745 3.488 0.378
5.634 3.195 0.232
5.602 3.081 0.107
5.648 2.967 -0.068
6.030 3.792 0.381
5.844 3.399 0.139
5.897 3.411 0.021
6.086 3.571 0.062
2.427 3.810 3.277
2.344 3.585 3.348
2.380 3.374 3.233
2.127 3.193 3.035
1.833 1.796 2.226
1.759 1.613 2.265
1.649 1.440 2.127
1.498 1.210 1.932
1.538 0.933 1.991
1.420 0.718 1.793
1.434 0.457 1.790
2.621 4.504 3.725
2.490 4.141 3.434
2.520 4.076 3.558
2.354 3.820 3.371
2.631 3.828 3.335
2.645 3.736 3.036
2.534 3.394 2.942
2.414 3.345 2.946
2.390 3.034 2.935
1.734 1.510 2.116
1.778 1.391 1.941
1.754 1.216 1.775
1.549 1.000 1.866
1.683 0.765 1.603
1.654 0.692 1.649
1.509 0.499 1.469
2.720 4.338 3.290
2.675 4.104 3.329
2.596 3.938 3.105
2.702 3.803 3.456
2.578 3.624 3.287
2.540 3.462 3.159
2.438 3.178 3.041
2.107 1.725 2.395
2.038 1.537 2.299
1.914 1.298 2.158
1.811 1.164 2.094
1.701 0.830 1.841
1.781 0.646 1.960
1.562 0.417 1.658
2.784 4.331 3.557
2.927 4.098 3.657
2.877 3.875 3.514
2.623 3.723 3.303
2.861 3.784 3.168
2.730 3.682 3.104
2.849 3.501 3.153
2.640 3.204 2.839
2.601 3.112 2.956
2.093 1.462 2.020
2.138 1.253 1.992
1.957 1.046 1.853
1.853 0.916 1.730
1.802 0.575 1.615
1.808 0.570 1.580
1.890 0.358 1.422
3.037 4.250 3.531
2.874 4.083 3.330
2.820 3.756 3.164
3.180 3.864 3.006
3.014 3.684 3.005
3.018 3.465 2.812
2.894 3.307 2.808
2.882 3.127 2.658
2.865 2.922 2.547
2.221 1.167 1.766
2.240 1.035 1.816
2.050 0.798 1.678
2.134 0.775 1.666
2.075 0.572 1.409
1.955 0.293 1.393
1.869 0.000 1.228
3.081 3.872 3.106
3.087 3.880 3.149
3.238 3.807 3.070
3.065 3.643 2.788
3.076 3.455 2.665
3.085 3.169 2.783
2.891 2.928 2.541
2.998 2.940 2.411
2.757 2.556 2.276
2.412 1.166 1.590
2.368 0.999 1.477
2.293 0.814 1.446
2.088 0.485 1.354
2.190 0.377 1.347
1.985 0.141 1.103
3.334 3.900 2.915
3.356 3.529 2.626
3.246 3.423 2.679
3.201 3.127 2.429
3.269 2.934 2.361
3.009 2.874 2.350
3.133 2.766 2.363
2.987 2.418 2.239
2.490 0.799 1.491
2.320 0.608 1.367
2.347 0.416 1.311
2.200 0.232 1.203
2.196 0.095 0.948
3.378 3.413 2.464
3.356 3.340 2.419
3.240 2.978 2.210
3.198 2.794 2.104
3.293 2.756 2.210
3.206 2.496 1.996
3.139 2.261 1.867
2.583 0.739 1.093
2.539 0.426 1.096
2.387 0.315 1.014
2.521 0.053 0.945
3.568 3.295 2.285
3.600 3.005 2.182
3.458 2.767 2.115
3.458 2.774 1.937
3.321 2.554 1.848
3.320 2.334 1.844
3.285 1.984 1.808
2.756 0.534 0.915
2.780 0.329 0.808
2.602 0.144 0.825
3.774 3.173 2.107
3.612 2.890 1.958
3.595 2.695 1.927
3.428 2.506 1.708
3.459 2.201 1.663
3.357 2.012 1.507
3.216 2.021 1.344
2.909 0.288 0.606
2.840 0.154 0.632
3.914 2.819 1.693
3.655 2.649 1.813
3.724 2.585 1.672
3.664 2.232 1.618
3.548 2.221 1.454
3.429 1.948 1.207
3.368 1.799 1.181
2.876 0.271 0.516
4.322 4.399 2.560
3.965 2.800 1.505
3.981 2.484 1.569
3.696 2.278 1.370
3.867 2.235 1.196
3.634 1.991 1.220
3.692 1.639 1.194
3.552 1.559 1.054
4.461 4.374 2.334
4.394 4.235 2.348
4.085 2.501 1.286
4.043 2.252 1.181
3.857 2.055 1.096
3.964 1.980 1.158
3.778 1.815 1.049
3.862 1.519 0.920
3.718 1.363 0.649
4.743 4.539 2.383
4.614 4.264 2.104
4.507 4.109 2.073
4.719 3.878 1.911
4.150 2.382 1.095
4.151 2.102 0.995
4.098 1.853 0.931
4.084 1.874 0.771
4.040 1.532 0.644
3.853 1.288 0.514
3.746 1.181 0.482
4.801 4.383 2.205
4.705 4.351 2.076
4.728 3.987 2.046
4.590 3.770 1.954
4.907 3.918 1.815
4.827 3.621 1.623
4.277 2.074 0.754
4.143 2.020 0.761
4.107 1.723 0.786
4.053 1.520 0.688
4.090 1.434 0.395
3.866 1.076 0.436
3.890 1.100 0.216
4.989 4.463 1.989
4.898 4.364 1.917
4.800 4.042 1.916
4.925 3.866 1.751
5.073 3.888 1.632
4.965 3.682 1.538
4.845 3.618 1.286
4.438 2.044 0.676
4.442 1.755 0.640
4.289 1.558 0.360
4.161 1.334 0.257
4.095 1.086 0.294
4.102 1.085 0.046
3.987 0.880 0.182
5.288 4.587 1.881
5.088 4.252 1.852
5.017 4.107 1.707
5.116 3.811 1.556
5.213 3.804 1.524
5.083 3.814 1.237
5.055 3.466 1.191
5.002 3.259 1.069
4.420 1.849 0.483
4.457 1.488 0.215
4.458 1.377 0.095
4.231 1.179 0.115
4.311 0.997 -0.060
5.492 4.395 1.663
5.237 4.195 1.540
5.273 4.097 1.586
5.111 3.818 1.361
5.368 4.012 1.423
5.416 3.685 1.115
5.341 3.449 1.184
5.257 3.288 1.037
5.216 3.061 1.016
4.727 1.573 0.145
4.474 1.471 0.065
5.421 4.263 1.551
5.369 4.167 1.360
5.443 4.035 1.391
5.639 3.958 1.108
5.587 3.712 1.091
5.453 3.659 1.075
5.412 3.319 0.763
5.278 3.121 0.890
5.344 2.871 0.740
5.695 4.129 1.343
5.554 4.064 1.117
5.682 3.843 1.120
5.672 3.688 0.890
5.687 3.641 0.772
5.425 3.399 0.747
5.559 3.205 0.771
5.338 3.038 0.660
5.263 2.860 0.348
5.698 3.996 0.999
5.936 3.861 0.717
5.660 3.481 0.811
5.694 3.417 0.523
5.539 3.187 0.587
5.703 3.090 0.489
5.595 2.733 0.320
5.391 2.574 0.277
5.925 3.561 0.452
5.928 3.465 0.415
5.714 3.112 0.448
5.706 3.082 0.255
5.740 2.693 0.123
5.676 2.684 0.088
6.152 3.440 0.448
5.945 3.196 0.183
5.880 3.077 0.179
5.870 2.826 0.111
6.303 3.133 -0.002
6.058 3.106 -0.110
2.450 3.724 3.548
2.483 3.489 3.333
2.440 3.367 3.350
1.969 1.909 2.633
1.967 1.621 2.412
1.909 1.493 2.414
1.687 1.253 2.309
1.611 1.103 2.244
1.652 0.846 1.986
1.466 0.541 2.083
2.676 4.414 3.834
2.668 4.258 3.692
2.588 3.938 3.534
2.616 3.821 3.388
2.732 3.864 3.457
2.642 3.595 3.304
2.526 3.420 3.169
2.443 3.231 3.164
1.923 1.519 2.338
2.006 1.477 2.258
1.803 1.304 2.177
1.882 0.937 2.129
1.726 0.834 1.915
1.640 0.727 1.851
1.721 0.500 1.763
2.798 4.280 3.699
2.855 4.185 3.606
2.815 3.924 3.340
2.752 3.848 3.249
2.900 3.621 3.419
2.691 3.483 3.510
2.781 3.391 3.286
2.131 1.734 2.640
2.139 1.576 2.378
2.179 1.261 2.287
2.135 1.170 2.260
1.867 0.882 2.127
1.893 0.859 1.981
1.888 0.573 2.098
2.968 4.298 3.685
2.896 4.137 3.588
2.881 3.781 3.683
2.792 3.569 3.481
3.111 3.555 3.402
2.994 3.556 3.321
2.799 3.362 3.195
2.724 3.007 3.044
2.274 1.603 2.400
2.217 1.435 2.229
2.102 1.171 2.243
2.136 0.931 2.046
2.018 0.775 1.978
2.014 0.510 1.838
1.935 0.255 1.842
3.118 4.330 3.549
3.130 4.134 3.497
3.147 3.861 3.572
3.016 3.646 3.418
3.274 3.649 3.194
3.009 3.431 3.093
3.175 3.295 3.053
3.100 3.073 2.980
2.470 1.093 2.129
2.373 0.883 2.039
2.305 0.749 1.871
2.288 0.604 1.649
2.197 0.444 1.673
3.314 3.989 3.281
3.173 3.780 3.136
3.196 3.602 2.930
3.159 3.263 2.880
3.278 3.216 2.763
3.238 2.799 2.792
2.497 0.699 1.791
2.333 0.539 1.571
2.414 0.498 1.519
2.297 0.164 1.291
3.387 3.144 2.779
3.305 2.966 2.495
3.309 2.777 2.554
3.248 2.477 2.387
2.409 0.359 1.272
2.319 0.322 1.299
2.295 0.127 1.099
3.558 2.840 2.359
3.355 2.803 2.380
3.383 2.596 2.220
3.307 2.405 2.058
3.342 2.071 2.027
2.565 0.265 1.205
2.566 0.038 0.918
3.534 2.948 2.197
3.495 2.800 2.163
3.586 2.516 2.082
3.583 2.290 2.129
3.365 2.268 1.920
3.458 2.017 1.783
3.242 1.752 1.762
2.788 0.236 1.031
2.638 0.123 0.816
3.852 2.862 1.968
3.621 2.652 1.881
3.601 2.256 1.801
3.512 2.225 1.769
3.554 1.894 1.645
3.342 1.784 1.565
3.393 1.570 1.626
2.964 0.070 0.728
4.292 4.218 2.907
3.891 2.725 2.041
3.819 2.553 1.869
3.820 2.298 1.649
3.732 2.286 1.568
3.738 1.997 1.513
3.746 1.858 1.519
3.693 1.675 1.283
3.596 1.537 1.397
3.144 0.006 0.546
4.538 4.426 2.703
4.406 4.141 2.518
4.128 2.693 1.815
4.000 2.321 1.614
4.026 2.273 1.474
3.969 2.127 1.312
3.931 1.760 1.378
3.818 1.563 1.263
3.623 1.427 1.245
3.587 1.140 1.171
4.656 4.434 2.637
4.671 4.221 2.439
4.463 3.845 2.310
4.615 3.652 2.256
4.156 2.717 1.637
4.200 2.371 1.445
4.179 2.130 1.289
3.995 1.944 1.301
3.881 1.710 1.160
3.940 1.654 1.082
3.795 1.401 0.952
3.768 1.298 0.876
3.625 1.170 0.754
4.885 4.246 2.494
4.831 4.243 2.393
4.731 3.948 2.160
4.485 3.732 2.139
4.895 3.723 2.046
4.705 3.574 1.896
4.474 2.469 1.464
4.284 2.118 1.266
4.172 1.980 1.073
4.048 1.859 1.159
4.039 1.702 0.968
4.092 1.397 0.806
4.080 1.214 0.697
3.986 1.037 0.627
3.913 0.823 0.489
4.988 4.330 2.313
4.958 4.105 2.313
4.808 4.073 1.999
4.835 3.845 1.884
4.848 3.779 1.977
4.873 3.588 1.886
4.349 2.189 1.222
4.523 2.097 1.110
4.271 1.841 0.805
4.306 1.693 0.917
4.295 1.466 0.764
4.272 1.300 0.679
4.123 1.113 0.558
3.985 0.817 0.382
5.071 4.433 2.081
5.017 4.083 2.080
5.131 3.996 1.924
5.013 3.702 1.955
5.216 3.725 1.764
5.043 3.484 1.598
4.964 3.336 1.549
4.695 1.933 0.908
4.469 1.979 0.727
4.340 1.638 0.625
4.398 1.466 0.580
4.345 1.237 0.487
4.222 0.988 0.495
4.110 0.843 0.311
4.110 0.650 0.207
5.417 4.324 1.938
5.159 4.189 1.802
5.319 3.887 1.786
5.053 3.769 1.740
5.261 3.862 1.484
5.268 3.634 1.379
5.076 3.406 1.341
4.639 1.829 0.527
4.725 1.705 0.639
4.532 1.560 0.506
4.627 1.253 0.247
4.548 1.020 0.221
4.413 0.916 0.105
4.352 0.795 0.186
5.588 4.490 1.847
5.337 4.193 1.788
5.341 3.933 1.764
5.202 3.908 1.604
5.430 3.851 1.441
5.457 3.631 1.344
5.387 3.513 1.249
5.228 3.215 1.155
4.758 1.644 0.392
4.750 1.572 0.297
4.653 1.298 0.258
4.593 1.081 0.151
4.460 0.801 0.021
5.712 4.488 1.753
5.636 4.220 1.729
5.490 4.130 1.609
5.381 3.722 1.480
5.719 3.909 1.387
5.694 3.541 1.131
5.481 3.545 1.171
5.481 3.143 1.001
4.983 1.250 0.027
5.729 4.088 1.302
5.760 3.763 1.351
5.882 3.573 1.134
5.782 3.539 1.060
5.580 3.359 0.819
5.619 3.148 0.721
5.851 3.384 0.798
5.726 3.124 0.577
5.627 2.854 0.593
5.620 2.732 0.421
6.073 3.158 0.466
5.950 2.812 0.540
5.742 2.786 0.265
5.680 2.535 0.354
5.703 2.215 0.214
6.169 3.124 0.380
6.169 2.844 0.360
5.961 2.813 0.105
5.894 2.635 0.047
6.003 2.381 0.021
6.362 2.900 0.181
6.300 2.820 0.134
2.560 3.727 3.623
2.564 3.544 3.543
2.492 3.144 3.449
2.033 1.933 2.902
2.039 1.708 2.818
1.968 1.512 2.672
1.970 1.209 2.635
1.945 1.044 2.517
1.876 1.003 2.340
1.763 0.790 2.244
1.663 0.429 2.219
2.849 4.218 3.940
2.750 4.026 3.838
2.745 3.901 3.728
2.751 3.730 3.637
2.742 3.609 3.453
2.704 3.493 3.527
2.776 3.364 3.293
2.199 1.720 2.541
2.123 1.462 2.406
2.119 1.325 2.438
1.932 1.167 2.367
1.971 0.836 2.132
1.798 0.748 1.989
1.817 0.596 1.917
3.067 4.136 3.882
2.952 4.090 3.763
2.850 3.748 3.623
2.787 3.655 3.557
3.035 3.577 3.597
2.971 3.464 3.616
2.420 1.761 2.808
2.463 1.635 2.610
2.316 1.365 2.627
2.133 1.189 2.522
2.158 0.980 2.527
2.024 0.886 2.248
2.113 0.553 2.220
3.196 4.111 4.068
2.979 3.955 3.792
3.069 3.724 3.640
2.853 3.628 3.599
3.029 3.451 3.461
3.060 3.256 3.318
2.566 1.507 2.368
2.399 1.118 2.313
2.309 1.084 2.199
2.355 0.811 2.309
2.199 0.658 2.029
3.336 4.111 3.765
3.366 4.012 3.816
3.084 3.831 3.720
3.216 3.597 3.580
3.664 2.542 2.232
3.639 2.206 2.159
3.422 2.018 2.015
3.508 1.863 2.011
3.432 1.553 1.893
3.872 2.406 2.056
3.779 2.158 1.992
3.821 2.042 1.927
3.588 1.812 1.888
3.567 1.746 1.877
3.573 1.453 1.560
3.511 1.370 1.633
4.388 4.284 3.043
4.441 4.113 2.903
4.053 2.561 2.040
3.893 2.290 1.982
3.968 2.066 1.915
3.840 1.879 1.801
3.876 1.575 1.671
3.682 1.618 1.473
3.686 1.387 1.345
3.510 1.126 1.337
4.583 4.296 2.900
4.452 4.079 2.670
4.541 3.902 2.654
4.644 3.730 2.313
4.215 2.418 1.744
4.106 2.270 1.663
4.000 2.028 1.657
4.022 1.996 1.551
3.985 1.651 1.368
3.935 1.589 1.343
3.804 1.215 1.235
3.781 1.018 1.273
3.717 1.042 1.070
4.800 4.217 2.597
4.589 4.131 2.520
4.617 3.836 2.420
4.670 3.591 2.354
4.633 3.604 2.385
4.280 2.403 1.654
4.391 2.290 1.602
4.344 2.087 1.454
4.099 1.871 1.390
4.201 1.632 1.451
3.970 1.492 1.256
4.072 1.373 1.047
4.050 1.082 0.968
3.793 0.890 0.977
4.884 4.139 2.607
4.769 3.968 2.409
4.877 3.860 2.304
4.772 3.735 2.316
4.853 3.636 2.236
4.872 3.505 2.021
4.358 2.424 1.506
4.534 2.140 1.492
4.473 1.799 1.337
4.379 1.623 1.213
4.238 1.606 1.194
4.245 1.394 0.983
4.119 1.209 0.868
3.939 0.906 0.793
4.058 0.643 0.715
4.979 4.198 2.558
4.916 3.966 2.254
5.009 3.838 2.153
4.815 3.745 2.237
5.155 3.787 2.090
5.105 3.504 1.927
4.690 2.255 1.363
4.622 2.227 1.227
4.414 1.926 1.084
4.583 1.753 1.093
4.447 1.586 0.926
4.404 1.253 0.851
4.405 1.271 0.744
4.316 1.045 0.602
4.057 0.724 0.492
5.373 4.357 2.225
5.319 4.023 2.174
5.174 3.939 2.042
4.994 3.637 2.095
5.319 3.685 1.892
5.224 3.499 1.723
4.788 2.215 1.016
4.704 1.944 1.127
4.578 1.724 0.868
4.643 1.639 0.810
4.600 1.363 0.754
4.341 1.191 0.732
4.433 0.975 0.568
4.227 0.759 0.559
5.502 4.165 2.210
5.493 4.193 2.107
5.361 3.994 2.004
5.366 3.624 1.854
5.350 3.642 1.812
5.496 3.432 1.740
4.929 2.015 0.915
4.822 1.862 0.788
4.728 1.484 0.822
4.753 1.468 0.654
4.672 1.278 0.505
4.488 0.988 0.386
4.503 0.700 0.382
5.563 4.201 1.918
5.622 4.180 2.009
5.398 3.996 1.892
5.483 3.813 1.633
5.728 3.656 1.612
5.612 3.463 1.571
4.949 1.475 0.473
4.894 1.335 0.499
4.771 1.250 0.342
4.778 0.971 0.363
4.691 0.795 0.098
5.876 4.397 1.877
5.748 4.000 1.850
5.625 3.794 1.696
5.498 3.667 1.599
6.250 2.602 0.328
6.013 2.302 0.273
5.977 2.323 0.144
6.059 2.009 0.098
6.176 2.475 0.179
6.247 2.147 0.119
2.759 3.572 3.734
2.771 3.310 3.805
2.217 2.072 2.951
2.321 1.863 3.050
2.122 1.576 2.938
2.210 1.383 2.739
2.033 1.324 2.634
1.988 0.962 2.471
1.922 0.849 2.473
1.776 0.621 2.299
2.914 4.094 4.085
3.012 3.946 4.078
2.815 3.776 3.925
2.694 3.639 3.735
2.881 3.474 3.649
2.880 3.318 3.577
2.385 1.681 2.807
2.338 1.606 2.771
2.259 1.399 2.744
2.318 1.252 2.619
2.116 1.080 2.372
2.172 0.865 2.339
2.073 0.539 2.294
3.257 4.160 4.055
3.192 3.999 3.932
2.948 3.752 3.709
3.028 3.576 3.710
3.136 3.329 3.800
2.643 1.781 2.943
2.526 1.697 2.876
2.419 1.420 2.933
2.489 1.237 2.733
2.232 1.021 2.656
2.282 1.019 2.652
2.307 0.758 2.611
3.190 3.938 4.113
3.227 3.766 3.952
3.086 3.639 3.868
3.168 3.325 3.733
2.714 1.410 2.671
2.615 1.211 2.758
2.453 1.159 2.651
2.393 0.804 2.460
3.554 3.937 3.863
3.355 3.883 3.922
3.203 3.707 3.674
3.571 2.030 2.193
3.496 1.787 2.152
3.465 1.575 2.039
3.470 1.465 1.882
4.390 4.167 3.381
3.913 2.164 2.169
3.938 1.855 2.122
3.653 1.662 2.061
3.592 1.476 1.940
3.559 1.255 1.749
3.690 1.116 1.772
3.599 1.051 1.698
4.467 4.009 3.139
4.532 4.007 3.105
4.388 3.732 2.922
4.427 3.539 2.635
4.209 2.439 2.253
4.102 2.249 2.013
3.952 2.067 2.042
4.045 1.872 1.934
3.983 1.600 1.689
3.857 1.360 1.764
3.651 1.215 1.701
3.722 1.050 1.380
3.638 0.894 1.373
4.661 4.189 3.004
4.647 3.857 2.989
4.659 3.805 2.717
4.400 3.486 2.784
4.714 3.596 2.663
4.194 2.356 2.059
4.196 2.169 1.806
4.122 2.038 1.912
4.014 1.795 1.725
4.167 1.541 1.535
4.107 1.355 1.602
3.826 1.128 1.510
3.813 0.957 1.289
3.897 0.725 1.307
4.852 4.232 2.912
4.748 3.928 2.798
4.692 3.680 2.611
4.598 3.576 2.555
4.845 3.582 2.477
4.828 3.443 2.248
4.459 2.320 1.956
4.341 2.176 1.892
4.466 1.871 1.619
4.334 1.810 1.602
4.348 1.530 1.565
4.218 1.394 1.299
4.024 1.166 1.398
3.974 1.118 1.109
3.893 0.850 1.017
4.033 0.566 0.906
5.013 4.142 2.674
4.883 3.865 2.580
4.824 3.757 2.599
4.894 3.468 2.520
5.104 3.627 2.288
4.878 3.306 2.102
4.779 2.394 1.720
4.694 2.246 1.755
4.632 2.074 1.575
4.564 1.830 1.427
4.384 1.663 1.307
4.292 1.328 1.209
4.361 1.339 1.283
4.172 0.932 1.147
4.217 0.918 1.099
4.150 0.583 0.782
5.181 4.133 2.546
5.260 4.041 2.403
5.133 3.627 2.470
5.093 3.518 2.256
5.152 3.647 2.081
5.159 3.337 1.953
4.872 2.277 1.399
4.693 1.950 1.371
4.773 1.733 1.411
4.654 1.690 1.309
4.472 1.523 1.041
4.514 1.270 1.154
4.395 0.963 0.927
4.324 0.883 0.889
4.230 0.592 0.668
5.454 4.028 2.531
5.351 4.019 2.327
5.220 3.771 2.168
5.277 3.482 2.087
5.326 3.549 1.973
5.437 3.275 1.920
4.849 2.106 1.426
4.842 1.907 1.240
4.877 1.838 1.223
4.836 1.516 1.007
4.712 1.561 0.994
4.696 1.238 0.793
4.667 1.148 0.851
4.444 0.861 0.596
4.382 0.592 0.671
5.582 4.122 2.300
5.598 3.844 2.339
5.534 3.836 2.030
5.502 3.527 2.138
5.605 3.553 1.799
5.125 2.043 1.252
5.000 1.914 0.983
4.846 1.530 0.983
4.894 1.380 0.878
4.910 1.204 0.735
4.874 1.021 0.600
4.662 0.791 0.632
5.801 4.165 2.143
5.727 3.878 2.133
5.701 3.808 1.877
5.617 3.491 1.923
5.108 1.645 0.833
4.968 1.560 0.667
5.071 1.215 0.567
4.996 1.063 0.560
6.008 4.268 2.014
5.955 4.075 1.826
5.871 3.717 1.897
6.196 1.982 0.367
5.989 1.962 0.262
5.962 1.713 0.067
5.835 1.408 -0.088
6.198 1.979 -0.013
3.016 3.366 3.841
2.833 3.135 3.786
2.486 1.975 3.298
2.313 1.984 3.096
2.247 1.713 3.054
2.344 1.506 3.094
2.221 1.252 2.846
2.245 0.999 2.931
2.074 1.009 2.813
2.088 0.593 2.603
2.016 0.468 2.429
3.204 3.963 4.276
3.053 3.746 4.231
2.865 3.557 4.015
2.928 3.318 3.934
3.137 3.504 3.827
2.518 1.831 3.138
2.466 1.721 2.906
2.562 1.525 2.778
2.517 1.233 2.854
2.406 1.055 2.706
2.190 0.854 2.633
2.186 0.789 2.537
3.240 4.000 4.012
3.220 3.869 4.086
3.221 3.559 3.974
2.986 3.354 3.756
2.823 2.009 3.195
2.815 1.691 3.247
2.730 1.516 3.157
2.704 1.366 3.134
2.640 1.291 3.028
2.426 1.082 2.729
2.321 0.859 2.840
3.461 3.969 4.309
3.371 3.694 4.165
3.372 3.516 4.036
2.994 1.801 2.958
2.831 1.628 3.055
2.769 1.497 2.883
2.785 1.248 2.864
3.459 3.856 3.996
3.741 1.337 2.128
3.668 1.227 2.116
3.637 1.151 2.065
3.425 0.942 1.998
4.404 3.958 3.441
4.381 3.848 3.354
4.338 3.479 3.304
4.563 3.388 2.929
3.850 1.733 2.165
3.881 1.576 2.159
3.849 1.552 2.064
3.809 1.256 2.010
3.697 0.969 1.880
3.533 0.937 1.746
3.529 0.604 1.610
4.552 3.994 3.409
4.676 3.893 3.144
4.485 3.613 3.169
4.331 3.422 3.017
4.687 3.429 2.889
4.596 3.246 2.803
4.155 2.144 2.130
4.038 1.901 2.201
4.122 1.769 1.930
4.045 1.386 1.952
3.912 1.285 1.819
3.972 0.988 1.770
3.930 0.877 1.701
3.821 0.729 1.524
3.693 0.537 1.358
4.740 4.035 3.093
4.635 3.885 2.948
4.743 3.625 2.978
4.688 3.313 2.949
4.680 3.322 2.689
4.636 3.143 2.741
4.451 2.017 2.138
4.236 1.834 1.914
4.337 1.730 1.951
4.129 1.449 1.886
4.225 1.186 1.684
4.051 1.042 1.581
3.982 0.795 1.429
3.848 0.728 1.485
3.784 0.441 1.403
4.979 3.927 3.024
4.906 3.696 2.975
4.835 3.505 2.720
4.704 3.340 2.780
5.040 3.424 2.566
4.958 3.213 2.509
4.540 2.372 1.977
4.565 1.993 1.974
4.487 1.779 1.731
4.406 1.705 1.852
4.263 1.447 1.726
4.396 1.184 1.544
4.236 1.151 1.397
4.172 0.868 1.382
4.040 0.677 1.266
3.981 0.453 1.104
5.153 4.064 2.898
5.111 3.913 2.708
5.107 3.632 2.791
4.975 3.450 2.604
5.253 3.469 2.445
5.113 3.192 2.291
4.775 2.252 1.866
4.685 2.095 1.905
4.689 1.882 1.699
4.629 1.723 1.647
4.437 1.419 1.587
4.389 1.426 1.496
4.378 1.060 1.294
4.454 0.828 1.311
4.388 0.729 1.172
4.323 0.628 1.112
5.324 4.064 2.827
5.240 3.814 2.609
5.283 3.630 2.517
5.187 3.530 2.556
5.212 3.565 2.280
4.853 2.192 1.686
4.897 2.152 1.640
4.728 1.781 1.666
4.695 1.686 1.474
4.670 1.578 1.416
4.633 1.231 1.179
4.547 1.189 1.218
4.594 0.987 1.073
4.432 0.689 1.053
5.556 3.980 2.483
5.464 3.911 2.410
5.479 3.738 2.507
5.265 3.343 2.209
5.591 3.364 2.258
5.240 2.209 1.716
5.148 2.146 1.497
5.104 1.971 1.392
5.027 1.778 1.231
4.774 1.521 1.153
4.756 1.308 1.123
4.816 1.079 0.949
4.723 1.058 0.953
4.545 0.748 0.796
5.606 4.110 2.405
5.712 3.946 2.285
5.595 3.599 2.377
5.566 3.576 2.124
5.237 1.995 1.466
5.172 2.023 1.346
5.136 1.697 1.218
5.071 1.540 0.978
5.102 1.316 1.100
5.003 1.060 0.924
4.767 1.028 0.864
5.975 3.949 2.247
5.870 3.951 2.293
5.679 3.548 2.154
5.294 1.891 1.182
5.339 1.766 1.165
5.160 1.607 0.964
5.094 1.466 0.856
5.966 3.973 2.268
6.056 1.615 0.381
6.121 1.414 0.235
6.076 1.251 0.201
6.132 1.523 0.075
3.046 3.337 4.035
2.542 2.062 3.438
2.665 2.045 3.545
2.579 1.696 3.388
2.560 1.479 3.269
2.440 1.300 3.066
2.308 1.277 3.052
2.272 0.962 3.027
2.286 0.747 2.877
2.047 0.528 2.768
3.174 3.831 4.384
3.152 3.703 4.261
3.197 3.483 4.127
2.996 3.252 4.119
2.856 2.065 3.306
2.648 1.703 3.181
2.743 1.654 3.088
2.697 1.464 2.991
2.451 1.228 2.938
2.438 1.039 2.848
2.390 0.823 2.622
3.437 3.853 4.206
3.391 3.709 4.199
3.287 3.471 4.130
2.965 1.988 3.576
2.794 1.768 3.392
2.902 1.590 3.440
2.659 1.375 3.296
2.685 1.390 3.150
2.692 1.145 3.096
2.570 0.957 3.102
3.554 3.817 4.436
3.416 3.632 4.306
3.238 1.997 3.382
2.997 1.833 3.401
3.001 1.548 3.130
2.844 1.400 3.178
2.982 1.189 2.915
4.292 3.229 3.382
4.356 3.058 3.140
3.649 1.041 2.186
3.647 0.979 2.201
3.700 0.700 2.004
3.483 0.438 1.938
3.372 0.406 1.823
4.623 3.908 3.675
4.530 3.668 3.434
4.420 3.560 3.485
4.372 3.219 3.201
4.600 3.349 3.073
4.485 3.058 3.004
3.993 1.533 2.306
3.871 1.441 2.265
3.827 1.188 2.036
3.862 0.882 2.104
3.694 0.733 1.964
3.740 0.535 1.722
3.537 0.366 1.643
4.652 3.895 3.432
4.614 3.729 3.334
4.722 3.482 3.346
4.654 3.203 3.086
4.832 3.338 3.067
4.751 3.105 2.988
4.192 1.754 2.235
4.090 1.626 2.110
4.240 1.268 1.955
4.141 1.198 1.869
3.943 1.062 1.912
3.841 0.785 1.772
3.806 0.690 1.713
3.750 0.405 1.684
4.907 3.827 3.417
4.830 3.605 3.182
4.801 3.381 3.140
4.637 3.245 2.903
4.897 3.411 2.784
4.831 3.086 2.752
4.394 1.902 2.109
4.434 1.732 2.149
4.296 1.484 2.067
4.217 1.481 1.878
4.226 1.161 1.819
4.105 0.984 1.841
4.210 0.797 1.620
4.051 0.590 1.555
3.959 0.515 1.439
5.103 3.935 3.247
5.147 3.649 3.141
5.041 3.465 2.869
4.824 3.395 2.883
5.061 3.283 2.862
5.123 3.119 2.730
4.736 1.904 2.131
4.532 1.726 1.941
4.432 1.586 1.876
4.599 1.262 1.838
4.456 1.113 1.790
4.267 1.018 1.491
4.364 0.771 1.448
4.209 0.583 1.346
4.267 0.433 1.403
5.287 3.820 3.066
5.220 3.652 2.923
5.210 3.577 2.790
5.062 3.311 2.849
5.375 3.357 2.638
5.022 2.075 1.942
4.944 1.885 1.901
4.751 1.675 1.895
4.703 1.481 1.691
4.547 1.507 1.582
4.599 1.235 1.674
4.473 1.067 1.400
4.408 0.692 1.408
4.431 0.530 1.372
5.500 3.925 2.819
5.368 3.659 2.905
5.398 3.455 2.745
5.333 3.257 2.681
5.566 3.321 2.506
5.103 2.137 1.885
5.018 2.091 1.853
5.057 1.841 1.788
4.928 1.680 1.554
4.763 1.297 1.468
4.764 1.284 1.476
4.703 1.016 1.247
4.674 0.868 1.235
4.659 0.705 1.203
5.690 3.974 2.832
5.538 3.643 2.638
5.522 3.428 2.632
5.379 3.370 2.361
5.145 2.235 1.683
5.162 2.103 1.717
5.255 1.686 1.517
4.997 1.678 1.361
5.058 1.393 1.273
5.058 1.130 1.372
4.780 1.077 1.106
4.793 0.757 1.150
5.831 3.860 2.525
5.761 3.667 2.429
5.584 3.513 2.518
5.511 2.251 1.691
5.379 1.987 1.591
5.399 1.868 1.437
5.238 1.626 1.451
5.112 1.464 1.184
5.161 1.259 1.095
5.107 1.133 1.114
6.056 3.979 2.451
5.886 3.830 2.402
5.634 2.148 1.421
5.622 1.969 1.499
5.476 1.870 1.229
5.523 1.722 1.256
5.476 1.367 1.066
6.075 1.190 0.336
6.129 1.068 0.184
6.076 0.921 0.168
6.098 0.798 0.102
6.223 0.847 0.115
2.721 2.032 3.696
2.603 1.896 3.653
2.648 1.738 3.528
2.484 1.347 3.466
2.510 1.274 3.272
2.562 0.963 3.332
2.398 0.968 3.044
2.339 0.660 3.105
3.369 3.664 4.510
3.307 3.651 4.419
3.237 3.354 4.420
3.033 2.159 3.599
3.014 1.918 3.553
2.898 1.736 3.331
2.761 1.552 3.238
2.753 1.384 3.094
2.638 1.193 3.050
2.533 0.959 3.047
3.598 3.846 4.418
3.403 3.483 4.328
3.261 2.229 3.869
3.099 1.991 3.706
2.946 1.776 3.593
2.930 1.664 3.590
2.933 1.250 3.452
2.809 1.222 3.316
2.657 0.964 3.189
3.718 3.706 4.470
3.297 2.444 3.718
3.257 2.043 3.608
3.270 1.924 3.495
3.303 1.658 3.541
3.221 1.637 3.435
2.980 1.281 3.388
3.099 1.260 3.266
3.615 2.410 3.601
3.564 2.254 3.606
3.456 1.870 3.524
3.473 1.783 3.295
3.349 1.513 3.246
3.888 2.542 3.459
3.681 2.327 3.454
3.658 2.166 3.374
3.595 1.959 3.296
4.128 2.880 3.556
4.034 2.867 3.545
3.922 2.507 3.408
3.895 2.303 3.258
3.184 0.191 2.259
3.268 0.030 2.216
4.301 3.266 3.534
4.160 3.030 3.583
4.156 2.805 3.278
4.114 2.493 3.263
3.420 0.732 2.406
3.518 0.352 2.295
3.509 0.303 2.249
3.447 0.057 2.013
4.448 3.413 3.568
4.307 3.197 3.532
4.595 3.076 3.444
4.338 3.033 3.333
4.431 2.789 3.363
4.230 2.642 3.215
3.814 1.102 2.387
3.887 0.721 2.208
3.650 0.611 2.317
3.710 0.362 2.027
3.484 0.235 2.122
3.511 -0.005 1.833
4.724 3.838 3.790
4.584 3.604 3.540
4.632 3.442 3.558
4.620 3.050 3.480
4.645 3.104 3.354
4.576 2.908 3.287
4.600 2.730 3.033
4.085 1.133 2.366
4.023 0.994 2.239
3.994 0.942 2.290
3.848 0.531 2.014
3.759 0.571 1.985
3.699 0.354 1.833
3.813 0.148 1.829
4.785 3.872 3.476
4.715 3.679 3.606
4.767 3.263 3.305
4.752 3.254 3.201
4.857 3.128 3.224
4.925 3.087 2.976
4.823 2.901 2.983
4.390 1.406 2.387
4.257 1.192 2.143
4.124 0.944 2.099
4.073 0.881 2.151
3.963 0.683 1.834
4.122 0.581 1.782
3.974 0.209 1.834
3.903 0.174 1.613
5.123 3.796 3.406
5.057 3.640 3.458
4.904 3.285 3.353
4.950 3.145 3.050
4.999 3.143 3.078
5.079 2.909 2.852
4.585 1.616 2.280
4.459 1.462 2.251
4.521 1.253 2.193
4.470 1.101 2.014
4.297 0.812 1.950
4.328 0.552 1.723
4.246 0.556 1.686
4.132 0.308 1.561
5.201 3.831 3.342
5.088 3.567 3.323
5.111 3.411 3.233
5.007 3.288 3.027
5.330 3.244 2.896
5.172 2.978 2.753
4.888 1.749 2.319
4.813 1.762 2.131
4.656 1.384 1.961
4.532 1.159 2.010
4.604 1.019 1.886
4.603 0.792 1.794
4.511 0.641 1.611
4.438 0.390 1.673
4.287 0.255 1.552
5.412 3.786 3.230
5.454 3.474 3.189
5.401 3.441 3.004
5.327 3.226 2.833
5.363 3.192 2.863
4.941 1.976 2.096
5.057 1.829 1.982
4.888 1.546 2.018
4.791 1.525 2.022
4.740 1.222 1.714
4.717 1.011 1.599
4.647 0.779 1.557
4.557 0.766 1.526
4.651 0.476 1.551
5.497 3.876 3.113
5.433 3.714 3.019
5.350 3.468 2.880
5.434 3.153 2.699
5.224 1.958 2.064
5.146 1.933 1.909
5.154 1.660 1.849
4.995 1.363 1.796
5.004 1.371 1.753
4.974 1.211 1.490
4.937 1.012 1.419
4.821 0.764 1.393
5.683 3.845 2.799
5.636 3.543 2.791
5.737 3.382 2.744
5.400 2.303 2.031
5.396 2.006 1.945
5.236 1.973 1.714
5.150 1.712 1.613
5.085 1.591 1.741
5.185 1.323 1.425
5.010 1.034 1.375
4.986 0.973 1.377
5.877 3.908 2.787
5.915 3.715 2.649
5.629 2.244 1.802
5.592 2.113 1.692
5.525 1.834 1.595
5.556 1.698 1.612
5.338 1.397 1.588
5.423 1.339 1.478
5.219 1.185 1.389
6.233 3.886 2.704
5.804 2.459 1.877
5.836 2.235 1.841
5.740 2.060 1.600
5.772 2.010 1.431
5.585 1.742 1.569
5.450 1.602 1.275
5.443 1.358 1.354
5.987 2.381 1.720
6.066 2.301 1.592
5.918 2.128 1.553
5.767 2.009 1.471
5.785 1.642 1.425
6.289 2.779 1.713
6.264 2.583 1.646
6.208 2.269 1.466
6.056 2.181 1.456
5.690 0.455 0.298
5.556 0.126 0.178
6.087 0.852 0.475
5.886 0.471 0.334
5.933 0.458 0.331
5.808 0.234 0.034
5.662 0.056 0.026
6.353 0.923 0.471
6.227 0.702 0.272
6.038 0.476 0.089
5.961 0.396 0.132
6.055 0.223 -0.113
3.020 2.060 3.833
2.947 1.830 3.944
2.726 1.779 3.786
2.755 1.466 3.552
2.715 1.340 3.561
2.752 1.187 3.436
2.517 0.992 3.393
2.541 0.859 3.313
3.463 3.748 4.747
3.435 3.433 4.540
3.054 2.080 3.759
3.037 2.044 3.811
3.047 1.644 3.581
3.015 1.641 3.433
2.925 1.329 3.346
2.866 1.120 3.388
2.693 0.906 3.111
3.657 3.774 4.600
3.303 2.197 3.984
3.344 2.068 3.915
3.258 1.876 3.811
3.234 1.600 3.762
3.118 1.356 3.781
2.987 1.146 3.502
3.002 1.092 3.492
3.609 2.311 3.948
3.521 2.337 3.967
3.461 1.927 3.849
3.415 1.911 3.776
3.329 1.551 3.545
3.344 1.509 3.470
3.283 1.189 3.487
3.749 2.499 4.020
3.817 2.437 3.903
3.658 2.298 3.643
3.672 2.107 3.609
3.517 1.889 3.525
3.603 1.662 3.553
3.500 1.520 3.386
3.984 2.830 3.816
3.931 2.718 3.772
4.012 2.362 3.829
3.978 2.213 3.562
3.732 2.014 3.618
3.723 1.865 3.549
3.629 1.556 3.452
3.223 0.105 2.590
4.361 2.935 3.834
4.168 2.830 3.661
4.041 2.626 3.687
4.022 2.524 3.697
4.043 2.254 3.534
3.982 2.057 3.277
3.846 1.906 3.309
3.336 0.312 2.515
3.245 -0.002 2.549
4.360 3.092 3.761
4.405 3.024 3.643
4.363 2.818 3.601
4.325 2.573 3.565
4.167 2.386 3.359
4.208 2.230 3.436
4.154 2.001 3.141
3.681 0.473 2.523
3.581 0.288 2.457
3.604 0.245 2.426
4.553 3.163 3.897
4.352 3.143 3.778
4.662 2.999 3.562
4.656 2.827 3.425
4.445 2.675 3.285
4.510 2.518 3.393
4.352 2.393 3.148
4.016 0.629 2.481
3.774 0.500 2.322
3.884 0.321 2.299
3.618 0.163 2.240
4.780 3.380 3.713
4.765 3.338 3.743
4.536 2.990 3.546
4.820 3.076 3.560
4.806 2.832 3.452
4.737 2.634 3.299
4.634 2.388 3.075
4.218 1.013 2.500
4.072 0.815 2.383
4.136 0.504 2.206
3.893 0.367 2.030
3.851 0.260 1.953
5.116 3.721 3.824
4.917 3.550 3.711
4.877 3.185 3.648
4.813 2.946 3.482
5.007 2.952 3.382
5.048 2.941 3.301
4.857 2.724 3.085
4.367 1.232 2.293
4.331 0.878 2.197
4.309 0.860 2.237
4.083 0.632 2.036
4.197 0.448 2.027
4.032 0.153 1.922
5.212 3.710 3.663
5.205 3.491 3.518
4.980 3.255 3.295
5.056 3.007 3.316
5.101 3.109 3.060
5.015 2.824 3.004
4.600 1.236 2.450
4.449 1.111 2.123
4.377 1.004 2.226
4.377 0.643 2.099
4.386 0.673 2.024
4.300 0.305 1.786
4.203 0.194 1.766
5.385 3.749 3.385
5.361 3.424 3.386
5.138 3.284 3.293
5.264 3.095 3.142
5.245 2.997 2.977
4.788 1.562 2.219
4.799 1.324 2.153
4.680 1.053 2.137
4.648 0.980 2.122
4.517 0.752 1.817
4.562 0.657 1.714
4.439 0.414 1.654
5.513 3.560 3.207
5.365 3.543 3.258
5.345 3.376 3.038
5.259 3.092 2.976
5.132 1.665 2.339
5.079 1.595 2.206
4.939 1.277 1.999
4.843 1.181 2.051
4.770 0.958 1.783
4.704 0.765 1.667
4.758 0.676 1.785
5.824 3.789 3.071
5.598 3.463 3.187
5.642 3.246 2.898
5.422 2.069 2.273
5.202 1.781 2.158
5.318 1.489 2.132
5.207 1.384 1.908
5.007 1.130 1.858
5.125 1.006 1.821
4.959 0.850 1.531
5.772 3.797 3.000
5.774 3.453 3.067
5.657 2.125 2.262
5.527 2.018 2.103
5.424 1.820 1.935
5.334 1.464 1.854
5.401 1.456 1.779
5.359 1.281 1.611
5.269 0.871 1.601
6.100 3.776 3.009
5.850 2.315 2.094
5.731 2.110 1.998
5.691 1.872 2.002
5.681 1.701 1.790
5.575 1.661 1.688
5.464 1.451 1.744
5.360 1.120 1.569
5.974 2.548 2.063
6.057 2.254 1.866
5.931 2.079 1.934
5.813 2.065 1.745
5.782 1.861 1.603
5.721 1.551 1.619
5.600 1.418 1.547
6.197 2.589 1.875
6.070 2.305 1.752
6.008 2.089 1.745
6.085 2.070 1.567
5.910 1.824 1.510
5.995 1.625 1.574
5.399 0.138 0.647
6.173 2.077 1.660
6.334 2.119 1.502
6.077 1.782 1.370
5.561 0.215 0.758
5.554 -0.017 0.684
5.911 0.489 0.549
5.850 0.274 0.633
5.870 0.069 0.452
6.019 0.579 0.676
6.157 0.444 0.575
6.022 0.304 0.399
6.019 0.093 0.350
6.332 0.498 0.330
6.098 0.249 0.330
6.128 0.004 0.247
3.158 1.901 4.006
2.975 1.766 4.086
3.072 1.602 3.959
3.000 1.331 3.807
2.964 1.198 3.603
2.863 1.067 3.503
2.792 0.731 3.445
3.699 3.663 4.849
3.427 2.106 4.071
3.358 2.081 4.047
3.171 1.754 3.899
3.234 1.677 3.747
3.162 1.458 3.713
2.947 1.326 3.457
3.013 0.932 3.559
3.422 2.192 4.243
3.398 1.979 4.215
3.435 1.892 4.186
3.297 1.693 3.965
3.165 1.549 3.912
3.232 1.321 3.731
3.043 1.055 3.688
3.647 2.482 4.300
3.708 2.422 4.047
3.613 2.137 4.039
3.664 1.882 3.991
3.554 1.679 3.824
3.475 1.448 3.708
3.443 1.446 3.674
3.378 1.110 3.568
3.937 2.818 4.206
3.966 2.488 4.141
3.893 2.201 3.941
3.764 2.131 4.017
3.722 1.805 3.905
3.631 1.846 3.807
3.503 1.591 3.518
3.509 1.263 3.439
4.336 2.901 4.237
4.123 2.698 4.132
4.152 2.636 4.058
4.161 2.254 3.814
3.880 2.108 3.823
4.000 1.998 3.685
3.863 1.781 3.473
3.708 1.450 3.507
3.721 1.289 3.362
3.338 0.300 2.738
4.139 2.988 4.266
4.398 2.970 4.049
4.365 2.666 4.033
4.208 2.412 3.872
4.341 2.241 3.774
4.206 2.024 3.607
4.150 1.961 3.508
4.005 1.731 3.551
4.041 1.514 3.334
3.503 0.353 2.792
3.643 0.213 2.643
3.470 0.073 2.631
4.424 3.212 4.114
4.368 2.817 4.116
4.635 2.935 3.976
4.509 2.821 3.788
4.512 2.440 3.810
4.356 2.258 3.564
4.338 2.258 3.513
4.227 2.025 3.513
4.094 1.852 3.413
3.819 0.340 2.572
3.836 0.166 2.582
3.619 -0.001 2.486
4.631 3.240 4.057
4.674 3.022 3.894
4.832 3.022 3.800
4.622 2.828 3.700
4.536 2.581 3.513
4.514 2.298 3.412
4.624 2.137 3.474
4.344 1.942 3.364
4.077 0.506 2.716
3.927 0.418 2.519
3.965 0.203 2.390
3.893 0.037 2.377
4.836 3.223 3.953
4.860 3.108 3.758
4.855 2.897 3.712
4.874 2.875 3.651
4.971 2.847 3.585
4.724 2.652 3.431
4.853 2.267 3.327
4.712 2.081 3.241
4.127 0.607 2.543
4.149 0.532 2.353
4.119 0.218 2.270
3.907 -0.007 2.269
5.060 3.234 3.712
5.062 3.249 3.620
4.978 3.057 3.716
5.048 3.028 3.443
5.003 2.766 3.273
5.111 2.565 3.229
4.875 2.307 3.112
4.487 0.933 2.457
4.483 0.552 2.356
4.238 0.403 2.231
4.217 0.188 2.219
4.227 -0.032 2.082
5.420 3.629 3.633
5.177 3.249 3.776
5.199 3.111 3.614
5.094 2.971 3.415
5.367 2.908 3.211
5.202 2.669 3.338
4.714 0.886 2.348
4.539 0.730 2.219
4.499 0.377 2.182
4.548 0.328 1.945
4.349 0.133 1.932
5.426 3.632 3.584
5.466 3.255 3.561
5.471 3.053 3.415
5.305 3.003 3.313
4.762 1.145 2.367
4.712 0.844 2.034
4.748 0.604 1.964
4.704 0.407 2.026
5.640 3.460 3.385
5.591 3.431 3.281
5.570 3.110 3.380
5.087 1.520 2.375
4.972 1.300 2.101
4.926 1.107 2.197
5.017 0.766 1.925
5.921 3.471 3.403
5.551 1.773 2.400
5.377 1.566 2.244
5.236 1.514 2.108
5.382 1.318 2.128
5.131 0.992 1.912
5.764 2.212 2.357
5.619 2.155 2.330
5.666 1.787 2.199
5.578 1.596 2.176
5.570 1.452 1.977
5.508 1.379 1.824
5.358 1.039 1.767
5.936 2.499 2.450
5.922 2.163 2.328
5.904 2.154 2.094
5.922 1.960 2.106
5.686 1.772 1.957
5.565 1.503 1.843
5.726 1.223 1.853
6.273 2.589 2.390
6.178 2.440 2.104
6.224 2.139 2.135
6.038 2.176 2.071
6.029 1.915 1.826
5.855 1.591 1.766
5.820 1.446 1.701
5.724 1.280 1.588
6.229 2.051 1.902
6.190 1.970 1.830
6.222 1.630 1.662
6.081 1.475 1.676
5.718 0.047 0.978
6.215 1.688 1.665
6.185 1.605 1.446
5.800 0.224 0.930
5.729 0.207 0.703
6.127 0.502 0.788
6.023 0.363 0.694
5.890 0.252 0.709
6.206 0.621 0.712
6.189 0.358 0.671
6.250 0.081 0.594
3.284 2.055 4.221
3.126 1.847 4.208
3.234 1.746 4.121
3.038 1.545 4.064
2.937 1.267 3.830
3.075 1.140 3.958
2.977 1.024 3.854
3.504 2.257 4.259
3.568 2.125 4.283
3.333 1.882 3.980
3.331 1.661 4.074
3.376 1.401 3.824
3.114 1.364 3.710
3.206 1.229 3.678
3.581 2.319 4.446
3.616 2.058 4.331
3.675 1.963 4.361
3.546 1.825 4.314
3.367 1.694 4.068
3.423 1.399 3.986
3.255 1.204 3.970
3.856 2.502 4.364
3.811 2.434 4.295
3.897 2.250 4.230
3.788 2.008 4.289
3.610 1.921 4.052
3.558 1.523 4.090
3.546 1.346 3.801
3.478 1.154 3.877
4.170 2.898 4.485
4.002 2.647 4.424
4.120 2.304 4.234
3.907 2.172 4.052
3.825 2.037 4.011
3.829 1.813 3.849
3.808 1.563 3.984
3.763 1.500 3.737
3.709 1.332 3.609
3.330 -0.006 3.116
4.109 2.804 4.475
4.437 2.798 4.392
4.283 2.502 4.183
4.114 2.351 4.187
4.107 2.235 3.929
3.998 2.052 3.867
4.065 1.778 3.750
3.958 1.631 3.778
3.835 1.544 3.616
3.760 1.278 3.503
3.431 0.157 2.991
4.356 2.728 4.373
4.557 2.691 4.067
4.357 2.654 4.166
4.473 2.359 3.885
4.424 2.124 3.843
4.405 2.006 3.791
4.319 1.909 3.695
4.265 1.716 3.569
4.182 1.563 3.590
3.774 0.214 2.996
3.705 0.055 2.942
4.576 2.965 4.308
4.605 2.796 4.274
4.788 2.828 3.955
4.602 2.559 4.018
4.489 2.408 3.879
4.477 2.194 3.718
4.553 2.132 3.685
4.391 1.883 3.582
4.336 1.668 3.380
4.298 1.447 3.310
3.986 0.380 2.904
3.866 0.050 2.769
4.664 2.906 4.116
4.725 2.710 4.068
4.888 2.917 3.837
4.909 2.727 3.740
4.709 2.330 3.676
4.769 2.184 3.530
4.729 2.103 3.580
4.533 1.886 3.430
4.406 1.689 3.366
4.187 0.210 2.783
3.905 0.015 2.449
4.927 2.944 4.071
4.796 2.711 3.951
5.045 2.742 3.759
5.079 2.661 3.672
5.027 2.543 3.446
4.791 2.173 3.541
4.802 2.063 3.465
4.827 1.748 3.376
4.375 0.335 2.438
4.212 0.181 2.507
5.220 3.031 3.951
5.032 2.747 3.776
5.174 2.756 3.521
5.075 2.659 3.565
5.193 2.469 3.441
5.078 2.185 3.221
4.502 0.255 2.351
4.439 0.141 2.181
5.300 3.161 3.672
5.325 2.839 3.515
5.881 2.036 2.617
5.822 1.919 2.526
5.683 1.646 2.367
5.682 1.608 2.307
5.673 1.277 2.194
6.229 2.574 2.577
6.011 2.442 2.555
6.109 2.126 2.533
5.886 1.938 2.399
5.847 1.688 2.345
5.965 1.626 2.159
5.873 1.463 1.968
6.130 2.173 2.302
6.229 1.875 2.140
6.101 1.675 2.170
6.034 1.567 2.065
5.997 1.485 1.854
5.648 -0.054 1.187
6.141 1.627 1.975
6.121 1.393 1.833
5.900 0.257 1.205
5.653 0.055 1.081
5.919 0.107 1.057
5.789 -0.073 1.063
6.329 0.399 1.112
6.043 0.208 0.849
6.081 -0.071 0.720
6.270 0.107 0.766
3.286 2.026 4.401
3.233 1.862 4.492
3.158 1.532 4.287
3.162 1.502 4.259
3.129 1.095 4.086
3.684 2.251 4.596
3.693 2.277 4.438
3.500 2.068 4.449
3.511 1.705 4.150
3.495 1.627 4.215
3.384 1.416 4.154
3.329 1.099 3.846
3.825 2.542 4.670
3.781 2.364 4.585
3.661 2.007 4.569
3.612 1.809 4.582
3.593 1.748 4.323
3.578 1.483 4.299
3.404 1.333 4.193
4.222 2.691 4.654
4.156 2.404 4.611
4.117 2.252 4.456
3.911 1.959 4.420
3.856 1.924 4.354
3.776 1.748 4.180
3.723 1.574 4.279
3.605 1.203 4.110
3.654 1.179 3.923
4.070 2.698 4.774
4.203 2.760 4.615
4.309 2.587 4.571
4.105 2.329 4.428
4.144 2.049 4.214
4.014 1.883 4.120
3.989 1.649 4.203
3.865 1.439 3.917
3.935 1.275 3.849
3.781 1.220 3.784
4.217 2.598 4.578
4.547 2.664 4.469
4.526 2.431 4.439
4.368 2.274 4.381
4.188 2.202 4.117
4.246 1.975 4.016
4.240 1.631 3.950
4.084 1.395 3.969
3.994 1.371 3.771
3.947 1.197 3.665
3.752 0.237 3.281
4.543 2.759 4.547
4.413 2.641 4.491
4.669 2.695 4.227
4.577 2.477 4.264
4.479 2.236 4.147
4.522 2.081 4.062
4.328 1.892 3.836
4.371 1.603 3.771
4.393 1.520 3.797
4.107 1.240 3.671
4.084 1.182 3.488
3.817 0.253 3.177
4.750 2.967 4.347
4.775 2.697 4.233
4.851 2.711 4.106
4.840 2.448 4.161
4.660 2.404 3.880
4.614 2.034 4.015
4.509 1.835 3.835
4.644 1.840 3.787
4.371 1.495 3.503
4.464 1.260 3.570
3.918 0.165 2.879
4.936 3.014 4.389
4.827 2.698 4.070
4.961 2.725 4.149
4.923 2.533 3.847
4.803 2.390 3.765
4.851 2.060 3.768
4.881 1.944 3.696
4.610 1.755 3.520
4.738 1.641 3.566
4.646 1.405 3.338
4.281 0.190 2.825
5.024 2.786 4.181
5.028 2.626 3.926
5.110 2.613 4.003
5.172 2.622 3.772
5.090 2.437 3.819
5.022 2.113 3.641
5.041 1.868 3.589
4.893 1.859 3.504
4.750 1.678 3.381
4.332 -0.016 2.540
5.115 2.651 3.892
5.229 2.658 3.636
5.276 2.418 3.473
5.287 2.158 3.578
5.125 2.001 3.506
6.080 2.196 2.733
5.881 2.096 2.643
5.913 1.862 2.665
5.789 1.703 2.432
6.281 2.113 2.763
6.215 2.102 2.659
6.097 1.812 2.416
5.970 1.625 2.492
5.983 1.515 2.292
6.166 1.551 2.261
6.070 1.493 2.071
6.225 1.325 2.065
5.775 -0.014 1.389
5.950 0.146 1.369
6.122 0.270 1.206
6.012 0.108 1.207
6.223 0.013 0.958
3.601 2.080 4.757
3.635 1.829 4.731
3.516 1.598 4.628
3.500 1.523 4.410
3.823 2.464 4.676
3.830 2.198 4.564
3.842 2.056 4.553
3.800 1.893 4.474
3.566 1.780 4.370
3.553 1.414 4.415
3.531 1.250 4.158
4.181 2.612 4.918
3.992 2.425 5.003
4.021 2.094 4.828
3.774 2.049 4.673
3.806 1.728 4.521
3.724 1.635 4.486
3.659 1.252 4.429
4.177 2.484 5.004
4.208 2.591 4.883
4.180 2.454 4.753
4.050 2.185 4.673
4.135 1.950 4.622
4.089 1.708 4.545
4.038 1.627 4.441
3.767 1.395 4.296
3.766 1.249 4.227
3.329 0.051 3.568
4.300 2.739 5.060
4.155 2.594 4.915
4.387 2.495 4.780
4.292 2.252 4.723
4.318 2.224 4.584
4.263 2.020 4.487
4.143 1.829 4.295
4.016 1.641 4.286
4.157 1.454 4.225
4.096 1.241 3.988
3.640 -0.037 3.468
4.559 2.803 4.914
4.481 2.505 4.633
4.696 2.684 4.565
4.454 2.327 4.630
4.363 2.190 4.319
4.487 2.074 4.431
4.347 1.829 4.139
4.194 1.490 4.154
4.290 1.346 3.976
4.168 1.182 3.979
4.173 1.015 3.801
3.693 0.115 3.480
4.552 2.663 4.632
4.589 2.588 4.534
4.822 2.604 4.417
4.790 2.338 4.398
4.628 2.191 4.201
4.505 2.097 4.279
4.544 1.789 3.984
4.438 1.532 3.909
4.392 1.411 3.889
4.453 1.168 3.710
4.382 1.104 3.623
3.915 0.116 3.284
4.839 2.704 4.471
4.672 2.662 4.383
4.891 2.538 4.327
5.004 2.435 4.266
4.946 2.259 4.231
4.716 2.099 4.128
4.678 1.871 3.976
4.701 1.558 3.813
4.706 1.520 3.855
4.590 1.251 3.636
4.438 1.015 3.655
4.913 2.520 4.332
5.169 2.635 4.139
5.098 2.504 4.186
5.013 2.147 4.111
4.963 2.088 3.848
4.919 1.782 3.701
4.759 1.624 3.699
4.789 1.355 3.623
4.759 1.254 3.431
4.535 1.001 3.554
5.018 2.592 4.294
5.195 2.341 4.008
5.158 2.194 3.913
5.045 2.040 3.794
4.987 1.874 3.765
5.012 1.625 3.575
5.048 1.342 3.534
4.844 1.174 3.332
5.404 2.082 3.689
5.336 1.858 3.623
5.070 1.578 3.432
5.041 1.374 3.415
6.279 2.266 3.031
6.232 2.041 2.992
6.136 2.009 2.787
6.151 1.824 2.549
6.134 1.437 2.455
5.834 0.101 1.623
6.044 0.138 1.699
6.360 0.145 1.511
6.327 -0.101 1.320
3.829 2.358 5.051
3.827 2.105 4.973
3.679 2.024 4.982
3.633 1.867 4.765
3.982 2.521 5.087
3.901 2.309 5.008
3.926 2.155 4.891
3.836 1.875 4.649
3.791 1.844 4.656
3.838 1.502 4.561
3.692 1.320 4.449
3.995 2.502 5.003
4.092 2.302 5.235
4.174 2.281 5.104
4.146 1.993 5.060
3.900 1.797 4.898
3.834 1.531 4.668
3.831 1.517 4.592
4.305 2.518 5.374
4.076 2.367 5.210
4.321 2.395 5.087
4.289 2.279 4.909
4.126 2.156 4.918
4.279 1.966 4.653
4.089 1.747 4.684
4.002 1.502 4.460
4.081 1.242 4.349
4.315 2.608 5.025
4.257 2.415 5.059
4.463 2.324 4.793
4.539 2.344 4.746
4.457 1.945 4.631
4.381 1.833 4.574
4.242 1.765 4.502
4.338 1.537 4.346
4.083 1.337 4.244
4.110 0.976 4.186
4.534 2.675 5.048
4.649 2.438 4.933
4.789 2.382 4.667
4.567 2.307 4.641
4.654 1.958 4.572
4.514 1.935 4.383
4.527 1.703 4.428
4.318 1.416 4.162
4.269 1.332 4.242
4.214 1.192 4.135
4.749 2.749 4.926
4.820 2.366 4.653
4.928 2.573 4.607
4.952 2.191 4.556
4.832 2.075 4.520
4.827 1.790 4.308
4.706 1.630 4.246
4.639 1.442 4.113
4.506 1.220 4.136
4.501 1.157 3.871
4.352 0.957 3.749
4.804 2.391 4.663
5.113 2.486 4.531
5.073 2.369 4.320
4.987 2.028 4.391
4.891 1.799 4.289
4.851 1.592 4.144
4.879 1.456 4.075
4.642 1.285 3.936
4.679 1.008 3.761
4.579 1.024 3.714
4.962 2.488 4.467
5.195 2.315 4.184
5.113 2.030 4.198
4.950 1.891 4.100
5.127 1.687 3.852
4.891 1.581 3.859
4.889 1.419 3.678
4.704 1.103 3.786
4.722 0.890 3.634
5.289 2.016 3.928
5.220 2.036 3.950
5.084 1.705 3.905
5.114 1.462 3.729
5.107 1.250 3.650
5.097 1.099 3.479
4.977 0.958 3.337
5.387 1.791 3.726
5.310 1.614 3.618
5.159 1.375 3.612
5.119 1.178 3.483
5.207 0.946 3.234
5.681 0.018 2.179
5.977 0.115 1.898
5.973 -0.039 1.788
6.339 0.139 1.851
3.947 2.481 5.257
3.953 2.200 5.132
3.844 1.967 5.197
3.863 1.772 5.078
3.966 2.702 5.452
3.991 2.306 5.274
4.280 2.542 5.106
4.073 2.158 5.133
4.013 1.929 5.078
3.888 1.892 4.785
3.901 1.627 4.755
3.947 1.392 4.812
4.231 2.591 5.145
4.129 2.497 5.116
4.226 2.275 5.292
4.262 2.169 5.333
4.275 1.890 5.125
4.129 1.707 5.049
4.094 1.602 4.922
4.537 2.786 5.578
4.493 2.550 5.490
4.306 2.294 5.383
4.594 2.274 5.223
4.333 2.064 5.052
4.296 2.005 4.937
4.221 1.673 4.895
4.138 1.530 4.921
4.229 1.311 4.687
4.541 2.650 5.310
4.466 2.419 5.336
4.378 2.412 5.108
4.708 2.423 4.932
4.665 2.226 4.935
4.466 2.028 4.810
4.553 1.825 4.786
4.310 1.609 4.690
4.303 1.421 4.647
4.420 1.058 4.539
4.817 2.427 5.143
4.694 2.270 5.139
4.807 2.312 4.901
4.815 2.260 4.799
4.603 2.010 4.642
4.655 1.732 4.558
4.624 1.470 4.526
4.601 1.447 4.329
4.555 1.108 4.362
4.302 1.106 4.255
4.896 2.535 4.891
4.791 2.353 4.818
4.962 2.335 4.652
4.867 2.106 4.582
4.909 1.848 4.465
4.773 1.848 4.588
4.852 1.633 4.369
4.813 1.475 4.313
4.649 1.272 4.249
4.627 0.881 4.033
4.609 0.721 4.003
4.985 2.268 4.730
5.156 2.171 4.555
4.983 2.090 4.396
5.093 1.742 4.264
4.947 1.642 4.246
4.811 1.400 4.102
4.803 1.213 4.028
4.810 0.896 3.962
4.745 0.795 3.758
5.141 2.063 4.287
5.096 1.677 4.131
5.085 1.573 4.191
5.176 1.380 4.009
4.932 1.273 3.998
4.948 1.035 3.871
4.937 0.705 3.784
4.922 0.735 3.605
5.395 1.806 4.180
5.260 1.611 4.069
5.327 1.507 3.950
5.223 1.339 3.802
5.180 0.933 3.814
5.068 0.779 3.544
4.922 0.611 3.416
5.440 1.614 3.821
5.394 1.540 3.744
5.313 1.248 3.623
5.284 0.960 3.530
5.148 0.891 3.452
5.213 0.714 3.267
5.002 0.511 3.330
5.469 1.182 3.623
5.420 1.048 3.516
5.341 0.848 3.363
5.338 0.674 3.148
5.191 0.364 3.246
5.669 0.974 3.094
5.470 0.625 3.015
5.392 0.421 3.056
5.353 0.356 2.897
6.157 2.951 4.188
5.698 0.572 2.919
5.513 0.258 2.652
5.484 0.064 2.651
5.749 0.230 2.703
5.740 0.127 2.504
5.851 0.352 2.509
5.790 0.219 2.468
6.135 0.207 2.301
6.344 0.167 2.214
4.103 2.393 5.502
4.093 2.082 5.394
4.131 1.881 5.258
3.945 1.776 5.103
3.580 0.089 4.426
4.251 2.796 5.826
4.172 2.638 5.765
4.209 2.513 5.508
4.243 2.413 5.520
4.414 2.347 5.222
4.366 2.089 5.130
4.171 1.941 5.014
4.075 1.804 5.068
4.120 1.631 4.969
4.352 2.794 5.444
4.449 2.391 5.482
4.203 2.429 5.398
4.431 2.190 5.371
4.273 1.945 5.302
4.234 1.802 5.205
4.198 1.680 5.238
3.694 0.025 4.401
4.559 2.830 5.660
4.493 2.568 5.719
4.621 2.459 5.442
4.361 2.215 5.471
4.731 2.115 5.260
4.672 1.922 5.308
4.570 1.815 5.234
4.377 1.515 4.946
4.370 1.447 4.970
4.825 2.650 5.471
4.626 2.518 5.357
4.588 2.225 5.228
4.746 2.229 5.241
4.720 2.059 5.013
4.573 1.762 4.946
4.686 1.552 4.915
4.551 1.438 4.878
4.550 1.284 4.786
4.932 2.485 5.330
4.839 2.192 5.239
5.079 2.296 4.936
4.849 1.999 5.063
4.952 1.833 4.882
4.699 1.585 4.724
4.647 1.381 4.656
4.705 1.240 4.665
4.611 1.016 4.552
4.996 2.127 4.993
5.014 1.963 4.818
5.057 1.870 4.817
4.968 1.587 4.746
4.909 1.383 4.635
4.834 1.302 4.505
4.829 1.131 4.466
4.794 0.921 4.316
5.257 1.800 4.543
5.203 1.774 4.542
5.081 1.374 4.384
4.967 1.303 4.193
4.860 0.997 4.109
4.806 0.997 4.207
4.817 0.712 3.929
5.213 1.765 4.323
5.344 1.591 4.254
5.154 1.227 4.124
5.088 1.049 4.077
5.155 0.891 3.967
4.995 0.708 3.914
5.006 0.425 3.799
5.476 1.489 4.190
5.464 1.234 3.977
5.384 1.230 4.056
5.219 0.895 3.890
5.196 0.778 3.839
5.148 0.536 3.599
5.161 0.215 3.511
5.564 1.385 3.846
5.450 1.191 3.783
5.488 1.046 3.598
5.449 0.716 3.715
5.276 0.595 3.470
5.323 0.372 3.513
5.134 0.248 3.351
5.951 2.969 4.604
5.720 1.054 3.548
5.580 0.818 3.569
5.619 0.769 3.514
5.446 0.470 3.422
5.386 0.465 3.385
5.401 0.182 3.259
6.309 2.817 4.418
6.194 2.584 4.329
5.784 1.051 3.450
5.661 0.717 3.412
5.746 0.606 3.260
5.672 0.413 3.154
5.450 0.142 2.975
6.364 2.604 4.196
5.976 0.661 3.164
5.845 0.486 3.003
5.809 0.371 3.041
5.753 0.261 2.806
6.010 0.684 2.905
5.904 0.397 2.928
5.867 0.268 2.660
5.847 -0.111 2.680
6.006 0.472 2.798
6.147 0.219 2.728
6.072 0.021 2.484
6.353 0.302 2.424
6.074 0.001 2.368
4.244 2.131 5.524
4.270 1.969 5.566
4.087 1.902 5.529
3.766 0.258 4.609
3.535 0.067 4.566
4.487 2.750 5.805
4.490 2.535 5.730
4.358 2.446 5.582
4.167 2.244 5.592
4.332 2.142 5.370
4.390 1.987 5.373
4.332 1.863 5.232
4.253 1.508 5.158
3.688 0.063 4.534
4.511 2.703 5.736
4.622 2.546 5.770
4.387 2.431 5.556
4.508 2.273 5.359
4.521 2.124 5.589
4.604 2.001 5.524
4.353 1.787 5.359
3.826 0.202 4.623
4.717 2.697 5.888
4.583 2.526 5.760
4.555 2.305 5.701
4.486 2.138 5.611
4.806 2.033 5.420
4.634 2.024 5.427
4.601 1.663 5.179
4.502 1.478 5.128
4.894 2.561 5.790
4.757 2.569 5.637
4.885 2.204 5.559
4.802 2.146 5.463
4.842 2.197 5.305
4.850 1.934 5.328
4.685 1.786 5.058
4.850 1.440 5.167
4.948 2.331 5.404
5.000 2.152 5.318
5.105 1.946 5.018
4.871 1.616 4.967
4.949 1.516 4.828
4.773 1.353 4.895
4.987 1.567 4.741
5.040 1.453 4.759
5.074 1.277 4.680
4.786 0.967 4.409
5.246 1.446 4.598
5.166 1.136 4.370
4.977 1.069 4.338
5.010 0.800 4.291
5.070 0.508 4.136
5.348 1.432 4.481
5.325 1.097 4.310
5.341 0.980 4.238
5.312 0.771 4.090
5.132 0.552 3.958
4.985 0.397 4.015
5.125 0.098 3.762
5.430 1.106 4.103
5.388 1.101 4.165
5.253 0.687 3.953
5.338 0.711 3.973
5.313 0.515 3.776
5.221 0.221 3.689
5.055 0.086 3.716
5.933 2.801 4.972
5.742 1.131 4.012
5.587 0.958 3.961
5.633 0.850 3.768
5.583 0.733 3.725
5.505 0.474 3.788
5.386 0.314 3.566
5.328 0.058 3.382
6.064 2.821 4.724
6.027 2.467 4.828
5.863 1.041 3.891
5.742 0.760 3.633
5.586 0.742 3.663
5.578 0.513 3.430
5.551 0.335 3.328
5.466 0.152 3.238
6.209 2.505 4.500
6.135 2.393 4.545
6.057 0.932 3.602
5.878 0.900 3.548
5.806 0.662 3.414
5.880 0.489 3.334
5.647 0.370 3.208
5.747 0.131 3.243
6.071 0.935 3.529
6.120 0.731 3.263
6.063 0.348 3.299
5.952 0.273 3.208
5.798 -0.027 3.187
6.304 0.716 3.243
6.107 0.567 3.010
5.970 0.263 3.041
5.978 0.128 2.952
6.214 0.348 2.774
6.130 0.074 2.739
4.460 2.163 5.765
4.297 1.943 5.619
4.200 1.664 5.598
3.789 0.245 4.857
3.706 0.080 4.851
4.619 2.578 6.058
4.549 2.568 5.929
4.433 2.160 5.816
4.390 2.094 5.695
4.525 2.144 5.608
4.460 1.941 5.482
4.485 1.760 5.392
3.938 0.067 4.573
4.847 2.630 5.817
4.709 2.400 5.689
4.534 2.368 5.610
4.590 2.188 5.653
4.798 1.970 5.759
4.569 1.792 5.697
4.078 0.185 4.925
3.991 0.101 4.777
4.778 2.520 6.047
4.851 2.351 5.872
4.747 2.244 5.862
4.653 1.936 5.837
4.862 1.965 5.515
