1.841 1.405 5.956
1.467 1.491 5.712
1.347 1.378 5.758
0.855 1.562 5.362
2.340 2.066 6.150
1.984 1.928 5.924
1.829 1.731 6.060
1.715 1.637 5.912
1.532 1.501 5.596
1.141 1.513 5.595
1.071 1.516 5.479
0.826 1.803 5.349
2.146 2.179 5.894
1.776 1.925 5.760
1.496 1.966 5.835
1.334 1.796 5.564
1.211 1.808 5.507
0.986 1.749 5.495
0.767 1.994 5.346
0.633 1.821 5.393
1.763 2.424 5.784
1.535 2.237 5.757
1.160 2.163 5.631
0.877 1.882 5.522
0.735 1.864 5.538
0.683 2.237 5.330
0.574 2.155 5.324
0.336 2.054 5.315
1.258 2.494 5.685
1.096 2.385 5.712
0.851 2.166 5.411
0.750 2.061 5.407
0.753 2.224 5.114
0.626 2.020 5.102
3.136 3.273 6.154
1.694 2.444 5.653
1.508 2.403 5.610
1.362 2.289 5.389
1.183 2.314 5.241
0.726 2.312 5.020
0.647 2.434 5.231
0.427 2.482 4.879
2.956 3.435 6.172
1.060 2.675 5.468
1.043 2.623 5.106
0.639 2.335 5.084
2.013 4.020 5.687
1.890 4.091 5.691
1.433 3.935 5.647
1.210 3.947 5.480
0.978 3.913 5.448
1.920 4.457 5.677
1.634 4.299 5.591
1.485 4.319 5.618
1.153 4.032 5.503
1.036 4.014 5.375
0.806 3.902 5.218
1.835 4.709 5.719
1.550 4.561 5.572
1.457 4.534 5.397
1.250 4.300 5.274
0.868 4.169 5.245
0.704 4.175 5.113
0.545 3.979 5.012
-0.034 4.284 4.878
1.523 4.799 5.531
1.190 4.677 5.346
0.932 4.660 5.380
0.713 4.462 5.319
0.497 4.309 5.198
0.350 4.249 4.973
0.137 4.337 4.716
0.018 4.526 4.905
1.357 5.014 5.342
1.096 4.857 5.245
1.078 4.847 5.360
0.673 4.814 5.203
0.620 4.558 5.111
0.196 4.571 4.952
-0.014 4.434 4.816
1.115 5.269 5.262
0.717 5.260 5.352
0.676 5.186 4.971
0.357 5.034 5.039
0.099 4.833 4.968
2.194 5.827 5.759
0.841 5.412 5.046
0.488 5.308 5.178
0.318 5.055 5.016
0.088 5.224 4.807
2.133 6.141 5.824
0.529 5.582 5.191
0.243 5.402 4.846
1.148 1.020 5.221
0.087 0.652 4.710
2.679 1.612 5.800
2.463 1.715 5.944
2.183 1.635 5.784
1.885 1.467 5.499
1.569 1.248 5.453
1.518 1.172 5.340
1.277 1.085 5.285
1.137 1.353 5.176
2.385 1.983 5.779
2.344 1.967 5.921
1.998 1.916 5.692
1.664 1.659 5.545
1.647 1.581 5.496
1.334 1.636 5.268
0.964 1.381 5.208
1.062 1.828 5.209
0.852 1.662 5.041
2.536 2.234 5.770
2.121 2.211 5.869
1.989 1.915 5.608
1.593 2.004 5.692
1.426 1.755 5.474
1.202 1.884 5.308
0.914 1.656 5.156
0.885 2.056 5.117
0.761 1.711 4.998
1.952 2.381 5.804
1.722 2.268 5.504
1.699 2.239 5.510
1.380 2.121 5.249
1.285 2.015 5.194
0.881 1.961 5.262
0.726 2.272 5.058
0.516 2.034 4.880
3.093 3.280 6.203
1.646 2.454 5.436
1.425 2.384 5.444
1.424 2.290 5.492
1.186 2.180 5.339
0.879 2.174 5.264
0.827 2.137 4.888
2.206 2.625 5.460
1.900 2.450 5.269
1.502 2.428 5.348
1.386 2.521 5.225
1.038 2.246 5.110
0.817 2.066 4.846
1.317 2.561 5.165
1.735 3.944 5.331
1.416 3.814 5.082
1.225 3.803 5.071
1.840 4.342 5.415
1.577 4.243 5.286
1.191 4.068 5.256
1.050 4.145 4.919
0.783 4.020 4.870
0.546 3.817 4.720
0.374 3.939 4.785
1.554 4.635 5.304
1.552 4.510 5.212
1.220 4.449 5.166
0.919 4.204 4.977
0.858 4.211 4.869
0.618 4.209 4.835
0.220 4.015 4.563
0.217 4.276 4.601
1.474 4.968 5.284
1.485 4.647 5.095
1.177 4.532 5.002
0.912 4.468 4.796
0.619 4.513 4.709
0.386 4.403 4.680
0.236 4.334 4.547
0.076 4.387 4.643
1.386 4.952 5.342
1.202 4.859 5.275
1.035 4.779 4.928
0.810 4.650 4.823
0.481 4.671 4.666
0.508 4.713 4.609
0.142 4.583 4.657
-0.093 4.702 4.417
1.413 5.217 5.199
1.261 5.357 4.973
0.894 5.118 5.102
0.592 4.980 4.830
0.651 5.074 4.644
0.394 4.792 4.679
-0.059 4.674 4.604
1.214 5.443 5.102
0.959 5.465 5.017
0.767 5.408 4.791
0.274 5.286 4.785
0.052 5.161 4.602
0.789 5.563 5.056
0.540 5.407 4.782
0.420 5.374 4.794
0.104 5.481 4.552
1.262 1.084 5.108
0.229 0.816 4.487
2.643 1.741 5.835
2.571 1.739 5.522
2.295 1.714 5.425
1.849 1.442 5.512
1.848 1.498 5.406
1.439 1.336 5.277
1.186 1.246 4.907
1.199 1.562 4.989
-0.023 0.875 4.422
2.625 2.142 5.782
2.333 2.064 5.601
2.108 1.908 5.505
1.973 1.651 5.355
1.608 1.626 5.169
1.430 1.440 4.975
1.100 1.359 4.955
1.212 1.602 5.019
0.790 1.743 4.937
2.642 2.169 5.626
2.203 2.199 5.402
1.970 2.000 5.478
1.931 2.013 5.263
1.644 1.856 5.063
1.468 1.778 5.077
1.056 1.617 4.873
0.965 1.945 4.839
2.466 2.491 5.695
2.129 2.455 5.368
2.086 2.211 5.304
1.703 2.179 5.198
1.423 2.075 5.263
1.243 2.010 5.170
0.967 2.054 4.911
1.029 2.141 4.870
2.157 2.666 5.545
1.822 2.656 5.477
1.588 2.446 5.151
1.469 2.379 5.250
1.273 2.264 5.131
1.034 2.273 4.982
2.293 2.651 5.279
2.306 2.695 5.106
2.048 2.476 5.106
1.773 2.606 5.052
1.624 2.512 4.967
1.231 2.397 4.663
1.241 3.744 4.716
0.952 3.698 4.590
0.864 3.693 4.482
0.485 3.833 4.286
1.757 4.244 5.054
1.551 3.994 5.019
1.360 3.922 4.624
1.023 4.013 4.689
0.611 3.868 4.569
0.622 3.820 4.518
0.367 4.045 4.512
1.878 4.615 5.105
1.732 4.344 4.829
1.308 4.329 4.776
1.266 4.188 4.859
0.814 4.291 4.602
0.677 4.023 4.641
0.285 4.111 4.340
0.397 4.225 4.442
1.836 4.762 4.998
1.348 4.789 4.992
1.172 4.629 4.912
1.030 4.496 4.602
0.722 4.399 4.562
0.484 4.247 4.523
0.351 4.124 4.357
0.238 4.449 4.201
1.496 5.146 5.014
1.433 5.047 4.746
1.313 5.015 4.640
0.900 4.741 4.696
0.774 4.803 4.688
0.369 4.550 4.538
0.232 4.610 4.280
0.122 4.755 4.361
1.650 5.272 4.866
1.414 5.392 4.922
1.146 5.178 4.846
0.803 5.045 4.517
0.562 5.079 4.393
0.463 4.728 4.280
0.126 4.674 4.196
0.208 5.096 4.287
1.348 5.531 4.821
1.252 5.389 4.886
0.948 5.380 4.792
0.618 5.458 4.515
0.410 5.232 4.330
0.357 5.197 4.289
-0.066 5.007 4.203
1.001 5.741 4.663
0.881 5.612 4.699
0.741 5.546 4.421
0.466 5.606 4.464
1.298 1.038 4.862
0.103 0.554 4.197
2.708 1.681 5.412
2.465 1.733 5.402
2.307 1.568 5.254
2.242 1.351 5.101
1.902 1.394 4.936
1.614 1.313 4.812
1.495 1.207 4.833
1.282 1.434 4.821
0.130 1.093 4.190
2.713 1.883 5.495
2.389 1.903 5.304
2.293 1.754 5.318
2.007 1.686 5.195
1.775 1.686 5.085
1.570 1.529 4.908
1.361 1.550 4.815
1.288 1.641 4.736
0.065 1.263 4.183
2.624 2.312 5.269
2.277 2.136 5.241
2.149 1.938 5.046
1.949 1.906 4.931
1.784 1.906 5.014
1.423 1.783 4.806
1.280 1.647 4.774
1.200 1.806 4.592
2.377 2.583 5.383
2.170 2.510 5.125
2.040 2.289 5.026
1.743 2.268 4.981
1.599 2.015 4.909
1.492 2.044 4.644
1.033 2.014 4.670
2.363 2.936 5.419
2.196 2.728 5.251
1.870 2.495 5.087
1.705 2.406 4.931
1.633 2.337 4.736
1.379 2.263 4.863
0.038 1.713 3.698
2.857 2.841 5.195
2.436 2.879 5.137
2.332 2.794 5.074
2.156 2.509 4.991
1.922 2.633 4.741
1.681 2.433 4.510
2.503 3.137 4.909
2.350 3.054 4.984
1.949 2.745 4.877
0.804 3.379 4.234
0.560 3.278 4.103
1.411 3.636 4.611
1.137 3.807 4.318
1.003 3.521 4.487
0.844 3.510 4.087
0.621 3.821 4.139
0.463 3.515 4.047
1.466 4.148 4.638
1.368 4.144 4.500
1.000 3.848 4.382
0.946 3.926 4.400
0.677 3.805 4.254
0.407 4.113 4.193
0.170 3.767 3.937
1.662 4.464 4.799
1.419 4.266 4.564
1.154 4.294 4.472
1.031 4.151 4.492
0.865 3.981 4.381
0.534 3.980 4.156
0.532 4.195 4.075
0.152 4.154 3.989
1.941 4.752 4.679
1.506 4.705 4.686
1.397 4.513 4.585
1.069 4.421 4.525
0.764 4.382 4.480
0.534 4.314 4.180
0.439 4.409 4.052
0.518 4.652 4.125
1.651 5.231 4.723
1.618 4.843 4.605
1.296 4.749 4.406
1.043 4.807 4.436
0.851 4.763 4.252
0.538 4.511 4.195
0.459 4.591 4.127
0.212 4.677 3.900
1.587 5.343 4.793
1.468 5.207 4.513
1.190 5.118 4.484
0.985 5.079 4.404
0.715 5.103 4.251
0.575 4.973 4.167
0.204 4.913 4.044
1.901 5.823 4.826
1.658 5.727 4.754
1.361 5.630 4.665
1.219 5.317 4.447
0.734 5.364 4.364
0.558 5.283 4.219
0.538 5.181 4.121
1.740 5.814 4.767
1.422 5.902 4.540
1.145 5.704 4.607
1.128 5.671 4.480
0.655 5.684 4.393
1.672 1.184 4.617
1.189 1.058 4.571
0.251 0.654 4.025
2.770 1.793 5.340
2.666 1.714 5.177
2.446 1.532 4.940
2.259 1.367 4.794
1.955 1.482 4.849
1.677 1.156 4.727
1.653 1.257 4.539
1.566 1.492 4.401
0.401 1.103 3.972
-0.096 0.937 3.938
2.814 1.974 5.275
2.679 1.942 4.975
2.406 1.874 4.983
2.231 1.784 4.703
1.965 1.499 4.617
1.742 1.528 4.717
1.302 1.515 4.443
1.414 1.733 4.622
0.169 1.353 3.858
2.871 2.228 5.207
2.512 2.215 4.909
2.124 2.151 4.901
2.084 2.079 4.683
1.751 1.824 4.672
1.592 1.896 4.713
1.463 1.602 4.538
0.146 1.491 3.821
2.886 2.720 5.192
2.520 2.641 5.252
2.313 2.415 5.010
2.188 2.385 4.773
1.934 2.120 4.908
1.776 2.134 4.745
1.487 2.063 4.429
-0.045 1.853 3.924
2.656 2.967 5.173
2.483 2.735 4.937
2.390 2.545 4.925
2.214 2.553 4.756
1.819 2.387 4.685
1.781 2.309 4.626
0.427 1.894 3.616
0.235 1.689 3.615
3.101 3.085 4.979
2.825 2.784 4.967
2.643 2.738 4.679
2.465 2.698 4.603
2.348 2.680 4.501
1.902 2.462 4.391
0.500 2.291 3.832
0.278 2.232 3.632
0.025 2.030 3.662
3.129 3.106 4.975
2.811 3.038 4.983
2.439 3.071 4.816
2.316 3.088 4.625
2.268 2.913 4.593
0.660 2.669 3.810
0.339 2.456 3.791
0.104 2.371 3.612
3.138 3.534 4.970
2.848 3.587 4.946
2.793 3.443 4.762
2.373 3.217 4.891
0.649 2.967 3.895
0.494 2.812 3.726
0.309 2.583 3.866
0.168 2.661 3.754
3.239 3.837 5.037
3.203 3.752 4.938
2.864 3.665 4.804
2.521 3.722 4.956
0.969 3.334 3.877
0.828 3.212 4.000
0.564 3.131 3.750
0.124 2.982 3.717
3.213 4.293 5.071
3.019 4.259 5.036
2.787 3.899 4.921
1.021 3.101 3.903
0.805 3.616 3.899
0.547 3.441 3.966
0.515 3.445 3.899
3.182 4.553 5.189
3.025 4.280 5.070
1.241 3.698 4.259
1.012 3.558 4.055
0.824 3.396 4.066
0.653 3.862 4.037
0.608 3.555 3.690
0.371 3.502 3.591
3.133 4.691 5.072
1.389 4.175 4.343
1.254 3.948 4.043
0.843 3.774 4.167
0.681 3.754 4.067
0.639 4.080 3.916
0.280 3.927 3.893
3.079 5.078 5.090
1.625 4.488 4.458
1.407 4.372 4.220
1.054 4.143 4.087
0.954 4.086 3.899
0.673 3.959 3.811
0.503 4.216 3.808
1.670 4.801 4.400
1.644 4.775 4.197
1.365 4.404 4.185
1.009 4.607 4.210
0.922 4.502 3.969
0.638 4.338 3.761
0.565 4.494 3.969
1.892 5.001 4.609
1.495 4.937 4.247
1.516 4.754 4.306
1.195 4.775 4.289
0.922 4.650 4.052
0.599 4.589 3.853
0.469 4.526 3.934
2.062 5.316 4.644
1.926 5.394 4.460
1.452 5.247 4.346
1.330 5.146 4.361
1.025 5.184 4.222
0.860 5.084 4.038
0.705 4.965 3.935
1.791 5.589 4.654
1.800 5.614 4.337
1.431 5.490 4.422
1.128 5.500 4.109
1.134 5.222 4.036
0.819 5.169 4.094
2.009 6.141 4.672
1.769 5.841 4.433
1.524 5.840 4.369
1.307 5.919 4.196
1.029 5.822 4.275
0.912 5.705 3.964
1.843 6.092 4.530
1.657 6.033 4.498
1.237 5.933 4.131
1.564 1.174 4.342
1.427 1.192 4.085
0.130 0.651 3.599
2.917 1.641 4.932
2.596 1.715 4.874
2.218 1.339 4.491
2.185 1.311 4.369
1.777 1.353 4.289
1.770 1.274 4.346
1.689 1.477 4.111
0.177 0.925 3.715
2.882 2.009 4.876
2.847 1.998 4.695
2.627 1.943 4.694
2.104 1.680 4.580
2.166 1.517 4.440
1.691 1.620 4.286
1.641 1.361 4.291
0.419 1.233 3.624
0.171 1.244 3.587
2.903 2.338 5.018
2.597 2.110 4.722
2.263 2.005 4.584
2.022 2.079 4.424
1.984 1.858 4.301
1.810 1.881 4.403
0.225 1.569 3.510
2.973 2.716 5.002
2.841 2.402 4.880
2.614 2.366 4.665
2.286 2.280 4.779
1.919 2.216 4.473
1.875 2.036 4.422
0.213 1.870 3.735
0.006 1.778 3.735
3.230 3.062 5.089
2.956 2.968 5.007
2.714 2.857 4.948
2.436 2.742 4.619
2.102 2.494 4.670
1.939 2.591 4.426
0.628 1.853 3.706
0.334 1.790 3.345
0.299 1.632 3.383
0.111 1.538 3.127
3.344 3.050 4.800
3.137 3.049 4.706
3.160 3.017 4.593
2.685 2.856 4.443
2.592 2.848 4.559
2.318 2.461 4.431
0.768 2.237 3.587
0.771 2.220 3.642
0.513 1.978 3.356
0.301 2.118 3.411
3.709 3.486 5.125
3.311 3.270 4.883
3.285 3.177 4.697
2.989 3.272 4.518
2.576 3.121 4.606
2.573 2.811 4.478
0.988 2.759 3.576
0.673 2.598 3.464
0.524 2.400 3.418
0.154 2.317 3.281
0.218 2.165 3.189
3.481 3.598 4.921
3.410 3.577 4.869
2.950 3.469 4.652
2.834 3.464 4.590
2.498 3.367 4.519
2.226 3.317 4.454
1.138 2.935 3.833
0.847 2.841 3.577
0.794 2.831 3.465
0.300 2.598 3.527
0.162 2.691 3.464
3.359 3.926 4.990
3.170 3.803 4.878
3.102 3.732 4.732
2.813 3.566 4.430
2.631 3.579 4.399
1.005 3.093 3.945
0.972 3.387 3.715
0.955 3.061 3.541
0.457 3.058 3.530
0.460 2.844 3.350
0.095 3.010 3.277
3.481 4.247 4.852
3.020 4.042 4.810
2.808 4.004 4.796
2.529 3.804 4.459
1.285 3.422 3.971
1.099 3.116 3.709
0.851 3.565 3.705
0.761 3.446 3.771
0.537 3.191 3.508
0.205 3.140 3.474
0.038 3.125 3.349
3.410 4.350 4.782
2.994 4.294 4.803
2.714 4.263 4.486
1.122 3.635 3.862
0.827 3.407 3.698
0.946 3.670 3.711
0.768 3.640 3.552
0.350 3.672 3.554
0.294 3.603 3.400
3.218 4.849 4.800
3.028 4.634 4.815
1.340 3.967 3.824
1.151 3.867 3.948
1.007 3.881 3.701
0.793 3.958 3.794
0.429 4.039 3.506
3.030 4.936 4.781
1.412 4.303 3.892
1.226 4.246 3.842
1.053 4.192 3.917
0.764 3.914 3.619
0.703 4.306 3.478
1.471 4.625 4.207
1.234 4.453 3.839
1.159 4.509 3.834
0.974 4.512 3.851
0.745 4.138 3.470
1.715 5.039 4.121
1.468 4.919 4.148
1.380 4.795 3.813
1.183 4.862 3.902
2.082 5.601 4.459
1.888 5.509 4.188
1.708 5.210 4.015
1.453 5.100 4.098
1.077 5.025 3.958
2.298 5.855 4.290
2.153 5.809 4.335
1.660 5.734 4.085
1.573 5.624 4.142
1.321 5.519 4.052
1.154 5.440 3.819
2.428 6.236 4.395
2.244 5.997 4.518
1.974 6.000 4.211
1.795 5.979 4.069
1.336 5.787 4.136
1.382 5.829 3.805
-0.135 5.445 3.209
1.874 6.141 4.313
1.690 6.204 4.022
1.433 5.896 3.943
0.112 5.864 3.332
0.178 5.884 3.402
-0.002 5.952 3.303
0.084 6.201 3.311
1.727 1.162 4.002
2.399 1.490 4.269
2.322 1.518 4.316
2.143 1.209 4.212
1.879 1.067 4.106
0.112 0.664 3.364
2.536 1.985 4.605
2.276 1.858 4.210
2.214 1.673 4.329
1.768 1.699 4.264
0.164 1.219 3.374
3.099 2.140 4.711
2.705 2.325 4.509
2.356 2.046 4.520
2.238 2.143 4.429
1.932 2.055 4.314
0.490 1.509 3.455
0.286 1.528 3.480
-0.015 1.327 3.145
3.128 2.621 4.800
2.820 2.431 4.514
2.677 2.597 4.517
2.392 2.247 4.380
2.087 2.236 4.274
0.755 1.807 3.639
0.406 1.927 3.402
0.101 1.599 3.467
0.076 1.635 3.197
3.564 3.056 4.889
3.176 2.949 4.757
2.971 3.029 4.829
2.924 2.870 4.557
2.451 2.778 4.365
2.276 2.677 4.198
1.090 2.099 3.552
0.751 1.894 3.377
0.459 1.926 3.102
0.326 1.658 2.974
0.131 1.619 3.049
3.895 3.194 4.634
3.626 3.070 4.565
3.500 2.916 4.618
3.039 2.874 4.366
2.978 2.833 4.191
2.659 2.620 4.220
1.144 2.324 3.413
0.964 2.201 3.509
0.781 2.219 3.183
0.452 2.028 3.030
0.310 1.896 3.179
-0.031 1.993 3.047
3.754 3.596 4.683
3.432 3.497 4.618
3.289 3.261 4.445
3.077 3.069 4.257
2.738 3.110 4.383
2.554 2.968 4.204
1.222 2.884 3.437
1.033 2.768 3.417
0.732 2.585 3.289
0.507 2.501 3.106
0.365 2.216 3.241
0.083 2.286 2.918
3.566 3.837 4.799
3.266 3.459 4.457
3.056 3.544 4.391
3.098 3.328 4.346
2.682 3.171 4.327
2.431 3.294 4.173
1.217 2.615 3.719
1.204 3.030 3.629
0.974 2.929 3.520
0.821 2.870 3.362
0.420 2.836 3.123
0.478 2.578 3.085
-0.027 2.382 3.024
3.577 3.990 4.681
3.391 3.851 4.475
3.002 3.653 4.555
2.938 3.750 4.343
2.721 3.642 4.247
2.434 3.542 4.050
1.288 2.957 3.431
1.132 3.310 3.413
0.941 3.135 3.436
0.702 3.090 3.402
0.428 2.914 3.117
0.120 2.731 3.085
0.043 2.647 3.032
3.470 4.168 4.487
3.160 4.187 4.636
3.119 3.901 4.289
2.738 3.998 4.401
2.408 3.911 4.251
1.333 3.253 3.541
1.235 3.266 3.451
1.202 3.659 3.484
0.860 3.384 3.262
0.684 3.306 3.145
0.330 3.224 3.088
0.120 3.122 3.096
3.499 4.520 4.552
3.256 4.326 4.371
2.906 4.313 4.360
2.733 4.247 4.270
1.372 3.577 3.723
0.982 3.608 3.359
0.838 3.907 3.499
0.788 3.762 3.385
0.558 3.663 3.354
0.394 3.403 3.069
0.043 3.379 2.973
3.371 4.647 4.662
3.155 4.618 4.350
2.887 4.393 4.312
1.335 3.838 3.560
0.836 3.831 3.512
0.880 4.089 3.448
0.618 4.028 3.244
0.810 4.134 3.335
2.738 5.902 4.301
2.381 5.893 4.013
2.088 5.750 4.016
1.896 5.754 3.837
1.676 5.634 3.798
0.117 5.164 3.251
2.839 6.355 4.488
2.510 6.307 4.347
2.361 6.071 4.123
1.913 5.948 4.084
1.881 5.904 3.839
1.470 5.813 3.693
0.486 5.477 3.322
0.178 5.360 3.222
2.065 6.203 4.113
1.784 6.145 3.947
1.459 6.073 3.777
0.282 5.472 3.236
0.366 5.922 3.106
0.157 5.727 3.118
0.243 5.747 3.290
0.123 6.002 2.995
0.424 6.107 3.362
0.097 6.152 3.117
0.756 1.733 3.297
0.436 1.502 3.084
0.167 1.294 2.925
3.568 2.828 4.467
3.297 2.593 4.331
2.922 2.470 4.464
2.831 2.424 4.116
1.002 1.922 3.470
0.688 1.887 3.235
0.611 1.753 3.280
0.261 1.771 3.194
0.272 1.570 3.084
3.767 3.249 4.715
3.598 3.105 4.737
3.363 3.020 4.490
3.111 2.923 4.334
3.045 2.887 4.256
2.638 2.625 4.106
1.353 2.000 3.214
1.272 1.925 3.116
0.989 1.979 3.112
0.804 1.761 2.888
0.510 1.867 2.741
0.348 1.801 2.792
3.947 3.228 4.388
3.672 3.237 4.512
3.497 3.043 4.381
3.115 2.824 4.105
2.955 2.737 4.184
1.554 2.614 3.236
1.253 2.288 3.117
1.029 2.201 3.191
0.734 2.286 3.011
0.676 2.256 2.828
0.278 2.127 2.909
0.182 1.823 2.723
3.824 3.310 4.542
3.534 3.229 4.225
3.423 3.133 4.209
3.080 3.303 4.287
2.783 3.082 3.945
2.835 2.946 4.024
1.558 2.410 3.267
1.314 2.653 3.311
1.137 2.691 3.173
0.997 2.483 3.250
0.794 2.458 2.964
0.624 2.304 2.865
0.456 2.299 2.688
-0.004 2.175 2.754
3.676 3.712 4.435
3.489 3.615 4.283
3.377 3.569 4.158
2.963 3.565 4.117
2.712 3.393 4.052
2.643 3.267 3.929
1.567 2.900 3.380
1.459 2.996 3.298
1.174 2.857 3.316
1.045 2.912 3.191
0.766 2.692 2.827
0.353 2.537 2.932
0.190 2.578 2.689
3.816 3.934 4.345
3.357 3.819 4.401
3.060 3.901 4.098
3.108 3.528 3.998
2.697 3.602 4.071
2.590 3.612 3.914
1.473 3.128 3.247
1.148 3.190 3.155
0.999 3.270 3.292
0.772 3.132 2.969
0.485 3.057 2.808
0.494 3.031 2.764
0.097 2.688 2.650
3.479 4.318 4.307
3.411 4.057 4.148
3.264 4.086 4.025
3.016 4.002 3.945
2.700 3.889 4.015
1.125 3.385 3.360
1.141 3.532 3.192
1.076 3.307 3.272
0.678 3.452 3.034
0.495 3.270 2.867
0.212 3.113 2.750
-0.049 3.046 2.770
3.557 4.360 4.334
3.317 4.367 4.252
3.044 4.378 4.013
2.843 4.324 4.101
2.670 4.240 3.988
1.291 3.580 3.106
1.201 3.761 3.145
0.866 3.811 3.217
0.606 3.440 3.027
0.346 3.461 2.723
0.122 3.323 2.838
3.332 4.777 4.157
3.267 4.697 4.074
2.902 4.449 3.973
2.701 4.320 3.915
1.146 3.812 3.147
0.130 4.758 2.661
2.828 5.893 4.198
2.581 5.775 4.172
2.360 5.883 3.886
2.120 5.854 3.858
1.890 5.738 3.837
0.699 5.266 3.047
0.354 5.096 2.924
-0.002 5.080 2.761
2.831 6.152 3.946
2.570 6.080 3.997
2.479 5.965 4.016
2.119 5.909 3.859
1.980 5.817 3.731
0.506 5.303 2.975
0.475 5.662 3.011
0.224 5.320 2.909
-0.037 5.495 2.857
2.135 6.331 3.755
1.914 6.046 3.675
1.495 6.005 3.476
0.611 5.709 2.811
0.292 5.671 2.881
0.082 5.592 2.882
0.302 5.892 3.056
0.315 6.097 2.816
0.131 6.077 2.706
0.365 6.122 2.765
1.461 2.065 3.184
1.298 1.948 3.247
0.883 1.829 3.034
0.561 1.899 3.110
0.626 1.715 2.969
0.246 1.663 2.837
4.018 3.188 4.650
3.596 3.192 4.516
3.402 3.059 4.267
3.302 2.968 4.337
3.011 2.942 4.191
1.699 2.364 3.177
1.609 2.299 3.096
1.279 1.981 2.906
1.042 1.901 2.894
0.700 1.764 2.642
0.456 1.711 2.719
4.045 3.102 4.143
3.968 3.192 4.273
3.579 2.878 3.921
3.330 2.859 3.947
1.617 2.231 3.080
1.612 2.366 3.017
1.525 2.546 2.946
1.146 2.417 3.039
1.006 2.211 2.864
0.805 2.191 2.807
0.573 2.123 2.670
0.166 2.063 2.461
3.866 3.611 4.092
3.868 3.398 4.063
3.463 3.148 4.101
3.383 3.140 4.027
3.136 3.040 3.880
1.537 2.412 3.124
1.573 2.817 3.090
1.297 2.647 3.072
0.985 2.715 2.803
0.773 2.593 2.869
0.613 2.237 2.789
0.422 2.145 2.478
0.234 2.236 2.445
3.822 3.754 4.193
3.680 3.494 4.045
3.359 3.540 3.967
3.071 3.464 3.796
2.819 3.284 3.691
1.720 2.917 3.343
1.715 2.730 2.995
1.632 3.005 3.073
1.305 3.020 3.072
1.046 2.925 2.816
0.883 2.755 2.832
0.480 2.590 2.491
0.468 2.590 2.587
0.119 2.546 2.452
3.658 4.088 4.060
3.558 3.880 4.128
3.418 3.753 3.800
3.032 3.551 3.743
2.843 3.477 3.783
2.573 3.641 3.594
1.450 3.149 3.129
1.470 3.198 2.922
1.177 3.066 2.959
1.019 3.125 2.850
0.785 2.893 2.731
0.418 2.915 2.517
0.370 2.734 2.362
-0.103 2.702 2.324
3.807 4.373 4.060
3.322 4.072 4.010
3.324 3.964 3.885
2.925 3.870 3.652
2.786 3.828 3.548
2.545 3.726 3.553
1.412 3.188 3.155
1.161 3.547 3.124
1.124 3.393 3.001
0.722 3.381 2.647
0.530 3.325 2.508
0.381 3.113 2.599
0.265 3.124 2.423
3.615 4.559 4.185
3.351 4.516 4.119
3.294 4.336 3.809
3.056 4.106 3.904
2.764 4.228 3.730
2.432 4.086 3.442
1.396 3.637 2.926
0.941 3.532 2.914
0.615 3.552 2.657
0.420 3.367 2.649
0.148 3.529 2.404
-0.070 3.446 2.507
3.486 4.751 4.156
3.166 4.716 4.099
3.069 4.587 3.844
2.888 4.490 3.646
2.528 4.344 3.609
0.696 4.960 2.752
0.465 4.921 2.519
0.381 4.848 2.641
0.012 4.800 2.576
2.998 5.951 3.803
2.925 6.044 3.919
2.565 5.725 3.655
0.680 4.993 2.870
0.748 5.301 2.832
0.573 5.257 2.689
0.269 5.052 2.460
2.984 6.341 3.813
2.866 6.249 3.782
2.447 5.937 3.690
2.357 5.987 3.396
2.147 6.022 3.504
0.794 5.340 2.717
0.729 5.597 2.799
0.320 5.449 2.530
0.163 5.411 2.416
2.205 6.137 3.574
1.839 6.138 3.510
0.879 5.610 2.835
0.716 5.704 2.741
0.353 5.730 2.791
0.117 5.875 2.655
-0.051 5.547 2.477
0.356 5.732 2.709
0.444 5.997 2.630
0.154 6.126 2.380
0.361 6.102 2.541
-0.009 6.346 2.434
1.502 1.706 3.058
4.015 3.021 4.330
1.693 2.332 3.108
1.587 2.127 3.007
1.381 2.072 2.888
1.076 2.058 2.703
0.680 1.797 2.782
0.580 1.811 2.573
4.142 3.139 4.140
3.804 2.989 4.032
3.706 2.923 4.163
3.232 2.905 3.938
1.783 2.331 3.302
1.962 2.291 2.772
1.704 2.269 2.890
1.282 2.154 2.842
1.240 1.898 2.735
1.080 1.851 2.601
4.213 3.087 3.901
4.057 3.015 3.839
3.568 3.076 3.735
2.114 2.360 2.956
1.782 2.341 2.943
1.642 2.519 3.025
1.519 2.320 2.899
1.435 2.373 2.774
1.104 2.109 2.657
0.884 2.043 2.489
0.775 1.932 2.199
4.051 3.328 4.061
3.987 3.223 3.847
3.497 3.222 3.884
3.320 3.031 3.753
2.090 2.688 2.847
1.711 2.590 2.918
1.684 2.892 2.970
1.587 2.649 2.801
1.122 2.627 2.692
0.848 2.626 2.451
0.657 2.290 2.414
0.635 2.195 2.246
0.386 2.270 2.221
3.964 3.715 3.957
3.724 3.632 3.806
3.540 3.403 3.678
3.205 3.567 3.576
3.107 3.339 3.441
1.821 2.833 3.097
1.834 2.710 2.828
1.561 2.903 2.785
1.317 2.780 2.828
1.116 2.960 2.694
0.940 2.645 2.540
0.691 2.701 2.306
0.476 2.653 2.395
0.292 2.440 2.076
4.025 4.074 4.020
3.619 3.966 3.713
3.322 3.761 3.738
3.119 3.735 3.634
2.999 3.627 3.505
2.644 3.378 3.315
1.486 2.967 2.738
1.486 3.369 2.921
1.161 3.224 2.531
1.090 3.172 2.614
0.892 3.091 2.414
0.507 2.753 2.298
0.285 2.805 2.106
0.118 2.844 2.214
3.962 4.371 3.745
3.728 4.149 3.767
3.342 4.070 3.766
3.273 4.022 3.691
2.973 3.762 3.348
2.517 3.649 3.403
1.551 3.227 2.901
1.280 3.361 2.772
0.935 3.308 2.424
0.773 3.347 2.311
0.571 3.141 2.193
0.259 3.153 2.055
-0.037 2.903 1.926
3.586 4.499 3.774
3.564 4.360 3.591
3.174 4.155 3.628
3.088 4.304 3.622
2.886 4.234 3.289
2.684 4.121 3.367
0.883 3.620 2.566
0.544 3.430 2.230
0.432 3.555 2.125
0.097 3.452 2.141
3.426 4.678 3.742
3.325 4.548 3.588
3.067 4.562 3.400
2.857 4.328 3.311
2.345 4.151 3.132
-0.031 3.692 2.083
2.910 4.627 3.354
2.507 4.686 3.315
2.542 4.437 3.369
1.053 4.884 2.435
1.173 5.057 2.822
0.945 4.776 2.710
0.871 5.218 2.474
0.607 4.984 2.323
0.330 4.775 2.408
0.192 4.719 2.111
3.037 6.007 3.750
2.912 6.046 3.668
1.181 5.044 2.602
0.777 4.922 2.545
0.906 5.246 2.592
0.456 5.192 2.437
0.338 5.171 2.327
0.048 5.034 2.021
3.044 6.159 3.518
2.784 6.231 3.351
2.584 5.999 3.409
2.551 6.113 3.147
0.964 5.530 2.467
0.876 5.313 2.508
0.777 5.704 2.381
0.588 5.362 2.197
0.384 5.410 2.340
-0.089 5.404 2.191
2.240 6.200 3.165
1.937 6.216 3.052
0.949 5.735 2.555
0.584 5.658 2.320
0.743 5.694 2.413
0.449 5.711 2.455
0.285 5.577 2.075
0.739 5.918 2.336
0.655 6.150 2.343
0.288 6.086 2.341
-0.034 6.019 2.127
0.496 6.047 2.474
0.163 6.296 2.135
2.011 2.083 3.066
1.714 2.027 2.877
1.567 1.754 2.762
4.348 2.917 4.200
2.099 2.107 2.938
1.966 1.936 3.090
1.914 2.367 3.030
1.678 2.069 2.858
1.404 2.122 2.661
1.184 1.884 2.555
1.057 1.995 2.347
4.101 3.277 4.085
4.040 3.124 3.797
3.829 2.978 3.741
2.092 2.316 2.935
1.846 2.405 2.774
1.841 2.127 2.547
1.726 2.268 2.501
1.650 2.194 2.449
1.303 1.971 2.237
4.415 3.205 3.664
4.062 3.114 3.751
2.533 2.584 2.810
2.304 2.349 2.673
2.116 2.155 2.569
1.822 2.553 2.495
1.529 2.316 2.452
1.351 2.259 2.474
1.182 2.210 2.270
1.009 2.055 2.286
4.128 3.347 3.691
3.899 3.336 3.549
3.632 3.418 3.388
2.072 2.659 2.645
1.960 2.444 2.488
1.944 2.663 2.694
1.665 2.608 2.336
1.260 2.462 2.246
1.145 2.533 2.120
0.824 2.525 2.037
0.590 2.168 2.163
4.136 3.826 3.824
3.834 3.482 3.725
3.764 3.412 3.542
3.529 3.535 3.381
1.671 2.650 2.587
1.601 2.940 2.527
1.538 3.021 2.572
1.401 2.879 2.460
1.097 2.792 2.195
0.872 2.553 2.168
0.683 2.545 2.041
0.477 2.404 2.026
4.082 3.909 3.560
3.736 3.768 3.645
3.494 3.772 3.548
3.235 3.754 3.374
3.159 3.724 3.312
1.677 3.152 2.631
1.458 3.326 2.468
1.083 2.976 2.393
1.024 3.061 2.242
0.776 2.874 2.157
0.594 2.863 2.023
0.146 2.844 1.717
4.057 4.351 3.711
3.661 4.275 3.652
3.574 4.134 3.345
3.099 3.877 3.287
2.865 3.992 3.167
2.910 3.837 2.948
1.169 3.300 2.308
0.953 3.104 2.287
0.745 3.144 2.020
0.529 3.199 1.851
0.143 2.868 1.768
3.694 4.508 3.620
3.452 4.387 3.396
3.195 4.103 3.390
2.970 4.178 3.282
2.605 3.916 3.117
2.522 3.883 2.819
0.795 3.371 2.063
0.521 3.458 1.869
0.157 3.350 1.916
0.063 3.334 1.668
3.362 4.574 3.386
3.089 4.561 3.183
2.947 4.386 3.057
2.542 4.174 3.148
2.474 4.150 2.798
2.013 4.194 2.877
0.225 3.417 1.943
3.019 4.827 3.138
2.635 4.584 2.999
2.589 4.396 2.856
2.297 4.442 2.877
2.119 4.426 2.720
1.807 4.234 2.606
2.738 4.752 3.090
2.514 4.865 2.923
2.159 4.705 2.929
1.869 4.580 2.811
1.866 4.531 2.618
1.649 4.489 2.639
1.064 4.681 2.395
2.189 5.012 3.027
2.237 4.901 2.831
2.001 4.969 2.669
1.603 4.807 2.543
1.561 4.511 2.345
1.247 4.631 2.227
1.011 4.879 2.213
0.733 4.628 2.312
2.012 5.100 2.831
1.647 5.056 2.591
1.505 4.915 2.404
1.420 4.797 2.292
0.985 4.697 2.238
0.942 5.137 2.264
0.712 4.866 2.114
0.428 5.004 2.165
3.208 6.140 3.457
3.134 6.061 3.411
1.829 5.272 2.646
1.370 5.191 2.382
1.210 5.103 2.309
1.092 4.985 2.142
0.765 5.445 2.110
0.656 5.338 2.170
0.494 5.061 1.896
0.083 5.161 1.904
2.846 6.060 3.265
2.731 6.113 3.104
1.441 5.492 2.516
1.038 5.533 2.292
1.028 5.290 2.159
0.727 5.441 2.304
0.595 5.574 2.073
0.489 5.394 1.916
0.102 5.160 1.788
2.332 6.176 3.109
0.900 5.710 2.328
0.882 5.718 2.208
0.595 5.885 2.235
0.515 5.615 2.160
0.137 5.756 1.922
0.159 5.520 1.793
0.824 5.730 2.104
0.560 5.975 1.963
0.239 5.783 1.790
0.063 6.011 1.950
1.303 0.846 2.134
0.808 0.699 2.069
0.825 0.459 1.904
0.554 0.408 1.850
0.261 0.497 1.931
0.012 0.330 1.626
3.726 1.748 3.454
3.384 1.845 3.351
3.311 1.711 3.129
2.896 1.512 3.052
2.738 1.406 3.182
0.724 0.872 2.146
0.590 0.936 1.972
0.555 0.601 1.904
0.073 0.556 1.631
3.547 2.059 3.312
3.184 1.921 3.194
2.878 1.759 2.964
2.683 1.779 2.893
2.574 1.656 2.925
2.304 1.801 2.825
0.419 1.066 2.002
0.351 1.097 1.909
0.154 0.999 1.781
3.202 2.016 3.146
2.963 2.120 3.225
2.741 2.042 2.912
2.374 1.751 2.897
2.158 1.753 2.779
2.120 2.025 2.751
1.904 1.930 2.536
0.281 1.211 1.763
4.429 2.970 3.771
2.632 2.138 2.919
2.599 2.121 2.884
2.361 1.976 2.829
1.969 1.876 2.790
2.014 2.230 2.627
1.835 2.089 2.674
1.374 2.106 2.395
1.271 1.881 2.203
4.140 3.313 3.762
3.931 3.049 3.601
2.446 2.532 3.028
2.314 2.365 2.825
2.129 2.178 2.687
2.168 2.289 2.532
1.773 2.135 2.193
1.735 2.064 2.196
0.161 1.630 1.602
0.049 1.523 1.422
4.507 3.236 3.495
2.711 2.646 2.871
2.428 2.575 2.721
2.213 2.430 2.596
2.082 2.359 2.513
1.878 2.539 2.435
1.838 2.493 2.226
1.681 2.347 2.083
4.172 3.524 3.446
4.018 3.461 3.282
2.505 2.726 2.723
2.325 2.673 2.528
1.896 2.644 2.274
1.772 2.795 2.334
1.764 2.627 2.127
1.403 2.453 2.178
1.165 2.396 2.063
4.364 3.674 3.496
4.054 3.572 3.216
2.054 2.759 2.295
1.369 2.733 2.085
1.040 2.809 1.842
0.894 2.769 1.937
4.173 3.881 3.573
3.912 3.940 3.179
3.722 3.846 3.087
3.470 3.690 3.225
1.161 2.849 1.971
0.786 2.778 1.937
0.656 2.843 1.632
0.330 2.765 1.625
3.712 4.118 3.200
3.231 4.003 2.919
3.109 3.927 3.066
3.013 3.792 2.773
0.851 3.157 1.662
0.628 3.082 1.673
0.420 3.085 1.483
0.164 2.881 1.337
3.526 4.173 3.086
3.208 4.078 2.896
2.924 4.247 2.998
2.760 3.987 2.784
2.600 4.042 2.804
0.623 3.426 1.736
0.378 3.443 1.512
0.085 3.253 1.415
3.189 4.427 2.888
2.945 4.414 3.027
2.691 4.202 2.857
2.381 4.230 2.729
2.145 4.201 2.601
1.934 3.972 2.553
0.474 3.526 1.481
0.125 3.362 1.422
2.971 4.717 3.064
2.973 4.755 2.988
2.484 4.407 2.846
2.442 4.432 2.592
2.102 4.288 2.501
1.797 4.306 2.423
1.770 4.056 2.286
1.486 4.334 2.021
0.114 3.689 1.537
0.130 3.664 1.573
2.897 4.862 2.769
2.527 4.895 2.638
2.251 4.737 2.442
2.159 4.621 2.425
1.922 4.430 2.411
1.597 4.544 2.160
1.314 4.294 2.177
1.421 4.620 2.113
2.536 5.065 2.799
2.415 5.123 2.779
2.203 5.059 2.456
2.023 4.911 2.437
1.695 4.631 2.174
1.445 4.574 2.219
1.281 4.669 2.239
1.322 4.764 1.943
1.052 4.756 2.086
2.285 5.241 2.517
2.046 5.322 2.454
1.925 5.099 2.336
1.621 4.993 2.259
1.463 4.943 2.053
1.236 4.834 2.136
1.076 5.097 2.175
0.879 5.012 2.005
3.564 6.189 3.284
2.091 5.411 2.349
1.690 5.309 2.241
1.475 5.255 2.403
1.427 5.311 2.130
1.127 4.978 2.099
0.890 5.214 2.130
0.866 5.127 1.748
0.584 5.141 1.928
1.347 5.375 2.271
1.254 5.420 2.053
1.173 5.197 2.039
1.012 5.664 2.003
0.799 5.556 1.886
0.535 5.490 1.700
0.197 5.331 1.540
1.161 5.782 2.009
1.080 5.616 2.043
0.669 5.648 1.896
0.307 5.678 1.575
0.158 5.540 1.693
-0.035 5.851 1.454
1.320 0.755 2.162
1.111 0.762 2.052
0.690 0.577 1.881
0.607 0.392 1.702
0.525 0.310 1.469
0.088 0.434 1.420
3.990 1.867 3.105
3.576 1.769 3.268
3.282 1.724 2.886
3.073 1.463 3.050
2.768 1.370 2.851
2.580 1.441 2.681
2.278 1.616 2.499
1.125 0.830 1.873
0.602 0.834 1.741
0.398 0.795 1.707
0.288 0.497 1.615
0.171 0.439 1.271
3.726 2.132 3.313
3.398 1.991 3.180
3.380 1.809 2.832
3.105 1.660 2.912
2.716 1.790 2.663
2.585 1.526 2.720
2.457 1.388 2.396
2.298 1.629 2.611
1.908 1.602 2.281
0.941 1.063 1.911
0.624 1.234 1.668
0.418 0.881 1.730
0.080 0.783 1.567
3.543 2.286 3.187
3.088 2.084 2.815
2.960 1.986 2.875
2.760 1.948 2.707
2.561 1.881 2.636
2.358 1.689 2.644
2.050 2.038 2.477
1.958 2.030 2.375
0.424 1.460 1.819
0.491 1.173 1.704
0.182 1.062 1.613
4.371 2.928 3.425
2.973 2.371 2.998
2.999 2.353 2.733
2.683 2.279 2.741
2.506 2.036 2.554
2.202 2.071 2.575
2.093 2.413 2.292
1.955 2.270 2.252
1.671 2.106 2.205
0.372 1.558 1.552
0.018 1.487 1.349
4.410 3.299 3.455
2.708 2.458 2.822
2.628 2.433 2.675
2.372 2.504 2.571
2.118 2.142 2.530
2.321 2.227 2.069
2.100 2.232 2.216
0.745 1.543 1.317
0.407 1.530 1.224
0.094 1.425 1.137
3.171 2.633 2.484
3.046 2.653 2.396
2.545 2.538 2.543
2.428 2.243 2.281
2.298 2.220 2.118
2.253 2.413 2.244
2.645 2.792 2.260
2.486 2.725 2.172
2.033 2.450 2.252
0.464 3.013 1.345
0.343 3.069 1.243
0.031 3.008 1.188
3.038 4.148 2.768
2.900 3.944 2.606
2.741 3.913 2.348
2.348 3.933 2.216
0.538 3.473 1.560
0.351 3.209 1.261
-0.017 2.985 1.323
3.109 4.514 2.777
2.709 4.388 2.488
2.663 4.056 2.263
2.286 3.947 2.421
2.204 3.966 2.228
1.920 3.891 2.212
1.515 3.931 1.956
0.332 3.630 1.459
0.063 3.402 1.260
3.044 4.630 2.490
2.880 4.553 2.617
2.394 4.349 2.461
2.394 4.306 2.298
1.909 4.214 2.020
1.893 4.158 2.029
1.485 4.144 2.050
1.375 4.305 1.818
0.418 3.902 1.470
0.134 3.740 1.174
2.843 4.913 2.680
2.796 4.804 2.458
2.336 4.821 2.461
2.116 4.727 2.274
1.837 4.438 2.049
1.738 4.262 1.988
1.567 4.293 1.750
1.444 4.547 1.796
-0.120 4.132 1.153
2.940 5.188 2.583
2.607 5.122 2.426
2.355 4.863 2.405
2.185 4.931 2.055
1.853 4.623 2.196
1.503 4.765 2.076
1.372 4.565 1.912
1.377 4.875 1.765
1.171 4.724 1.833
2.712 5.472 2.587
2.555 5.329 2.475
2.393 5.111 2.402
1.873 4.995 2.179
1.809 4.906 1.949
1.663 5.043 2.033
1.390 4.849 1.806
1.347 4.956 1.843
0.906 5.097 1.594
2.394 5.443 2.232
2.165 5.514 2.077
2.011 5.522 2.088
1.785 5.144 2.094
1.515 5.114 1.972
1.344 5.187 1.749
1.227 5.337 1.809
1.739 5.496 2.218
1.695 5.399 1.986
1.435 5.388 1.757
1.252 5.446 1.791
2.517 1.290 2.216
1.571 0.844 1.902
1.281 0.651 1.626
0.858 0.450 1.468
0.699 0.518 1.579
0.499 0.267 1.291
0.120 0.246 1.207
0.046 0.240 1.026
3.862 1.851 2.899
3.631 1.716 2.851
3.581 1.579 2.857
3.117 1.555 2.601
3.063 1.428 2.507
2.695 1.272 2.464
2.685 1.173 2.192
2.567 1.621 2.329
1.397 1.051 1.808
1.000 0.849 1.648
0.809 0.789 1.511
0.549 0.774 1.403
0.431 0.577 1.169
0.241 0.430 1.086
4.005 2.208 2.829
3.580 1.912 2.770
3.283 1.965 2.819
3.115 1.718 2.677
3.081 1.595 2.536
2.793 1.664 2.475
2.432 1.431 2.324
2.435 1.704 2.373
2.273 1.714 1.986
0.885 1.131 1.502
0.747 1.226 1.457
0.571 0.910 1.382
0.292 0.916 1.121
0.045 0.756 0.990
3.852 2.389 2.907
3.686 2.376 2.862
3.228 2.055 2.821
2.962 2.068 2.663
2.748 2.104 2.412
2.541 1.985 2.482
2.370 1.700 2.164
2.449 2.009 2.340
2.119 1.890 2.066
0.779 1.547 1.535
0.751 1.244 1.433
0.527 1.144 1.308
0.245 1.075 1.215
3.491 2.458 2.780
3.117 2.265 2.530
3.115 2.269 2.479
2.662 2.340 2.507
2.386 2.023 2.467
2.439 1.885 2.153
2.353 2.334 2.132
1.838 2.111 1.934
0.669 1.531 1.262
0.471 1.402 1.220
0.221 1.326 1.299
3.100 2.697 2.474
2.784 2.555 2.367
2.795 2.424 2.515
2.372 2.513 2.300
2.154 2.386 2.148
2.391 2.276 1.983
1.063 1.669 1.288
0.811 1.507 1.078
0.399 1.644 1.031
0.360 1.482 0.833
0.076 1.357 0.969
3.368 2.678 2.572
3.361 2.608 2.421
3.079 2.547 2.178
2.931 2.510 2.291
2.648 2.490 1.903
2.310 2.179 1.926
0.198 2.899 1.009
-0.087 2.882 0.948
2.923 4.090 2.121
2.477 3.932 2.074
2.387 3.610 1.941
1.773 3.743 1.633
0.425 3.159 1.191
0.172 3.054 0.910
3.071 4.303 2.348
2.994 4.376 2.399
2.774 4.148 2.264
2.455 4.213 2.122
2.114 4.086 1.920
1.949 3.899 1.729
1.755 3.856 1.786
1.601 3.917 1.703
0.415 3.513 1.184
0.434 3.418 0.874
0.061 3.301 0.985
2.974 4.618 2.218
2.986 4.623 2.371
2.757 4.478 1.981
2.491 4.299 2.062
2.267 4.370 1.923
2.037 4.171 1.838
1.854 4.014 1.659
1.489 4.346 1.690
0.538 3.873 1.228
0.082 3.872 0.879
-0.013 3.699 0.764
3.021 4.772 2.442
2.889 4.802 2.099
2.593 4.734 2.135
2.246 4.511 1.989
2.226 4.394 1.981
1.726 4.502 1.852
1.757 4.463 1.738
1.645 4.586 1.658
0.420 4.014 0.916
0.139 3.882 0.836
3.063 5.208 2.236
2.589 5.092 2.197
2.501 5.013 1.941
2.162 4.877 1.941
1.968 4.706 1.823
1.768 4.523 1.697
1.401 4.709 1.542
1.311 4.949 1.458
0.295 4.213 1.111
0.133 4.262 0.983
2.828 5.478 2.233
2.619 5.164 2.213
2.246 5.324 2.116
2.037 5.271 1.851
1.894 5.065 1.891
1.652 4.871 1.642
1.415 4.851 1.587
1.254 5.039 1.537
2.853 5.657 2.207
2.558 5.559 1.968
2.274 5.440 2.045
1.935 5.457 1.934
1.785 5.247 1.897
1.690 5.297 1.512
1.311 5.193 1.648
2.078 5.815 1.984
2.026 5.494 1.949
1.649 5.535 1.739
1.596 5.557 1.704
2.587 1.304 2.007
1.665 0.685 1.662
1.428 0.564 1.521
1.030 0.703 1.377
0.928 0.538 1.184
0.650 0.321 0.956
0.304 0.257 0.900
0.119 0.217 0.853
3.972 1.827 2.713
3.938 1.605 2.693
3.747 1.582 2.478
3.529 1.627 2.363
3.264 1.360 2.309
3.003 1.415 2.281
2.813 1.186 2.117
2.736 1.616 1.945
1.452 0.940 1.376
1.196 0.840 1.394
0.871 0.710 1.281
0.744 0.647 1.171
0.487 0.628 0.956
0.301 0.618 1.045
-0.066 0.330 0.680
3.921 2.106 2.775
3.670 1.855 2.607
3.608 1.935 2.333
3.265 1.658 2.376
2.956 1.823 2.289
2.775 1.479 2.080
2.460 1.572 2.048
2.502 1.913 2.150
1.235 1.219 1.412
1.062 1.241 1.280
0.910 1.068 1.237
0.812 0.976 0.966
0.286 0.792 1.081
0.102 0.801 0.895
3.931 2.228 2.584
3.654 2.143 2.648
3.330 2.279 2.482
3.190 1.926 2.251
3.027 1.879 2.276
2.824 1.953 2.001
2.493 1.725 2.123
2.476 2.115 2.086
1.076 1.338 1.152
0.827 1.379 1.201
0.513 1.192 1.072
0.412 1.207 1.024
-0.022 1.076 0.844
3.718 2.462 2.702
3.646 2.373 2.468
3.397 2.515 2.331
3.103 2.375 2.443
2.798 2.089 2.220
2.782 2.142 2.222
2.279 1.892 1.872
2.186 2.160 1.997
0.909 1.727 1.359
0.825 1.736 1.100
0.530 1.485 1.120
0.346 1.359 1.075
0.031 1.411 0.817
3.332 2.691 2.418
3.133 2.643 2.296
2.872 2.578 2.177
2.816 2.486 2.125
2.520 2.272 2.084
2.277 2.219 1.921
1.193 1.683 1.133
1.137 1.778 1.091
0.789 1.502 1.004
0.465 1.594 0.891
0.299 1.292 0.613
0.223 1.178 0.557
3.889 2.948 2.277
3.703 2.683 2.146
3.381 2.802 1.977
3.072 2.522 2.071
2.847 2.543 1.971
2.568 2.453 1.927
0.851 1.898 0.914
0.638 1.883 0.685
3.579 2.880 2.328
3.380 2.887 2.096
2.145 3.521 1.597
2.715 3.741 1.687
2.449 3.900 1.758
2.324 3.670 1.591
2.076 3.589 1.569
1.934 3.960 1.459
0.190 3.047 0.776
0.110 2.931 0.666
2.997 4.178 1.950
2.808 4.344 1.853
2.574 4.079 1.906
2.505 4.040 1.758
2.051 4.002 1.640
1.856 3.834 1.318
1.920 4.220 1.333
1.601 4.057 1.372
0.300 3.537 0.742
0.216 3.279 0.795
3.167 4.589 1.957
2.960 4.523 2.102
2.782 4.394 1.872
2.506 4.425 1.697
2.286 4.204 1.597
1.913 4.227 1.429
1.918 3.947 1.353
1.728 4.260 1.513
1.432 4.219 1.289
0.496 3.875 0.781
-0.010 3.657 0.531
3.041 4.793 1.916
2.746 4.903 1.952
2.714 4.567 1.755
2.442 4.654 1.609
2.184 4.494 1.730
2.034 4.430 1.535
1.677 4.412 1.405
1.574 4.488 1.462
0.533 4.209 0.827
0.140 4.129 0.664
0.026 3.764 0.454
2.947 5.146 1.894
2.887 5.082 1.887
2.475 4.864 1.704
2.434 4.863 1.751
2.172 4.786 1.548
1.858 4.736 1.426
1.587 4.478 1.420
1.517 4.778 1.364
0.396 4.300 0.644
0.034 4.410 0.678
2.816 5.564 2.068
2.713 5.424 1.984
2.405 5.090 1.690
2.300 5.119 1.543
2.023 4.998 1.491
1.896 4.954 1.451
1.563 4.718 1.283
0.208 4.706 0.756
0.136 4.673 0.713
2.795 5.603 2.035
2.646 5.575 1.705
2.494 5.359 1.611
2.151 5.372 1.485
1.913 5.290 1.541
1.639 5.296 1.329
2.730 5.958 1.835
2.629 5.937 1.836
2.366 5.763 1.608
2.126 5.658 1.736
1.807 5.674 1.574
2.901 1.124 1.792
2.653 1.280 1.619
1.559 0.729 1.281
1.341 0.607 1.012
0.874 0.379 0.995
0.613 0.429 0.837
0.540 0.355 0.711
0.421 0.152 0.485
-0.026 0.232 0.341
4.172 1.818 2.500
3.837 1.688 2.499
3.684 1.708 2.339
3.618 1.672 2.231
3.344 1.603 1.940
3.114 1.223 2.024
2.757 1.165 1.893
2.796 1.640 1.806
1.586 1.094 1.094
1.371 0.913 1.176
0.973 0.956 1.095
0.897 0.799 0.825
0.502 0.760 0.843
0.407 0.550 0.626
0.053 0.393 0.508
4.119 2.179 2.542
3.999 1.966 2.219
3.695 1.940 2.155
3.415 1.656 1.983
3.289 1.826 2.060
2.906 1.634 2.031
2.762 1.578 1.802
2.739 1.658 1.814
1.617 1.164 1.180
1.175 1.338 1.071
0.893 1.075 1.070
0.809 1.079 0.856
0.530 0.907 0.907
0.299 0.807 0.628
0.025 0.728 0.646
3.992 2.392 2.342
3.640 2.154 2.244
3.608 2.212 2.332
3.381 2.200 2.163
3.158 1.837 1.839
2.989 1.907 1.713
2.575 1.726 1.678
2.563 1.884 1.679
1.395 1.512 1.078
1.032 1.496 1.038
0.949 1.288 1.001
0.636 1.406 0.846
0.491 1.188 0.603
0.249 1.120 0.472
-0.060 1.099 0.599
3.842 2.718 2.233
3.779 2.435 2.250
3.526 2.395 2.019
3.298 2.387 2.133
2.895 2.158 1.848
2.908 2.054 1.895
2.454 2.061 1.582
1.217 1.775 1.142
1.040 1.791 1.170
0.804 1.500 0.997
0.494 1.371 0.927
0.379 1.296 0.777
0.276 1.338 0.641
3.776 2.736 2.423
3.581 2.650 2.369
3.443 2.693 2.009
3.160 2.704 1.955
3.027 2.489 1.804
2.647 2.334 1.853
1.602 2.000 0.970
1.283 1.711 0.770
1.130 1.636 0.856
1.055 1.553 0.576
0.661 1.472 0.473
0.503 1.550 0.562
4.054 3.017 2.305
4.010 2.852 2.227
3.862 2.875 1.971
3.517 2.612 1.796
3.368 2.631 1.857
2.877 2.441 1.654
1.656 2.306 1.058
1.342 2.094 0.919
1.086 1.953 0.770
0.957 1.751 0.737
4.117 3.294 2.188
3.825 3.145 2.172
3.627 2.996 1.963
3.431 3.045 1.896
1.506 2.524 0.780
1.191 2.424 0.678
4.298 3.695 2.237
4.034 3.625 2.197
2.129 3.313 1.295
1.842 3.263 1.065
1.595 2.987 1.031
4.405 4.315 2.356
2.177 3.324 1.392
2.252 3.699 1.107
2.005 3.471 1.144
1.721 3.510 1.079
-0.022 2.768 0.318
4.394 4.510 2.370
2.667 3.650 1.550
2.407 3.527 1.385
1.982 3.668 1.182
2.005 3.860 1.300
1.876 3.660 1.089
0.110 3.133 0.329
4.450 4.871 2.411
2.935 4.109 1.741
2.659 4.201 1.473
2.465 4.051 1.347
2.331 3.959 1.440
2.161 3.856 1.112
1.876 4.034 1.197
1.779 4.028 1.147
0.452 3.282 0.356
0.025 3.422 0.448
3.138 4.438 1.890
2.764 4.602 1.668
2.524 4.519 1.433
2.517 4.406 1.408
2.089 4.203 1.298
1.935 4.021 1.151
1.696 4.299 1.109
0.450 3.613 0.560
0.241 3.643 0.277
-0.100 3.488 0.269
3.330 4.879 1.940
2.971 4.772 1.750
2.670 4.632 1.689
2.549 4.647 1.539
2.317 4.415 1.295
2.054 4.339 1.313
1.945 4.356 1.054
1.791 4.489 1.184
0.482 4.040 0.690
0.488 3.902 0.497
0.248 4.004 0.198
2.998 5.193 1.780
2.973 5.218 1.767
2.832 5.056 1.675
2.345 4.966 1.446
2.139 4.870 1.337
1.928 4.733 1.143
1.610 4.527 0.990
0.391 4.361 0.397
0.162 4.289 0.361
0.055 4.069 0.406
3.401 5.628 1.718
2.984 5.320 1.633
2.696 5.225 1.583
2.541 5.303 1.502
2.511 5.031 1.506
2.029 5.024 1.306
1.996 4.796 1.159
0.395 4.735 0.488
0.092 4.466 0.253
3.103 5.625 1.867
2.821 5.797 1.597
2.641 5.688 1.627
2.440 5.549 1.632
2.282 5.470 1.368
2.017 5.406 1.217
0.594 5.119 0.611
0.364 4.843 0.377
0.047 4.734 0.389
3.232 6.150 1.646
2.837 6.006 1.745
2.582 5.974 1.563
2.500 5.817 1.306
2.216 5.777 1.447
0.345 5.118 0.471
0.252 5.230 0.339
-0.107 5.122 0.452
2.732 6.077 1.767
2.546 6.082 1.476
0.795 6.070 0.644
0.740 6.135 0.588
2.988 1.373 1.670
2.546 1.113 1.431
1.623 0.827 0.953
1.403 0.458 0.754
1.012 0.467 0.572
0.906 0.301 0.482
0.512 0.244 0.415
0.341 0.132 0.321
0.027 0.243 0.135
4.148 1.724 2.001
3.947 1.583 2.045
3.682 1.666 1.875
3.261 1.588 1.858
3.256 1.506 1.614
2.867 1.324 1.482
2.735 1.593 1.687
1.556 0.864 0.724
1.111 0.705 0.687
1.120 0.672 0.595
0.738 0.661 0.501
0.581 0.643 0.509
0.449 0.575 0.453
0.179 0.456 0.194
4.327 2.162 2.114
3.915 1.978 2.070
3.816 1.931 2.059
3.652 1.776 1.841
3.276 1.582 1.915
3.167 1.628 1.750
2.922 1.533 1.607
2.785 1.905 1.503
1.666 1.334 0.872
1.265 1.108 0.776
1.163 1.001 0.602
0.946 1.145 0.751
0.605 0.810 0.444
0.588 0.854 0.250
0.213 0.792 0.266
4.085 2.505 2.098
3.773 2.356 1.992
3.737 2.280 2.096
3.347 2.079 1.810
3.120 2.040 1.590
2.939 1.847 1.632
2.707 1.750 1.569
1.495 1.510 0.987
1.207 1.348 0.697
1.065 1.324 0.547
0.805 1.132 0.631
0.539 1.322 0.322
0.476 1.203 0.282
4.120 2.601 2.168
4.063 2.686 2.161
3.722 2.638 1.875
3.455 2.311 1.826
3.277 2.249 1.865
2.998 2.356 1.578
2.913 2.252 1.688
1.700 1.902 1.049
1.330 1.736 0.864
1.116 1.636 0.909
0.936 1.767 0.572
0.827 1.637 0.449
0.432 1.312 0.342
4.262 2.965 2.270
4.055 2.864 2.138
3.643 2.812 2.139
3.477 2.790 1.983
3.289 2.663 1.858
2.906 2.414 1.779
6.068 3.868 2.996
6.341 4.200 2.975
4.845 4.103 2.346
5.223 4.389 2.247
4.878 4.430 2.302
5.348 4.939 2.327
5.107 4.625 2.340
4.799 4.669 2.146
5.417 5.142 2.448
5.278 5.221 2.280
5.009 5.116 2.298
4.661 4.987 2.338
5.582 5.413 2.724
5.281 5.312 2.449
5.128 5.400 2.242
4.797 5.143 2.285
4.529 5.162 2.009
5.755 5.981 2.759
5.399 5.708 2.515
5.135 5.574 2.487
4.926 5.695 2.467
4.681 5.544 2.331
4.612 5.547 2.111
5.780 6.311 2.754
5.704 6.019 2.647
5.351 5.927 2.654
5.117 6.034 2.518
4.770 5.895 2.418
4.618 5.660 2.098
5.124 6.293 2.402
4.858 6.248 2.122
6.387 2.495 2.763
6.089 2.414 2.719
5.918 2.295 2.810
5.589 2.280 2.675
6.284 2.852 2.874
5.801 2.814 2.583
5.778 2.666 2.559
5.939 3.010 2.675
5.932 3.051 2.681
6.091 3.398 2.876
5.927 3.409 2.773
6.204 3.583 2.849
5.216 3.979 2.181
5.286 4.258 2.265
5.181 4.165 2.074
5.133 4.621 2.207
5.046 4.455 1.968
5.317 4.742 2.052
5.156 4.777 2.180
4.758 4.681 2.120
5.252 5.147 2.135
5.177 4.950 1.937
4.935 4.802 2.067
5.305 5.249 2.282
4.833 5.142 2.132
4.755 5.072 2.010
5.229 5.632 2.224
6.278 2.558 2.459
5.780 2.423 2.373
5.253 3.633 1.986
5.354 4.107 2.020
5.313 3.826 1.707
5.481 4.089 1.860
5.108 4.111 1.825
5.351 4.348 1.796
4.943 4.256 1.638
5.235 4.884 1.701
4.942 4.626 1.753
5.190 5.081 1.749
5.005 4.775 1.835
5.626 3.523 1.784
5.642 3.796 1.749
5.581 3.507 1.764
5.594 4.068 1.735
5.287 3.989 1.545
5.460 4.092 1.708
5.400 4.063 1.685
5.490 4.544 1.528
5.302 4.394 1.430
5.231 4.629 1.406
5.106 5.002 1.338
4.650 6.183 1.276
5.618 3.375 1.566
6.037 3.367 1.550
5.806 3.428 1.285
5.803 3.593 1.394
5.607 3.743 1.297
5.819 3.909 1.584
5.472 3.738 1.434
5.560 4.222 1.424
5.455 4.245 1.173
5.405 4.385 1.367
5.083 4.624 1.110
4.823 6.162 1.092
5.759 3.248 1.359
5.903 3.339 1.652
5.785 3.325 1.272
6.162 3.660 1.327
6.135 3.461 1.215
5.940 3.266 1.321
6.192 3.882 1.343
5.945 3.630 1.095
5.795 3.619 1.052
5.925 4.083 1.155
5.495 3.773 1.103
5.480 4.113 0.929
5.521 4.315 1.009
6.248 5.303 1.409
6.024 5.459 1.417
6.174 6.060 1.350
5.893 5.728 1.233
5.656 5.624 1.189
5.958 6.021 1.148
5.653 6.016 1.031
5.310 5.951 1.184
5.647 6.313 1.150
5.234 6.065 0.930
5.108 6.167 0.826
4.911 5.880 0.960
4.703 6.334 0.871
6.277 2.901 1.480
5.992 3.349 1.184
5.953 3.110 1.202
6.250 3.540 1.418
5.979 3.403 1.291
5.786 3.388 1.136
6.276 3.463 1.128
5.767 3.325 0.985
6.094 3.789 0.971
5.903 3.508 0.765
5.827 3.862 1.074
5.736 4.005 0.910
5.707 4.005 0.746
6.145 5.141 0.913
6.269 5.452 1.120
5.895 5.526 0.980
5.596 5.458 0.811
6.267 5.731 0.955
5.744 5.815 1.106
5.567 5.563 0.883
5.577 5.567 0.868
6.362 6.170 1.128
5.891 6.222 1.137
5.942 5.913 0.806
5.703 5.823 0.872
5.303 5.871 0.628
5.145 5.558 0.697
5.856 6.223 1.034
5.608 6.261 0.876
5.356 6.000 0.725
5.121 6.039 0.570
4.899 6.282 0.467
6.148 2.823 1.072
6.233 3.270 0.918
5.850 3.266 1.016
6.249 3.624 0.994
5.829 3.456 1.042
6.109 3.478 0.777
6.012 3.381 0.738
6.043 3.682 0.758
5.918 3.582 0.701
6.255 5.153 0.867
6.048 5.193 0.771
6.063 5.529 0.728
5.861 5.407 0.647
5.641 5.423 0.591
6.246 5.693 0.794
5.868 5.594 0.797
5.844 5.638 0.683
5.498 5.471 0.572
6.078 6.214 0.895
5.974 6.112 0.631
5.789 5.838 0.441
5.558 5.698 0.519
5.200 5.556 0.432
5.867 6.238 0.690
5.701 6.101 0.453
5.408 6.154 0.507
5.246 6.081 0.187
5.183 6.173 0.255
6.243 2.989 0.889
6.245 3.029 0.763
6.375 3.629 0.783
5.899 3.457 0.525
6.191 3.422 0.341
5.920 5.086 0.309
5.887 4.937 0.337
6.286 5.502 0.563
5.832 5.436 0.539
5.815 5.427 0.179
6.223 5.651 0.489
5.926 5.688 0.388
5.805 5.478 0.343
5.352 5.302 0.101
6.310 6.225 0.625
5.959 6.017 0.487
5.840 6.038 0.298
5.475 5.735 0.290
5.314 5.777 0.056
6.002 6.390 0.442
5.647 6.171 0.412
5.469 6.096 0.097
5.376 5.982 0.214
5.120 6.297 -0.064
6.301 3.175 0.347
6.214 3.477 0.439
6.154 4.889 0.329
6.192 4.996 0.050
5.845 5.161 -0.045
5.979 5.530 0.104
5.715 5.229 0.163
6.327 5.765 0.371
6.015 5.722 0.052
5.797 5.606 -0.079
6.082 6.091 0.214
5.978 5.815 0.000
6.151 6.394 0.054
5.779 6.090 0.131
6.004 3.743 2.887
6.316 4.035 3.066
5.090 4.065 2.200
4.975 4.518 2.421
4.765 4.350 2.220
5.097 4.927 2.551
4.903 4.802 2.381
4.626 4.760 2.266
5.229 5.156 2.422
5.275 5.184 2.462
4.951 4.970 2.279
4.560 4.750 2.255
5.506 5.465 2.746
5.381 5.348 2.485
5.053 5.462 2.400
4.825 5.300 2.158
4.674 5.076 2.251
5.673 5.974 2.683
5.383 5.895 2.690
5.297 5.783 2.332
4.929 5.590 2.429
4.642 5.609 2.223
4.457 5.375 2.219
5.770 6.133 2.646
5.415 6.241 2.674
5.251 6.103 2.401
5.077 5.839 2.474
4.908 5.935 2.171
4.553 5.826 2.111
4.886 6.306 2.419
4.899 5.964 2.214
6.284 2.646 2.900
5.910 2.558 2.646
5.941 2.577 2.773
5.596 2.402 2.683
6.155 2.886 2.743
5.925 2.820 2.703
5.666 2.798 2.661
6.078 3.234 2.948
5.925 3.151 2.580
6.271 3.554 2.924
5.894 3.491 2.824
6.158 3.674 2.841
2.035 1.982 0.901
1.669 2.006 0.713
1.580 1.860 0.494
1.443 1.831 0.477
1.141 1.735 0.323
0.687 1.454 0.343
4.654 3.148 2.136
4.396 3.074 1.850
4.196 2.831 1.933
3.819 2.827 1.829
3.685 2.738 1.715
3.276 2.554 1.395
2.251 2.482 0.863
1.928 2.244 0.901
1.756 2.272 0.720
1.580 1.993 0.703
1.340 2.061 0.450
0.997 1.750 0.386
4.731 3.522 2.095
4.580 3.334 2.075
4.232 3.071 2.014
3.928 3.159 1.932
3.893 2.976 1.591
3.666 3.027 1.628
2.308 2.674 0.882
1.925 2.632 0.862
1.757 2.671 0.683
1.626 2.273 0.677
1.393 2.394 0.699
1.234 2.196 0.498
4.855 3.907 2.370
4.607 3.810 1.968
4.311 3.574 2.123
4.099 3.373 2.007
3.910 3.425 1.859
3.511 3.430 1.771
2.514 3.094 1.209
2.228 2.824 1.012
2.098 3.025 1.007
1.573 2.748 0.663
1.342 2.705 0.609
1.261 2.513 0.559
4.772 4.037 2.213
4.622 4.056 2.177
4.237 3.981 2.105
4.062 3.583 1.861
3.652 3.570 1.826
2.508 2.954 1.226
2.342 3.312 0.970
2.002 3.272 1.054
1.764 3.036 0.949
1.625 3.138 0.723
1.458 2.821 0.694
4.718 4.159 2.203
4.450 4.125 1.950
4.202 4.206 1.829
3.882 3.994 1.691
2.426 3.465 1.236
2.272 3.341 1.169
2.101 3.535 1.146
2.038 3.615 0.926
1.888 3.508 0.808
1.409 3.342 0.677
4.651 4.520 2.069
4.300 4.410 1.899
4.017 4.408 1.904
2.543 3.850 1.236
2.605 3.619 1.026
2.122 3.591 0.862
2.229 3.829 0.956
1.949 3.867 0.969
1.823 3.655 0.736
4.390 4.868 2.002
4.191 4.729 2.124
2.816 4.074 1.364
2.619 3.948 1.191
2.436 3.890 1.233
2.160 3.679 1.091
1.941 4.194 0.871
1.702 3.882 0.954
0.226 3.361 0.078
4.332 5.187 1.896
3.038 4.541 1.242
2.724 4.405 1.243
2.445 4.197 1.166
2.200 4.166 1.186
1.985 3.999 0.912
1.835 4.258 0.859
0.398 3.700 0.179
0.271 3.447 -0.119
3.247 4.850 1.525
3.012 4.589 1.429
2.746 4.714 1.123
2.492 4.554 1.150
2.268 4.392 1.092
1.835 4.215 0.813
0.571 4.010 0.076
0.184 3.836 0.027
3.361 5.251 1.461
2.999 5.136 1.345
2.734 5.122 1.234
2.480 4.911 1.179
2.209 4.920 1.240
1.969 4.634 0.922
0.698 4.334 0.270
0.432 4.253 0.294
0.078 4.044 0.155
3.351 5.635 1.595
3.033 5.441 1.576
3.054 5.300 1.408
2.620 5.201 1.176
2.407 5.039 1.270
2.312 4.924 0.945
0.833 4.751 0.257
0.652 4.639 0.176
0.168 4.635 0.252
0.054 4.334 -0.005
3.549 5.875 1.788
3.370 5.900 1.698
2.981 5.579 1.530
2.920 5.671 1.217
2.596 5.345 1.258
2.331 5.454 1.098
0.796 5.093 0.573
0.548 5.071 0.249
0.415 4.973 0.267
0.352 4.689 -0.042
3.791 6.096 1.701
3.337 6.200 1.716
3.101 6.133 1.433
2.920 5.898 1.537
2.897 5.764 1.228
2.386 5.632 1.154
0.920 5.452 0.611
0.713 5.432 0.356
0.450 5.364 0.369
0.309 5.164 0.200
0.076 5.094 0.087
2.832 6.242 1.242
2.752 6.170 1.179
1.261 5.732 0.561
1.082 5.612 0.366
