1.756 2.417 2.259
1.840 2.664 2.094
2.131 2.444 2.047
2.186 2.810 1.503
2.340 2.981 1.467
2.722 2.783 1.320
2.747 2.782 1.603
4.686 3.132 1.025
4.934 3.514 0.819
4.907 3.428 0.375
5.320 3.488 0.341
5.548 3.836 0.206
5.702 3.820 0.410
5.934 3.811 0.228
1.407 2.461 2.313
1.522 2.801 2.239
1.992 2.708 2.334
2.361 2.969 1.809
2.497 2.974 1.802
2.343 2.955 1.957
2.715 3.215 1.582
4.406 3.286 1.158
4.863 3.432 1.203
4.925 3.354 0.898
5.016 3.669 1.029
5.193 3.662 0.555
5.307 3.815 0.524
5.919 3.552 0.600
1.450 2.703 2.416
1.812 2.785 2.538
2.171 2.764 2.524
2.049 2.731 2.342
2.190 3.226 2.279
2.717 3.092 1.828
3.074 3.305 2.017
4.382 3.274 1.551
4.407 3.793 1.421
4.546 3.866 1.052
5.089 3.774 1.272
5.268 3.770 1.224
5.187 3.731 0.706
5.813 3.855 0.891
1.381 2.858 2.914
1.464 2.691 2.688
1.769 2.949 2.620
1.997 3.018 2.394
2.449 3.074 2.253
2.290 3.187 2.352
2.781 3.085 2.387
3.945 3.595 1.728
4.430 3.764 1.711
4.599 3.503 1.660
4.576 4.009 1.316
4.826 3.601 1.348
5.050 3.929 1.044
5.376 3.884 1.018
1.227 2.834 2.856
1.328 3.048 2.820
1.459 3.134 3.008
1.706 2.883 3.107
2.112 3.386 2.610
2.534 3.428 2.711
2.398 3.240 2.665
3.946 3.477 1.961
4.165 3.629 1.694
4.560 3.994 1.683
4.475 3.981 1.827
4.697 3.687 1.614
5.000 3.920 1.709
5.417 4.146 1.623
5.546 4.095 1.244
1.154 3.147 3.246
1.368 2.858 3.049
1.459 3.125 3.492
1.534 3.084 3.006
1.776 3.180 2.935
2.210 3.074 2.826
2.264 3.604 2.953
3.846 3.743 2.231
3.977 3.761 2.101
4.637 4.014 1.925
4.378 3.974 1.706
4.974 3.785 1.817
5.094 4.050 1.530
5.149 4.231 1.415
0.811 2.808 3.503
1.402 3.160 3.414
1.530 2.899 3.370
1.404 3.167 3.568
1.731 3.511 3.414
2.093 3.198 3.381
2.164 3.436 3.446
3.876 3.903 2.705
3.792 3.717 2.272
4.307 4.151 2.340
4.437 3.859 2.129
4.621 3.846 2.286
4.658 4.078 1.990
0.928 3.193 3.555
1.085 3.284 3.562
1.488 2.999 3.590
1.725 3.293 3.751
1.640 3.467 3.352
2.212 3.656 3.570
3.701 3.843 3.003
3.959 3.943 2.517
4.168 3.832 2.695
4.323 3.880 2.563
4.311 4.174 2.663
4.719 4.469 2.207
0.949 3.268 3.856
1.134 3.500 3.991
1.213 3.487 3.642
1.503 3.578 3.611
1.656 3.685 4.056
3.630 3.988 3.175
3.555 4.217 2.817
4.105 4.365 3.096
4.277 4.034 2.846
4.539 4.197 2.531
4.512 4.255 2.408
1.085 3.103 3.982
1.379 3.465 4.084
1.354 3.474 4.015
1.867 3.503 3.734
3.271 4.218 3.453
3.464 3.898 3.395
3.635 3.979 3.112
4.133 4.241 3.255
4.387 4.359 3.258
6.091 4.958 1.934
0.997 3.579 4.253
1.109 3.549 4.430
1.338 3.337 4.018
3.032 4.126 3.933
3.068 4.218 3.808
3.698 4.371 3.556
3.561 4.353 3.405
4.027 4.207 3.512
5.882 4.720 2.341
5.903 5.073 2.690
6.347 5.017 2.624
1.258 3.483 4.738
1.483 3.427 4.327
2.549 4.273 4.224
3.060 4.150 4.279
3.064 4.130 3.839
3.537 4.564 3.747
3.616 4.270 3.625
3.695 4.635 3.580
5.447 4.868 2.882
5.844 5.178 2.658
5.905 5.253 2.651
6.271 5.306 2.476
0.950 3.822 4.936
0.535 0.816 -0.091
0.492 0.795 -0.101
0.689 1.159 0.437
1.196 0.795 0.016
1.298 1.147 0.270
0.537 0.828 0.244
0.826 1.223 0.510
0.903 1.358 0.581
1.320 1.202 0.081
1.457 1.089 -0.003
1.618 1.453 0.251
0.459 1.017 0.508
0.653 0.846 0.517
0.990 1.265 0.819
1.213 1.330 0.590
1.289 1.389 0.331
1.333 1.393 0.250
1.786 1.480 0.435
2.109 1.536 0.193
2.355 1.824 -0.097
0.562 1.182 0.522
0.833 1.119 0.567
0.913 1.495 0.674
1.254 1.568 0.730
1.469 1.480 0.558
1.818 1.713 0.728
1.776 1.694 0.261
2.014 1.391 0.249
0.812 1.066 0.765
1.179 1.148 0.619
0.929 1.420 1.162
1.322 1.715 0.794
1.279 1.445 0.912
1.651 1.756 1.038
3.660 1.972 0.075
0.501 1.245 1.016
0.816 1.637 0.898
3.976 2.552 0.193
2.159 2.523 1.360
2.282 2.417 1.533
2.602 2.228 1.206
5.395 3.223 0.395
5.598 2.977 -0.064
5.445 3.086 -0.142
1.742 2.458 1.624
1.987 2.424 1.563
2.572 2.568 1.832
2.762 2.609 1.744
2.804 2.401 1.364
2.964 2.397 1.564
4.849 3.143 0.822
4.985 3.029 0.659
4.887 3.403 0.427
5.469 3.455 0.371
5.553 3.223 0.249
5.856 3.511 -0.004
1.451 2.151 2.357
1.563 2.215 2.289
1.755 2.325 1.789
2.094 2.679 2.004
2.472 2.391 2.087
2.840 2.725 1.684
2.649 2.817 1.417
4.363 3.188 1.224
4.732 3.155 1.050
4.794 3.278 0.589
4.918 3.539 0.667
5.396 3.087 0.578
5.330 3.198 0.411
5.899 3.289 0.629
1.461 2.321 2.340
2.003 2.665 2.138
2.274 2.817 2.130
2.189 2.702 2.259
2.522 2.432 2.044
2.547 2.567 1.908
2.747 2.594 1.775
4.212 3.211 1.226
4.474 3.385 1.032
4.890 3.324 1.007
5.038 3.302 0.999
5.253 3.542 0.721
5.527 3.464 0.701
5.542 3.390 0.961
5.807 3.608 0.636
1.551 2.726 2.882
1.705 2.768 2.474
1.774 2.853 2.586
2.050 2.798 2.359
2.454 2.531 2.523
2.503 2.898 2.467
2.610 2.852 2.323
2.897 2.732 2.220
3.919 3.157 1.524
4.499 3.533 1.381
4.290 3.266 1.258
4.711 3.627 1.465
4.956 3.597 1.071
5.272 3.794 0.874
5.670 3.797 1.202
5.468 3.413 0.750
1.479 2.409 2.711
1.527 2.878 2.769
1.888 2.631 2.866
2.040 2.846 2.676
2.060 3.074 2.480
2.219 2.759 2.418
2.568 2.961 2.583
2.548 3.211 2.448
4.160 3.528 1.692
4.449 3.485 1.486
4.773 3.384 1.379
4.650 3.349 1.477
5.280 3.380 1.439
5.193 3.692 1.404
5.338 3.808 1.423
5.914 3.871 1.369
1.449 2.658 3.286
1.225 2.484 2.756
1.731 2.662 3.332
1.589 3.011 3.168
2.179 3.014 3.091
2.181 2.886 3.057
2.354 3.177 3.024
2.886 3.064 2.824
3.043 3.161 2.433
4.199 3.529 1.997
4.176 3.532 1.743
4.464 3.851 1.702
5.036 3.687 1.775
5.114 3.682 1.686
5.200 3.670 1.366
5.725 4.055 1.694
1.088 2.800 3.448
1.322 2.575 3.280
1.410 2.681 3.369
1.912 3.062 3.471
1.861 3.282 3.025
2.424 3.071 2.894
2.522 2.961 2.755
2.922 3.236 2.762
3.948 3.485 2.294
4.294 3.706 2.096
4.432 3.902 2.156
4.458 3.701 1.840
5.058 4.068 1.904
4.970 3.779 1.701
5.388 3.956 1.767
5.421 3.749 1.419
1.255 2.739 3.534
1.814 2.696 3.137
1.543 3.213 3.701
2.066 3.298 3.477
2.060 2.913 3.307
2.262 3.073 3.088
2.423 3.494 3.357
4.104 3.905 2.409
4.216 3.609 2.261
4.436 3.748 2.163
4.748 3.750 1.998
5.145 3.741 2.230
5.185 4.242 2.213
1.518 3.008 3.831
1.595 2.827 3.646
1.458 3.328 4.034
1.793 3.253 3.927
1.943 3.218 3.441
3.964 3.625 2.797
4.487 3.898 2.749
4.386 4.182 2.341
4.976 3.766 2.201
1.419 3.115 4.101
1.843 3.084 3.647
2.767 4.167 4.113
2.789 4.175 4.240
3.200 3.821 4.212
3.628 3.985 3.745
5.446 4.706 2.999
5.759 4.910 2.793
6.023 4.757 2.897
5.905 5.059 2.853
0.564 0.751 -0.002
1.259 0.831 -0.119
1.042 0.733 0.119
0.668 0.722 0.437
0.887 1.006 0.213
1.138 0.901 0.168
1.606 0.706 -0.114
0.784 0.572 0.454
0.614 0.920 0.455
0.910 1.082 0.340
1.306 1.089 0.493
1.336 1.151 0.625
1.743 0.981 0.492
1.960 1.105 0.308
2.042 1.097 0.314
0.840 0.855 0.704
0.955 1.019 0.683
1.061 0.962 0.961
1.131 0.964 0.610
1.654 0.975 0.823
1.612 1.080 0.656
1.971 1.063 0.475
1.982 1.107 0.132
2.261 1.403 0.008
0.519 0.996 0.792
1.099 0.746 0.686
0.889 0.911 1.094
1.181 1.267 1.089
1.490 1.115 0.970
1.576 1.381 0.740
2.149 1.146 0.694
1.943 1.679 0.285
2.542 1.361 0.273
1.058 1.262 0.943
1.381 1.563 0.864
1.542 1.435 0.865
1.596 1.662 0.817
1.903 1.671 0.870
1.553 1.827 1.987
2.224 2.030 1.710
2.429 2.411 1.661
2.497 2.415 1.707
2.552 2.093 1.538
4.321 2.766 1.111
4.512 2.888 0.967
5.026 2.698 0.621
4.959 2.712 0.359
5.415 2.881 0.583
5.483 3.272 0.378
1.449 2.091 2.554
1.831 1.957 2.483
2.288 2.032 2.250
2.053 2.065 2.289
2.537 2.164 1.970
2.616 2.318 1.677
2.991 2.322 1.663
4.091 2.679 1.232
4.502 3.115 1.012
4.987 2.896 0.953
5.100 3.132 0.762
5.116 3.228 0.854
5.509 3.276 0.913
5.864 2.997 0.581
1.686 2.400 2.699
1.705 2.053 2.335
1.990 2.349 2.211
1.902 2.425 2.319
2.524 2.644 2.250
2.587 2.452 2.263
2.664 2.667 2.054
2.765 2.579 2.107
3.884 2.985 1.423
4.471 2.986 1.412
4.530 2.869 1.250
4.709 3.286 1.131
5.273 3.218 0.898
5.179 3.101 1.076
5.333 3.180 1.077
5.634 3.191 0.676
1.443 1.981 2.642
1.517 2.148 2.633
1.515 2.460 2.897
2.095 2.383 2.830
1.922 2.629 2.729
2.645 2.383 2.715
2.719 2.833 2.525
2.716 2.894 2.343
2.822 2.724 1.977
3.961 3.212 1.521
4.576 3.036 1.576
4.497 3.397 1.364
5.053 3.012 1.376
5.242 3.500 1.389
5.403 3.163 1.105
5.285 3.449 1.383
5.800 3.376 1.186
1.560 2.510 2.925
1.403 2.637 2.908
1.530 2.313 3.211
1.992 2.551 2.999
1.980 2.683 2.842
2.500 2.556 2.893
2.756 2.704 2.640
2.715 2.590 2.567
3.096 3.047 2.528
4.010 2.920 2.162
4.665 3.337 1.565
4.567 3.119 1.784
5.102 3.403 1.681
5.000 3.232 1.721
5.129 3.526 1.392
5.782 3.665 1.313
5.990 3.514 1.120
1.134 2.160 3.065
1.483 2.577 3.278
1.637 2.693 3.407
2.072 2.789 2.974
1.812 2.839 2.843
2.540 2.558 3.116
2.379 2.806 3.117
2.557 2.929 2.752
2.891 2.962 2.687
4.096 3.531 2.367
4.541 3.269 1.924
4.507 3.373 2.122
5.074 3.489 1.790
5.126 3.285 1.740
5.422 3.418 1.734
5.435 3.592 1.337
5.741 3.742 1.371
1.582 2.394 3.567
1.695 2.392 3.506
1.750 2.860 3.702
2.063 2.898 3.285
1.933 2.855 3.093
2.357 2.662 3.342
2.433 2.977 3.331
2.978 3.046 3.100
3.014 3.157 2.987
4.161 3.531 2.473
4.741 3.518 2.039
4.719 3.516 2.363
4.918 3.676 1.964
5.029 3.813 1.927
5.536 3.915 1.987
5.730 3.936 1.698
1.370 2.748 3.563
1.544 2.562 3.663
1.676 2.866 3.435
1.704 2.768 3.731
2.062 2.849 3.590
2.305 2.786 3.610
2.490 2.900 3.157
3.059 3.046 3.141
4.521 3.394 2.591
4.669 3.431 2.461
5.061 3.516 2.099
5.100 3.828 2.279
5.156 3.998 2.317
5.416 3.950 2.230
1.923 2.783 3.750
2.810 3.668 4.403
2.758 3.793 4.406
3.136 3.526 4.264
5.758 4.405 2.959
5.558 4.504 3.202
6.087 4.729 3.257
1.207 6.047 -0.143
1.382 5.759 0.045
0.668 5.649 0.175
0.569 5.762 0.224
0.778 5.599 0.230
1.346 5.487 0.119
1.544 5.784 0.043
1.734 6.067 0.239
0.901 5.954 0.502
1.114 5.549 0.752
1.199 5.957 0.405
1.617 5.730 0.082
0.818 5.900 0.670
0.905 5.647 0.587
1.129 5.913 0.493
0.346 5.932 1.425
0.561 5.962 1.195
-0.154 5.601 1.560
0.164 6.081 1.413
0.440 6.024 1.258
0.569 5.968 1.344
0.158 5.703 1.686
-0.144 6.031 1.712
0.287 5.961 1.677
0.301 6.101 1.754
0.028 5.990 1.687
0.007 6.236 2.184
0.538 6.008 1.986
0.612 5.989 2.055
0.337 6.259 2.097
0.304 6.328 2.089
0.013 6.457 2.205
0.639 5.073 0.286
1.059 5.291 0.192
0.934 5.274 -0.076
1.624 5.595 -0.047
0.772 5.347 0.409
0.606 5.593 0.621
1.030 5.368 0.406
1.389 5.547 0.530
1.240 5.481 0.219
1.762 5.818 0.312
0.597 5.522 0.741
0.706 5.232 1.049
0.852 5.426 0.808
1.300 5.331 0.856
1.126 5.836 0.552
1.714 5.891 0.662
0.077 5.331 1.312
0.309 5.407 1.342
0.706 5.345 0.933
1.018 5.516 0.878
0.951 5.746 0.673
1.106 5.606 0.839
0.146 5.589 1.279
0.202 5.460 1.210
0.354 5.740 1.454
0.574 5.948 1.406
0.904 5.546 0.898
1.405 5.688 0.972
0.310 5.572 1.298
0.261 5.677 1.636
0.287 5.636 1.563
0.518 5.824 1.452
0.775 5.958 1.390
0.832 5.881 1.339
0.236 5.825 1.690
0.419 5.918 2.034
0.286 6.011 1.712
0.702 5.708 1.497
0.577 6.002 1.476
-0.050 5.666 1.802
0.110 6.146 1.960
0.441 5.737 1.938
0.760 5.778 2.101
0.072 6.144 2.160
0.506 6.130 2.419
0.286 6.286 2.272
0.217 6.070 2.662
0.426 5.850 2.370
0.105 5.943 2.534
0.233 5.941 2.877
0.253 6.153 2.575
0.400 6.205 3.074
5.828 6.232 1.024
5.807 6.492 0.820
6.049 5.663 0.554
6.227 5.997 0.791
5.654 6.022 1.154
6.091 6.220 1.027
6.079 6.028 1.152
6.389 6.319 1.187
6.091 6.294 1.360
6.429 6.147 1.027
5.917 5.302 0.772
5.896 5.845 0.655
6.173 5.690 0.539
6.137 5.504 1.160
6.421 6.036 0.804
6.310 5.663 1.394
6.177 5.845 1.219
6.205 6.225 1.259
6.063 6.054 1.878
6.085 6.498 1.759
5.997 5.100 0.664
5.988 5.254 0.887
5.990 5.642 0.922
6.256 5.464 0.948
6.121 5.334 1.354
6.072 5.718 1.277
6.052 5.595 1.478
6.358 6.126 1.751
5.862 5.244 0.874
6.056 5.418 1.033
6.391 5.496 1.183
6.072 5.478 1.324
6.220 4.741 0.785
6.123 4.780 0.941
1.031 0.150 4.974
0.613 -0.026 5.281
0.873 0.192 5.172
-0.118 -0.186 6.121
0.421 0.061 5.829
0.611 0.001 5.662
-0.137 0.291 6.241
0.110 0.347 5.731
2.054 0.734 5.201
1.476 0.954 5.385
2.043 0.688 5.315
1.665 0.560 5.759
1.958 0.801 6.062
2.187 0.967 5.852
1.357 1.101 6.239
1.634 1.173 6.325
1.560 0.926 6.271
1.981 1.157 6.003
2.076 1.228 6.074
2.033 1.283 5.964
0.731 -0.162 5.526
0.587 0.238 6.087
1.957 0.780 5.914
1.542 0.914 6.100
2.128 0.621 6.326
1.946 1.030 6.102
2.114 1.158 6.462
0.335 1.399 3.098
0.188 1.631 3.724
0.361 1.842 3.582
0.046 1.598 4.061
0.550 1.669 3.653
0.120 1.860 4.171
0.230 2.059 4.143
0.119 2.013 4.236
0.389 1.904 3.905
0.241 2.051 4.452
0.485 2.373 4.208
0.515 2.174 4.440
0.270 2.550 5.902
-0.063 0.289 1.347
-0.146 0.310 1.603
0.089 0.299 1.918
0.028 1.238 3.538
0.234 1.472 3.273
0.172 1.673 3.576
0.365 1.778 3.486
0.142 1.720 4.140
0.581 1.597 3.753
0.034 1.643 4.129
0.201 1.729 4.374
0.305 1.701 4.114
0.683 1.637 4.035
-0.168 1.641 4.689
0.332 1.920 4.528
0.741 1.745 4.275
0.956 1.884 3.905
-0.003 1.810 4.618
0.323 1.864 4.700
0.459 2.088 4.293
0.827 1.911 4.283
0.140 2.228 4.818
0.237 2.105 4.968
0.488 1.944 4.866
0.169 0.014 1.720
0.101 0.070 1.877
0.282 0.172 1.523
0.252 0.398 2.050
0.323 0.234 1.986
0.279 0.581 1.822
-0.018 0.308 2.440
0.309 0.686 2.094
0.466 0.513 2.098
0.259 0.529 2.646
0.387 0.785 2.375
0.773 0.717 2.690
0.295 1.304 3.371
0.232 0.994 3.975
0.489 1.038 4.030
-0.015 1.331 4.187
0.521 1.569 4.069
0.611 1.349 3.780
0.273 1.421 4.438
0.195 1.360 4.043
0.507 1.679 3.916
0.981 1.532 3.844
0.107 1.345 4.398
0.309 1.642 4.480
0.392 1.962 4.422
0.742 1.994 4.218
0.135 1.685 4.662
0.463 2.018 4.609
0.711 2.098 4.336
1.014 1.714 4.308
1.244 1.759 4.171
0.412 1.825 4.878
0.621 1.828 4.811
0.856 2.129 4.962
0.727 1.848 4.551
1.267 1.931 4.733
0.841 2.012 4.816
1.060 2.285 4.727
1.297 2.281 4.688
1.206 2.401 5.193
1.343 2.124 5.036
-0.093 2.218 6.205
0.274 0.260 1.584
-0.007 0.056 2.130
0.131 -0.023 1.913
0.722 0.137 2.094
0.159 0.295 2.354
0.511 0.069 2.546
0.393 0.138 2.030
0.286 0.136 2.421
0.540 0.385 2.533
0.752 0.324 2.263
0.287 0.670 2.714
0.518 0.661 2.844
0.771 0.554 2.393
0.344 0.461 2.666
0.726 0.918 2.817
1.078 0.986 2.951
-0.047 0.770 4.277
0.296 0.871 4.161
0.263 1.150 4.323
0.795 1.502 3.910
0.277 1.329 4.289
0.646 1.056 4.465
0.887 1.171 4.378
0.933 1.356 4.275
-0.143 1.082 4.656
0.207 1.299 4.558
0.624 1.464 4.512
0.667 1.722 4.349
1.187 1.515 4.541
1.160 1.628 4.393
-0.133 1.290 4.707
0.109 1.729 4.936
0.773 1.530 4.975
0.563 1.554 4.784
0.744 1.462 4.395
1.362 1.684 4.564
0.407 1.522 5.056
0.794 1.928 4.746
0.822 1.526 5.007
1.178 1.809 4.534
1.019 1.758 4.530
0.578 1.985 5.388
0.834 1.909 5.037
0.989 2.015 5.073
1.121 1.896 5.101
1.157 1.873 5.168
1.128 1.836 5.414
1.208 2.299 5.134
1.328 2.362 5.521
1.506 2.299 5.114
1.448 2.600 5.498
0.511 0.101 2.528
0.671 -0.020 2.383
0.337 -0.084 2.919
0.567 0.318 2.797
0.503 0.402 2.828
0.636 0.104 2.344
0.434 0.064 2.936
0.497 0.082 2.618
0.829 0.531 2.639
0.470 0.509 3.012
0.728 0.382 3.108
0.744 0.599 2.897
0.524 0.455 3.454
1.043 0.593 3.187
0.226 0.966 4.386
0.593 1.032 4.614
0.699 1.347 4.324
0.368 1.136 4.876
0.667 1.028 4.422
1.015 1.253 4.708
1.261 1.230 4.647
1.152 1.579 4.565
0.221 1.528 5.045
0.416 1.202 4.925
1.095 1.416 4.648
0.944 1.483 4.431
1.364 1.322 4.843
0.922 1.665 5.227
0.761 1.321 5.220
1.324 1.744 5.013
1.220 1.661 4.871
0.620 1.552 5.381
0.945 1.488 5.307
1.050 1.548 4.861
1.324 1.869 5.005
0.706 1.906 5.408
1.239 1.867 5.358
1.445 1.729 5.399
1.707 1.857 5.455
1.094 1.830 5.843
1.068 2.175 5.342
1.672 2.006 5.622
1.433 2.249 5.948
1.693 2.317 5.586
1.113 0.252 2.538
0.387 0.092 2.917
0.484 0.338 2.953
0.924 0.178 2.832
0.514 0.128 3.206
0.900 0.346 3.369
1.070 0.523 3.143
0.670 0.482 3.455
0.763 0.446 3.309
0.989 0.435 3.309
1.196 0.527 3.227
0.919 0.881 4.739
0.950 1.220 4.768
1.173 1.322 4.687
0.550 1.158 4.905
1.050 1.307 4.728
1.321 1.296 4.530
1.269 1.103 4.549
0.715 1.521 5.086
1.009 1.441 5.044
1.136 1.390 4.910
1.514 1.512 5.089
0.970 1.610 5.365
1.130 1.270 5.139
1.299 1.551 5.011
1.593 1.407 5.030
0.800 1.397 5.783
1.308 1.820 5.430
1.102 1.911 5.518
1.573 1.684 5.139
1.076 1.912 5.549
1.483 1.941 5.645
1.508 2.087 5.758
1.361 1.978 5.807
1.387 1.881 5.585
1.715 1.897 5.913
0.741 0.242 3.033
0.958 -0.095 2.985
0.587 0.004 3.588
0.901 0.154 3.323
0.892 0.263 3.382
0.743 0.549 3.838
1.034 0.370 3.447
1.410 1.160 4.466
1.219 0.985 4.461
1.216 0.884 4.752
1.235 1.074 4.675
1.760 0.999 4.775
0.918 1.135 5.130
0.982 1.351 5.063
1.393 0.960 4.855
1.382 1.102 5.229
1.093 1.248 5.688
1.373 1.294 5.499
1.599 1.361 5.252
1.721 1.234 5.374
0.829 1.231 5.818
1.249 1.579 5.499
1.541 1.239 5.582
1.832 1.479 5.476
1.218 1.649 5.853
1.123 1.773 5.889
1.255 1.508 5.692
1.976 1.426 5.440
0.894 1.419 6.011
1.179 1.905 6.191
1.664 1.766 5.962
1.543 1.853 5.693
1.475 -0.022 3.276
0.633 -0.223 3.991
1.219 0.227 3.518
1.230 0.403 3.512
1.175 0.709 4.774
1.649 1.056 4.851
1.030 1.183 5.183
1.655 0.916 5.283
1.798 1.043 4.895
1.416 0.870 5.626
1.273 0.956 5.270
1.612 1.217 5.129
1.039 1.276 6.048
1.420 1.076 5.920
1.501 1.052 5.840
1.525 1.373 5.582
1.387 1.461 6.084
1.463 1.437 5.758
1.352 1.241 5.589
1.864 1.275 5.860
1.124 1.529 6.472
1.187 1.695 6.105
1.725 1.489 5.836
1.937 1.545 5.878
1.004 0.225 4.215
1.056 0.009 4.215
0.671 0.087 4.979
0.104 -0.208 5.418
0.090 0.354 5.088
0.274 0.299 5.548
0.159 0.200 5.456
-0.057 0.094 5.564
1.744 0.938 4.969
0.248 0.236 5.689
1.479 0.866 5.210
1.934 0.744 4.988
0.213 0.454 6.319
1.174 0.711 5.588
1.583 1.100 5.422
1.875 0.843 5.238
0.963 0.707 5.773
1.275 1.182 5.719
1.789 0.844 5.805
1.981 1.211 5.786
1.327 1.307 6.185
1.565 0.990 6.251
1.776 0.938 6.134
1.679 1.208 5.909
1.386 1.499 6.090
1.807 1.122 5.934
2.196 1.584 6.182
0.636 0.250 4.992
0.657 0.122 5.232
0.529 0.216 5.505
-0.215 0.168 5.868
0.144 0.103 5.915
0.311 0.203 5.920
0.199 0.323 5.888
0.291 0.468 6.083
1.839 0.647 5.209
1.924 0.941 5.445
2.143 0.643 5.722
1.660 0.937 5.717
1.715 0.817 5.922
1.901 0.926 5.715
1.595 0.809 6.250
1.598 1.038 5.868
1.941 0.923 6.027
2.263 1.058 5.726
1.996 1.021 6.354
2.180 1.166 6.010
-0.065 5.834 5.504
0.151 6.134 5.934
0.009 6.380 5.553
0.060 6.283 6.052
0.544 6.358 5.603
0.164 5.435 5.161
-0.123 5.944 5.650
0.141 5.657 5.356
0.325 6.111 5.967
0.106 5.863 5.835
0.585 6.158 5.846
0.029 5.853 5.811
0.253 5.922 5.694
0.622 6.279 5.772
0.109 6.175 6.447
0.254 6.402 5.953
0.843 6.511 6.225
-0.028 5.480 5.551
0.123 5.549 5.765
0.521 5.641 5.405
0.315 5.425 6.052
0.606 5.992 5.577
0.651 5.709 5.589
0.079 5.668 6.199
0.475 5.726 6.291
0.463 5.935 5.933
0.940 5.923 5.858
0.391 5.857 6.251
1.000 5.805 6.251
0.441 4.881 4.592
-0.101 5.244 6.096
0.415 5.182 6.014
0.379 5.540 5.895
0.238 5.343 6.239
0.255 5.559 5.987
0.781 5.666 5.916
0.900 5.848 5.763
0.415 5.443 6.427
0.738 5.897 6.287
0.763 5.519 6.107
0.730 5.906 6.321
0.497 4.552 4.783
0.388 4.653 5.045
0.607 4.641 4.937
0.193 5.292 5.918
0.665 5.271 6.242
0.708 5.487 5.700
0.546 5.539 6.380
0.798 5.662 6.001
0.410 4.653 4.796
0.676 4.515 4.526
0.149 4.132 5.051
0.176 4.396 4.986
0.684 4.509 4.897
0.725 4.369 5.247
0.627 4.356 5.048
0.849 5.305 5.984
1.022 5.176 6.032
0.914 5.162 6.197
0.132 4.091 5.139
0.526 4.559 5.112
0.743 4.326 4.638
-0.059 3.871 5.110
0.430 4.057 4.876
0.527 4.257 4.854
0.722 4.344 4.820
0.062 4.253 5.570
0.198 3.965 5.140
0.342 4.195 5.326
0.565 4.305 5.157
1.075 5.216 6.127
0.113 3.881 5.398
0.433 4.246 5.248
0.608 4.290 5.130
0.680 4.156 4.750
-0.074 3.628 5.394
0.493 3.870 5.332
0.722 3.744 5.315
0.863 3.852 4.900
0.310 4.118 5.582
0.560 3.901 5.255
0.539 3.920 5.548
0.719 4.017 5.016
0.277 4.127 5.642
0.052 4.141 5.579
0.368 4.256 5.484
0.155 4.304 6.252
0.326 4.229 5.916
-0.074 4.020 6.348
-0.037 4.003 5.116
0.486 4.047 5.061
0.356 3.826 4.890
0.622 4.018 5.024
0.264 3.710 5.293
0.251 3.583 5.498
0.628 3.509 5.416
0.790 3.976 4.983
1.127 4.008 5.354
0.043 3.512 5.617
0.571 3.918 5.509
0.697 4.012 5.563
0.746 4.104 5.489
0.325 3.819 6.105
0.508 4.081 5.683
0.538 3.701 5.629
0.933 4.162 5.786
0.094 4.146 6.125
0.584 3.942 6.040
0.777 3.943 5.933
0.395 3.863 6.406
-0.002 3.380 5.323
0.430 3.577 5.467
0.594 3.815 5.334
0.868 3.932 5.046
0.736 3.552 5.235
0.112 3.479 5.355
0.574 3.589 5.501
0.733 3.312 5.324
1.038 3.320 5.262
0.181 3.606 5.929
0.187 3.277 5.819
0.730 3.647 5.840
1.093 3.499 5.739
-0.093 3.539 6.363
0.269 3.500 6.014
0.215 3.402 6.070
0.728 3.819 5.794
0.699 3.927 5.693
0.301 3.792 6.347
0.387 3.873 6.375
0.978 3.688 5.890
0.962 4.155 6.287
0.305 3.168 5.427
0.233 3.144 5.410
0.709 3.656 5.279
1.058 3.317 5.295
0.147 3.215 6.020
0.169 3.367 5.669
0.503 3.313 5.433
0.870 3.105 5.469
0.195 3.204 6.237
0.483 3.199 5.794
0.735 3.445 5.842
0.623 3.568 5.652
0.073 3.475 6.296
0.116 3.191 6.280
0.720 3.309 5.861
0.760 3.437 5.664
0.856 3.528 6.277
0.652 3.718 6.128
0.181 3.010 5.982
0.261 3.099 5.728
0.661 3.128 5.369
0.607 3.421 5.651
1.192 5.925 3.357
1.221 6.153 3.700
1.555 6.338 3.216
0.952 6.137 3.880
1.031 6.244 3.705
0.780 6.363 3.643
1.278 6.195 3.718
1.352 6.239 3.740
1.509 6.482 3.246
1.101 6.086 3.608
1.406 5.884 3.888
1.640 6.158 3.551
1.759 5.933 3.580
1.934 5.905 3.558
2.062 6.095 3.344
1.113 5.757 3.914
1.086 6.004 4.180
0.963 6.120 4.066
1.217 6.238 3.564
1.681 6.017 3.962
1.795 6.122 3.766
0.838 6.025 4.069
0.861 6.091 4.071
0.853 5.994 4.353
1.433 6.046 3.929
1.292 6.256 3.824
0.798 6.202 4.424
1.074 6.258 4.126
1.299 6.184 4.281
1.035 6.283 4.545
1.031 6.263 4.443
0.868 5.883 4.042
1.392 6.034 3.542
1.372 6.008 3.493
1.637 5.993 3.454
2.009 6.075 3.593
2.045 6.008 3.348
1.037 5.883 3.998
0.941 5.771 3.737
1.364 5.533 3.565
1.510 5.936 3.558
1.546 5.758 3.617
2.018 5.723 3.677
0.852 5.748 3.733
0.909 5.881 3.894
1.110 5.606 4.098
1.396 5.772 4.015
1.311 5.927 3.813
1.851 5.733 3.997
1.806 5.817 3.563
2.309 6.264 3.462
1.036 5.590 3.975
1.026 5.808 4.129
1.120 5.691 4.251
1.589 6.061 4.198
1.839 6.222 4.203
1.720 6.081 3.828
1.916 6.370 3.857
2.520 6.371 3.968
1.081 6.042 4.419
1.143 6.018 4.499
1.044 6.300 4.364
1.334 5.968 4.187
1.575 6.209 4.445
2.036 6.461 4.144
0.991 6.046 4.596
1.470 6.028 4.907
1.689 6.180 4.676
1.158 6.207 4.596
1.128 5.559 3.832
1.210 5.482 3.876
1.396 5.688 3.483
1.885 6.023 3.526
1.761 6.166 3.635
0.914 5.497 4.195
0.848 5.581 3.968
1.179 5.336 4.218
1.563 5.565 4.146
1.536 5.334 3.835
1.634 5.899 3.484
3.252 6.201 3.197
3.443 5.942 2.729
3.863 6.002 2.965
4.182 6.210 2.704
0.803 5.302 4.019
1.085 5.585 4.015
1.278 5.335 4.250
0.984 5.809 3.971
1.617 5.464 4.138
1.893 5.716 4.069
1.949 5.945 4.029
2.250 5.591 3.816
3.495 6.343 3.039
0.544 5.344 4.429
1.047 5.318 4.248
1.116 5.697 4.342
1.344 5.591 4.562
1.659 6.037 4.316
1.846 5.905 4.467
2.164 6.083 4.220
2.388 5.767 4.117
2.356 5.774 4.133
1.092 5.854 4.319
1.270 5.917 4.436
1.167 5.949 4.456
1.635 5.692 4.622
1.653 5.820 4.227
1.712 6.149 4.117
2.093 5.885 4.194
2.230 6.328 4.134
2.843 6.385 4.123
1.138 5.606 4.858
1.740 5.931 4.706
2.011 5.887 4.592
2.159 6.318 4.347
2.448 6.048 4.520
1.846 6.070 4.737
0.755 6.414 5.593
1.105 5.702 4.055
1.587 5.285 4.087
1.651 5.400 3.662
1.668 5.413 3.682
3.465 6.253 3.150
3.771 5.889 2.805
3.965 6.200 2.591
4.100 6.332 2.999
0.866 5.510 4.305
0.881 5.307 4.141
1.028 5.204 4.111
1.275 5.136 4.053
1.325 5.435 3.956
1.543 5.531 3.771
3.193 5.969 3.484
3.671 5.634 2.930
3.879 6.173 2.839
3.966 6.110 2.987
4.171 6.030 2.749
4.601 5.877 2.816
0.362 5.231 4.268
0.773 5.261 4.358
0.955 5.279 4.329
1.284 5.371 4.317
1.442 5.350 4.260
1.639 5.554 4.053
1.915 5.526 4.310
2.037 5.532 3.798
3.457 6.078 3.250
3.835 6.144 3.137
3.833 6.260 3.091
4.184 6.436 3.055
4.593 6.267 3.225
0.922 5.123 4.562
1.011 5.177 4.643
1.268 5.190 4.174
1.584 5.375 4.645
1.738 5.646 4.300
1.808 5.500 4.546
2.250 5.576 4.142
3.916 6.015 3.190
1.559 5.280 4.490
1.826 5.558 4.750
1.956 5.670 4.524
1.917 5.986 4.246
2.188 5.756 4.578
2.520 5.784 4.233
1.915 5.716 4.555
2.145 5.885 4.546
2.388 6.066 4.333
2.727 5.904 4.493
2.268 6.105 4.734
2.209 5.916 4.538
2.790 6.082 4.514
3.018 6.515 4.314
0.949 5.945 5.669
0.873 5.772 5.802
1.081 6.261 5.642
0.750 6.149 6.236
1.347 5.993 5.885
1.567 6.059 5.702
1.018 6.357 6.340
1.085 5.190 4.291
1.387 5.392 3.808
1.558 5.180 3.835
3.425 5.918 3.404
3.558 6.106 2.957
3.778 5.963 3.297
4.121 5.981 3.166
4.185 6.199 2.994
4.633 5.944 2.987
0.482 5.222 4.537
0.826 5.066 4.165
1.189 4.950 4.375
1.098 5.180 4.092
1.574 5.275 4.117
1.522 5.003 4.056
3.298 5.500 3.448
3.190 5.350 3.467
3.577 5.874 3.455
3.749 5.846 3.261
4.237 5.889 2.959
4.047 5.920 3.032
0.508 4.795 4.419
1.028 4.681 4.612
0.976 5.009 4.172
1.448 4.983 4.332
1.615 5.141 4.534
1.689 5.045 4.350
3.814 5.680 3.558
3.624 5.719 3.407
4.045 6.036 3.463
4.197 6.217 3.386
0.461 4.974 4.741
0.888 4.945 4.725
1.168 5.361 4.388
1.592 5.102 4.178
2.980 5.996 4.425
3.188 6.259 4.578
3.148 6.078 4.387
2.541 6.053 4.849
3.104 6.442 5.069
3.080 6.063 5.005
1.194 5.778 5.586
1.421 5.498 5.680
2.594 6.319 5.289
0.804 5.705 6.117
1.137 6.035 5.738
1.729 6.016 5.577
1.996 6.107 5.942
0.872 5.737 6.190
1.278 6.010 5.967
1.720 6.048 5.916
1.924 5.876 5.763
1.600 6.107 6.112
1.510 6.095 6.445
1.792 6.368 5.935
2.006 6.173 6.045
1.305 4.973 4.453
1.520 5.294 3.871
2.897 5.574 3.580
3.595 5.718 3.138
3.548 5.888 3.415
3.770 5.805 3.182
3.890 5.984 3.264
4.275 5.713 3.104
0.669 4.964 4.308
1.137 5.154 4.553
1.080 5.058 4.457
1.176 4.920 3.970
1.666 4.745 4.136
3.132 5.495 3.384
3.123 5.523 3.727
3.214 5.379 3.690
3.725 5.557 3.532
3.951 5.688 3.424
4.021 5.833 3.395
5.762 6.190 2.403
6.147 6.186 2.209
0.662 4.431 4.464
0.955 4.517 4.571
1.077 4.553 4.585
1.219 4.679 4.052
3.393 5.417 3.425
3.828 5.783 3.305
3.831 5.502 3.561
0.820 4.804 4.857
1.066 4.691 4.807
3.321 6.128 4.929
3.407 6.134 4.958
3.539 5.959 4.937
3.753 6.168 4.513
3.827 6.213 4.503
1.239 5.419 5.865
1.514 5.655 5.991
1.424 5.702 5.496
1.787 5.847 5.540
3.055 6.315 5.134
3.556 6.196 5.253
3.349 6.104 4.840
0.933 5.524 5.885
1.355 5.861 5.856
1.358 5.555 6.004
1.659 5.537 5.627
1.766 6.003 5.760
3.201 6.323 5.245
1.355 5.792 6.145
1.172 5.788 6.384
1.384 5.823 6.027
1.713 6.054 5.913
1.952 5.974 6.167
2.258 5.828 6.172
1.527 5.886 6.433
1.851 5.902 6.225
1.588 4.733 4.107
3.257 5.481 3.475
3.077 5.429 3.537
3.469 5.336 3.648
3.496 5.373 3.278
3.876 5.633 3.487
4.119 5.381 3.205
6.090 6.031 2.574
6.138 6.247 2.371
0.587 4.558 4.838
1.129 4.731 4.732
1.034 4.565 4.507
1.445 5.068 4.435
2.808 5.150 3.945
3.345 4.817 3.987
3.290 4.983 3.414
3.672 5.131 3.715
3.826 5.004 3.315
3.875 5.534 3.401
5.994 5.923 2.651
6.064 5.706 2.709
6.220 5.795 2.382
0.995 4.394 4.821
1.114 4.283 4.375
1.275 4.555 4.376
3.098 5.117 3.810
3.265 5.131 3.603
3.865 5.143 3.792
6.276 5.868 2.710
1.022 4.337 4.810
1.804 5.493 5.631
3.691 5.966 4.986
3.651 6.136 4.938
4.012 6.190 4.580
4.359 6.156 4.626
4.665 6.211 4.606
4.801 6.462 4.352
1.356 5.062 6.000
1.196 5.101 6.023
1.889 5.544 5.843
2.108 5.318 5.700
1.975 5.562 6.022
2.220 5.812 5.686
3.720 5.894 5.006
3.596 6.165 5.255
3.964 6.140 5.141
4.254 6.404 4.850
4.625 6.282 4.569
1.432 5.155 6.211
1.371 5.661 5.956
1.785 5.429 6.191
1.818 5.452 5.842
1.794 5.832 6.282
2.218 5.973 6.163
3.425 6.261 5.463
3.381 6.237 5.277
3.509 6.328 5.434
3.830 5.993 5.085
1.512 5.523 6.470
1.937 5.650 6.341
1.801 5.841 6.093
2.164 5.893 6.038
3.304 6.187 5.923
3.640 6.209 5.666
2.986 5.127 3.979
3.322 5.306 3.840
3.077 5.276 3.558
3.553 5.071 3.647
3.989 5.133 3.375
4.124 5.248 3.368
5.969 5.667 2.495
6.178 5.735 2.402
6.390 5.711 2.568
0.921 4.476 4.687
1.289 4.581 4.542
1.367 4.380 4.519
2.717 4.632 3.880
2.805 4.919 3.990
3.347 4.975 3.859
3.339 5.006 3.928
3.532 4.849 3.470
3.830 5.209 3.339
5.640 5.506 2.666
5.761 5.404 2.496
6.229 5.522 2.444
1.133 4.084 5.016
1.107 4.172 4.779
2.956 4.991 4.139
3.248 4.767 4.076
3.465 5.196 4.242
3.410 5.057 3.838
3.795 4.989 3.829
5.942 5.633 2.974
6.007 5.771 2.864
6.412 5.639 2.870
1.740 5.253 5.637
2.240 5.223 5.572
4.552 5.795 4.701
4.351 5.697 4.467
4.606 6.058 4.505
5.288 6.187 4.174
1.344 5.005 5.685
1.732 4.826 5.680
2.101 5.256 5.405
1.994 5.053 5.597
2.082 5.446 5.885
3.780 5.824 5.082
4.398 5.656 4.666
4.557 5.886 4.677
4.443 5.801 4.441
4.736 6.081 4.341
4.856 5.992 4.303
1.348 5.044 6.200
1.694 4.955 6.074
1.480 5.136 5.728
2.034 5.269 5.892
2.083 5.508 5.873
2.070 5.151 6.019
3.500 5.917 5.143
3.550 5.605 5.435
4.119 5.682 4.923
4.079 5.955 5.182
4.280 5.849 4.769
4.705 5.982 4.765
5.097 6.139 4.630
5.148 6.403 4.420
1.435 5.034 6.178
1.582 5.471 6.152
1.711 5.348 6.303
2.125 5.420 6.160
1.938 5.653 6.198
2.272 5.599 5.946
3.567 5.761 5.432
3.647 5.835 5.180
3.878 6.021 5.200
4.248 6.151 5.148
4.737 6.081 5.354
4.588 6.038 5.246
5.192 6.210 4.793
1.788 5.256 6.490
2.083 5.234 6.364
3.690 6.009 5.571
3.699 6.111 5.541
3.813 6.279 5.685
4.014 6.153 5.589
4.216 6.039 5.357
4.508 6.089 5.289
3.573 6.280 6.175
3.784 6.386 6.085
3.766 6.473 6.015
3.677 6.187 6.308
2.931 4.703 4.073
3.061 4.920 3.827
3.063 5.049 3.976
3.608 4.678 3.625
3.546 4.822 3.874
3.744 4.941 3.327
5.863 5.677 2.550
5.996 5.339 2.878
6.231 5.814 2.763
1.145 4.079 4.600
1.197 4.345 4.485
2.569 4.360 4.359
2.633 4.282 4.137
3.199 4.708 4.052
3.351 4.690 4.206
3.602 4.880 3.799
3.961 4.932 3.573
5.727 5.148 3.169
6.008 5.201 3.040
5.929 5.156 2.594
6.145 5.561 2.865
1.116 4.101 4.889
2.704 4.546 4.515
2.718 4.409 4.353
2.675 4.834 4.223
3.117 4.679 4.158
3.303 4.783 4.264
3.794 4.732 3.883
5.370 5.160 3.377
5.793 5.596 3.288
5.877 5.583 2.933
5.930 5.669 3.247
6.078 5.743 2.858
2.141 4.638 4.919
2.269 4.846 4.708
2.830 4.796 4.549
2.811 4.571 4.407
3.144 4.936 4.402
3.476 5.117 4.405
5.152 5.445 3.466
5.672 5.250 3.648
5.614 5.331 3.308
5.799 5.481 3.155
6.359 5.649 3.077
2.197 4.535 5.046
2.511 4.833 5.105
2.496 4.767 4.917
2.864 4.921 4.966
3.264 5.061 4.626
4.784 5.672 3.653
5.510 5.722 3.656
5.642 5.667 3.462
5.638 5.473 3.452
5.881 5.660 3.588
1.948 4.896 5.627
2.015 5.000 5.393
2.391 4.860 5.072
2.773 4.903 5.269
2.734 5.057 4.909
4.643 5.227 4.167
4.707 5.710 4.224
5.175 5.747 4.288
5.339 5.617 4.165
5.370 5.805 3.837
5.672 5.572 4.075
2.036 4.848 5.636
2.077 4.877 5.675
2.079 4.809 5.488
2.346 4.841 5.631
2.847 4.908 5.285
4.645 5.800 4.603
4.661 5.363 4.649
4.888 5.913 4.173
5.220 5.767 4.153
5.210 6.038 4.347
5.361 5.826 3.983
1.744 4.893 5.605
2.035 4.586 5.657
2.024 4.751 5.816
1.831 4.839 5.875
2.517 4.966 5.856
2.546 5.043 5.433
4.456 5.556 4.891
4.288 5.622 4.764
4.726 5.547 4.513
5.082 5.850 4.523
5.119 6.078 4.335
5.613 5.883 4.205
1.481 4.753 5.955
1.626 4.968 5.924
2.005 4.967 5.875
1.864 5.135 5.655
2.352 5.354 6.103
2.233 5.197 6.004
2.647 5.337 6.007
4.108 5.686 5.179
4.362 5.695 5.004
4.370 5.564 4.910
4.562 5.855 5.060
4.940 5.616 4.735
5.270 6.068 5.018
5.465 6.001 4.591
1.723 5.120 6.031
2.065 5.109 6.347
1.932 5.074 6.251
2.554 5.281 6.115
3.685 5.632 5.611
4.135 5.716 5.715
3.951 6.029 5.608
4.262 6.115 5.468
4.696 5.795 5.233
5.087 6.080 5.264
4.843 5.888 4.948
5.090 6.266 5.174
3.953 5.936 5.950
3.758 5.819 5.685
4.159 5.959 5.382
4.669 6.216 5.725
4.602 5.976 5.351
4.650 6.338 5.216
5.103 6.222 5.233
3.363 6.005 6.047
3.823 6.023 6.039
4.217 5.847 5.939
4.166 6.307 5.706
4.391 6.094 5.893
4.793 6.038 5.436
4.829 6.514 5.381
3.823 6.108 6.469
3.956 6.405 6.178
4.127 6.065 6.041
4.434 6.023 5.902
2.464 4.728 4.069
3.043 4.521 4.110
3.078 4.584 4.045
3.318 4.477 4.104
3.354 4.481 3.952
3.775 4.996 3.678
5.725 5.388 2.893
5.595 5.156 2.699
6.019 5.577 3.015
6.224 5.220 2.703
1.229 4.047 5.071
2.562 3.991 4.507
2.704 4.311 4.557
2.751 4.211 4.041
3.094 4.192 3.912
3.472 4.517 4.076
3.784 4.476 3.930
5.321 4.811 3.219
5.465 4.864 3.267
6.014 4.888 3.004
6.295 5.208 2.985
2.402 4.487 4.879
2.342 4.170 4.795
2.906 4.490 4.395
3.193 4.406 4.615
3.248 4.332 4.602
3.395 4.334 4.499
3.509 4.556 4.058
5.241 5.099 3.525
5.163 4.876 3.353
5.668 5.216 3.314
5.579 5.229 3.512
6.161 5.170 3.007
6.021 5.098 3.103
2.174 4.147 4.830
2.451 4.347 5.178
2.824 4.371 4.964
2.583 4.304 4.700
3.034 4.556 4.809
3.075 4.900 4.419
3.467 4.921 4.655
5.027 5.245 3.733
5.049 5.338 3.917
5.131 5.384 3.653
5.644 5.000 3.383
5.874 5.085 3.487
5.849 5.432 3.170
6.069 5.513 3.569
1.952 4.228 5.154
2.246 4.501 5.231
2.651 4.764 5.054
2.528 4.409 5.181
3.046 4.423 4.819
2.885 4.961 4.645
3.130 4.982 4.889
4.834 5.332 4.134
5.257 5.442 4.034
5.531 5.582 4.153
5.727 5.575 3.863
5.682 5.387 3.784
6.282 5.469 3.470
6.160 5.738 3.375
1.789 4.524 5.557
2.183 4.525 5.708
2.194 4.692 5.281
2.528 4.754 5.570
2.874 4.740 5.232
2.968 4.565 5.308
3.118 4.669 4.906
3.645 4.691 5.158
4.867 5.097 4.318
5.144 5.181 4.111
5.304 5.370 4.344
5.656 5.402 4.140
5.409 5.742 3.818
5.768 5.748 3.682
6.013 5.388 3.583
1.869 4.379 5.826
1.947 4.492 5.460
2.241 4.578 6.003
2.537 4.635 5.845
2.386 4.696 5.578
2.739 5.099 5.556
3.190 5.021 5.196
3.365 5.030 5.488
4.370 5.472 4.755
4.811 5.341 4.391
5.187 5.498 4.767
5.160 5.517 4.187
5.234 5.554 4.527
5.489 5.804 4.478
5.940 5.850 4.374
2.042 4.368 6.079
2.055 4.791 5.797
2.163 4.867 6.146
2.409 4.638 5.885
2.750 4.768 5.715
2.826 4.949 5.474
2.802 4.897 5.735
4.328 5.480 4.900
4.666 5.242 4.819
4.712 5.404 4.922
4.859 5.742 4.594
5.056 5.857 4.619
5.728 5.556 4.663
5.905 5.592 4.570
1.484 4.793 6.404
1.761 5.002 5.850
2.089 4.931 5.988
2.134 5.034 6.404
2.324 5.225 5.938
2.470 5.040 5.735
4.667 5.426 5.375
4.537 5.678 5.146
4.770 5.825 5.059
4.973 5.727 4.974
5.496 5.951 4.697
5.609 5.719 4.948
2.078 5.035 6.121
2.099 5.151 6.048
4.249 5.599 5.386
4.339 5.877 5.441
4.853 5.708 5.570
4.712 5.568 5.090
4.944 5.666 4.967
4.248 5.494 5.900
4.298 5.946 5.723
4.640 5.702 5.682
4.887 5.989 5.624
4.889 5.880 5.356
3.797 5.444 6.379
4.138 5.937 5.920
3.948 5.621 5.931
4.131 6.048 6.133
4.847 5.718 5.934
4.935 5.878 5.604
4.195 5.794 6.043
4.283 5.792 5.986
4.914 6.153 6.304
2.451 4.150 4.179
2.932 4.318 4.539
2.778 4.446 4.004
3.036 4.305 4.337
3.218 4.292 3.997
3.528 4.540 3.867
5.455 4.818 3.197
5.850 4.917 3.103
5.686 4.875 3.183
6.313 5.001 2.904
2.634 3.682 4.526
2.853 4.012 4.552
2.916 4.289 4.513
3.274 4.195 4.456
3.214 4.055 4.094
3.730 4.401 3.942
5.416 4.536 3.144
5.712 4.960 3.428
5.696 5.049 3.014
6.159 4.725 3.028
6.389 5.097 2.892
2.186 3.958 5.054
2.259 4.058 4.731
2.451 4.090 4.802
3.035 4.185 4.582
3.026 4.281 4.545
3.382 4.189 4.240
3.550 4.285 4.343
4.926 4.888 3.936
5.035 4.799 3.625
5.523 4.675 3.515
5.494 4.862 3.295
5.759 4.897 3.622
5.785 5.256 3.499
6.180 4.991 3.357
1.816 4.248 5.329
2.015 4.086 5.300
2.469 4.222 4.802
2.754 4.027 4.895
3.088 4.147 4.643
3.162 4.347 4.775
3.375 4.290 4.714
3.710 4.707 4.421
4.901 4.866 4.091
5.386 4.694 3.746
5.422 5.064 3.918
5.880 4.955 3.672
5.844 4.923 3.471
6.000 5.352 3.364
2.066 4.008 5.045
1.883 4.303 5.641
2.065 4.483 5.466
2.716 4.532 5.366
2.579 4.513 5.045
2.924 4.233 5.155
2.968 4.693 5.087
3.201 4.751 5.004
3.672 4.756 4.573
4.720 5.076 4.365
4.862 5.096 3.959
5.142 5.163 4.171
5.340 5.215 4.257
5.529 5.316 4.114
5.798 5.115 3.733
6.249 5.059 3.860
2.254 4.326 5.222
2.267 4.295 5.685
2.233 4.635 5.688
2.357 4.688 5.385
2.932 4.308 5.205
3.049 4.663 5.292
3.321 4.861 5.209
3.746 4.593 4.988
4.635 5.060 4.545
4.883 5.151 4.597
5.177 5.198 4.142
5.754 5.271 4.247
5.810 5.235 4.348
5.715 5.467 3.864
6.330 5.177 3.686
1.914 4.429 5.856
2.399 4.274 5.667
2.266 4.248 5.714
2.245 4.685 5.850
2.408 4.810 5.728
2.938 4.437 5.624
3.208 4.745 5.370
3.560 4.942 5.535
3.596 4.671 5.251
4.417 5.381 5.068
4.708 5.220 4.610
4.875 5.428 4.688
5.378 5.252 4.735
5.341 5.318 4.662
5.565 5.546 4.285
6.132 5.723 4.051
6.142 5.506 4.119
1.737 4.461 6.108
2.141 4.456 5.672
2.096 4.640 6.225
2.289 4.778 6.144
2.739 4.844 5.976
2.737 4.783 5.815
2.966 4.815 5.628
3.318 5.123 5.615
4.848 5.321 5.041
5.092 5.303 5.163
5.376 5.350 5.069
5.480 5.551 4.871
5.691 5.468 4.454
5.980 5.766 4.710
5.927 5.424 4.631
1.998 4.612 5.934
2.036 4.589 6.133
2.773 4.798 6.114
2.929 5.063 5.882
2.897 4.678 6.194
4.720 5.144 5.323
4.833 5.269 5.108
5.025 5.692 4.906
5.568 5.508 5.180
5.610 5.850 4.799
4.971 5.723 5.099
2.498 3.984 4.397
2.752 3.876 4.672
2.710 4.284 4.681
2.865 3.977 4.557
3.168 4.315 4.220
3.590 4.229 4.229
5.440 4.572 3.457
5.644 4.951 3.138
5.506 4.899 3.102
6.142 5.060 3.294
6.395 4.852 2.911
2.446 3.643 4.811
2.251 3.485 4.522
2.918 3.748 4.737
2.850 3.890 4.667
3.055 3.884 4.632
3.470 3.725 4.571
5.429 4.455 3.606
5.264 4.510 3.333
5.752 4.397 3.489
5.598 4.838 3.452
6.095 4.503 2.966
1.943 3.899 5.303
2.432 3.853 5.022
2.643 3.719 4.856
2.825 4.028 4.646
3.076 4.000 4.540
3.051 4.214 4.756
3.183 4.229 4.415
3.449 4.213 4.700
4.746 4.514 3.842
5.095 4.762 3.773
5.409 4.561 3.725
5.835 4.531 3.663
5.885 4.885 3.381
5.892 4.756 3.653
1.882 3.625 5.047
2.255 3.756 5.271
2.365 3.874 5.034
2.735 3.936 5.184
3.063 3.885 5.257
2.999 4.241 4.840
3.133 4.195 4.698
3.473 4.116 4.938
3.958 4.183 4.593
4.954 4.659 4.174
5.156 4.823 4.137
5.522 4.514 4.261
5.423 4.976 3.742
5.788 4.883 4.072
5.810 4.778 3.699
6.050 4.747 3.429
2.357 3.792 5.121
2.369 4.052 5.437
2.340 4.106 5.634
2.409 3.935 5.204
3.063 4.086 5.018
3.094 4.455 4.980
3.379 4.332 5.186
3.788 4.616 5.144
3.583 4.662 4.711
4.801 4.807 4.550
4.974 4.968 4.100
5.369 4.679 4.296
5.470 5.149 4.367
5.784 4.719 3.892
5.936 5.272 4.053
6.126 5.210 3.909
1.819 4.102 5.828
2.034 3.792 5.561
2.400 4.314 5.983
2.615 4.419 5.680
2.773 4.320 5.569
2.694 4.068 5.273
3.229 4.158 5.509
3.126 4.663 5.103
3.505 4.732 5.338
4.032 4.689 5.152
4.933 4.925 4.551
5.183 5.136 4.455
5.510 4.807 4.358
5.413 5.132 4.555
6.046 4.878 4.244
6.308 5.409 3.881
1.821 3.872 6.108
2.472 4.235 5.933
2.291 4.491 5.783
2.574 4.546 5.966
2.774 4.441 5.923
2.740 4.519 5.448
3.145 4.468 5.649
3.187 4.621 5.645
3.801 4.726 5.638
4.946 4.925 5.040
5.260 5.112 4.904
5.308 5.075 4.559
5.583 5.163 4.768
6.125 5.010 4.491
6.309 5.441 4.172
2.228 3.998 5.845
2.460 4.194 5.811
2.124 4.329 6.318
2.689 4.678 5.868
2.935 4.372 6.148
3.216 4.480 5.641
3.334 4.778 6.009
3.568 4.947 5.917
3.771 4.848 5.417
5.234 5.140 4.850
5.448 5.154 4.959
5.518 4.996 4.990
5.875 5.199 4.553
6.008 5.475 4.586
5.943 5.677 4.661
2.570 4.395 6.158
2.718 4.436 6.283
2.876 4.575 6.236
3.507 4.638 5.892
5.467 5.284 5.208
5.662 5.444 5.094
5.803 5.543 4.824
5.990 5.527 4.852
6.006 6.182 5.852
5.971 6.167 5.752
6.081 6.064 5.989
6.285 5.990 6.158
2.011 3.505 4.754
2.688 3.726 4.958
2.890 3.561 4.875
2.769 3.693 4.641
3.277 4.058 4.593
3.387 4.072 4.218
4.963 4.222 3.563
5.472 4.716 3.486
5.723 4.699 3.501
5.815 4.559 3.559
5.922 4.702 3.190
0.291 2.680 5.782
0.319 2.781 5.591
0.557 2.839 5.477
0.309 3.097 6.098
0.622 3.238 6.191
0.785 3.356 5.979
0.735 3.168 5.921
0.698 3.227 6.405
0.850 3.447 6.355
0.647 3.178 5.792
0.843 3.175 6.176
0.003 2.908 5.770
0.218 3.080 5.673
0.658 3.222 5.846
0.299 2.743 5.917
0.628 2.736 5.788
0.269 2.539 6.250
0.582 3.064 6.292
0.882 2.940 6.219
0.639 2.914 6.083
1.228 3.125 5.951
0.238 2.653 6.213
0.199 2.875 6.004
0.165 2.385 6.081
0.268 2.657 6.298
0.550 2.392 6.222
0.284 2.455 6.246
0.122 2.288 5.864
1.754 2.377 5.835
1.606 2.469 5.707
1.581 1.949 5.843
1.956 2.014 6.134
1.468 1.833 5.996
1.943 2.374 5.991
1.320 1.920 6.183
1.478 1.640 6.222
1.705 2.042 5.999
1.835 1.975 6.033
1.164 1.987 6.002
1.732 1.700 6.330
2.046 1.996 5.894
1.951 1.804 6.054
2.037 1.876 6.198
1.569 1.646 6.080
1.991 1.744 6.037
2.020 1.278 6.356
2.209 1.506 6.372
4.013 1.697 5.419
4.248 1.866 5.363
4.636 1.720 5.618
4.576 1.846 5.302
4.577 1.952 5.436
5.117 2.218 4.900
3.889 1.846 5.801
3.878 1.896 5.693
4.450 1.747 5.923
4.647 2.022 5.745
4.447 2.091 5.659
4.870 2.023 5.172
3.500 1.740 6.346
3.595 1.879 6.010
4.151 2.147 6.002
4.329 1.970 6.141
4.408 2.162 5.590
4.940 2.014 5.746
3.898 2.159 6.121
4.391 2.381 5.958
4.488 2.171 5.906
6.359 2.836 5.569
5.685 2.630 5.664
5.968 2.764 5.392
5.934 3.105 5.757
5.755 2.956 5.820
6.399 3.217 5.612
5.342 2.701 6.383
5.947 2.963 6.055
6.000 3.310 6.299
6.405 3.372 5.752
6.132 3.184 6.052
3.771 1.630 5.819
3.932 1.863 5.408
4.367 2.089 5.286
4.518 2.127 5.394
4.988 1.966 5.137
4.878 1.877 5.099
3.738 1.619 5.894
4.105 1.450 5.764
4.445 1.767 5.349
4.695 1.683 5.262
4.607 1.527 5.504
5.045 1.945 5.425
3.660 1.448 6.157
3.780 1.741 6.159
3.645 1.731 6.038
3.947 1.635 6.049
4.512 1.669 5.708
4.479 1.811 5.619
4.528 2.024 5.373
5.008 1.955 5.279
3.891 1.716 6.157
4.071 2.052 6.267
4.584 1.689 5.893
4.581 2.083 5.859
5.057 2.108 5.992
6.095 2.213 5.346
4.232 2.229 6.335
4.799 2.302 6.134
4.922 2.244 6.144
6.179 2.412 5.294
6.470 2.314 5.502
5.997 2.349 5.796
6.029 2.564 5.457
5.838 2.495 6.087
6.171 2.827 5.847
5.962 2.669 6.089
6.162 3.071 5.973
3.593 1.405 5.640
4.119 1.836 5.875
4.038 1.471 5.454
4.666 1.910 5.545
4.705 1.757 5.631
4.802 1.678 5.126
3.564 1.360 5.834
3.959 1.483 5.946
4.259 1.167 5.608
4.270 1.332 5.682
4.385 1.719 5.513
5.061 1.738 5.706
3.763 1.613 6.072
4.172 1.363 6.042
4.120 1.295 6.206
4.353 1.776 6.137
4.568 1.688 5.893
4.765 1.727 5.814
6.449 2.310 5.359
4.307 1.541 6.040
4.503 1.785 6.069
4.640 1.585 6.142
4.981 1.860 5.816
6.034 2.264 5.683
6.147 1.980 5.164
4.509 2.022 6.138
5.154 2.111 6.189
6.198 2.357 5.849
5.892 2.404 6.051
6.158 2.592 6.324
6.182 2.608 6.476
3.860 1.079 6.159
3.742 1.377 5.830
4.110 1.342 5.555
4.218 1.638 5.709
4.599 1.482 5.491
4.966 1.619 5.251
3.407 0.937 6.124
3.976 1.121 6.117
3.857 1.095 5.900
4.394 1.131 5.898
4.584 1.223 5.679
4.443 1.349 5.753
6.444 1.958 4.786
3.823 1.120 6.125
4.444 1.478 6.112
4.411 1.394 6.244
4.497 1.659 5.800
4.759 1.615 5.844
6.220 1.717 5.580
4.506 1.432 6.112
4.786 1.516 6.235
5.017 1.657 5.844
5.883 1.722 5.328
5.088 1.578 6.278
6.062 2.306 5.868
6.415 2.054 5.822
3.535 1.006 6.347
4.030 0.899 6.095
3.887 0.953 5.907
4.303 1.040 6.078
4.470 1.048 5.591
4.925 1.171 5.732
6.249 1.580 4.919
4.129 0.929 6.284
3.973 1.147 6.175
4.302 1.038 5.804
4.371 1.021 5.827
6.191 1.379 5.465
4.503 1.160 6.109
4.701 1.171 6.229
4.971 1.034 5.805
6.107 1.665 5.686
4.953 1.305 6.375
6.182 1.505 5.422
4.061 0.927 5.988
3.971 0.777 5.888
4.081 1.190 5.944
4.574 0.966 5.943
5.890 1.324 5.276
4.287 0.897 6.077
4.349 0.521 5.926
6.112 1.104 5.348
6.040 1.133 5.536
4.627 0.972 6.072
6.229 1.143 5.642
4.453 0.726 5.962
4.454 0.568 5.925
6.022 1.287 5.474
6.239 1.013 5.142
5.797 0.690 5.728
6.237 0.964 5.577
6.070 1.102 5.514
5.661 0.769 5.374
6.292 0.851 5.752
5.518 0.740 5.867
6.002 0.903 5.886
6.340 0.915 5.539
5.918 0.910 5.819
6.045 1.024 6.031
5.945 0.587 5.976
6.056 0.523 5.495
6.231 0.739 5.632
5.707 0.489 6.124
5.968 0.211 5.764
5.866 0.391 6.028
6.091 0.614 5.996
5.427 0.608 6.228
5.722 0.298 5.920
6.325 0.650 5.879
5.406 0.160 6.139
5.830 0.346 6.384
6.165 0.353 5.853
6.378 0.312 5.906
5.879 0.158 6.078
6.360 0.597 6.372
5.281 0.168 6.056
5.740 0.189 6.346
6.150 0.115 6.187
5.953 0.325 6.081
6.139 0.176 6.308
6.534 0.247 5.905
5.885 -0.006 6.275
6.329 0.134 6.226
2.273 3.577 4.916
2.511 3.320 4.980
2.473 3.284 5.054
2.822 3.357 4.977
3.062 3.849 4.680
3.237 3.631 4.444
5.282 4.324 3.638
5.137 4.025 3.883
5.618 4.570 3.557
5.808 4.407 3.617
6.023 4.351 3.420
5.978 4.408 3.265
2.362 3.228 5.138
2.125 3.770 5.163
2.297 3.573 5.117
2.603 3.837 5.288
2.801 3.531 5.013
3.331 3.767 5.017
3.357 3.834 4.866
3.756 4.071 4.433
4.950 4.304 4.187
4.990 4.105 3.795
5.370 4.593 3.965
5.609 4.257 3.687
5.952 4.711 3.485
5.910 4.735 3.531
6.006 4.755 3.636
2.228 3.413 5.221
2.161 3.511 5.391
2.362 3.945 5.507
2.752 3.843 5.296
2.910 3.827 5.168
3.082 4.083 5.077
3.550 4.055 4.883
3.661 4.080 4.782
3.897 3.962 4.792
5.106 4.307 4.134
5.049 4.660 4.364
5.455 4.632 4.069
5.668 4.501 4.229
6.010 4.755 4.058
6.251 4.867 4.029
6.085 4.523 3.526
1.765 3.530 5.578
2.360 3.811 5.501
2.449 3.771 5.809
2.331 3.774 5.422
2.497 4.002 5.378
2.919 4.207 5.140
3.370 3.883 5.242
3.640 4.190 5.367
3.637 3.964 4.947
3.861 4.372 5.041
4.922 4.399 4.307
5.204 4.494 4.475
5.382 4.616 4.224
5.800 4.799 4.135
5.985 5.000 4.341
6.029 4.754 4.275
2.166 3.748 5.776
2.104 3.638 5.513
2.528 3.902 6.044
2.771 4.042 5.562
2.595 3.982 5.768
3.122 4.332 5.437
3.403 4.017 5.408
3.238 3.997 5.454
3.806 4.182 5.083
3.947 4.265 5.142
5.179 4.715 4.927
5.426 4.499 4.792
5.593 4.887 4.440
5.616 5.003 4.363
6.108 4.962 4.201
6.374 5.179 4.210
2.324 3.934 6.068
2.301 4.195 6.025
2.772 4.377 6.162
2.601 4.285 5.888
3.099 4.374 5.781
3.487 4.169 5.849
3.276 4.265 5.701
3.532 4.225 5.454
3.832 4.742 5.343
5.345 4.740 4.961
5.404 4.734 5.009
5.561 4.951 4.834
5.586 5.205 4.510
6.017 5.281 4.603
6.117 5.022 4.540
2.356 4.277 5.842
2.668 4.270 6.347
2.713 4.119 6.060
3.234 4.187 6.032
3.534 4.487 5.951
3.675 4.629 5.999
3.745 4.708 5.827
5.550 4.863 4.887
5.518 4.966 5.054
6.077 5.193 4.732
6.026 5.097 4.585
6.398 5.293 4.682
3.208 4.250 6.447
3.181 4.403 6.053
3.568 4.644 5.981
5.888 4.993 5.225
5.896 5.096 4.950
5.794 5.992 6.301
5.903 5.958 6.052
2.088 3.168 4.918
2.518 3.301 4.948
2.809 3.346 5.078
2.606 3.494 4.645
2.851 3.440 4.431
3.516 3.716 4.593
5.234 4.118 3.797
5.097 4.098 3.852
5.399 4.234 3.439
5.817 4.481 3.709
5.695 4.344 3.508
6.178 4.723 3.560
2.103 3.540 4.785
2.414 3.335 5.065
2.545 3.511 4.983
2.908 3.150 5.025
2.906 3.603 4.883
3.249 3.656 4.592
5.155 3.997 3.786
5.312 3.745 3.750
5.474 3.964 3.586
5.554 4.300 3.444
5.846 4.311 3.486
5.915 4.299 3.740
2.250 2.931 5.339
2.035 3.019 5.347
2.256 3.360 5.122
2.418 3.322 5.326
2.936 3.265 5.064
2.809 3.494 4.921
3.054 3.372 4.950
3.378 3.415 4.955
3.600 3.730 4.999
5.111 4.292 4.030
5.295 3.866 4.328
5.511 4.016 3.891
5.531 4.344 4.152
5.690 4.321 3.824
6.338 4.302 3.532
2.017 3.357 5.539
2.255 3.515 5.334
2.360 3.593 5.425
2.516 3.280 5.299
2.835 3.485 5.194
3.254 3.852 5.155
3.493 3.621 4.937
3.494 3.671 5.228
3.678 4.007 5.232
5.117 4.300 4.396
5.199 4.067 4.265
5.249 4.552 4.288
5.564 4.394 3.981
5.821 4.479 4.181
6.019 4.565 3.915
2.252 3.381 5.836
2.525 3.480 5.321
2.342 3.444 5.687
2.519 3.461 5.848
3.012 3.701 5.594
2.897 3.995 5.435
3.210 3.949 5.270
3.455 4.052 5.184
3.898 4.003 5.383
4.077 4.062 4.939
5.030 4.401 4.610
5.075 4.205 4.433
5.306 4.501 4.366
5.890 4.352 4.184
6.167 4.307 4.117
6.098 4.809 4.224
2.188 3.431 5.872
2.506 3.566 5.976
2.365 3.615 5.829
2.746 3.785 5.990
2.975 3.678 5.680
3.148 4.094 5.707
3.392 3.706 5.393
3.696 4.158 5.661
3.626 3.839 5.202
3.946 4.205 5.456
5.010 4.283 4.791
5.496 4.493 4.913
5.563 4.527 4.470
5.696 4.661 4.436
5.939 4.660 4.406
6.154 4.593 4.332
2.426 3.877 6.060
2.667 3.928 6.129
2.821 3.803 6.149
3.261 4.117 6.146
3.217 4.156 5.809
3.744 4.293 5.478
4.085 4.213 5.633
4.237 4.198 5.641
5.450 4.604 4.995
5.456 4.523 4.937
5.896 4.615 4.772
6.130 5.026 4.474
3.174 4.169 6.220
3.415 4.305 6.113
3.518 4.133 6.212
3.892 4.284 6.164
3.708 4.423 5.724
4.180 4.335 5.646
5.706 4.779 4.820
5.687 4.662 5.103
5.974 4.869 4.626
3.413 4.466 6.343
3.712 4.274 6.301
3.762 4.554 6.049
4.247 4.461 5.971
5.987 4.914 5.110
5.726 5.489 6.217
6.446 5.436 6.112
2.271 3.298 5.339
2.347 3.003 4.868
2.817 3.461 5.028
2.942 3.494 4.917
3.129 3.428 4.862
4.807 3.998 3.886
5.236 3.876 3.833
5.359 4.262 3.859
5.848 4.292 3.493
5.808 3.976 3.373
5.937 4.420 3.342
2.253 2.969 5.023
2.210 3.192 5.235
2.446 2.930 5.147
2.785 2.856 5.308
2.741 2.926 5.201
3.043 3.195 4.971
4.564 3.439 4.161
5.114 3.965 3.998
5.059 3.533 3.778
5.688 4.051 3.865
5.493 3.791 3.859
5.777 4.183 3.768
1.702 2.767 5.506
1.861 3.053 5.189
2.316 3.103 5.071
2.207 2.940 5.355
2.833 3.230 5.202
2.778 3.009 5.478
2.871 3.494 5.380
3.319 3.488 4.864
3.653 3.367 4.719
4.625 3.691 4.321
5.062 3.984 4.415
5.294 3.736 4.417
5.730 3.967 3.967
5.542 3.804 4.005
6.154 4.181 3.779
6.306 4.224 4.051
2.091 3.116 5.338
2.482 3.305 5.530
2.450 3.029 5.571
2.912 3.141 5.434
2.911 3.484 5.367
2.931 3.539 5.126
3.224 3.494 5.246
3.311 3.446 5.291
3.866 3.528 5.004
5.222 4.127 4.426
5.576 4.053 4.619
5.597 4.103 4.116
5.714 4.197 4.213
5.802 4.412 3.902
6.369 4.209 4.200
2.311 3.329 5.858
2.504 3.072 5.908
2.325 3.133 5.686
2.958 3.391 6.015
2.902 3.382 5.610
3.229 3.321 5.718
3.247 3.648 5.583
3.363 3.840 5.392
3.953 3.662 5.461
5.112 3.970 4.886
5.660 4.237 4.520
5.533 4.393 4.618
5.889 4.211 4.324
6.319 4.481 4.442
2.472 3.350 5.655
3.028 3.815 5.843
2.744 3.879 5.734
3.339 3.691 6.005
3.438 3.516 5.436
3.723 3.851 5.839
4.131 4.018 5.578
4.118 3.717 5.532
5.455 4.345 4.890
5.622 4.373 4.623
5.942 4.335 4.411
6.290 4.405 4.713
2.838 3.926 6.074
3.181 3.635 5.844
3.466 3.952 5.860
3.343 3.671 5.912
3.862 3.699 6.029
3.752 4.164 5.827
4.197 4.318 5.385
4.352 3.927 5.660
5.839 4.443 5.082
5.905 4.644 4.849
6.155 4.496 4.885
3.267 3.733 6.264
3.740 4.117 6.279
3.928 4.087 5.810
4.137 4.194 5.733
4.081 4.420 5.864
4.414 4.445 5.775
6.261 4.572 4.994
6.279 4.566 4.847
3.714 4.079 6.467
4.089 4.502 6.235
4.326 4.441 6.033
4.498 4.542 5.749
4.781 4.508 6.054
4.136 4.541 6.429
4.388 4.339 6.343
4.927 4.427 6.224
4.973 4.493 6.449
5.041 4.990 6.066
5.457 5.212 6.022
5.536 5.013 6.256
