1.633 2.366 3.318
1.693 2.194 3.165
2.020 2.124 2.959
2.483 1.290 1.730
2.424 1.222 1.567
2.530 0.974 1.282
2.785 0.974 1.225
2.977 0.764 0.974
0.574 3.939 5.633
0.521 4.148 5.313
1.454 2.994 3.722
1.421 2.703 3.288
1.495 2.595 3.257
1.710 2.356 2.918
2.588 1.242 1.146
2.688 0.971 1.005
2.812 0.826 0.924
0.485 4.118 5.323
1.316 2.895 3.000
2.418 1.026 0.694
0.205 4.020 3.196
0.373 3.906 3.010
0.408 3.845 2.920
0.557 3.791 2.795
1.366 2.444 0.846
1.486 2.272 0.820
1.590 2.141 0.661
1.738 1.832 0.337
4.141 0.293 6.040
3.922 0.479 6.171
3.936 0.444 5.884
3.562 0.853 6.197
3.714 0.810 5.882
3.869 0.646 5.863
3.930 0.252 5.410
3.265 1.130 6.279
3.414 0.962 5.934
3.564 0.726 5.873
3.712 0.714 5.677
3.721 0.568 5.363
3.020 1.594 6.326
3.224 1.227 5.936
3.413 1.035 5.854
3.443 1.103 5.567
3.380 0.882 5.435
3.628 0.765 5.252
3.585 0.536 5.079
3.062 1.173 5.571
3.272 1.114 5.386
3.339 0.991 5.310
3.389 0.783 4.971
3.305 1.770 5.802
3.290 1.606 5.475
3.475 1.190 5.277
3.424 1.064 5.193
2.459 2.282 5.023
2.599 2.304 4.780
2.736 1.943 4.367
3.481 0.759 2.511
3.784 0.579 2.265
3.889 0.233 2.047
2.120 2.802 4.833
2.294 2.532 4.592
2.289 2.250 4.558
2.540 2.089 4.210
2.451 2.068 3.923
3.414 0.939 2.447
3.400 0.719 2.446
3.409 0.549 2.224
3.609 0.497 1.846
3.673 0.286 1.803
1.356 3.907 6.031
2.034 2.999 4.890
1.935 2.929 4.837
2.257 2.681 4.537
2.156 2.528 4.403
2.258 2.295 4.065
2.474 2.161 3.813
2.513 2.139 3.553
3.153 1.235 2.607
3.208 1.206 2.372
3.244 0.908 2.055
3.338 0.737 1.894
3.518 0.735 1.810
3.539 0.393 1.606
1.348 3.828 6.138
1.351 3.915 5.914
1.878 3.181 4.909
1.721 2.975 4.497
1.918 2.818 4.454
2.048 2.759 4.159
2.210 2.373 3.794
2.168 2.383 3.740
2.476 2.108 3.538
2.968 1.301 2.320
3.065 1.349 2.043
2.981 1.042 2.064
3.315 0.870 1.714
3.417 0.781 1.627
3.409 0.627 1.275
1.246 4.051 5.758
1.127 4.054 5.588
1.483 3.376 4.547
1.627 3.148 4.406
1.928 2.890 4.087
2.028 2.897 3.923
1.875 2.783 3.826
2.072 2.371 3.525
2.172 2.422 3.338
2.685 1.506 2.262
2.698 1.386 1.905
2.803 1.226 1.819
3.046 1.066 1.586
3.069 0.849 1.313
3.310 0.898 1.123
1.059 4.182 5.681
0.976 4.164 5.506
1.537 3.215 4.268
1.578 3.126 3.923
1.640 3.009 3.704
1.958 2.874 3.542
1.879 2.696 3.289
1.925 2.484 3.184
2.727 1.687 1.804
2.626 1.443 1.680
2.810 1.204 1.454
2.857 1.170 1.036
3.174 0.919 1.025
0.787 4.245 5.548
1.471 3.149 3.921
1.498 2.987 3.684
1.792 3.078 3.326
1.821 2.839 3.218
2.623 1.435 1.388
2.598 1.426 1.184
2.810 1.303 0.865
3.038 1.069 0.905
0.581 3.915 2.899
0.642 3.748 2.607
0.903 3.815 2.517
1.729 2.300 0.459
1.873 2.065 0.153
2.052 2.078 0.087
4.291 0.550 6.051
3.992 0.862 6.127
4.196 0.691 5.783
4.265 0.529 5.756
3.854 0.966 6.177
3.787 0.996 6.014
4.163 0.645 5.675
4.152 0.592 5.631
3.515 1.468 6.238
3.671 1.156 6.039
3.818 0.998 5.783
3.899 0.734 5.421
3.876 0.795 5.436
3.219 1.751 6.075
3.326 1.555 6.103
3.560 1.388 5.890
3.521 1.251 5.494
3.577 0.877 5.423
3.818 0.897 5.088
3.234 1.634 5.874
3.279 1.358 5.481
3.535 1.183 5.378
3.598 1.141 5.167
3.334 2.114 5.947
3.361 1.738 5.656
3.684 1.694 5.662
3.728 1.593 5.482
4.354 0.219 3.633
4.636 -0.014 3.475
2.636 2.451 4.709
2.964 2.326 4.303
2.856 2.228 4.078
3.838 0.622 2.210
3.989 0.401 2.071
3.986 0.407 1.697
1.812 3.835 6.099
2.489 2.799 4.953
2.554 2.733 4.640
2.588 2.675 4.563
2.728 2.317 4.375
2.896 2.225 4.065
2.891 2.058 3.732
3.588 1.066 2.529
3.496 1.095 2.274
3.661 0.742 2.020
3.721 0.812 1.908
3.817 0.532 1.568
1.725 3.851 6.124
1.576 4.010 6.112
2.113 2.979 4.653
2.436 2.863 4.511
2.339 2.842 4.369
2.459 2.589 4.152
2.518 2.436 3.731
2.743 2.167 3.601
3.296 1.422 2.232
3.459 1.082 2.202
3.517 1.039 1.780
3.755 0.871 1.796
3.835 0.562 1.543
1.560 3.992 6.022
1.381 4.152 5.930
1.908 3.307 4.622
2.090 3.169 4.623
2.072 2.924 4.325
2.366 2.774 4.153
2.411 2.580 3.833
2.558 2.499 3.599
2.478 2.324 3.445
3.106 1.544 2.265
3.229 1.444 2.265
3.213 1.310 1.969
3.417 1.138 1.634
3.610 0.926 1.416
3.604 0.837 1.412
1.552 3.993 5.715
1.368 4.148 5.721
1.945 3.429 4.645
1.885 3.194 4.342
1.952 3.132 4.155
2.086 3.094 3.975
2.352 2.912 3.585
2.385 2.589 3.597
2.496 2.454 3.181
2.858 1.835 2.136
3.062 1.516 1.856
3.210 1.322 1.711
3.103 1.388 1.400
3.277 1.085 1.363
3.459 0.836 1.106
1.217 4.218 5.514
1.558 3.553 4.299
1.788 3.357 4.120
1.750 3.346 3.857
1.989 3.207 3.737
2.117 2.931 3.466
2.096 2.895 3.408
2.687 1.790 2.123
2.940 1.811 1.781
2.983 1.630 1.583
3.155 1.358 1.250
3.065 1.242 1.159
3.329 1.169 0.790
1.555 3.711 3.868
1.641 3.514 3.746
1.795 3.193 3.549
2.023 3.163 3.268
2.752 1.884 1.615
2.734 1.837 1.284
2.938 1.587 1.089
3.085 1.513 1.004
0.997 4.179 2.533
1.106 3.939 2.519
1.291 3.815 2.223
2.236 2.181 0.230
2.122 2.237 -0.041
4.338 0.865 6.133
4.618 0.514 5.960
4.585 0.383 5.947
4.332 0.833 6.170
4.384 0.876 5.872
4.586 0.631 5.570
4.083 1.126 6.083
4.073 1.024 6.012
4.303 0.827 5.653
4.252 0.688 5.447
3.731 1.550 6.084
3.870 1.320 5.910
4.053 1.319 5.763
3.990 1.185 5.564
4.217 0.816 5.407
4.559 0.068 4.305
3.379 1.697 6.209
3.725 1.669 5.970
3.810 1.556 5.772
3.929 1.408 5.428
3.824 1.212 5.202
4.638 0.370 4.070
4.606 0.024 3.735
3.327 1.876 6.014
3.520 1.766 5.817
3.636 1.641 5.623
3.695 1.474 5.411
4.571 0.341 3.629
4.526 0.140 3.320
3.588 2.367 6.212
3.629 2.222 5.912
3.763 1.876 5.733
3.659 1.854 5.633
4.573 0.644 3.887
4.629 0.323 3.713
4.820 0.325 3.358
4.839 0.143 3.017
3.201 2.751 6.143
3.227 2.502 6.053
3.480 2.200 5.815
3.420 2.117 5.671
4.425 0.879 3.795
4.557 0.812 3.696
4.564 0.472 3.473
4.706 0.376 3.042
3.577 1.842 3.812
2.169 3.653 6.113
3.026 2.448 4.258
3.196 2.289 4.298
3.391 2.226 3.936
3.263 1.951 3.724
4.273 0.787 2.082
4.291 0.506 1.776
2.082 3.934 6.159
2.033 3.968 5.796
2.829 2.986 4.559
2.909 2.608 4.447
2.820 2.575 4.248
2.952 2.385 3.869
3.169 2.210 3.746
3.206 2.088 3.557
3.832 1.101 2.356
4.019 1.115 1.958
4.133 0.946 1.842
4.018 0.737 1.732
1.960 3.997 6.048
1.866 4.258 6.087
1.798 4.103 5.832
2.351 3.108 4.804
2.537 3.140 4.526
2.683 3.021 4.101
2.848 2.696 3.977
2.870 2.671 3.719
3.066 2.460 3.511
3.038 2.253 3.339
3.658 1.407 2.205
3.586 1.372 2.006
3.825 1.126 1.755
3.990 0.900 1.718
3.962 0.989 1.437
1.849 4.078 6.033
1.617 4.216 5.821
2.169 3.276 4.536
2.499 3.123 4.297
2.589 3.065 4.024
2.672 2.975 3.960
2.626 2.739 3.725
2.681 2.459 3.396
3.372 1.627 2.145
3.400 1.433 2.031
3.605 1.416 1.738
3.652 1.050 1.602
3.777 0.863 1.253
1.538 4.195 5.805
2.113 3.599 4.542
2.199 3.511 4.287
2.105 3.295 4.192
2.258 3.130 3.956
2.534 3.161 3.736
2.514 2.866 3.427
3.241 1.997 2.203
3.306 1.643 1.797
3.386 1.688 1.728
3.582 1.396 1.426
3.648 1.332 1.286
3.772 1.030 0.932
1.878 3.832 4.319
1.899 3.711 4.050
2.103 3.422 3.977
2.270 3.451 3.647
2.219 3.276 3.517
2.479 3.113 3.249
2.965 2.215 1.870
3.180 1.852 1.845
3.094 1.726 1.458
3.232 1.596 1.434
3.334 1.405 0.975
3.621 1.285 0.789
1.578 4.004 4.245
1.936 3.933 3.803
1.947 3.521 3.583
2.008 3.445 3.559
2.741 2.163 1.699
2.946 1.982 1.463
3.096 1.933 1.301
3.147 1.800 1.044
1.434 4.171 4.121
1.638 4.141 4.097
1.554 4.033 3.784
1.810 3.855 3.628
2.603 2.654 1.685
2.675 2.309 1.617
2.840 2.117 1.481
2.788 2.090 1.256
0.787 5.233 4.228
1.835 3.561 2.013
0.436 5.420 4.223
0.381 5.307 4.143
1.340 4.057 2.331
1.305 4.054 2.071
1.578 3.882 1.870
1.564 3.676 1.857
0.354 5.435 4.302
4.756 0.983 6.339
4.790 0.898 6.043
4.959 0.676 5.690
4.885 0.609 5.677
4.360 1.334 6.243
4.626 1.026 5.943
4.615 1.055 5.945
4.827 0.834 5.552
4.822 0.705 5.456
4.255 1.464 6.198
4.488 1.195 5.824
4.450 1.124 5.503
4.580 1.023 5.373
4.090 1.695 6.034
4.124 1.484 5.849
4.323 1.420 5.639
4.414 1.277 5.381
4.867 0.218 4.031
4.901 0.202 4.054
3.750 2.155 6.176
3.745 1.840 5.798
3.968 1.765 5.745
3.897 1.491 5.516
4.152 1.396 5.212
4.742 0.362 3.952
4.761 0.320 3.799
4.946 0.031 3.456
3.325 2.311 6.227
3.492 2.138 6.093
3.756 2.075 5.827
3.636 1.963 5.411
4.534 0.534 3.923
4.640 0.360 3.720
4.777 0.275 3.366
4.818 0.124 3.147
3.746 2.504 6.099
3.724 2.448 5.824
3.857 2.152 5.797
4.809 1.036 4.063
4.718 0.865 3.691
4.935 0.739 3.543
4.906 0.512 3.199
3.386 2.704 6.194
3.647 2.796 6.052
3.571 2.507 5.780
4.293 1.156 3.929
4.472 1.006 3.710
4.605 0.873 3.665
4.787 0.830 3.379
3.259 3.020 6.077
3.126 2.878 6.076
3.403 2.935 5.903
4.166 1.497 3.970
4.189 1.497 3.786
4.283 1.202 3.529
4.472 1.043 3.291
3.000 3.541 6.168
2.883 3.364 6.014
3.076 3.218 5.716
3.874 1.809 4.058
4.125 1.730 3.915
4.174 1.564 3.595
4.242 1.323 3.462
2.496 3.847 6.183
2.692 3.574 5.948
2.888 3.541 5.870
3.578 2.203 4.112
3.775 1.882 3.858
3.775 1.913 3.693
4.002 1.605 3.338
2.456 3.969 6.079
2.489 3.861 5.840
3.307 2.494 4.217
3.535 2.427 4.035
3.589 2.201 3.834
3.565 2.070 3.478
4.367 0.701 1.633
2.326 4.163 6.159
2.235 4.115 5.946
3.172 2.780 4.061
3.217 2.710 3.908
3.244 2.348 3.860
3.444 2.305 3.619
4.271 1.147 1.731
4.285 0.852 1.600
2.129 4.220 5.989
2.106 4.311 5.998
2.961 3.181 4.176
2.992 2.847 4.078
2.967 2.684 3.757
3.185 2.671 3.653
4.092 1.308 1.844
3.954 1.110 1.715
4.229 0.941 1.309
1.987 4.286 6.040
2.712 3.491 4.360
2.807 3.265 4.157
2.742 3.002 3.869
2.952 3.048 3.558
3.784 1.754 1.831
3.838 1.562 1.714
3.949 1.435 1.455
3.940 1.126 1.247
2.282 3.785 4.183
2.365 3.462 4.164
2.647 3.311 3.847
2.774 3.191 3.613
3.464 1.980 2.023
3.584 1.678 1.584
3.702 1.750 1.591
3.843 1.415 1.260
2.105 3.899 4.247
2.217 3.717 3.995
2.160 3.740 3.984
2.239 3.555 3.759
3.084 2.387 1.955
3.169 2.153 1.749
3.282 1.960 1.545
3.574 1.797 1.396
1.788 4.431 4.372
1.957 4.268 4.199
2.126 3.853 3.773
2.181 3.696 3.637
2.796 2.693 2.012
2.976 2.464 1.726
3.094 2.278 1.407
3.148 2.157 1.322
1.470 4.644 4.434
1.574 4.577 4.252
1.626 4.410 3.892
1.912 4.067 3.634
2.618 2.838 2.004
2.761 2.775 1.639
2.851 2.653 1.631
3.053 2.286 1.392
1.384 4.934 4.482
1.268 4.887 4.104
1.377 4.499 3.961
1.525 4.366 3.607
2.395 3.134 2.001
2.486 3.075 1.915
2.623 3.006 1.652
2.578 2.605 1.321
1.049 5.306 4.307
1.200 5.069 4.161
1.110 5.031 3.996
1.434 4.752 3.873
2.074 3.385 2.017
2.230 3.326 1.874
2.329 3.080 1.553
2.412 3.055 1.469
0.870 5.657 4.342
0.883 5.371 4.334
0.996 5.247 3.902
0.977 4.989 3.844
1.901 3.831 1.998
1.924 3.623 1.887
2.077 3.510 1.522
2.070 3.366 1.564
0.868 5.634 4.541
0.598 5.732 4.412
0.740 5.386 4.158
0.747 5.371 3.856
1.600 3.982 2.017
1.761 4.054 1.833
1.928 3.886 1.793
1.956 3.600 1.560
0.478 5.642 4.317
4.884 1.090 6.238
5.121 0.983 5.994
4.990 0.921 5.634
5.281 0.640 5.556
4.533 1.516 6.145
4.784 1.422 5.909
4.821 1.154 5.929
4.800 1.007 5.591
4.435 1.610 6.238
4.543 1.577 6.079
4.512 1.504 5.841
4.534 1.150 5.515
5.344 0.142 3.999
4.068 1.860 5.993
4.329 1.805 5.963
4.315 1.551 5.513
5.349 0.374 3.958
5.452 0.307 3.723
5.293 0.018 3.391
3.800 2.159 6.185
3.948 2.044 5.846
4.211 1.785 5.659
4.866 0.617 3.888
5.157 0.575 3.792
5.270 0.202 3.570
5.387 0.069 3.373
3.614 2.409 6.025
3.652 2.214 5.996
3.761 2.284 5.598
4.744 1.050 4.038
4.913 0.846 3.729
4.987 0.548 3.422
5.116 0.335 3.424
3.873 2.779 6.086
3.962 2.463 5.987
4.912 1.219 4.068
4.824 1.180 4.031
5.055 0.872 3.697
5.064 0.885 3.616
3.669 3.074 6.189
3.717 2.939 5.943
3.911 2.712 5.669
4.514 1.869 4.371
4.423 1.556 4.067
4.522 1.342 3.957
4.615 1.239 3.833
4.931 1.157 3.505
5.023 0.949 3.328
3.257 3.253 6.120
3.328 3.118 5.905
3.533 2.909 5.693
3.559 2.706 5.570
4.400 2.015 4.284
4.519 1.798 4.023
4.415 1.689 3.872
4.654 1.323 3.598
4.642 1.275 3.489
4.834 1.143 3.087
3.124 3.602 6.297
3.268 3.353 6.021
3.394 3.290 5.697
3.528 3.089 5.671
3.941 2.085 4.322
4.054 2.018 4.176
4.349 1.948 3.884
4.451 1.714 3.693
4.453 1.710 3.460
4.413 1.448 3.059
2.747 3.924 6.109
3.001 3.798 6.135
3.046 3.636 5.746
3.180 3.582 5.698
3.228 3.207 5.397
3.860 2.399 4.266
3.990 2.250 4.096
4.068 2.283 3.945
4.143 2.081 3.535
4.233 1.947 3.450
4.193 1.626 3.271
4.332 1.638 3.043
4.951 0.853 1.799
2.535 4.303 6.278
2.794 4.074 6.106
2.661 3.966 5.766
2.991 3.767 5.543
2.958 3.516 5.512
3.575 2.627 4.017
3.662 2.480 3.926
3.917 2.265 3.556
3.885 2.057 3.406
3.982 1.981 3.122
4.021 1.996 2.961
4.708 1.036 1.784
2.551 4.233 6.188
2.416 4.304 6.032
2.621 4.173 5.788
2.643 4.034 5.540
3.539 2.930 3.833
3.447 2.656 3.806
3.759 2.619 3.605
3.696 2.343 3.163
4.476 1.054 1.589
2.358 4.477 6.008
3.236 3.058 3.684
4.284 1.231 1.358
2.147 4.416 4.434
2.272 4.109 4.149
2.402 4.097 4.115
2.462 3.948 3.701
3.286 2.710 1.971
3.296 2.404 1.856
3.487 2.303 1.640
3.632 2.085 1.335
1.872 4.650 4.540
2.088 4.503 4.212
2.181 4.229 4.071
2.238 4.042 3.733
3.039 2.941 2.201
3.106 2.863 2.025
3.382 2.608 1.589
3.408 2.343 1.626
1.642 5.073 4.680
1.726 4.887 4.624
1.884 4.804 4.355
1.812 4.502 4.203
2.057 4.393 4.022
2.072 4.410 3.576
2.813 3.261 2.485
2.753 3.263 2.165
2.758 3.014 2.010
2.981 2.799 1.674
2.994 2.627 1.417
3.081 2.685 1.372
1.277 5.195 4.639
1.465 4.990 4.460
1.658 5.040 4.147
1.838 4.803 3.994
1.786 4.606 3.836
1.847 4.578 3.535
2.443 3.478 2.206
2.577 3.241 1.979
2.632 3.255 1.782
2.786 3.192 1.485
2.898 2.854 1.261
3.113 2.745 1.231
1.164 5.582 4.480
1.221 5.500 4.298
1.323 5.309 4.306
1.384 5.115 3.928
1.493 5.041 3.775
1.584 4.825 3.487
2.377 3.706 2.342
2.475 3.697 1.966
2.326 3.512 1.828
2.512 3.468 1.588
2.558 3.099 1.267
2.678 2.951 1.071
1.217 5.587 4.677
1.035 5.743 4.386
0.971 5.534 4.276
1.312 5.292 4.059
1.354 5.377 3.880
1.315 5.173 3.581
1.568 5.044 3.435
2.107 4.187 2.237
2.125 3.997 1.970
2.174 3.879 1.896
2.236 3.576 1.755
2.519 3.426 1.335
2.486 3.437 1.268
2.555 3.320 0.855
1.062 5.820 4.529
0.756 5.915 4.359
0.919 5.606 3.888
1.002 5.444 3.773
1.130 5.406 3.678
1.091 5.363 3.260
1.744 4.356 1.975
2.023 4.003 1.816
2.078 4.081 1.630
2.027 3.793 1.493
2.243 3.608 1.254
2.248 3.389 0.992
0.849 5.991 4.323
5.077 1.037 5.859
5.290 1.110 5.684
5.469 0.903 5.530
5.577 0.830 5.426
5.147 1.342 5.820
4.064 2.378 6.071
4.168 2.274 5.946
4.959 1.007 4.062
5.223 0.901 3.862
5.291 0.675 3.693
5.383 0.463 3.375
4.019 2.764 6.206
4.070 2.443 5.746
4.902 1.305 4.151
4.875 1.159 4.058
5.030 1.041 3.733
5.196 0.757 3.442
3.942 3.071 6.369
4.148 2.798 6.021
4.841 1.508 4.280
5.125 1.372 4.007
5.045 1.252 3.825
5.260 1.199 3.580
3.804 3.149 6.112
3.919 2.943 5.983
4.020 2.861 5.774
4.568 1.992 4.495
4.810 1.907 4.250
4.854 1.655 3.922
5.025 1.590 3.834
5.015 1.195 3.513
5.155 1.212 3.412
3.574 3.584 6.098
3.570 3.443 5.987
3.789 3.066 5.736
3.793 2.886 5.367
4.452 2.131 4.354
4.493 2.071 4.246
4.565 1.840 3.928
4.600 1.755 3.701
4.725 1.639 3.436
4.952 1.541 3.325
4.997 1.203 3.189
3.372 3.675 6.274
3.545 3.767 5.967
3.609 3.494 5.763
3.550 3.197 5.397
3.751 3.143 5.394
4.344 2.456 4.149
4.370 2.098 3.905
4.300 2.037 3.729
4.659 1.895 3.551
4.677 1.832 3.387
4.844 1.524 3.145
4.765 1.472 2.858
3.001 4.215 6.175
3.045 3.954 6.035
3.121 3.793 5.824
3.417 3.610 5.528
3.538 3.451 5.416
4.206 2.484 4.055
4.206 2.260 3.774
4.141 2.247 3.704
4.323 2.172 3.404
4.434 1.839 3.291
4.515 1.751 3.069
2.928 4.288 6.184
2.806 4.289 6.010
2.988 4.168 5.667
3.130 4.024 5.512
3.085 3.734 5.246
3.220 3.655 5.116
3.870 2.579 3.808
3.974 2.663 3.605
4.165 2.392 3.410
4.175 2.122 3.157
4.392 1.996 3.084
4.556 1.934 2.716
2.829 4.498 6.119
2.642 4.424 5.807
2.928 4.283 5.490
2.871 4.102 5.327
3.897 2.642 3.355
4.010 2.551 3.371
4.027 2.236 2.977
1.986 5.100 4.735
2.131 4.757 4.481
2.163 4.642 4.329
2.246 4.534 4.011
3.145 3.275 2.383
3.138 3.237 1.966
3.362 2.925 1.963
3.453 2.865 1.604
1.719 5.267 4.746
1.788 5.243 4.470
1.872 5.096 4.418
2.094 4.880 4.150
2.293 4.597 3.739
2.386 4.472 3.750
2.834 3.579 2.409
3.044 3.285 2.054
3.084 3.376 1.835
3.065 3.183 1.573
3.285 2.808 1.555
3.351 2.799 1.239
1.423 5.511 4.719
1.583 5.540 4.578
1.630 5.209 4.461
1.838 5.141 4.093
1.839 4.858 3.924
2.100 4.753 3.709
2.257 4.688 3.490
2.540 3.786 2.450
2.634 3.754 2.245
2.960 3.523 1.825
2.846 3.312 1.711
3.163 3.292 1.628
3.198 3.079 1.374
3.163 2.807 1.177
1.600 5.521 4.629
1.373 5.729 4.493
1.325 5.618 4.449
1.513 5.374 4.007
1.793 5.298 3.974
1.785 5.196 3.846
1.849 4.880 3.569
2.079 4.922 3.204
2.461 4.101 2.307
2.680 3.838 2.057
2.694 3.730 1.805
2.685 3.587 1.514
2.930 3.331 1.242
2.862 3.098 1.191
3.075 3.214 1.027
1.490 5.768 4.633
1.131 5.854 4.332
1.259 5.709 4.174
1.354 5.552 3.993
1.432 5.325 3.649
1.531 5.299 3.634
1.711 5.159 3.182
2.311 4.060 2.091
2.353 4.028 1.736
2.406 3.864 1.579
2.740 3.793 1.231
2.623 3.557 1.179
2.802 3.508 0.920
1.291 5.897 4.386
0.965 6.077 4.235
1.002 5.816 4.085
1.302 5.631 3.662
1.333 5.506 3.506
1.506 5.546 3.471
1.584 5.293 3.052
2.157 4.351 1.750
2.375 4.285 1.678
2.326 3.941 1.413
2.338 3.832 1.127
2.658 3.664 0.911
2.617 3.452 0.758
1.057 6.026 4.323
5.751 1.154 5.504
5.685 0.891 5.335
5.760 0.708 4.948
3.924 3.019 6.327
4.017 2.763 6.066
5.019 1.546 4.276
5.006 1.494 4.261
5.226 1.250 3.805
5.250 1.263 3.696
4.339 3.147 6.384
4.963 1.992 4.549
5.016 1.710 4.295
5.365 1.780 4.139
5.238 1.420 3.781
3.896 3.596 6.194
4.109 3.235 6.011
4.033 3.326 5.950
4.699 2.158 4.678
4.776 2.106 4.428
4.883 2.005 4.108
4.971 1.749 3.767
5.167 1.660 3.585
5.268 1.413 3.338
3.911 3.727 6.061
3.906 3.459 5.878
4.064 3.335 5.705
4.174 3.257 5.488
4.619 2.369 4.339
4.575 2.335 4.216
4.915 2.249 3.828
4.992 2.037 3.811
5.149 1.762 3.622
5.051 1.682 3.247
5.084 1.420 3.087
3.454 4.063 6.020
3.586 3.853 5.952
3.727 3.711 5.814
3.868 3.393 5.432
3.977 3.360 5.396
4.524 2.587 4.165
4.585 2.453 4.061
4.551 2.360 3.795
4.870 2.075 3.614
4.863 1.832 3.361
4.867 1.816 3.046
4.966 1.513 3.000
3.173 4.271 6.029
3.434 4.101 5.835
3.461 3.989 5.761
3.550 3.797 5.415
3.778 3.598 5.313
3.660 3.492 5.152
4.251 2.774 3.977
4.476 2.606 3.874
4.440 2.268 3.667
4.724 2.228 3.467
4.831 2.010 3.129
4.898 2.042 2.865
4.968 1.647 2.776
3.144 4.357 6.088
3.105 4.199 5.872
3.299 4.130 5.512
3.479 3.916 5.312
3.471 3.856 5.154
4.192 2.674 3.484
4.444 2.490 3.434
4.306 2.416 3.084
4.505 2.310 3.080
4.738 1.992 2.818
2.948 4.319 5.621
3.258 4.316 5.394
3.199 4.221 5.186
4.287 2.840 3.266
4.135 2.679 3.108
4.303 2.425 2.789
2.017 5.246 4.738
2.358 5.204 4.576
2.302 4.947 4.321
2.472 4.827 4.254
3.342 3.678 2.426
3.239 3.354 2.264
3.341 3.226 2.063
3.533 3.249 1.848
2.005 5.732 4.862
1.981 5.549 4.772
2.141 5.223 4.601
2.171 5.104 4.368
2.276 4.885 4.141
2.451 4.835 3.752
3.119 3.972 2.418
2.992 3.870 2.420
3.134 3.588 2.025
3.344 3.352 1.771
3.484 3.198 1.634
3.489 3.245 1.542
2.003 5.512 4.860
1.785 5.766 4.782
1.893 5.567 4.464
1.849 5.476 4.286
1.966 5.355 3.973
2.214 5.297 3.837
2.342 5.100 3.589
2.408 4.781 3.495
2.791 4.184 2.474
2.907 3.829 1.995
3.051 3.705 1.994
3.017 3.698 1.766
3.377 3.390 1.473
3.279 3.258 1.253
3.356 3.109 1.001
1.785 5.677 4.711
1.473 5.983 4.584
1.784 5.749 4.316
1.713 5.501 3.973
1.946 5.602 3.805
1.968 5.423 3.747
2.204 5.130 3.562
2.298 4.899 3.216
2.634 4.224 2.228
2.690 4.152 1.960
3.010 3.996 1.643
3.048 3.664 1.570
3.125 3.509 1.219
3.189 3.317 1.135
3.207 3.219 0.893
1.686 5.967 4.532
1.387 6.223 4.310
1.548 6.061 4.146
1.578 5.909 3.879
1.683 5.504 3.754
1.816 5.349 3.473
1.903 5.418 3.179
1.921 5.067 3.123
2.538 4.362 1.900
2.620 4.087 1.676
2.798 3.982 1.461
2.933 3.935 1.348
2.803 3.812 1.041
2.986 3.484 0.776
3.144 3.465 0.734
1.270 5.986 4.332
1.319 6.186 4.029
1.389 5.823 3.729
1.520 5.755 3.482
1.697 5.483 3.419
1.861 5.528 3.142
2.479 4.292 1.614
2.433 4.157 1.371
2.708 4.158 1.174
2.690 3.892 1.060
2.794 3.646 0.705
5.931 1.033 5.176
6.148 0.845 5.088
6.092 0.627 4.920
4.248 3.158 6.360
5.010 1.868 4.531
5.136 1.758 4.330
5.146 1.676 4.132
5.210 1.569 3.842
5.275 2.207 4.707
5.289 2.290 4.499
5.299 1.880 4.200
5.533 1.828 4.149
4.271 3.706 6.355
4.381 3.422 6.151
4.394 3.411 5.690
4.995 2.500 4.832
5.018 2.344 4.516
5.130 2.385 4.322
5.221 2.069 4.021
5.147 2.097 3.951
5.262 1.824 3.728
5.422 1.794 3.381
5.865 0.767 2.453
3.777 4.062 6.146
4.058 3.730 5.946
4.245 3.626 5.902
4.316 3.478 5.624
4.854 2.613 4.373
4.990 2.479 4.078
5.091 2.354 3.938
5.151 2.233 3.692
5.149 2.000 3.514
5.210 1.711 3.311
3.759 4.178 6.077
3.867 3.948 5.739
3.902 3.987 5.587
4.178 3.657 5.582
4.146 3.549 5.357
4.707 2.878 4.144
4.669 2.506 3.993
4.749 2.532 3.785
5.051 2.337 3.371
5.119 2.155 3.378
5.151 1.852 3.050
5.193 1.840 2.873
3.573 4.366 6.077
3.667 4.280 5.967
3.665 4.158 5.696
3.860 4.144 5.482
3.776 3.854 5.247
4.084 3.713 5.102
4.658 2.669 3.877
4.583 2.709 3.480
4.722 2.556 3.337
4.919 2.367 3.193
5.108 2.093 2.917
4.981 1.862 2.746
3.265 4.666 6.059
3.438 4.467 5.655
3.435 4.242 5.439
3.738 4.235 5.328
3.699 4.051 5.106
3.799 3.759 4.893
4.543 2.763 3.568
4.537 2.836 3.256
4.685 2.663 3.061
4.644 2.422 2.930
4.830 2.329 2.692
5.031 2.169 2.503
3.267 4.475 5.331
3.545 4.407 5.117
3.508 4.129 4.843
3.666 3.978 4.717
4.377 2.640 2.869
4.621 2.599 2.830
4.621 2.381 2.577
4.796 2.171 2.297
2.405 5.287 4.907
3.608 3.577 2.673
2.158 5.663 5.115
2.410 5.489 4.848
2.443 5.235 4.567
2.621 5.189 4.395
3.361 3.838 2.678
3.515 3.667 2.371
3.545 3.548 2.331
3.738 3.371 2.062
2.267 5.784 5.167
2.135 5.798 4.772
2.099 5.764 4.543
2.417 5.476 4.308
2.513 5.464 4.185
2.529 5.107 3.943
2.604 5.070 3.815
3.016 4.386 2.594
3.284 3.994 2.459
3.446 3.972 2.278
3.396 3.809 1.978
3.432 3.735 1.754
3.574 3.417 1.526
3.774 3.184 1.393
4.259 2.588 0.329
2.046 5.915 4.916
1.855 5.898 4.764
2.163 5.809 4.360
2.240 5.777 4.164
2.240 5.538 3.908
2.233 5.247 3.862
2.500 5.307 3.747
3.186 4.133 2.373
3.258 4.189 1.970
3.387 3.849 2.011
3.476 3.896 1.549
3.381 3.594 1.576
3.574 3.519 1.122
1.951 5.988 4.769
1.738 6.137 4.594
1.828 5.896 4.335
1.932 5.850 4.090
2.025 5.616 3.993
2.085 5.619 3.652
2.367 5.306 3.498
2.454 5.246 3.199
2.840 4.293 2.236
2.996 4.198 2.033
3.234 4.123 1.621
3.262 4.055 1.518
3.247 3.872 1.138
3.369 3.473 1.016
3.565 3.370 0.789
1.900 6.080 4.623
1.630 6.172 4.083
1.714 5.905 4.002
2.046 5.843 3.739
2.093 5.512 3.439
2.109 5.494 3.366
2.320 5.455 2.894
2.796 4.376 1.600
2.956 4.248 1.600
3.080 4.081 1.234
3.272 4.022 1.202
3.151 3.744 0.960
3.284 3.697 0.652
1.528 6.167 4.047
1.540 6.223 3.586
1.660 5.882 3.512
1.991 5.724 3.353
2.091 5.729 3.069
2.163 5.588 2.956
2.698 4.449 1.647
2.831 4.257 1.203
2.877 4.222 1.078
3.076 4.028 0.921
3.025 3.925 0.550
3.226 3.800 0.445
6.134 1.029 4.913
5.353 1.883 4.578
5.113 2.385 4.777
5.107 2.047 4.461
5.383 1.940 4.383
5.560 1.919 3.999
5.168 2.578 4.886
5.455 2.380 4.650
5.499 2.397 4.419
5.436 2.315 4.326
4.391 3.895 6.271
4.505 3.711 5.854
5.147 2.803 4.680
5.208 2.712 4.570
5.163 2.462 4.153
5.489 2.454 4.106
5.599 2.231 3.798
5.702 2.117 3.496
6.258 1.040 2.303
4.210 4.210 6.275
4.327 3.937 5.918
4.457 3.957 5.763
4.465 3.759 5.552
5.042 2.690 4.302
5.208 2.681 3.959
5.303 2.401 3.850
5.448 2.382 3.666
5.481 2.103 3.411
5.413 2.049 3.183
3.799 4.397 6.270
3.912 4.417 6.172
4.176 4.077 5.977
4.229 4.087 5.505
4.186 4.005 5.400
4.945 2.792 3.762
5.085 2.631 3.763
5.132 2.549 3.549
5.217 2.342 3.189
5.248 2.247 3.051
3.816 4.622 6.140
3.663 4.491 5.934
3.883 4.475 5.526
3.951 4.123 5.527
4.225 3.977 5.119
4.066 3.749 5.041
4.886 2.898 3.750
4.820 2.690 3.496
5.123 2.656 3.416
5.025 2.350 3.154
5.156 2.171 2.783
5.268 2.030 2.705
3.540 4.705 5.827
3.619 4.367 5.371
3.801 4.392 5.380
3.815 4.305 4.985
4.065 3.897 4.944
4.186 3.766 4.549
4.885 2.909 3.271
4.807 2.864 3.075
4.978 2.677 2.909
5.005 2.399 2.626
5.288 2.389 2.468
5.188 2.118 2.190
3.682 4.517 5.067
3.647 4.221 4.803
3.789 4.311 4.620
4.026 4.041 4.541
4.797 2.633 2.727
5.024 2.633 2.374
4.932 2.417 2.263
5.149 2.366 2.105
3.630 4.483 4.573
3.796 4.188 4.345
3.756 4.260 4.279
3.893 3.881 3.947
4.721 2.684 2.396
4.857 2.705 2.008
4.952 2.521 1.937
4.988 2.210 1.578
3.758 4.253 4.037
3.724 4.289 3.842
3.994 3.974 3.641
4.713 2.578 1.790
4.970 2.459 1.535
4.917 2.147 1.281
3.572 4.196 3.672
3.644 4.237 3.580
3.751 4.074 3.247
4.709 2.584 1.188
4.803 2.412 1.187
4.973 2.385 0.785
2.588 5.654 5.208
2.701 5.625 5.086
3.465 4.220 3.296
3.547 4.063 2.945
3.832 3.943 2.759
3.965 3.730 2.720
4.656 2.499 0.795
4.823 2.541 0.706
2.567 5.724 5.217
2.473 5.838 5.148
2.666 5.839 4.850
2.687 5.569 4.512
3.392 4.319 2.882
3.517 4.215 2.784
3.822 3.993 2.323
3.775 3.877 2.325
4.703 2.571 0.581
2.365 5.902 4.921
2.245 5.929 4.790
2.321 5.923 4.635
2.518 5.728 4.406
2.583 5.438 4.120
2.829 5.368 3.899
3.409 4.375 2.665
3.500 4.265 2.593
3.429 4.116 2.255
3.571 3.890 1.942
3.854 3.709 1.801
3.957 3.656 1.509
4.440 2.750 0.211
2.254 6.019 4.963
2.085 6.135 4.599
2.313 6.040 4.362
2.396 5.927 4.265
2.485 5.630 4.008
2.652 5.621 3.916
2.755 5.370 3.491
3.349 4.301 2.197
3.332 4.168 2.064
3.363 3.993 1.871
3.537 3.927 1.628
3.709 3.724 1.325
3.811 3.785 1.329
2.208 6.297 4.780
1.978 6.221 4.158
2.219 5.994 4.040
2.358 5.814 3.918
2.308 5.740 3.621
2.482 5.640 3.422
3.346 4.463 1.748
3.425 4.293 1.730
3.519 4.019 1.580
3.524 3.864 1.159
3.671 3.661 1.139
1.932 6.183 3.989
2.113 6.009 3.601
2.145 5.886 3.492
2.410 5.739 3.241
2.496 5.582 2.858
3.028 4.577 1.649
3.250 4.338 1.496
3.217 4.220 1.308
3.331 3.967 0.930
3.322 4.048 0.780
3.612 3.745 0.635
2.084 6.243 3.463
2.026 6.011 3.180
2.293 5.860 3.015
2.347 5.628 2.673
2.507 5.494 2.524
3.089 4.463 1.329
3.031 4.443 1.068
3.262 4.277 0.922
3.395 4.231 0.547
3.409 3.812 0.497
3.551 3.901 0.107
5.494 2.521 6.308
5.594 2.344 6.003
5.432 2.554 5.969
5.594 2.440 5.948
5.633 2.307 5.652
5.308 2.606 5.814
5.505 2.607 5.379
5.549 2.227 5.180
5.280 2.701 5.169
5.464 2.418 4.979
5.376 2.220 4.887
5.686 2.109 4.665
5.202 2.549 4.836
5.250 2.607 4.739
5.343 2.376 4.511
5.440 2.187 4.372
5.493 2.971 4.928
5.506 2.918 4.797
5.555 2.576 4.537
5.670 2.431 4.298
5.345 3.024 4.524
5.348 2.935 4.518
5.527 2.541 4.257
5.718 2.550 4.130
4.412 4.469 6.139
4.293 4.217 5.954
5.233 2.856 4.008
5.375 2.618 3.884
5.450 2.397 3.633
4.186 4.537 6.117
4.361 4.485 5.812
4.505 4.157 5.493
5.206 2.763 3.727
5.482 2.710 3.335
5.401 2.553 3.103
4.092 4.429 5.726
4.216 4.444 5.482
4.301 4.301 5.200
4.429 4.079 4.966
5.101 2.832 3.358
5.365 2.525 3.121
5.400 2.373 2.896
5.493 2.460 2.652
3.922 4.427 5.284
4.207 4.312 5.084
4.235 4.192 4.931
4.281 4.156 4.646
5.223 2.797 2.734
5.258 2.687 2.548
5.373 2.582 2.526
5.564 2.356 2.330
3.765 4.688 4.976
3.977 4.438 4.870
3.996 4.271 4.545
4.065 4.090 4.485
4.399 4.140 4.215
4.450 3.856 4.043
4.932 2.832 2.593
4.979 2.761 2.352
5.140 2.688 2.261
5.243 2.366 2.079
5.509 2.205 1.911
5.558 2.123 1.685
3.838 4.718 4.731
4.033 4.481 4.478
3.929 4.369 4.083
4.108 4.267 3.905
4.208 4.102 3.782
4.283 3.836 3.649
5.092 2.973 2.126
4.978 2.886 2.035
5.131 2.586 1.707
5.375 2.443 1.641
5.490 2.314 1.424
5.405 2.045 1.125
3.814 4.636 4.121
3.900 4.568 3.967
3.898 4.359 3.807
3.948 4.275 3.489
4.073 3.921 3.375
4.975 3.052 1.748
4.949 2.811 1.558
5.179 2.614 1.515
5.318 2.564 1.131
5.384 2.384 1.033
3.051 5.689 5.413
3.662 4.773 3.973
3.629 4.517 3.888
3.765 4.602 3.734
4.034 4.465 3.390
4.048 4.317 3.178
4.017 3.998 2.840
4.753 3.032 1.758
4.714 3.059 1.531
5.069 2.786 1.186
4.968 2.682 1.011
5.261 2.433 0.840
2.874 5.683 5.253
2.817 6.015 5.063
3.030 5.824 4.817
3.500 4.939 3.639
3.543 4.665 3.429
3.719 4.396 3.292
3.925 4.394 2.958
3.963 4.299 2.681
4.164 4.042 2.548
4.635 3.019 1.227
4.811 3.001 1.131
4.873 2.852 0.741
5.066 2.578 0.613
2.892 6.021 5.045
2.621 5.979 4.945
2.831 5.962 4.639
3.485 4.678 3.007
3.712 4.363 2.692
3.686 4.384 2.654
3.867 4.075 2.413
4.725 3.041 0.712
4.788 2.726 0.411
2.686 5.949 4.844
2.548 6.201 4.896
2.531 6.023 4.511
2.678 5.985 4.466
3.536 4.695 2.763
3.633 4.396 2.387
3.868 4.270 2.103
3.764 4.123 1.873
4.663 2.871 0.342
2.557 6.158 4.683
2.460 6.067 4.464
2.498 6.102 4.186
2.732 5.852 3.967
3.548 4.330 1.904
3.759 4.405 1.672
3.916 4.236 1.601
2.362 6.108 4.003
2.403 5.936 3.673
2.670 5.866 3.511
3.452 4.382 1.512
3.644 4.375 1.365
3.722 4.088 1.243
2.439 6.106 3.703
2.410 6.140 3.468
2.416 5.868 3.180
2.524 5.658 2.871
3.605 4.331 1.174
3.568 4.346 1.078
3.605 4.250 0.838
3.667 3.872 0.587
2.211 6.143 3.243
2.414 6.023 3.098
2.589 5.875 2.810
2.554 5.742 2.421
3.332 4.533 0.819
3.468 4.377 0.715
3.635 4.227 0.473
3.766 4.077 0.203
6.098 2.513 6.133
6.092 2.316 6.068
5.773 2.847 6.260
5.961 2.429 5.941
5.938 2.333 5.715
6.211 2.171 5.688
5.432 3.156 6.311
5.571 2.792 6.084
5.828 2.742 5.781
5.937 2.669 5.489
5.885 2.368 5.349
5.449 3.037 6.022
5.607 2.893 5.803
5.642 2.832 5.612
5.640 2.639 5.433
5.840 2.411 5.313
5.977 2.394 5.074
5.282 3.290 5.730
5.390 3.143 5.346
5.545 2.815 5.366
5.715 2.809 5.092
5.866 2.443 4.716
5.852 2.406 4.719
5.386 3.119 4.988
5.515 2.807 4.720
5.569 2.678 4.751
5.562 2.440 4.502
5.569 3.340 5.250
5.510 3.306 5.019
5.581 2.918 4.747
5.682 2.956 4.627
5.561 3.304 4.607
4.478 4.626 4.952
4.368 4.318 4.671
4.600 4.196 4.649
4.643 4.036 4.442
5.446 2.949 2.548
5.523 2.726 2.302
5.617 2.553 2.212
5.713 2.499 1.940
4.076 4.738 4.798
4.176 4.521 4.673
4.464 4.434 4.373
4.405 4.274 4.035
4.509 4.183 3.899
4.787 3.795 3.635
5.278 2.890 2.358
5.383 2.909 2.149
5.545 2.763 1.917
5.656 2.471 1.640
5.725 2.394 1.427
5.811 2.297 1.304
3.987 4.983 4.719
4.226 4.581 4.433
4.179 4.621 4.232
4.467 4.522 3.950
4.543 4.273 3.851
4.514 3.950 3.618
5.147 3.154 2.361
5.371 2.954 2.017
5.491 2.760 1.825
5.379 2.716 1.536
5.489 2.386 1.507
5.625 2.484 1.231
3.334 5.818 5.577
3.783 5.126 4.547
3.981 4.906 4.097
3.979 4.625 3.898
4.225 4.403 3.807
4.423 4.448 3.588
4.284 4.259 3.322
4.385 4.126 3.227
5.053 3.313 2.062
5.248 3.088 1.970
5.134 2.917 1.599
5.429 2.858 1.449
5.540 2.724 1.242
5.404 2.415 1.043
3.454 5.683 5.573
3.126 5.903 5.349
3.914 5.100 4.062
3.864 4.849 3.718
4.111 4.737 3.529
4.114 4.406 3.250
4.189 4.494 3.235
4.398 4.305 2.931
5.048 3.248 1.736
5.159 3.175 1.511
5.240 2.996 1.079
5.354 2.721 1.093
5.352 2.568 0.793
3.219 5.870 5.417
2.933 6.167 5.059
3.106 6.007 4.899
3.709 5.283 3.881
3.690 4.982 3.730
3.881 4.769 3.438
3.850 4.561 3.118
4.032 4.469 2.842
4.304 4.277 2.779
4.278 4.298 2.412
4.788 3.424 1.373
4.950 3.187 1.150
4.963 3.163 1.090
5.200 2.884 0.953
5.260 2.663 0.613
2.973 6.071 5.121
2.973 6.118 4.816
3.609 5.050 3.282
3.757 4.689 2.897
3.892 4.707 2.738
4.047 4.584 2.510
4.862 3.326 0.829
4.965 2.997 0.767
5.083 3.062 0.478
2.884 6.247 5.043
3.631 4.846 2.522
4.972 3.056 0.268
2.674 6.222 2.997
2.795 5.947 2.783
2.821 5.840 2.572
2.954 5.741 2.433
3.611 4.504 0.455
3.899 4.270 0.456
3.908 4.280 0.124
6.156 2.586 6.034
5.912 2.900 6.274
6.178 2.676 5.932
6.214 2.519 5.676
5.684 3.150 6.122
5.880 3.068 5.991
6.026 2.797 5.922
6.162 2.826 5.676
6.076 2.588 5.382
6.283 2.516 5.155
5.695 3.423 5.903
5.618 3.242 5.877
5.747 3.100 5.653
5.902 3.003 5.453
6.057 2.819 5.062
6.031 2.495 4.888
5.391 3.504 5.874
5.445 3.462 5.510
5.541 3.181 5.460
5.669 3.130 5.181
5.805 2.819 4.908
5.859 2.652 4.808
6.140 2.650 4.571
5.374 3.319 5.280
5.438 3.195 5.039
5.629 2.924 4.822
5.891 2.980 4.581
5.552 3.818 5.489
5.591 3.502 5.174
5.896 3.406 5.094
5.861 3.134 4.654
4.690 4.550 4.537
4.823 4.238 4.338
4.896 3.999 4.170
5.833 2.824 2.088
5.999 2.574 1.909
6.071 2.420 1.643
4.515 4.676 4.574
4.607 4.640 4.289
4.776 4.463 4.161
4.794 4.271 3.978
4.825 4.054 3.635
5.568 3.078 2.137
5.848 2.869 1.920
5.782 2.627 1.630
5.857 2.526 1.394
6.055 2.295 1.313
3.728 5.756 5.671
4.183 5.115 4.593
4.436 4.776 4.405
4.347 4.761 4.098
4.504 4.640 3.943
4.601 4.349 3.745
4.894 4.262 3.416
4.767 4.163 3.367
5.431 3.424 2.323
5.417 3.118 1.917
5.506 3.091 1.800
5.746 2.927 1.652
5.925 2.727 1.440
5.789 2.613 1.082
3.857 5.775 5.680
3.689 6.107 5.511
4.073 5.292 4.357
4.230 5.068 4.297
4.405 4.869 4.036
4.524 4.796 3.689
4.421 4.676 3.505
4.572 4.303 3.273
4.624 4.372 2.973
5.160 3.595 1.967
5.294 3.290 1.771
5.420 3.100 1.451
5.423 2.924 1.435
5.678 2.721 1.269
5.795 2.636 0.865
3.679 6.024 5.453
3.518 6.247 5.401
3.992 5.321 4.156
3.923 5.224 3.876
4.262 5.002 3.859
4.176 4.902 3.536
4.310 4.789 3.223
4.364 4.616 3.188
4.598 4.482 2.956
5.135 3.701 1.861
5.236 3.364 1.581
5.342 3.228 1.338
5.265 3.049 1.287
5.356 2.958 0.942
5.637 2.849 0.879
3.323 6.037 5.359
3.392 6.213 4.968
3.833 5.420 3.767
4.049 5.089 3.619
3.955 4.901 3.282
4.238 4.982 3.145
4.191 4.800 2.995
4.360 4.580 2.640
5.052 3.740 1.418
5.184 3.508 1.158
5.132 3.326 1.020
5.211 3.103 0.808
5.455 3.068 0.677
3.344 6.159 5.053
3.913 5.406 3.370
3.998 5.182 3.209
4.022 4.870 2.995
4.217 4.961 2.844
5.039 3.666 1.051
5.035 3.416 0.696
5.228 3.196 0.705
5.320 3.240 0.503
3.125 6.179 2.554
3.082 5.887 2.191
3.242 5.811 2.039
4.228 4.365 0.040
6.170 3.210 6.123
5.917 3.271 6.116
6.089 3.276 5.968
6.241 3.010 5.628
6.344 2.985 5.612
5.582 3.616 6.205
5.687 3.471 6.132
6.001 3.381 5.840
6.071 3.243 5.461
6.026 3.138 5.449
6.205 3.011 5.027
5.733 3.792 5.772
5.681 3.515 5.737
5.848 3.277 5.438
6.040 3.113 5.313
5.975 3.115 4.920
6.176 2.882 4.698
5.692 3.707 5.354
5.780 3.391 5.177
5.700 3.248 5.020
5.910 3.091 4.732
5.807 4.091 5.575
5.680 3.868 5.456
5.939 3.822 5.292
5.960 3.496 4.824
5.210 4.448 4.235
5.063 4.267 3.985
5.215 4.100 3.891
6.210 2.633 2.011
4.105 5.855 5.926
4.623 5.011 4.638
4.709 4.820 4.335
4.880 4.476 3.934
4.940 4.316 3.781
5.114 4.192 3.646
5.171 4.142 3.391
5.835 3.097 2.092
5.974 2.983 1.804
6.004 2.988 1.606
6.129 2.586 1.563
6.390 2.447 1.397
4.004 5.929 5.810
4.043 6.106 5.661
4.661 5.070 4.331
4.546 4.861 4.154
4.843 4.689 3.819
4.796 4.703 3.656
4.878 4.447 3.342
4.952 4.324 3.131
5.787 3.429 2.007
5.880 3.229 1.752
5.859 3.035 1.470
5.988 2.906 1.418
6.189 2.772 1.164
3.944 6.003 5.593
3.825 6.227 5.429
4.261 5.362 4.237
4.317 5.285 4.190
4.494 4.965 3.938
4.756 4.990 3.686
4.684 4.759 3.436
4.697 4.611 3.207
5.045 4.473 3.048
5.495 3.618 2.012
5.552 3.388 1.782
5.717 3.307 1.638
5.679 3.248 1.323
5.901 3.069 1.004
5.869 2.743 0.898
3.907 6.166 5.444
4.193 5.472 4.103
4.234 5.494 3.830
4.311 5.152 3.786
4.399 4.973 3.420
4.597 4.922 3.421
4.547 4.796 2.949
4.855 4.605 2.848
5.377 3.795 1.798
5.256 3.690 1.514
5.426 3.402 1.430
5.608 3.462 1.144
5.639 3.287 0.807
5.777 3.130 0.630
4.079 5.579 4.015
4.153 5.642 3.866
4.111 5.476 3.592
4.332 5.159 3.395
4.327 4.930 3.192
4.415 4.873 2.788
5.048 3.990 1.668
5.156 3.814 1.320
5.411 3.771 1.127
5.330 3.477 1.052
5.516 3.407 0.648
5.537 3.300 0.506
3.869 5.593 3.676
3.989 5.432 3.377
4.065 5.362 3.204
4.177 5.207 2.820
4.984 3.892 1.311
5.275 3.752 1.002
5.275 3.526 0.693
5.428 3.582 0.636
3.215 6.216 2.303
3.397 5.901 2.087
3.481 5.872 1.841
6.103 3.447 6.072
6.333 3.502 6.072
5.922 3.931 6.304
6.053 3.596 5.870
6.006 3.451 5.857
6.179 3.307 5.537
5.775 4.116 5.973
5.770 3.785 5.904
6.057 3.758 5.459
6.125 3.565 5.355
6.145 3.491 5.002
6.299 3.247 4.930
5.576 4.065 5.698
5.663 3.984 5.276
5.866 3.660 5.070
5.910 3.693 4.969
1.184 0.277 6.234
1.217 0.138 6.008
0.744 0.309 4.807
0.738 0.155 4.419
0.966 0.080 4.296
0.399 0.834 5.036
0.333 0.760 4.925
0.624 0.655 4.583
0.677 0.351 4.435
0.749 0.143 4.048
0.741 0.113 3.920
0.206 1.200 5.033
0.085 0.899 4.880
0.230 0.901 4.534
0.493 0.759 4.356
0.465 0.464 4.293
0.520 0.275 3.890
0.792 0.200 3.776
0.148 1.191 4.780
0.120 0.966 4.361
0.228 0.746 4.105
0.310 0.679 4.085
0.523 0.563 3.800
-0.028 0.878 4.045
0.084 0.701 3.931
-0.035 0.846 3.554
0.609 0.020 2.209
0.375 0.210 2.198
0.484 0.016 2.065
0.171 0.596 2.166
0.311 0.384 1.915
0.332 0.178 1.763
0.433 -0.016 1.471
0.142 0.325 0.485
0.124 0.262 0.294
1.413 0.055 5.973
1.353 0.545 6.249
1.097 0.746 6.033
0.814 1.134 6.256
0.563 1.300 6.110
1.405 0.230 4.590
0.104 1.802 6.210
1.129 0.370 4.578
1.077 0.130 4.435
1.181 0.169 4.129
0.839 0.705 4.594
0.923 0.671 4.397
0.969 0.509 4.083
1.188 0.386 3.970
0.602 1.141 4.539
0.621 0.998 4.355
0.664 0.798 4.159
0.752 0.561 4.037
0.221 1.267 4.722
0.385 1.244 4.501
0.575 1.057 4.217
0.556 0.790 3.867
0.222 1.361 4.508
0.263 1.251 4.324
0.432 1.115 4.101
-0.020 1.476 3.898
0.925 0.307 2.174
0.889 -0.029 2.191
0.538 0.616 2.401
0.625 0.246 2.030
0.922 0.279 2.003
0.768 0.180 1.592
0.211 0.712 2.460
0.455 0.661 2.121
0.588 0.496 1.833
0.671 0.352 1.650
0.069 1.153 2.415
0.040 0.968 2.248
0.255 0.959 2.058
0.246 0.703 1.689
0.136 1.225 2.018
0.084 1.000 1.833
0.481 0.330 0.092
1.473 0.179 6.097
0.679 0.019 0.207
0.678 -0.054 0.162
1.100 0.016 0.283
1.036 0.029 0.199
0.953 0.283 0.044
0.971 0.076 0.060
1.440 0.228 0.268
1.305 0.041 0.324
1.238 0.281 0.301
1.331 0.362 0.085
1.081 0.330 -0.055
1.168 0.421 -0.055
1.663 0.247 0.677
1.653 0.165 0.537
1.639 0.197 0.477
1.814 0.073 0.046
1.607 0.277 0.233
1.388 0.560 0.195
1.433 0.506 0.182
2.225 0.038 0.634
2.327 0.043 0.610
2.170 0.127 0.652
2.038 0.227 0.433
2.213 0.069 0.173
2.108 0.015 0.032
1.892 0.458 0.523
1.734 0.506 0.354
1.932 0.312 0.057
1.852 0.471 0.257
1.619 0.597 0.152
1.724 0.561 0.073
2.448 0.184 0.790
2.634 0.011 0.603
2.625 0.235 0.977
2.315 0.425 0.585
2.370 0.261 0.474
2.702 -0.070 0.125
2.275 0.459 0.572
2.226 0.464 0.549
2.187 0.399 0.329
2.515 0.159 0.142
2.276 0.601 0.531
1.949 0.597 0.367
2.040 0.451 0.028
1.933 0.590 0.326
2.979 0.353 0.986
2.929 0.125 1.123
2.720 0.395 0.837
2.718 0.147 0.470
2.647 0.309 0.760
2.583 0.510 0.685
2.699 0.494 0.363
2.698 0.537 0.732
2.547 0.599 0.410
2.656 0.566 0.098
2.621 0.416 0.083
2.454 0.627 0.351
2.369 0.581 -0.094
3.299 0.264 1.273
3.379 0.265 1.015
2.985 0.497 1.049
3.053 0.411 1.064
2.867 0.664 0.664
3.048 0.286 0.634
3.067 0.469 0.756
2.677 0.745 0.627
2.896 0.854 0.617
3.527 0.267 1.412
3.680 0.316 1.227
3.621 0.417 1.083
3.482 0.551 0.974
3.189 0.621 0.911
3.231 0.587 0.794
3.103 0.824 0.772
3.260 0.799 0.780
4.084 0.360 1.374
4.106 0.381 1.462
3.923 0.495 1.256
3.957 0.644 1.121
3.747 0.771 1.109
3.638 0.654 1.044
3.484 0.802 0.941
3.413 0.904 0.939
4.522 0.179 1.462
4.458 0.523 1.512
4.536 0.344 1.343
4.257 0.260 1.476
4.191 0.455 1.389
4.220 0.414 1.236
4.270 0.483 1.445
4.003 0.625 1.101
4.233 0.484 1.051
4.111 0.797 1.145
3.953 0.881 0.927
3.828 0.763 0.951
5.130 0.049 1.612
4.813 0.398 1.624
4.799 0.256 1.466
4.855 0.141 1.251
4.670 0.358 1.845
4.720 0.488 1.503
4.814 0.361 1.428
4.849 0.318 1.120
4.548 0.703 1.435
4.424 0.623 1.246
4.592 0.574 1.034
4.494 0.676 1.261
4.232 0.846 1.232
4.333 0.951 1.235
5.589 0.150 1.894
5.387 0.070 1.732
5.478 -0.051 1.578
5.020 0.542 1.933
5.284 0.185 1.670
5.215 0.170 1.519
5.340 0.141 1.122
5.091 0.364 1.934
5.075 0.760 1.590
4.969 0.580 1.350
5.074 0.365 1.173
5.205 0.117 1.052
5.022 0.703 1.774
4.699 0.857 1.383
4.908 0.611 1.424
5.143 0.523 1.030
5.103 0.180 0.895
5.249 0.062 0.628
4.698 0.875 1.543
4.529 1.036 1.374
4.773 0.743 1.233
4.925 0.601 0.912
4.735 0.981 1.256
3.870 1.533 -0.021
5.674 0.325 1.881
5.817 0.050 1.652
5.583 0.444 2.142
5.480 0.316 1.896
5.648 0.168 1.623
5.890 -0.012 1.409
5.457 0.471 2.036
5.239 0.551 1.940
5.546 0.557 1.740
5.648 0.278 1.531
5.622 0.221 1.271
5.881 -0.032 0.930
5.216 0.699 1.799
5.122 0.819 1.598
5.193 0.666 1.387
5.481 0.621 1.334
5.376 0.327 0.980
5.643 0.259 0.691
5.662 0.137 0.549
5.063 0.945 1.535
5.093 0.900 1.474
5.020 0.839 1.248
5.244 0.531 1.176
5.245 0.600 0.724
5.383 0.372 0.725
5.440 0.186 0.439
4.953 0.938 1.410
4.867 0.984 1.194
5.101 0.898 0.813
5.119 0.750 0.786
3.839 2.271 -0.026
3.665 2.275 -0.112
6.073 0.380 2.270
6.383 0.106 2.045
6.024 0.500 2.147
5.930 0.462 2.057
6.168 0.095 1.796
6.063 0.202 1.650
5.784 0.594 2.146
5.739 0.810 2.049
5.787 0.434 1.872
5.886 0.357 1.593
6.086 0.227 1.277
6.207 -0.012 1.175
5.802 0.766 2.018
5.464 0.715 1.722
5.559 0.803 1.469
5.683 0.651 1.253
5.945 0.315 1.259
5.962 0.323 1.085
6.040 0.081 0.826
5.575 0.821 1.901
5.298 1.114 1.563
5.468 0.965 1.410
5.506 0.726 1.220
5.721 0.441 0.887
5.805 0.446 0.778
5.922 0.074 0.654
5.897 -0.006 0.365
5.392 1.092 1.657
5.266 0.920 1.212
5.315 0.831 0.893
5.455 0.599 0.908
5.742 0.508 0.464
5.809 0.319 0.253
5.186 0.858 0.840
5.380 0.902 0.746
5.472 0.683 0.488
4.351 1.811 0.260
4.246 2.279 0.248
4.220 2.129 0.134
6.116 0.326 2.066
6.195 0.182 1.944
6.349 0.460 2.236
6.320 0.659 2.223
6.183 0.671 2.259
6.141 0.460 1.957
6.038 0.684 2.246
5.865 0.820 2.018
6.078 0.833 1.614
6.162 0.644 1.400
6.217 0.540 1.383
6.022 0.832 2.032
5.673 1.003 1.821
5.891 0.816 1.579
6.109 0.808 1.354
6.005 0.528 1.247
6.112 0.299 0.797
5.854 1.000 1.891
5.832 1.048 1.270
5.689 0.834 1.236
5.913 0.646 1.039
6.081 0.519 0.825
6.075 0.294 0.500
6.327 0.379 0.325
5.549 1.199 1.330
5.748 1.011 0.923
5.824 0.771 0.670
5.940 0.811 0.521
5.895 0.527 0.245
6.148 0.473 0.046
5.648 1.064 0.591
5.739 0.779 0.238
5.677 0.666 0.125
4.632 1.938 0.287
4.401 2.289 0.251
4.729 1.987 0.001
4.458 2.232 0.242
4.270 2.478 0.111
4.285 2.327 0.057
6.373 0.504 2.194
6.286 0.513 2.306
6.116 1.190 2.031
6.191 0.787 1.690
6.230 0.956 1.839
5.994 1.179 1.595
6.228 1.041 1.194
5.992 1.240 1.395
6.036 0.947 1.223
6.166 0.970 0.787
6.184 0.686 0.831
5.741 1.303 0.882
5.982 1.065 0.624
6.212 0.927 0.378
6.168 0.868 0.285
6.019 0.923 0.316
5.999 0.811 0.203
4.804 2.389 0.510
5.096 1.996 0.282
4.910 2.393 0.386
4.693 2.528 0.133
4.681 2.386 -0.034
4.724 2.396 0.231
4.623 2.587 0.021
4.580 2.656 0.174
6.086 1.231 0.287
6.251 1.073 -0.040
5.384 2.188 0.470
5.361 2.289 0.681
5.046 2.488 0.485
5.158 2.346 0.168
5.090 2.378 0.490
4.944 2.566 0.234
5.138 2.499 0.124
4.792 2.626 0.199
4.680 2.834 -0.038
4.836 2.723 0.055
5.670 2.422 0.803
5.659 2.204 0.627
5.583 2.556 0.526
5.405 2.403 0.464
5.174 2.548 0.358
5.475 2.560 0.178
5.216 2.648 0.281
5.165 2.818 0.076
5.231 2.795 0.245
5.963 2.478 0.960
5.923 2.276 0.922
5.766 2.461 0.776
5.833 2.522 0.603
5.768 2.805 0.397
5.746 2.690 0.540
5.574 2.724 0.404
5.433 2.771 0.423
6.120 2.620 0.985
6.337 2.587 0.794
6.074 2.714 0.685
5.974 2.749 0.799
6.012 2.920 0.604
5.786 2.835 0.517
0.739 -0.049 0.204
0.679 -0.108 -0.020
4.606 6.268 6.186
5.039 6.225 6.231
4.519 6.129 6.148
4.119 6.129 6.053
4.474 6.329 6.208
5.905 4.607 6.030
5.889 4.600 5.720
6.099 4.508 5.483
6.094 4.304 5.399
5.774 5.050 6.094
5.743 4.984 5.836
5.835 4.669 5.494
5.899 4.544 5.457
5.351 5.400 6.024
5.477 5.299 5.765
5.463 4.894 5.633
5.839 4.923 5.371
5.124 5.639 6.148
5.158 5.492 5.714
5.470 5.453 5.721
5.533 5.026 5.495
6.193 3.905 3.742
4.800 6.026 6.199
5.076 5.818 5.999
4.942 5.565 5.670
5.142 5.373 5.523
6.092 4.209 3.675
5.962 4.106 3.418
6.222 3.996 3.168
5.000 6.076 6.158
4.729 6.127 5.888
4.929 5.998 5.736
4.979 5.741 5.377
5.745 4.495 3.774
5.783 4.289 3.456
5.962 4.204 3.236
5.918 4.181 2.978
4.679 6.161 5.941
4.463 6.194 5.590
4.766 5.988 5.533
5.598 4.949 3.759
5.681 4.620 3.665
5.658 4.397 3.422
5.709 4.381 3.250
4.589 6.240 5.605
5.163 5.096 3.769
5.439 4.961 3.699
5.361 4.917 3.305
5.542 4.764 3.308
4.900 5.386 3.940
5.064 5.213 3.732
5.242 5.206 3.504
5.336 4.836 3.145
6.187 3.628 1.357
6.144 3.651 1.221
6.236 3.260 1.056
4.804 5.809 3.952
4.789 5.553 3.743
4.993 5.515 3.421
4.926 5.200 3.269
5.851 3.943 1.388
5.823 3.773 1.362
6.069 3.573 1.150
6.164 3.640 0.728
4.556 5.951 3.922
4.617 5.904 3.724
4.604 5.730 3.374
4.615 5.464 3.284
5.476 4.185 1.534
5.509 4.182 1.375
5.672 3.970 1.112
5.829 3.924 1.027
4.137 6.239 3.695
4.402 5.959 3.433
4.459 5.846 3.375
5.370 4.695 1.523
5.334 4.476 1.377
5.424 4.352 1.193
5.688 4.204 0.880
4.124 6.110 3.230
5.120 4.795 1.464
4.992 4.890 1.343
5.215 4.706 1.302
5.359 4.541 1.006
4.873 5.368 1.552
4.989 5.032 1.445
4.932 4.839 1.336
5.102 4.663 1.052
4.610 5.468 1.579
4.494 5.300 1.550
4.776 5.097 1.126
4.912 5.053 0.885
4.303 5.860 1.750
4.411 5.743 1.503
4.545 5.535 1.326
4.640 5.339 0.947
4.060 6.158 1.780
4.085 5.933 1.515
4.091 5.847 1.392
4.154 5.636 1.042
6.191 4.405 5.977
5.942 4.614 5.834
6.127 4.637 5.876
6.228 4.436 5.651
6.209 4.309 5.399
6.098 5.029 6.191
6.020 4.874 5.997
6.162 4.665 5.625
5.657 5.330 6.124
5.979 5.343 5.848
5.914 5.184 5.674
5.946 5.011 5.669
6.169 4.689 5.264
5.385 5.636 6.120
5.641 5.559 5.973
5.707 5.292 5.741
5.774 5.273 5.565
5.847 5.117 5.274
6.129 4.979 5.151
5.317 5.918 6.332
5.237 5.865 6.116
5.514 5.686 5.695
5.574 5.480 5.555
5.591 5.447 5.470
5.717 5.306 5.279
5.218 6.104 6.138
5.114 6.090 6.067
5.256 5.874 5.851
5.219 5.775 5.549
5.447 5.697 5.535
5.541 5.497 5.140
5.634 5.468 5.110
6.088 4.447 4.027
6.157 4.489 3.657
4.985 6.035 6.108
4.993 6.397 5.954
5.162 6.135 5.598
5.193 5.957 5.431
5.131 5.722 5.189
5.437 5.776 5.093
5.956 4.603 3.711
5.999 4.420 3.505
6.125 4.359 3.299
6.226 4.250 2.981
4.988 6.344 5.954
4.986 6.335 5.445
4.870 6.199 5.143
5.911 4.861 3.438
5.827 4.817 3.207
6.102 4.465 2.972
6.155 4.459 2.833
5.568 5.077 3.298
4.601 6.162 3.939
4.743 6.164 3.741
4.954 5.967 3.423
5.694 4.578 1.637
5.638 4.523 1.636
5.903 4.218 1.365
5.898 4.058 1.210
4.594 6.233 3.511
5.395 4.877 1.753
5.513 4.687 1.587
5.661 4.549 1.197
5.626 4.592 1.119
5.030 5.413 1.897
5.136 5.149 1.823
5.212 5.167 1.696
5.366 4.855 1.244
5.494 4.809 1.111
5.594 4.538 0.936
4.881 5.647 1.753
5.091 5.444 1.522
5.208 5.325 1.413
5.110 5.169 1.077
5.198 5.079 0.897
5.240 4.758 0.747
4.526 5.929 1.931
4.811 5.763 1.671
4.729 5.589 1.312
4.969 5.527 1.108
4.923 5.363 1.039
5.139 5.230 0.669
4.207 6.169 1.959
4.441 6.077 1.677
4.676 5.965 1.529
4.713 5.816 1.183
4.710 5.531 0.973
4.844 5.458 0.781
5.092 5.302 0.690
4.354 6.244 1.458
4.497 6.109 1.155
4.551 5.999 1.174
4.536 5.841 0.808
4.612 5.500 0.598
6.118 5.051 6.272
6.218 4.855 5.977
6.181 4.764 5.832
6.252 5.334 6.240
6.044 5.644 6.156
6.197 5.328 6.009
6.111 5.377 5.589
5.622 5.963 6.300
5.790 5.612 6.038
5.937 5.669 5.737
6.030 5.317 5.628
6.237 5.165 5.357
6.276 5.016 5.092
5.412 6.115 6.271
5.462 5.941 5.893
5.657 5.929 5.902
5.639 5.642 5.437
5.870 5.635 5.343
5.917 5.435 5.100
6.022 5.229 5.052
5.517 6.237 6.246
5.421 6.190 5.730
5.569 5.934 5.498
5.531 5.747 5.449
5.612 5.777 5.221
5.689 5.394 5.034
5.253 6.129 5.523
5.506 6.093 5.193
5.611 5.699 4.857
5.617 5.624 4.829
6.238 4.763 3.386
5.367 6.167 5.020
6.182 4.825 2.991
5.454 5.303 2.030
5.665 5.283 1.768
5.683 4.873 1.527
5.871 4.829 1.314
5.274 5.660 1.963
5.464 5.437 1.873
5.463 5.392 1.610
5.469 5.052 1.416
5.513 4.899 1.013
5.645 4.830 0.996
4.962 6.020 2.121
5.062 5.784 1.867
5.279 5.484 1.527
5.181 5.593 1.361
5.512 5.295 1.004
5.430 5.162 0.844
5.641 5.041 0.758
4.721 5.979 1.681
4.924 6.018 1.703
4.936 5.825 1.519
5.184 5.539 1.042
5.148 5.377 0.882
5.411 5.259 0.839
5.427 5.134 0.535
4.702 6.148 1.518
4.873 5.940 1.531
4.852 5.968 1.086
5.070 5.852 1.041
5.104 5.487 0.831
5.129 5.300 0.587
4.501 6.292 1.301
4.589 5.928 1.026
4.687 5.899 0.914
4.863 5.766 0.687
5.049 5.651 0.234
6.153 5.230 5.994
6.299 5.617 6.065
5.943 5.932 6.216
6.032 5.787 6.029
6.237 5.719 5.786
6.166 5.662 5.425
5.764 6.161 5.989
5.922 6.141 5.649
5.890 5.886 5.465
6.144 5.656 5.387
6.237 5.678 5.227
5.712 6.168 5.564
5.792 6.041 5.252
5.862 5.820 5.133
6.039 5.583 4.899
6.069 5.507 4.567
5.590 6.273 5.252
5.822 6.049 4.969
5.908 5.986 4.652
5.588 6.208 4.740
5.585 5.649 2.209
5.652 5.496 2.005
5.747 5.217 1.798
5.848 5.265 1.400
5.461 6.072 2.166
5.343 5.836 2.019
5.671 5.618 1.731
5.543 5.549 1.482
5.803 5.260 1.287
5.914 5.169 1.167
5.092 6.017 2.021
5.393 6.077 1.628
5.505 5.787 1.666
5.437 5.574 1.265
5.536 5.553 1.059
5.681 5.304 0.827
5.677 5.049 0.732
5.113 6.185 1.743
5.182 6.035 1.655
5.315 5.910 1.252
5.284 5.671 1.057
5.464 5.695 0.880
5.656 5.489 0.599
5.630 5.402 0.524
4.898 6.253 1.506
4.999 6.016 1.270
5.235 5.993 0.947
5.181 5.815 0.611
5.247 5.668 0.574
5.493 5.604 0.239
4.924 6.119 0.849
4.999 6.222 0.684
5.253 6.014 0.616
5.181 5.878 0.217
6.199 6.205 6.234
6.286 5.943 5.902
6.022 6.161 5.721
6.174 5.931 5.439
6.060 6.137 5.259
6.177 5.965 5.192
6.246 5.938 4.929
5.966 6.276 4.948
6.048 6.004 4.814
6.040 5.860 4.386
5.953 6.257 4.464
5.958 6.126 4.281
6.048 5.704 2.325
5.608 6.031 2.180
5.940 5.782 2.169
6.057 5.614 1.930
5.981 5.431 1.599
5.577 6.243 1.985
5.656 6.063 2.009
5.705 5.898 1.571
5.871 5.700 1.472
5.839 5.627 1.344
5.963 5.493 1.144
5.439 6.273 1.673
5.556 5.876 1.498
5.808 5.859 1.284
5.717 5.534 1.149
6.043 5.588 0.801
5.320 6.167 1.387
5.636 5.949 0.989
5.580 5.753 1.010
5.632 5.574 0.587
5.792 5.575 0.540
5.391 6.177 1.109
5.502 6.021 0.986
5.580 6.089 0.627
5.508 5.782 0.553
5.815 5.710 0.177
5.310 6.398 0.678
5.374 6.005 0.547
5.436 5.973 0.432
5.422 5.760 -0.045
6.301 6.202 4.191
6.300 6.226 3.856
6.305 5.965 3.646
6.086 6.312 3.436
6.205 5.947 3.158
5.934 6.265 3.072
6.241 6.123 2.812
5.939 6.140 2.665
6.019 6.076 2.383
6.301 5.751 2.279
5.847 6.231 2.373
6.177 5.926 2.066
6.176 5.848 1.768
5.938 6.290 1.873
