5.848 4.980 2.847
6.029 5.156 3.182
6.181 5.096 3.426
6.088 4.998 3.433
6.225 4.897 3.802
4.550 5.143 0.196
4.900 5.233 0.256
5.004 5.152 0.425
4.906 4.993 0.838
5.241 4.978 1.240
5.471 5.031 1.430
5.955 5.215 1.232
5.502 5.034 0.078
5.646 5.226 0.327
5.470 5.146 0.440
5.655 5.295 0.981
5.784 5.072 1.112
5.761 5.111 1.240
5.816 5.064 1.324
5.316 4.927 0.160
5.190 5.157 0.534
5.235 4.933 0.578
5.393 5.198 0.943
5.676 5.097 1.430
5.422 4.896 1.439
5.426 4.601 1.383
6.049 4.744 2.642
6.131 4.935 2.876
6.154 4.625 3.225
4.954 4.953 -0.075
4.846 4.930 0.392
5.246 4.919 0.716
5.020 4.983 0.818
5.279 4.898 1.077
5.257 4.637 1.163
6.341 5.256 1.029
6.327 4.981 0.846
6.125 5.027 0.832
6.114 5.072 0.977
6.013 4.762 1.378
6.224 4.966 1.675
5.616 4.887 0.341
5.660 5.145 0.679
5.858 4.953 0.934
6.163 4.932 1.084
6.003 4.883 0.970
5.777 4.886 1.622
5.484 4.980 0.278
5.626 4.779 0.354
5.601 4.678 0.535
5.604 4.917 0.767
5.694 4.637 1.368
5.545 4.582 1.129
5.796 4.388 1.425
6.174 4.680 2.725
5.303 4.837 0.105
5.290 4.813 0.450
5.234 4.548 0.814
5.679 4.560 0.867
5.561 4.670 1.459
6.128 4.854 0.817
6.231 4.476 0.834
6.173 4.504 1.261
5.890 4.871 0.555
6.079 4.870 0.844
6.371 4.881 0.811
5.946 4.662 1.004
6.207 4.593 1.273
6.097 4.261 1.418
5.792 4.736 0.252
5.762 4.661 0.420
5.666 4.454 0.851
6.159 4.514 1.286
5.791 4.471 1.302
5.663 4.224 1.422
5.107 4.225 0.166
5.523 4.243 0.522
5.435 4.393 0.476
5.558 4.529 0.774
5.912 4.206 1.326
6.004 4.454 0.664
6.177 4.246 1.138
6.175 4.465 1.435
5.997 4.349 0.699
5.985 4.100 0.979
6.210 4.465 0.910
5.864 3.910 0.917
6.064 4.079 1.510
5.719 4.251 0.398
5.684 3.973 0.790
5.872 3.994 1.022
6.152 3.879 1.045
6.205 3.990 0.860
6.092 6.287 4.911
6.281 6.244 5.117
6.456 6.276 5.193
6.292 3.371 0.229
6.356 3.322 0.308
0.117 6.251 4.950
0.043 6.430 5.166
0.180 6.058 5.621
0.303 4.948 0.219
0.002 3.797 0.225
-0.074 3.452 0.132
0.060 3.299 -0.189
-0.107 3.036 -0.143
0.210 6.052 0.283
0.102 6.061 0.296
0.633 6.007 0.227
0.084 5.576 -0.038
0.215 5.420 -0.112
-0.017 5.229 0.239
0.295 5.066 0.234
3.704 6.074 3.160
3.464 6.326 3.356
3.661 6.331 3.733
3.989 6.105 3.937
3.893 6.108 4.160
4.099 6.002 4.462
3.142 6.029 2.776
3.195 6.088 3.374
3.310 5.967 3.607
3.723 6.088 3.511
3.768 6.069 4.171
3.546 5.778 4.149
2.096 6.408 0.046
2.118 6.370 0.271
2.243 5.987 0.749
2.556 6.266 1.018
2.514 6.307 1.016
2.491 6.120 1.275
2.949 5.920 2.709
3.141 5.790 3.072
3.112 6.065 3.052
3.005 5.979 3.622
3.476 6.030 3.784
3.380 5.942 4.170
1.749 6.180 0.069
2.100 6.002 0.264
1.827 5.901 0.441
1.963 5.820 0.742
2.269 6.135 1.151
2.563 5.764 2.377
2.766 5.941 3.027
2.722 5.821 2.951
2.786 5.823 3.186
3.085 5.750 3.631
3.259 5.570 4.064
3.643 5.549 5.626
1.777 5.933 -0.007
1.616 5.749 0.427
1.839 5.862 0.909
1.944 5.989 0.998
2.652 5.615 2.600
2.332 5.668 2.695
2.367 5.396 2.687
2.746 5.412 3.248
2.514 5.641 3.411
2.987 5.524 3.475
3.309 5.491 5.133
3.615 5.651 5.614
1.397 5.713 0.309
1.567 5.543 0.464
1.640 5.761 0.858
2.113 5.480 2.544
2.516 5.559 2.418
2.134 5.447 2.625
2.383 5.445 3.128
2.554 5.503 3.285
2.385 5.197 3.590
3.047 5.113 4.933
3.411 5.302 5.455
3.475 5.363 5.562
1.117 5.577 0.050
1.330 5.769 0.266
1.257 5.734 0.647
1.993 5.319 2.012
2.163 5.303 2.560
1.939 5.297 2.853
1.699 5.465 2.949
2.059 5.225 3.050
2.191 5.399 3.154
2.954 5.350 4.892
3.022 4.962 5.014
2.910 5.269 5.348
3.064 5.204 5.892
0.762 5.312 0.356
1.062 5.432 0.606
1.418 5.495 1.959
1.792 5.420 2.295
1.708 5.290 2.510
1.698 5.180 2.975
1.514 4.917 2.899
1.642 5.008 3.066
2.412 4.877 4.801
2.418 5.207 5.061
2.702 5.111 5.377
2.635 5.117 5.507
2.743 4.853 5.739
0.613 5.145 0.283
1.294 5.036 1.802
1.407 5.111 2.215
1.641 5.081 2.306
1.562 4.925 2.493
1.671 5.088 2.739
1.655 4.804 2.939
2.016 4.784 4.460
2.102 4.837 4.630
2.434 5.011 5.032
2.587 4.799 5.174
2.331 4.868 5.759
2.761 4.959 5.929
0.753 5.141 1.522
0.839 5.050 2.098
1.329 5.018 2.012
1.170 4.981 2.499
1.470 4.790 2.548
1.597 4.864 3.061
1.663 4.593 4.384
1.839 4.608 4.414
2.162 4.639 4.863
1.989 4.854 5.243
2.410 4.774 5.578
2.458 4.494 5.554
0.786 4.736 1.648
0.648 4.819 1.844
0.632 4.871 2.053
0.977 4.971 2.144
0.937 4.930 2.704
1.257 4.712 2.697
1.554 4.435 4.192
1.696 4.345 4.334
1.764 4.317 4.913
1.944 4.728 4.751
1.942 4.499 5.092
2.064 4.501 5.416
0.452 4.717 1.090
0.465 4.607 1.606
0.529 4.606 1.881
0.567 4.457 1.857
0.599 4.528 2.451
0.664 4.636 2.379
1.234 4.297 4.202
1.275 4.518 4.389
1.208 4.592 4.466
1.405 4.282 4.832
1.470 4.394 4.941
1.789 4.210 5.509
0.150 4.472 1.546
0.182 4.389 1.516
0.238 4.489 1.746
0.372 4.589 2.111
0.607 4.419 2.186
0.791 4.051 3.773
1.124 4.110 4.032
1.161 4.219 4.117
1.186 4.272 4.607
1.109 4.128 4.721
1.235 4.227 4.930
0.060 4.193 2.079
0.291 4.410 2.028
0.331 4.292 3.402
0.567 4.055 3.723
0.822 4.066 4.206
0.883 4.110 4.575
0.736 4.208 4.765
1.235 3.883 4.951
-0.061 3.801 3.559
0.351 4.079 3.656
0.333 3.949 3.893
0.498 3.836 4.282
0.754 4.082 4.645
0.663 3.996 4.591
0.001 4.157 3.557
-0.102 3.799 3.871
0.071 3.886 3.933
0.113 3.544 4.505
0.387 3.689 4.373
1.223 3.662 6.008
0.196 3.364 4.454
0.869 3.366 5.827
0.998 3.701 6.043
0.407 3.320 5.788
0.523 3.271 5.918
-0.115 3.222 5.391
-0.057 3.338 6.041
0.451 3.244 6.046
3.334 6.048 2.884
3.444 6.211 3.281
3.796 6.284 3.550
3.741 6.303 3.773
4.122 6.071 4.020
4.044 6.046 4.598
3.628 6.034 2.609
3.822 5.934 3.015
4.007 6.063 3.203
3.918 6.125 3.368
3.832 6.044 3.845
4.290 5.749 4.140
2.320 6.002 0.192
2.477 6.249 0.253
2.873 6.254 0.636
2.926 5.956 1.088
2.948 6.200 1.001
3.322 5.917 2.687
3.586 5.757 2.851
3.313 5.861 2.904
3.701 5.989 3.552
3.829 5.706 3.719
3.619 5.887 3.829
3.920 5.735 4.176
2.199 5.848 0.138
2.544 6.165 0.433
2.615 5.817 0.786
2.543 6.038 0.968
2.930 5.982 1.136
2.854 5.774 2.465
3.178 5.650 2.750
3.237 5.856 2.976
3.143 5.649 3.380
3.449 5.715 3.383
3.515 5.826 3.836
3.719 5.685 3.930
4.205 5.476 5.449
2.034 5.849 0.066
2.252 5.721 0.303
1.991 5.693 0.440
2.458 5.613 0.645
2.319 5.884 0.973
2.730 5.775 2.484
2.502 5.705 2.604
2.978 5.367 2.889
2.823 5.593 3.219
2.872 5.593 3.070
3.345 5.350 3.563
3.351 5.256 3.866
3.382 5.401 3.898
3.936 5.158 5.177
1.924 5.817 0.245
2.002 5.851 0.472
2.123 5.441 0.483
2.119 5.557 0.912
2.239 5.621 1.042
2.926 5.706 2.398
2.491 5.531 2.636
2.654 5.200 2.982
2.878 5.152 3.260
2.706 5.254 3.237
2.823 5.353 3.692
3.244 5.358 4.010
3.469 5.429 5.401
3.484 5.128 5.676
1.601 5.603 0.220
1.446 5.614 0.308
1.809 5.589 0.784
1.991 5.614 1.164
2.328 5.579 2.388
2.520 5.395 2.541
2.169 5.336 2.721
2.177 5.384 2.850
2.532 5.124 3.153
2.758 5.003 3.284
2.640 5.309 3.746
3.217 4.978 5.129
3.321 5.009 5.490
1.368 5.361 0.410
1.586 5.522 0.307
1.562 5.113 0.786
2.120 4.993 2.465
2.113 5.256 2.835
2.140 4.841 2.603
2.370 5.089 3.185
2.237 5.093 3.044
2.540 4.953 3.530
3.036 5.096 5.122
3.257 4.796 5.464
3.136 4.733 5.570
1.038 5.275 0.048
0.957 5.317 0.349
1.070 4.928 0.738
1.748 4.961 2.190
1.799 5.165 2.410
2.224 5.199 2.870
1.789 4.967 2.885
1.856 5.037 3.052
2.807 4.909 4.974
2.873 4.923 5.372
3.146 4.814 5.817
0.695 5.211 0.031
1.689 5.096 2.169
1.765 4.956 2.638
1.933 4.686 2.881
2.533 4.687 4.955
2.583 4.423 5.238
1.151 4.607 2.161
1.258 4.668 2.557
2.099 4.259 4.590
2.278 4.390 4.757
2.339 4.231 4.946
0.644 4.572 1.421
0.819 4.605 1.795
1.181 4.725 2.343
1.698 4.430 3.985
1.551 4.197 4.400
1.748 4.350 4.524
1.805 4.140 4.922
0.307 4.337 1.254
0.448 4.582 1.601
0.851 4.559 1.745
0.782 4.652 1.972
1.359 3.995 3.544
1.178 4.024 3.853
1.252 4.116 4.082
1.474 3.989 4.463
1.418 3.914 4.665
1.589 4.225 4.812
0.015 4.419 1.215
0.093 4.505 1.437
0.282 4.427 1.630
0.455 4.065 1.818
0.515 4.220 2.174
0.887 4.170 3.284
1.055 4.021 3.915
0.858 4.174 4.011
1.266 4.171 4.469
1.293 3.884 4.322
1.388 3.891 4.658
1.621 3.782 4.954
-0.075 4.200 1.496
0.327 4.267 2.082
0.155 4.205 1.986
0.365 3.904 3.365
0.483 3.716 3.726
0.587 3.965 3.691
0.967 3.817 3.972
1.163 3.736 4.182
1.014 4.005 4.424
1.270 3.605 4.955
1.569 3.547 6.020
0.369 3.703 3.093
0.158 3.720 3.546
0.279 3.811 3.583
0.610 3.851 3.952
0.791 3.585 4.333
0.915 3.515 4.503
0.668 3.507 4.779
0.796 3.490 4.805
1.417 3.778 6.459
0.432 3.683 3.575
0.236 3.533 3.499
0.224 3.675 3.529
0.495 3.516 4.037
0.614 3.558 4.070
0.713 3.690 4.395
0.759 3.346 4.567
1.125 3.557 5.887
0.146 3.671 3.301
-0.106 3.244 4.155
0.065 3.217 4.105
0.251 3.350 4.453
0.996 3.400 6.016
0.790 3.200 6.069
0.524 3.006 6.168
0.309 2.894 6.187
4.633 6.366 3.513
4.530 6.271 3.882
4.850 6.178 4.162
3.833 6.181 3.161
4.306 6.289 3.664
4.440 5.988 3.842
4.384 6.249 3.912
2.932 6.087 0.262
2.864 6.240 0.736
3.007 6.156 0.636
3.060 6.415 1.152
3.631 5.861 2.586
3.724 6.179 2.940
3.892 6.084 3.146
3.837 6.160 3.405
3.835 5.981 3.782
3.918 5.890 4.066
2.619 6.030 0.085
2.621 5.947 0.589
2.774 5.992 0.809
2.952 6.151 0.895
2.969 5.883 0.960
3.449 5.882 2.454
3.565 5.607 2.825
4.033 5.590 3.055
3.798 5.782 3.134
3.844 5.634 3.538
4.277 5.910 3.616
2.876 6.030 0.066
2.957 5.711 0.365
3.052 5.755 0.773
3.155 5.880 0.808
3.244 5.827 2.055
3.322 5.389 2.357
3.672 5.710 2.887
3.649 5.641 3.022
3.617 5.627 3.105
4.003 5.537 3.657
4.048 5.386 3.661
4.474 5.401 5.353
2.318 5.633 0.064
2.634 5.530 0.528
2.630 5.560 0.471
2.724 5.842 0.742
3.185 5.623 2.381
3.130 5.283 2.512
3.278 5.288 2.779
3.427 5.483 2.775
3.416 5.412 3.141
3.491 5.389 3.253
3.780 5.365 3.558
3.658 5.205 3.740
4.280 5.140 5.371
2.388 5.613 0.144
2.120 5.529 0.373
2.515 5.635 0.585
2.641 5.581 1.047
3.060 5.645 2.540
2.809 5.115 2.501
2.777 5.423 2.746
3.284 5.280 2.789
2.970 5.442 3.001
3.195 5.404 3.437
3.260 5.024 3.631
3.513 5.259 4.195
3.946 5.069 5.129
3.836 5.022 5.305
1.837 5.573 -0.179
2.075 5.396 0.097
2.088 5.253 0.444
2.226 5.524 0.679
2.511 5.197 1.183
2.720 5.471 2.060
2.683 5.151 2.257
2.597 5.059 2.555
2.929 5.288 2.775
2.810 4.976 3.196
2.924 4.964 3.066
3.142 4.935 3.735
3.312 4.995 4.002
3.216 5.175 4.248
3.527 4.939 4.954
3.794 5.078 5.498
1.820 5.206 0.078
1.614 5.047 0.158
2.058 5.285 0.426
2.217 5.254 0.767
2.036 5.346 1.099
2.430 4.931 2.385
2.690 4.942 2.598
2.502 5.150 2.727
2.369 5.143 2.835
2.668 4.927 2.961
2.591 4.979 3.292
2.857 4.920 3.772
3.166 4.840 3.956
3.357 4.692 5.028
3.704 4.636 5.465
1.270 5.196 0.227
1.458 5.225 0.391
1.858 4.853 0.791
1.828 4.939 0.770
2.361 5.075 2.081
2.639 5.166 2.360
2.120 4.606 2.586
2.317 4.607 2.959
2.571 4.660 3.322
2.598 4.622 3.528
2.604 4.931 3.578
3.318 4.833 5.331
1.289 4.764 0.194
1.327 4.736 0.353
1.205 4.957 0.464
1.554 4.995 0.633
2.370 4.874 2.670
1.707 4.197 3.963
1.543 4.245 3.944
1.710 3.911 4.461
0.444 4.307 0.650
0.541 4.131 1.330
0.791 4.330 1.565
1.044 4.160 3.498
1.541 3.960 3.668
1.499 3.961 3.889
1.398 3.948 3.995
1.609 3.860 4.586
1.926 3.816 4.446
0.010 3.907 0.495
0.211 4.228 0.731
0.367 4.061 1.030
0.560 4.012 1.294
0.523 3.931 1.368
0.372 4.267 1.856
1.080 3.678 3.016
1.198 3.808 3.175
0.957 3.569 3.524
1.189 3.967 3.787
1.446 3.814 4.369
1.319 3.554 4.328
1.413 3.658 4.839
2.123 3.534 6.177
0.092 4.141 0.971
0.312 3.816 1.465
0.118 4.032 1.699
0.362 3.731 1.732
1.036 3.999 3.212
0.870 3.633 3.346
0.747 3.474 3.504
0.814 3.833 3.764
1.105 3.573 4.007
1.118 3.787 4.184
1.293 3.581 4.387
1.212 3.699 4.756
1.836 3.533 6.270
-0.053 3.710 1.691
-0.051 3.675 1.895
0.539 3.838 3.289
0.589 3.449 3.149
0.357 3.686 3.441
0.853 3.450 3.843
0.623 3.365 4.059
0.853 3.554 4.348
0.787 3.599 4.724
0.996 3.500 5.030
1.593 3.285 5.784
1.558 3.133 6.405
0.535 3.709 3.128
0.503 3.339 3.130
0.059 3.103 3.346
0.192 3.173 3.631
0.540 3.445 3.693
0.370 3.258 3.972
0.757 3.273 4.348
0.759 3.445 4.815
0.972 3.272 4.956
1.200 3.043 6.106
1.202 3.040 6.437
0.060 3.312 3.082
0.307 3.439 3.229
0.051 3.082 3.272
-0.087 3.145 3.600
0.039 3.320 3.901
0.325 3.191 4.421
0.449 3.245 4.524
0.663 3.012 4.987
0.874 2.816 6.297
0.211 2.940 3.290
-0.033 2.829 4.231
0.109 2.946 4.217
0.095 3.062 4.618
4.198 6.109 2.696
4.125 5.706 3.138
4.095 5.840 3.230
3.052 6.162 0.092
3.069 5.870 0.320
3.426 5.962 2.459
3.777 5.970 2.890
3.651 5.543 2.899
3.808 5.745 3.048
4.155 5.843 3.573
4.184 5.633 3.603
2.735 5.898 -0.136
2.942 6.009 0.136
2.969 5.968 0.728
2.807 5.932 0.771
3.537 5.464 2.229
3.949 5.409 2.409
3.846 5.477 2.446
3.962 5.484 2.675
4.115 5.526 3.224
4.238 5.467 3.281
4.933 5.370 5.040
3.058 5.511 0.323
3.030 5.701 0.717
3.576 5.372 2.075
3.537 5.316 2.102
3.384 5.262 2.649
3.592 5.319 2.755
3.775 5.247 2.788
3.843 5.368 3.260
3.861 5.516 3.587
3.931 5.361 3.660
4.784 5.207 4.970
2.428 5.673 0.055
2.765 5.600 0.372
2.908 5.639 0.539
2.759 5.554 0.882
3.394 5.489 2.180
3.315 5.385 2.248
3.494 5.118 2.651
3.612 5.391 2.839
3.402 5.313 2.893
3.541 5.333 3.287
3.681 4.945 3.684
3.802 4.968 3.885
4.376 5.000 4.727
4.218 4.936 5.294
2.302 5.442 0.316
2.652 5.526 0.528
2.798 5.463 0.513
2.651 5.156 1.078
3.064 5.138 2.043
3.355 5.256 2.468
2.910 5.112 2.217
2.921 5.217 2.426
3.065 5.142 2.965
3.502 5.009 3.280
3.618 5.051 3.312
3.546 5.146 3.522
3.803 4.865 3.959
4.114 4.787 4.887
4.156 4.766 5.071
2.069 5.048 0.086
2.096 5.125 0.524
2.318 5.239 0.622
2.454 5.180 1.078
2.875 5.249 2.063
2.983 5.124 2.407
2.631 5.015 2.503
2.769 4.830 2.719
2.982 4.698 3.097
3.077 4.739 3.356
3.080 4.870 3.457
3.304 4.953 3.720
3.390 4.836 4.197
4.126 4.725 5.380
1.823 4.914 -0.098
1.970 4.859 0.420
1.985 5.141 0.667
2.067 5.167 0.873
2.280 4.981 1.285
2.904 4.719 2.348
2.592 4.606 2.418
2.793 4.927 2.614
2.769 4.904 3.032
2.986 4.570 3.089
2.866 4.799 3.541
3.208 4.787 4.020
3.174 4.523 4.028
3.535 4.438 5.186
1.702 4.666 -0.040
1.885 4.926 0.399
1.754 4.809 0.746
1.806 4.740 0.728
2.066 4.960 1.253
2.753 4.878 2.561
2.382 4.416 2.689
2.382 4.428 3.016
2.705 4.706 3.525
2.962 4.317 3.508
2.929 4.282 4.089
1.177 4.644 -0.006
1.582 4.690 0.344
1.440 4.873 0.627
1.861 4.540 0.831
1.481 3.935 3.254
1.878 4.031 3.574
0.678 4.044 0.522
0.519 4.188 0.623
1.352 3.733 3.031
1.349 3.891 3.173
1.657 3.748 3.373
1.761 3.546 3.787
1.533 3.685 3.950
1.939 3.875 4.343
2.518 3.647 5.709
0.191 3.821 0.226
0.474 3.873 0.707
0.214 3.923 0.716
0.372 3.824 0.971
0.538 3.683 1.495
1.056 3.564 2.938
0.953 3.660 3.073
0.984 3.624 3.127
1.086 3.576 3.648
1.334 3.715 3.883
1.284 3.595 4.266
1.388 3.359 4.326
1.579 3.602 4.547
2.177 3.457 5.913
-0.014 3.599 0.563
0.081 3.737 0.900
0.115 3.585 1.150
0.187 3.794 1.331
0.473 3.553 1.928
0.850 3.407 2.856
0.906 3.391 2.961
1.085 3.427 3.252
1.204 3.317 3.681
1.302 3.179 3.886
1.443 3.233 4.110
1.410 3.192 4.348
1.651 3.195 4.676
1.775 3.437 5.641
1.863 3.424 6.107
0.183 3.307 1.359
0.132 3.715 1.563
0.419 3.388 1.797
0.810 3.477 3.001
0.731 3.379 2.947
0.475 3.182 3.293
0.693 3.240 3.663
1.011 3.346 3.596
0.836 3.329 3.815
1.163 3.393 4.218
1.227 3.268 4.591
1.226 3.032 4.865
1.586 3.181 5.669
1.892 3.178 6.294
0.170 3.328 2.036
0.592 3.369 2.938
0.741 3.062 3.140
0.510 3.246 3.250
0.487 3.271 3.612
0.721 3.140 3.911
0.573 3.156 4.037
0.800 2.976 4.244
0.981 2.922 4.480
1.162 3.030 4.823
1.702 3.022 6.015
0.478 2.966 3.297
0.225 2.982 3.300
0.050 3.036 3.468
0.539 3.027 3.714
0.308 2.961 4.348
0.756 2.890 4.608
0.844 2.818 4.564
0.727 2.796 4.887
0.035 2.748 3.195
0.121 2.708 3.878
-0.048 2.836 4.040
0.379 2.603 4.377
0.208 2.745 4.549
0.606 2.775 4.992
4.177 5.657 2.424
4.308 5.785 2.927
3.600 5.557 1.952
3.638 5.670 2.190
3.844 5.318 2.691
3.806 5.470 2.733
4.120 5.654 3.315
4.039 5.425 3.622
4.875 5.553 5.152
2.745 5.632 0.442
3.183 5.435 0.573
3.670 5.636 2.211
3.705 5.471 2.228
4.058 5.474 2.377
3.875 5.145 2.678
4.024 5.310 2.601
4.128 5.199 3.086
4.679 5.356 4.668
5.055 5.057 4.936
3.131 5.331 0.136
3.639 5.189 1.666
3.642 5.113 1.970
3.800 5.029 2.278
3.564 5.047 2.425
3.915 5.077 2.466
4.117 5.311 2.937
4.082 5.144 3.272
3.937 4.995 3.329
4.615 5.012 4.734
4.728 5.109 5.021
2.994 5.337 0.212
2.907 5.152 0.516
3.626 4.993 1.861
3.636 5.333 2.048
3.559 4.861 2.034
3.553 4.841 2.628
3.650 4.995 2.556
3.870 5.063 2.787
3.826 4.807 3.289
3.787 4.752 3.579
4.222 4.925 3.756
4.359 5.015 4.895
4.452 4.731 4.864
2.503 4.903 0.231
2.571 5.258 0.382
2.915 5.050 0.662
2.715 5.034 1.045
3.398 4.934 2.087
3.303 4.964 2.191
2.954 4.911 2.354
3.159 4.948 2.406
3.462 4.723 2.609
3.273 4.669 3.026
3.657 4.571 3.451
3.666 4.836 3.464
3.746 4.793 3.657
4.420 4.551 4.996
2.140 4.767 0.350
2.364 4.908 0.268
2.618 5.021 0.890
2.558 5.008 0.959
3.200 4.783 2.458
2.835 4.496 2.478
3.262 4.433 2.448
3.357 4.813 2.808
3.422 4.666 3.143
3.152 4.516 3.272
3.309 4.630 3.675
3.421 4.492 3.938
4.017 4.344 5.209
1.898 4.672 0.057
2.356 4.680 0.399
2.378 4.651 0.738
2.396 4.813 1.011
2.740 4.506 2.353
2.837 4.632 2.548
3.074 4.536 2.837
2.905 4.290 3.402
3.243 4.320 3.293
3.264 4.207 3.765
3.414 4.316 3.810
1.763 4.573 -0.006
1.697 4.501 0.360
1.892 4.569 0.736
1.906 4.582 0.851
2.358 4.633 1.129
2.777 4.288 3.143
2.702 4.420 3.501
2.877 4.197 3.733
2.925 4.362 3.610
2.972 4.405 4.191
1.449 4.460 0.026
1.849 4.236 0.358
1.965 4.354 0.608
1.899 4.238 0.980
2.109 4.499 0.961
1.450 3.821 2.958
1.658 3.734 3.259
1.834 3.621 3.319
2.660 3.640 5.307
2.631 3.633 5.593
0.441 3.899 0.264
0.578 4.004 0.526
1.481 3.750 2.374
1.683 3.635 3.014
1.270 3.440 2.748
1.724 3.518 3.025
1.786 3.415 3.216
1.621 3.526 3.670
1.684 3.363 4.111
2.394 3.459 5.414
2.582 3.236 5.715
0.233 3.677 0.270
0.400 3.737 0.543
0.442 3.750 0.635
0.763 3.773 1.165
1.423 3.668 2.542
1.407 3.682 3.044
1.146 3.327 2.820
1.327 3.296 3.312
1.390 3.425 3.485
1.395 3.108 3.882
1.697 3.434 3.851
1.600 3.229 4.193
2.372 3.247 5.802
2.221 3.133 6.087
0.144 3.633 0.181
0.338 3.654 0.558
0.292 3.611 0.778
0.515 3.477 0.952
0.584 3.228 1.595
1.096 3.181 2.751
1.277 3.532 2.855
1.170 3.080 3.059
1.138 3.093 3.437
1.321 3.289 3.733
1.345 2.965 4.045
1.350 2.956 4.315
1.623 2.980 4.322
1.602 3.175 4.833
2.161 3.053 5.674
2.012 2.887 6.077
-0.005 3.092 1.024
0.351 3.358 1.196
0.210 3.431 1.444
0.619 3.276 1.621
1.057 3.129 2.651
1.092 3.373 3.242
0.931 2.960 2.973
1.049 2.935 3.295
0.853 3.013 3.547
0.876 3.054 4.050
1.243 2.959 4.063
1.171 3.012 4.266
1.511 2.722 4.845
1.999 2.915 6.198
-0.081 3.238 1.359
0.303 2.968 1.787
0.870 3.137 3.115
0.465 2.896 3.040
0.629 2.632 3.275
0.813 2.657 3.901
0.771 2.721 3.897
1.035 2.838 4.162
1.200 2.780 4.648
1.125 2.562 4.604
1.492 2.654 6.014
0.404 2.940 3.047
0.540 2.664 3.633
0.424 2.473 3.678
0.547 2.668 4.159
0.860 2.526 4.166
0.980 2.595 4.491
0.998 2.596 4.705
0.352 2.671 3.989
0.274 2.525 4.215
0.662 2.443 4.497
0.760 2.651 4.756
0.657 2.275 4.863
4.046 5.587 1.779
4.197 5.464 2.360
4.431 5.544 2.396
4.921 5.557 4.463
5.007 5.443 4.913
3.785 5.695 1.836
3.991 5.474 2.135
3.821 5.102 1.896
3.991 5.324 2.121
4.180 5.269 2.760
4.167 5.192 2.963
4.337 5.299 3.109
4.850 5.006 4.445
5.147 5.110 4.795
2.866 5.307 0.026
3.669 5.302 1.671
3.957 5.235 2.183
3.837 4.879 1.934
4.275 5.220 2.074
4.041 4.838 2.616
4.384 5.080 2.565
4.870 4.822 4.488
4.864 4.794 4.550
5.058 4.814 5.037
3.726 5.102 1.503
3.677 5.166 1.479
4.000 5.065 2.066
3.860 4.995 1.932
3.737 5.009 2.155
4.021 5.091 2.705
4.079 4.946 2.973
4.328 4.712 3.212
5.020 4.927 4.488
5.120 4.853 4.915
2.876 5.123 0.076
3.748 5.109 1.818
3.836 4.845 1.974
3.574 4.554 1.927
3.816 4.702 2.218
3.523 4.860 2.560
3.873 4.872 2.895
4.047 4.514 3.305
4.037 4.538 3.278
4.791 4.710 4.608
4.554 4.463 4.852
2.809 4.711 0.064
3.074 4.781 0.481
3.554 4.592 1.821
3.658 4.858 1.942
3.296 4.622 2.395
3.341 4.543 2.359
3.519 4.519 2.525
3.738 4.569 3.067
3.517 4.365 3.352
3.741 4.472 3.563
4.052 4.313 3.855
4.657 4.520 5.106
2.438 4.773 0.181
2.602 4.830 0.129
2.444 4.785 0.589
2.729 4.541 0.823
3.112 4.378 2.045
3.309 4.423 2.370
3.447 4.405 2.588
3.306 4.293 3.221
3.514 4.210 3.159
3.677 4.209 3.425
3.727 4.494 3.801
2.047 4.524 0.343
2.201 4.618 0.211
2.653 4.727 0.713
2.498 4.613 0.767
3.146 4.358 2.873
3.245 4.299 3.064
3.480 4.109 3.469
3.341 4.215 3.640
3.316 4.133 3.902
3.804 4.061 4.270
1.802 4.341 0.327
1.944 4.252 0.562
2.262 4.502 0.717
2.370 4.213 0.880
2.643 4.211 1.489
2.797 4.074 3.256
2.907 3.853 3.644
3.318 4.238 3.711
3.174 3.949 4.082
3.550 4.041 4.417
3.718 3.831 4.649
1.669 4.093 0.503
1.979 4.267 0.692
2.008 4.373 0.840
2.294 4.172 0.989
2.427 4.241 1.393
2.168 4.073 1.437
2.783 3.932 3.868
3.130 3.890 4.046
2.973 3.967 4.495
3.169 3.858 4.422
3.525 3.762 4.680
1.651 3.938 0.852
2.032 3.973 1.097
1.861 3.905 1.502
2.022 3.986 1.702
2.217 3.898 1.839
3.059 3.870 4.087
2.822 3.878 4.468
3.188 3.482 4.619
3.293 3.630 4.853
3.338 3.534 5.104
1.787 3.816 1.375
1.724 3.940 1.510
1.719 3.826 1.815
1.805 3.843 2.141
2.184 3.609 2.313
1.855 3.644 2.808
2.831 3.506 4.602
2.917 3.327 4.848
3.025 3.522 5.236
3.216 3.428 5.264
2.976 3.359 5.726
1.703 3.660 1.689
1.615 3.776 1.715
1.633 3.479 2.085
1.905 3.407 2.460
2.016 3.562 2.756
1.836 3.505 2.943
1.952 3.534 2.962
2.065 3.628 3.494
2.489 3.450 4.706
2.937 3.334 5.044
2.969 3.105 5.379
2.989 3.174 5.461
0.484 3.416 0.313
0.726 3.707 0.292
1.628 3.347 1.831
1.697 3.274 2.346
1.799 3.423 2.392
1.714 3.349 2.782
1.717 3.195 2.817
1.507 3.442 2.930
1.981 3.049 3.306
1.691 3.055 3.766
2.421 3.356 5.072
2.451 3.317 5.603
2.712 3.268 5.678
0.593 3.451 0.326
0.448 3.267 0.663
0.838 3.196 0.681
1.512 3.196 2.483
1.330 3.428 2.588
1.669 3.318 2.743
1.121 3.293 2.923
1.397 2.971 3.209
1.575 2.908 3.421
1.558 2.961 3.813
1.814 2.870 4.044
2.620 2.886 5.640
2.527 2.934 5.828
0.341 3.236 0.077
0.421 3.273 0.535
0.374 3.220 0.680
0.375 3.387 0.939
1.344 2.910 2.522
1.473 3.172 2.981
1.017 3.026 2.814
1.368 2.771 3.114
1.250 2.955 3.667
1.493 2.872 3.587
1.471 3.106 3.902
1.830 3.100 4.094
2.081 2.753 5.427
2.513 2.849 6.034
0.061 3.079 0.185
0.051 2.995 0.625
0.144 3.124 1.061
0.470 3.095 1.031
0.402 3.141 1.459
0.997 3.068 2.922
0.930 3.046 3.176
0.819 2.960 3.154
0.886 2.964 3.273
0.980 2.887 3.384
1.294 2.531 3.720
1.182 2.848 4.181
1.456 2.701 4.242
1.657 2.622 4.653
2.070 2.536 6.110
-0.086 2.902 1.120
0.217 2.989 1.158
0.055 2.788 1.532
0.379 2.642 1.865
0.729 2.939 3.085
0.758 2.428 3.314
0.965 2.651 3.835
0.962 2.547 4.111
1.126 2.624 4.229
1.231 2.514 4.658
1.297 2.645 4.844
0.224 2.881 1.771
0.293 2.772 1.853
0.543 2.318 3.957
0.830 2.383 4.147
0.872 2.426 4.116
1.032 2.531 4.381
1.116 2.274 4.711
1.261 2.280 4.885
0.030 2.406 2.191
0.391 2.037 3.949
0.737 2.392 4.439
0.975 2.371 4.554
1.050 2.118 4.697
0.800 2.203 5.177
1.199 2.057 5.570
0.754 2.006 4.912
0.813 1.906 5.010
0.682 1.894 5.241
0.913 2.174 5.513
1.019 1.964 5.605
5.315 5.488 3.293
5.283 5.328 3.700
5.664 5.373 3.662
5.576 5.247 3.918
5.742 5.467 4.425
4.139 5.582 0.239
4.411 5.505 0.846
4.222 5.567 0.761
4.411 5.427 1.269
4.505 5.534 1.391
4.339 5.498 1.935
5.235 5.131 3.755
5.433 5.413 3.704
5.517 5.348 4.212
5.369 5.294 4.398
5.443 5.037 4.631
3.955 5.471 0.633
4.179 5.656 0.901
4.181 5.630 1.255
4.091 5.227 1.643
4.339 5.613 1.764
4.270 5.278 1.669
4.275 5.269 2.129
4.429 5.066 2.487
5.252 5.268 4.003
5.151 5.145 4.409
5.044 5.060 4.704
5.439 5.287 4.737
3.861 5.206 1.259
3.982 5.141 1.542
3.996 5.288 1.566
4.196 5.131 1.748
3.811 4.931 1.919
3.873 5.184 2.406
4.303 4.864 2.533
4.294 4.935 2.697
4.826 5.005 4.177
5.117 5.133 4.426
5.316 5.114 5.061
3.848 5.320 1.607
3.767 5.047 1.879
3.866 5.063 2.149
4.267 4.718 2.054
4.382 4.978 2.038
4.220 4.933 2.239
4.927 4.560 4.092
5.114 4.548 4.273
5.098 4.777 4.589
5.338 4.792 4.903
3.777 4.856 0.869
4.004 4.794 1.345
3.993 4.802 1.528
4.285 4.868 1.906
3.841 4.635 1.963
4.106 4.825 2.340
3.944 4.552 2.678
4.128 4.517 2.529
4.847 4.735 4.142
4.773 4.547 4.673
4.945 4.503 4.901
3.678 4.588 1.631
3.657 4.489 1.826
3.746 4.799 1.793
3.783 4.374 2.031
3.857 4.621 2.486
3.978 4.438 2.618
3.920 4.674 2.908
4.272 4.397 3.038
4.782 4.275 4.757
3.107 4.504 0.068
3.885 4.653 1.886
3.491 4.241 2.501
3.792 4.497 2.687
3.934 4.494 2.895
4.074 4.179 3.264
3.807 4.493 3.355
2.827 4.620 0.249
2.740 4.275 0.411
3.570 4.263 2.897
3.688 4.310 2.850
3.481 4.036 3.223
3.700 4.233 3.666
3.691 4.217 3.934
2.196 4.156 0.026
2.508 4.364 0.507
2.473 4.082 0.715
2.889 4.056 0.694
3.351 3.895 3.234
3.541 3.770 3.406
3.468 4.124 3.709
3.641 4.016 3.646
3.966 3.761 4.119
4.034 3.949 4.568
2.267 4.014 -0.040
2.321 4.336 0.298
2.173 4.172 0.686
2.318 4.061 0.808
2.711 4.159 1.287
2.863 4.251 1.485
3.207 3.972 3.354
3.543 3.808 3.658
3.534 3.580 4.037
3.433 3.572 4.278
3.799 3.902 4.275
3.870 3.591 4.768
1.987 4.119 0.581
1.999 4.119 0.906
2.149 3.759 0.855
2.582 3.738 1.090
2.305 3.996 1.459
2.798 3.764 1.628
3.314 3.798 3.736
3.233 3.822 4.124
3.356 3.532 4.345
3.385 3.776 4.516
3.592 3.488 4.790
3.528 3.746 5.259
2.145 3.713 0.701
1.863 3.664 1.020
2.301 3.653 1.177
2.047 3.946 1.725
2.500 3.802 2.093
2.639 3.610 2.204
2.520 3.368 2.518
2.871 3.543 3.885
2.925 3.502 4.260
3.097 3.363 4.207
3.388 3.388 4.691
3.336 3.558 4.782
3.594 3.206 5.013
3.381 3.513 5.395
1.870 3.728 1.094
1.686 3.787 1.063
1.980 3.683 1.303
1.901 3.470 1.718
1.973 3.746 2.119
2.436 3.546 2.247
2.527 3.330 2.703
2.006 3.543 2.439
2.036 3.184 2.913
2.725 3.291 4.198
3.024 3.439 4.538
3.195 3.289 4.792
3.182 3.179 5.107
3.141 3.293 5.430
3.287 3.341 5.597
1.539 3.252 1.265
1.698 3.566 1.398
1.878 3.630 1.963
2.006 3.435 2.130
1.829 3.307 2.126
1.921 3.191 2.645
1.878 3.410 2.615
1.814 3.056 3.080
2.817 2.895 4.652
2.841 3.116 4.780
2.922 3.166 5.124
2.941 2.855 5.501
2.882 3.080 5.399
0.899 3.373 0.202
1.514 3.440 1.468
1.804 3.180 1.758
1.596 3.039 2.245
1.894 3.136 2.463
2.006 3.349 2.554
1.694 3.055 2.683
1.737 2.849 2.823
1.797 3.054 3.081
2.693 3.018 5.070
2.660 3.044 5.096
2.698 2.774 5.561
2.979 2.690 5.801
0.448 3.243 -0.059
0.534 3.331 0.402
1.291 3.022 1.954
1.452 3.020 2.260
1.558 3.180 2.666
1.851 2.903 2.754
1.544 2.998 3.040
1.625 3.072 3.229
1.550 2.987 3.319
1.948 2.966 3.412
2.548 2.862 5.334
2.690 2.805 5.429
2.465 2.596 5.752
0.563 3.185 0.400
0.515 2.842 0.598
0.661 2.839 0.613
1.223 2.954 2.386
1.509 3.106 2.470
1.546 2.989 2.982
1.145 2.711 3.054
1.366 2.807 3.001
1.554 2.893 3.282
1.664 2.561 3.723
1.780 2.804 4.114
2.572 2.622 5.775
-0.034 3.034 0.174
0.383 2.942 0.743
0.186 2.690 0.998
0.290 2.991 1.175
1.328 2.746 2.762
1.318 2.412 3.326
1.382 2.521 3.667
1.518 2.608 3.940
1.599 2.623 3.894
1.418 2.516 4.478
-0.082 2.843 0.674
0.008 2.788 1.040
0.308 2.645 1.276
0.494 2.724 1.505
1.225 2.509 3.507
1.214 2.346 3.942
1.128 2.426 4.291
1.375 2.224 4.186
1.258 2.442 4.770
0.073 2.302 1.281
0.111 2.338 1.386
0.248 2.348 1.788
0.989 2.182 4.094
0.833 2.302 4.227
0.931 1.963 4.280
1.339 2.097 4.929
1.158 2.200 5.097
1.451 1.982 5.293
-0.128 2.252 1.803
0.369 2.433 2.014
0.338 2.374 2.330
0.989 2.223 4.322
0.719 1.880 4.357
0.913 2.106 4.617
1.312 1.935 5.246
1.179 1.756 5.265
1.450 1.914 5.401
0.218 2.124 2.333
-0.017 2.278 2.705
0.891 1.817 4.478
0.729 1.706 4.739
1.047 1.823 5.323
1.059 1.580 5.419
1.318 1.846 5.880
1.404 1.681 5.785
-0.141 2.107 3.149
4.655 5.189 1.605
5.315 5.485 3.042
5.225 5.300 3.269
5.498 5.459 3.661
5.484 5.398 3.625
5.623 5.175 3.787
5.734 5.389 4.083
6.087 5.156 4.480
3.937 5.285 -0.117
4.224 5.491 0.267
4.380 5.486 0.535
4.642 5.442 0.897
4.738 5.559 1.210
4.479 5.169 1.275
4.918 5.361 1.491
4.400 5.342 1.534
4.538 5.178 1.855
5.227 5.271 3.344
5.143 5.071 3.369
5.547 4.859 3.683
5.462 4.939 4.093
5.484 5.138 4.461
5.784 5.006 4.574
3.872 5.264 0.219
4.310 5.113 0.452
4.259 5.150 1.128
4.548 5.369 1.268
4.527 5.101 1.309
4.513 5.201 1.675
4.445 4.809 1.760
4.328 4.853 2.267
4.985 4.776 3.849
5.225 4.707 3.908
5.087 5.100 4.305
5.490 5.042 4.494
5.531 4.641 4.742
3.868 5.038 0.869
4.096 5.055 0.923
3.996 4.997 1.479
4.213 4.900 1.672
4.410 4.846 1.802
4.102 4.784 1.661
4.244 4.660 2.317
4.227 4.898 2.319
4.935 4.595 4.110
5.073 4.887 4.210
4.996 4.644 4.378
5.404 4.785 4.814
3.725 4.997 1.018
3.793 5.020 1.173
4.069 4.795 1.548
4.117 4.700 1.739
4.071 4.490 1.773
4.365 4.524 2.099
4.960 4.351 3.633
4.904 4.703 4.048
5.442 4.280 4.182
5.408 4.273 4.248
5.594 4.406 4.583
3.616 4.493 0.733
3.835 4.596 1.100
4.021 4.627 1.355
4.083 4.699 1.748
4.345 4.562 1.667
3.904 4.254 2.018
4.018 4.419 2.091
4.985 4.482 4.239
5.228 4.317 4.380
5.265 4.281 4.817
4.017 4.670 1.245
4.131 4.655 1.780
3.938 4.422 1.841
3.657 3.522 3.586
3.718 3.665 3.730
4.001 3.623 4.172
3.874 3.501 4.345
4.267 3.678 4.704
2.350 4.076 0.492
2.424 3.864 0.696
2.576 4.038 1.107
2.785 3.912 1.318
2.822 3.858 1.560
3.391 3.422 3.404
3.780 3.692 4.008
3.613 3.555 4.071
3.816 3.602 4.360
3.991 3.368 4.762
4.211 3.633 4.964
2.105 3.932 0.823
2.295 3.675 0.995
2.647 3.577 1.116
2.605 3.841 1.377
2.924 3.853 1.739
2.649 3.581 1.873
2.530 3.538 2.146
3.434 3.222 3.500
3.272 3.344 4.070
3.352 3.433 4.286
3.453 3.339 4.274
3.774 3.187 4.923
3.901 3.327 5.167
3.932 3.436 5.292
2.230 3.737 0.703
2.199 3.438 0.899
2.125 3.382 1.476
2.416 3.485 1.646
2.629 3.527 1.892
2.597 3.525 2.003
2.886 3.417 2.330
2.685 3.501 2.257
2.866 3.076 3.666
3.285 3.158 4.069
3.267 3.020 4.509
3.576 3.195 4.737
3.662 3.129 4.647
3.678 3.153 4.987
3.504 3.238 5.139
1.670 3.524 1.015
1.935 3.518 1.325
1.953 3.361 1.492
2.034 3.432 1.742
2.303 3.338 1.914
2.462 3.187 2.087
2.698 3.438 2.309
2.318 3.138 2.676
2.375 3.304 2.931
2.684 2.868 3.864
2.728 3.040 4.021
3.068 2.894 4.160
2.997 3.232 4.741
3.393 3.220 5.110
3.503 2.965 5.105
3.360 2.933 5.548
1.849 3.222 1.015
1.915 3.361 1.151
1.716 3.049 1.492
2.075 3.332 1.549
2.197 3.152 2.076
2.149 2.995 2.364
2.134 2.945 2.722
2.104 2.759 2.665
2.018 2.880 3.087
2.514 2.779 4.285
3.003 2.673 4.270
2.746 2.687 4.713
3.066 2.666 5.087
3.061 2.645 5.168
3.410 2.968 5.381
1.475 3.178 1.164
1.519 3.044 1.444
1.913 3.172 1.833
2.036 3.148 2.233
1.771 2.875 2.494
1.987 3.060 2.589
1.781 2.733 2.877
2.044 2.993 2.898
2.759 2.783 4.518
2.557 2.690 4.864
2.718 2.736 4.938
2.801 2.874 5.363
2.892 2.581 5.699
0.913 3.053 0.085
1.231 3.029 1.480
1.478 2.850 1.952
1.666 2.874 2.061
1.525 2.894 2.325
1.688 2.957 2.698
1.515 2.530 2.974
1.593 2.549 3.145
2.757 2.339 5.053
2.850 2.491 5.428
2.999 2.597 5.862
0.498 2.619 0.313
1.545 2.579 2.177
1.305 2.589 2.506
1.450 2.786 2.652
1.130 1.709 4.282
1.342 1.816 4.752
1.717 2.111 4.859
1.723 2.094 5.038
1.543 1.896 5.626
-0.048 2.242 1.411
0.420 1.906 1.590
0.204 2.230 1.815
0.547 2.072 2.107
0.344 1.996 2.396
1.197 1.654 4.301
1.190 1.920 4.572
1.169 1.938 4.928
1.524 1.638 5.441
1.414 1.888 5.750
1.397 1.731 5.654
0.270 1.864 2.196
-0.007 2.085 2.450
0.293 1.911 2.629
0.252 1.975 3.032
0.496 1.478 3.161
1.012 1.516 4.753
0.972 1.425 5.016
1.029 1.536 5.076
1.008 1.519 5.415
1.111 1.636 5.733
1.492 1.664 6.054
1.629 1.545 6.093
-0.019 1.895 2.697
0.021 1.517 2.992
0.342 1.862 3.381
4.913 5.116 1.409
5.674 4.992 2.661
5.522 5.172 3.100
5.452 5.075 3.606
5.909 4.904 3.643
6.066 5.057 3.766
6.126 4.787 4.179
5.972 4.893 4.498
4.532 5.377 0.147
4.653 5.293 0.633
4.550 5.308 0.785
4.847 4.961 0.989
4.832 5.027 1.404
4.867 5.072 1.473
4.774 5.019 1.569
4.743 5.004 1.767
5.201 5.075 3.166
5.380 4.656 3.056
5.265 4.848 3.538
5.720 4.716 3.912
5.864 4.693 3.863
5.904 4.977 4.372
5.824 4.983 4.611
4.053 4.928 -0.078
4.219 5.037 0.209
4.251 5.108 0.590
4.383 5.088 0.861
4.419 4.833 1.025
4.757 4.838 1.449
4.511 5.033 1.663
4.644 4.785 1.723
4.636 4.864 2.129
5.009 4.620 3.143
5.198 4.695 3.479
5.464 4.462 4.019
5.440 4.512 3.939
5.500 4.631 4.306
5.521 4.726 4.552
4.034 4.759 0.344
4.020 4.963 0.834
4.073 4.809 0.861
4.318 4.841 1.156
4.273 4.599 1.498
4.400 4.661 1.903
4.272 4.699 1.846
4.582 4.622 1.991
5.184 4.464 3.570
5.192 4.485 3.809
5.226 4.402 4.121
5.257 4.548 4.656
5.551 4.538 4.551
3.977 4.800 0.674
4.056 4.801 1.109
3.984 4.532 1.326
4.165 4.507 1.702
4.301 4.814 1.745
4.216 4.179 1.695
4.861 4.360 3.489
4.965 4.135 3.411
5.130 4.082 3.858
5.197 4.326 4.063
5.354 4.261 4.427
5.628 4.087 4.788
3.789 4.398 0.384
4.004 4.560 0.827
3.944 4.388 0.831
4.385 4.445 1.248
4.519 4.358 1.340
4.400 4.191 1.571
5.189 4.276 3.720
5.145 4.078 4.174
3.956 4.262 0.910
3.941 4.071 1.320
4.169 3.686 3.667
3.855 3.293 4.188
4.261 3.601 4.309
4.396 3.605 4.594
4.343 3.330 4.787
2.956 3.835 0.693
2.894 3.628 0.974
2.876 3.485 1.334
3.231 3.381 1.460
3.062 3.465 1.722
3.187 3.528 2.323
3.585 3.375 3.488
3.815 3.283 3.853
3.637 3.151 4.236
4.041 3.120 4.219
4.208 3.314 4.515
4.319 3.130 4.793
4.432 3.437 5.243
2.385 3.640 0.727
2.587 3.418 0.913
2.461 3.281 1.028
2.757 3.302 1.418
2.771 3.394 1.800
2.946 3.334 1.992
3.060 3.306 2.076
2.983 3.359 2.073
3.241 2.984 3.560
3.392 3.200 3.655
3.450 3.078 4.246
3.581 3.273 4.562
3.995 3.167 4.570
3.924 3.222 5.004
3.865 2.917 5.412
2.263 3.141 0.868
2.279 3.095 0.789
2.299 3.352 1.115
2.536 3.397 1.475
2.571 3.247 1.840
2.780 3.444 2.142
2.918 3.056 2.277
2.843 2.956 2.266
2.695 3.177 2.728
3.219 3.175 3.645
3.237 2.893 3.762
3.555 3.000 4.335
3.689 3.070 4.578
3.623 2.843 4.725
3.943 2.739 5.034
3.802 2.890 5.270
1.824 3.275 0.702
2.140 3.320 1.001
2.224 3.335 1.299
2.532 3.229 1.370
2.488 2.913 1.857
2.374 3.066 2.230
2.496 3.265 2.385
2.217 2.998 2.572
2.760 2.942 2.833
2.964 2.899 3.554
3.046 2.662 3.933
3.007 2.913 4.203
3.449 2.894 4.509
3.407 2.591 4.939
3.709 2.968 5.198
3.525 2.636 5.314
1.617 2.873 0.992
1.697 2.938 1.138
1.792 2.873 1.543
2.323 3.106 1.725
2.411 2.796 1.966
2.475 2.756 2.353
2.334 2.874 2.372
2.257 2.570 2.486
2.571 2.876 3.835
2.884 2.582 4.068
2.914 2.438 4.413
3.150 2.702 4.546
3.393 2.820 4.850
3.484 2.612 5.356
3.604 2.444 5.440
1.759 2.884 1.125
1.651 2.719 1.314
1.913 2.660 1.626
1.824 2.763 1.577
2.006 2.905 1.944
2.098 2.976 2.374
2.041 2.818 2.538
1.803 2.478 2.698
2.653 2.330 4.137
2.958 2.334 4.594
3.042 2.347 4.802
2.905 2.412 4.802
3.042 2.465 5.273
3.182 2.227 5.563
1.521 2.571 1.347
1.570 2.845 1.524
1.468 2.745 2.014
1.686 2.732 2.111
1.863 2.741 2.511
1.981 2.487 2.805
2.529 2.480 4.961
2.552 2.456 5.151
1.421 2.553 1.892
1.705 2.447 1.975
1.563 1.561 4.757
1.600 1.476 4.922
1.814 1.613 4.946
1.961 1.471 5.463
2.191 1.443 5.542
0.291 1.625 1.672
0.605 1.794 1.902
0.543 1.977 2.085
0.844 1.781 2.445
0.828 1.593 2.674
0.702 1.507 3.267
1.290 1.624 4.568
1.442 1.608 4.546
1.289 1.304 5.094
1.366 1.413 4.994
1.757 1.514 5.376
1.582 1.582 5.601
1.906 1.230 5.947
0.212 1.532 1.375
0.226 1.765 1.785
0.410 1.472 2.130
0.206 1.440 2.231
0.675 1.733 2.650
0.551 1.527 3.036
0.490 1.698 3.147
0.254 1.601 3.275
0.972 1.569 4.655
0.907 1.535 4.959
1.254 1.379 5.057
1.479 1.347 5.372
1.462 1.302 5.644
1.336 1.154 5.929
1.789 1.289 6.088
0.130 1.672 2.243
0.117 1.400 2.553
0.298 1.652 2.574
0.306 1.579 3.028
0.463 1.398 3.132
5.145 4.823 1.514
5.083 5.051 1.886
5.574 4.661 2.946
5.787 4.732 3.088
5.745 4.895 3.396
5.809 4.934 3.740
5.948 4.949 3.774
6.056 4.723 4.165
6.452 4.745 4.524
4.736 4.817 0.273
4.441 5.062 0.513
4.964 5.122 0.574
4.650 4.725 1.129
5.070 4.850 1.407
5.238 4.768 1.488
4.666 4.711 1.451
4.741 4.917 1.816
5.360 4.546 2.883
5.421 4.651 3.065
5.513 4.753 3.344
5.822 4.766 3.668
5.793 4.465 4.098
5.705 4.429 4.109
6.079 4.470 4.410
4.274 4.689 0.175
4.367 4.593 0.522
4.670 4.682 0.960
4.716 4.954 1.197
4.951 4.876 1.086
4.898 4.731 1.554
4.577 4.538 1.444
4.977 4.599 2.988
5.250 4.312 3.019
5.594 4.258 3.436
5.405 4.331 3.679
5.797 4.470 4.060
5.547 4.565 4.306
5.709 4.197 4.405
3.895 4.422 -0.026
4.246 4.836 0.172
4.395 4.495 0.461
4.183 4.666 0.687
4.416 4.369 1.037
4.723 4.543 1.357
4.569 4.716 1.641
4.356 4.585 1.701
5.218 4.258 3.462
5.226 4.396 3.420
5.407 4.161 3.981
5.219 4.074 4.083
5.634 4.288 4.462
5.636 4.284 4.692
4.081 4.338 0.406
3.817 4.272 0.495
4.160 4.208 0.914
4.143 4.616 1.003
4.366 4.285 1.303
4.259 4.218 1.515
5.156 4.114 3.168
5.171 4.057 3.233
5.358 3.925 3.433
5.312 4.119 3.884
5.544 3.904 4.000
5.439 4.170 4.327
3.977 4.053 0.257
4.013 4.064 0.152
4.135 4.121 0.487
4.112 4.080 1.049
4.249 4.347 1.221
4.383 4.011 1.581
5.100 3.738 3.286
4.978 3.876 3.705
5.255 3.832 4.017
3.682 4.251 0.453
3.962 3.835 0.669
3.988 4.076 1.030
3.528 3.290 2.022
4.171 3.405 3.739
4.357 3.068 4.132
4.329 3.013 4.431
4.718 3.094 4.522
4.485 3.171 4.812
3.115 3.324 1.049
2.940 3.159 1.348
3.189 3.443 1.562
3.420 3.509 1.591
3.369 3.177 2.028
3.284 3.193 2.147
3.145 3.107 2.292
3.851 2.965 3.597
3.868 2.907 3.806
3.879 3.232 4.047
4.218 2.934 4.352
4.110 3.129 4.893
4.315 3.027 5.150
2.807 3.419 0.706
2.641 3.132 1.148
2.915 3.029 1.309
3.017 3.056 1.763
3.012 3.087 1.809
3.285 2.976 2.121
3.151 3.161 2.290
3.099 2.857 2.357
3.358 2.843 3.420
3.604 3.030 3.627
3.832 3.017 3.906
3.864 3.079 4.441
4.065 3.094 4.548
3.980 2.703 4.869
3.997 2.650 5.193
2.238 2.977 0.496
2.605 2.947 0.967
2.579 3.190 1.320
2.860 3.150 1.217
2.722 3.206 1.629
2.795 3.087 1.776
2.923 3.118 2.247
2.685 2.869 2.259
2.873 2.949 2.369
3.504 2.862 3.573
3.307 2.953 4.013
3.343 2.681 4.067
3.824 2.853 4.238
3.816 2.607 4.507
3.805 2.805 5.092
4.043 2.776 5.422
1.996 2.988 0.658
2.385 2.785 0.812
2.263 3.076 1.235
2.617 2.714 1.397
2.602 2.856 1.785
2.851 3.002 2.114
2.925 3.036 2.298
2.539 2.536 2.485
3.281 2.643 3.668
3.075 2.683 4.034
3.142 2.368 4.224
3.370 2.593 4.598
3.465 2.578 4.942
3.459 2.472 5.047
3.601 2.378 5.107
2.067 2.770 0.893
2.196 2.677 1.223
2.093 2.947 1.433
2.259 2.697 1.532
2.174 2.632 1.689
2.431 2.494 2.310
2.727 2.861 2.471
2.292 2.481 2.589
2.751 2.258 3.625
2.974 2.558 3.985
3.164 2.465 4.309
3.266 2.200 4.370
3.534 2.464 4.645
3.640 2.396 5.283
3.371 2.158 5.416
1.690 2.643 0.739
1.897 2.424 1.234
2.134 2.510 1.564
1.942 2.581 1.826
2.056 2.594 1.993
2.063 2.463 2.316
2.504 2.400 2.655
2.681 2.449 3.814
2.845 2.176 4.070
3.068 2.454 4.557
3.000 2.062 4.475
3.036 2.209 5.064
3.350 2.333 5.337
1.552 2.557 0.855
1.743 2.429 1.200
1.715 2.272 1.493
1.710 2.449 1.824
1.779 2.338 1.815
1.871 2.559 2.468
2.623 2.207 4.349
2.534 1.931 4.316
2.865 2.237 4.767
1.407 2.158 1.143
1.597 2.425 1.674
1.585 2.381 1.930
0.842 1.582 2.850
1.628 1.458 4.833
1.778 1.558 5.014
2.222 1.227 5.376
2.087 1.204 5.681
2.067 1.571 5.671
0.660 1.576 1.694
0.779 1.407 2.318
1.011 1.393 2.535
0.925 1.664 2.646
0.993 1.336 2.757
1.033 1.280 2.983
0.974 1.530 3.366
1.609 1.289 4.423
1.631 1.194 4.687
1.670 1.220 4.946
1.815 1.069 5.525
2.017 1.392 5.674
2.120 1.232 6.067
0.253 1.571 1.821
0.456 1.593 1.938
0.530 1.372 2.057
0.444 1.303 2.301
0.663 1.464 2.836
0.663 1.169 3.054
0.468 1.252 3.051
0.797 1.280 3.300
0.974 1.060 4.225
1.208 1.014 4.806
1.461 0.933 4.774
1.345 0.998 5.243
1.718 1.030 5.270
1.822 0.960 5.754
1.977 0.891 5.835
0.103 1.072 1.844
0.004 1.313 2.159
0.252 1.355 2.250
0.521 1.205 2.626
0.613 1.189 3.000
0.712 1.301 2.890
5.141 4.803 1.630
5.163 4.685 1.792
5.638 4.720 2.833
5.908 4.478 2.958
5.843 4.543 3.413
5.960 4.623 3.437
6.304 4.591 3.958
4.488 4.714 0.084
4.898 4.889 0.232
5.094 4.758 0.836
5.066 4.769 0.968
5.010 4.806 1.314
5.211 4.477 1.584
4.903 4.490 1.638
5.748 4.607 2.636
5.612 4.412 2.928
5.935 4.310 3.524
5.769 4.359 3.669
5.862 4.141 3.975
5.976 4.355 4.265
6.261 4.210 4.227
4.645 4.586 0.045
4.465 4.539 0.357
4.813 4.587 0.867
4.743 4.501 1.136
4.780 4.361 1.334
5.094 4.308 1.447
4.807 4.271 1.634
5.213 4.200 2.911
5.619 4.106 2.998
5.361 4.374 3.365
5.770 4.025 3.654
5.730 4.342 3.964
5.675 4.046 4.073
6.134 4.059 4.472
4.216 4.389 0.200
4.286 4.461 0.734
4.234 4.272 0.900
4.345 4.368 1.091
4.692 4.516 1.486
4.728 4.291 1.519
5.130 4.265 2.962
5.403 4.015 3.202
5.149 4.004 3.317
5.513 4.118 3.919
5.726 4.091 3.837
5.583 3.886 4.094
3.756 4.043 0.125
4.037 4.415 0.380
4.016 4.079 0.428
4.206 4.317 0.886
4.218 4.366 1.006
4.312 3.996 1.214
5.339 3.883 2.812
5.375 4.060 3.068
5.277 3.671 3.097
5.392 3.900 3.306
5.719 3.751 3.905
5.745 3.810 4.108
4.308 4.105 0.289
4.207 3.939 0.389
4.556 3.832 0.853
4.523 4.110 1.184
4.774 3.693 2.760
4.926 3.820 2.985
4.930 3.575 3.166
5.362 3.811 3.387
4.049 4.054 -0.140
4.060 3.894 0.456
4.233 3.748 0.810
4.753 3.480 2.317
4.675 3.550 2.653
4.628 3.368 2.948
3.516 3.594 -0.011
4.246 3.561 2.564
4.196 3.308 2.833
3.867 3.196 1.691
3.901 3.452 2.031
3.859 3.193 2.274
4.766 3.017 4.753
4.993 3.317 4.898
3.553 3.177 1.500
3.622 3.362 1.852
3.548 3.072 1.824
3.726 3.119 2.217
3.952 3.090 2.586
4.478 2.859 4.274
4.582 2.770 4.232
4.874 3.094 4.777
4.880 2.824 5.020
3.158 2.939 1.274
3.236 3.284 1.428
3.516 2.907 1.729
3.749 3.315 2.160
3.489 3.011 1.921
3.597 3.070 2.396
4.090 2.905 4.101
4.407 2.855 4.391
4.256 2.942 4.315
4.627 2.872 4.611
4.490 2.959 5.094
2.917 2.770 0.892
2.860 2.931 1.322
3.001 3.071 1.494
3.242 3.118 1.872
3.230 3.144 1.849
3.160 2.927 2.343
3.446 2.547 2.275
4.026 2.701 3.877
3.918 2.543 4.167
3.879 2.541 4.042
4.001 2.682 4.571
4.088 2.772 4.603
4.430 2.548 4.884
2.580 2.738 0.958
2.714 2.760 0.984
2.633 2.675 1.232
2.986 2.956 1.516
3.219 2.834 1.870
3.256 2.676 2.357
3.061 2.394 2.273
3.359 2.331 3.674
3.593 2.677 4.011
3.766 2.304 4.064
3.869 2.618 4.543
3.944 2.480 4.636
4.180 2.337 4.880
3.956 2.264 5.075
2.443 2.799 0.751
2.533 2.683 0.957
2.737 2.657 1.177
2.622 2.591 1.215
2.892 2.842 1.493
2.990 2.536 1.976
3.088 2.657 2.255
2.766 2.405 2.438
3.227 2.322 3.807
3.457 2.458 4.036
3.359 2.220 3.972
3.594 2.510 4.419
3.718 2.387 4.652
3.877 2.176 4.931
3.950 2.104 5.172
1.877 2.355 0.698
2.210 2.436 0.859
2.093 2.413 1.374
2.264 2.532 1.340
2.681 2.586 1.588
2.642 2.531 1.904
2.683 2.430 2.354
3.013 2.439 3.456
3.175 2.402 3.519
3.353 2.240 3.912
3.101 2.198 4.155
3.437 2.289 4.464
3.691 2.108 4.751
3.546 2.259 5.196
1.693 2.243 0.655
2.022 2.509 0.670
1.995 2.451 1.129
1.969 2.354 1.545
2.169 2.473 1.586
2.237 2.148 1.782
2.607 2.438 2.081
2.904 2.059 3.556
2.807 1.930 3.691
2.799 2.067 4.192
3.013 2.155 4.367
3.211 2.171 4.800
3.379 1.940 4.736
1.581 2.274 0.480
1.566 2.412 1.014
1.602 2.274 1.101
1.767 2.137 1.547
2.069 1.962 1.526
2.017 2.040 2.103
2.339 1.734 3.481
2.813 1.785 4.003
2.841 1.906 4.072
2.907 2.016 4.299
1.442 1.977 0.729
1.397 2.089 0.919
1.743 2.033 1.411
1.667 1.944 1.546
2.129 1.849 3.493
2.443 1.736 3.848
2.580 1.710 4.044
1.002 1.680 0.457
1.166 1.890 0.682
1.386 1.965 0.839
2.062 1.710 3.137
1.838 1.419 3.489
0.510 1.831 0.525
0.571 1.765 0.749
1.252 1.522 2.627
1.723 1.225 2.988
1.415 1.309 3.138
2.356 1.261 5.461
2.585 1.130 5.539
0.127 1.462 0.212
0.456 1.398 0.492
1.108 1.471 2.523
1.416 1.378 2.603
1.286 1.114 2.977
1.502 1.432 3.324
1.272 1.233 3.504
2.253 1.053 4.861
2.024 1.156 5.330
2.148 1.025 5.731
2.579 0.958 5.748
-0.016 1.399 0.127
0.314 1.342 0.565
0.685 1.281 1.999
0.840 1.458 2.471
1.211 1.331 2.447
1.325 1.129 2.912
0.803 1.297 2.966
0.990 1.332 3.136
1.877 1.164 4.810
1.820 1.119 5.137
1.877 0.890 5.203
1.894 0.979 5.739
2.003 0.899 5.685
0.455 1.115 1.862
0.825 1.215 2.073
0.756 0.987 2.524
0.914 1.083 2.603
1.160 1.239 2.860
0.908 1.116 3.094
0.800 1.044 3.176
1.598 1.053 4.648
1.501 0.858 4.906
1.478 0.846 4.938
1.689 0.742 5.210
1.854 0.688 5.789
1.786 0.978 6.135
0.106 1.098 1.886
0.300 1.239 1.997
0.341 1.045 2.339
0.742 0.802 2.606
0.803 1.020 2.953
0.856 0.851 3.234
5.360 4.214 1.553
5.712 4.160 2.485
6.069 4.520 2.871
6.197 4.517 3.015
6.124 4.470 3.437
4.951 4.471 0.149
5.010 4.531 0.189
5.180 4.346 0.666
5.321 4.301 0.763
5.203 4.411 0.885
5.335 4.360 1.157
5.317 4.177 1.456
5.800 4.286 2.629
5.764 3.979 3.175
5.790 4.063 3.213
5.808 4.057 3.710
6.212 4.056 3.877
6.130 4.239 4.186
4.473 4.344 0.239
4.584 4.349 0.476
4.944 4.333 0.508
4.749 4.318 0.869
5.128 4.246 1.320
5.046 4.442 1.319
5.544 4.239 2.644
5.496 4.060 2.851
5.502 3.949 3.284
5.622 3.873 3.251
5.564 4.055 3.514
5.972 3.893 3.726
6.004 4.135 4.193
4.584 3.942 0.095
4.539 4.221 0.255
4.386 4.317 0.816
4.678 4.291 1.050
4.664 4.130 1.392
4.928 3.910 2.616
5.346 4.019 2.797
5.392 3.843 3.192
5.649 3.987 3.288
5.686 3.854 3.498
5.681 3.585 4.099
4.114 4.177 0.119
4.314 4.021 0.739
4.430 3.980 0.663
4.443 3.833 0.977
5.178 3.758 2.149
5.287 3.432 2.629
5.374 3.470 2.971
5.600 3.422 3.265
5.408 3.792 3.441
5.690 3.728 3.641
4.433 3.704 0.181
4.297 3.704 0.655
4.555 3.652 0.902
4.942 3.698 2.252
4.787 3.612 2.429
4.946 3.435 2.433
4.979 3.351 3.034
5.112 3.441 3.057
5.522 3.313 3.530
3.868 3.714 -0.129
4.221 3.380 0.237
4.184 3.544 0.733
4.319 3.249 2.117
4.832 3.343 2.201
4.580 3.483 2.295
4.885 3.481 2.508
5.086 3.233 3.147
4.899 3.312 3.266
3.735 3.627 -0.081
3.890 3.496 0.534
4.003 3.101 1.879
4.097 3.237 1.818
4.329 3.285 2.414
4.515 2.939 2.759
4.526 3.189 2.879
4.752 3.256 3.208
5.570 3.039 4.753
3.388 3.269 -0.054
4.078 3.380 1.566
3.941 2.858 1.737
3.894 2.978 1.941
4.183 2.827 2.416
4.121 2.969 2.427
4.358 2.840 3.086
5.120 2.679 4.440
5.080 2.705 4.654
3.779 2.916 1.633
3.759 2.936 1.797
3.606 2.932 1.986
3.750 2.698 2.304
4.120 2.684 2.569
4.251 2.733 2.760
4.664 2.884 4.416
4.933 2.890 4.715
5.049 2.844 4.852
3.507 2.801 1.452
3.657 2.815 1.508
3.555 3.036 1.696
3.695 2.492 1.817
3.742 2.546 2.454
3.633 2.757 2.705
4.605 2.492 4.208
4.553 2.580 4.263
4.513 2.397 4.660
4.534 2.539 4.804
3.277 2.696 1.053
3.492 2.529 1.395
3.344 2.851 1.727
3.419 2.683 2.124
3.518 2.640 2.096
3.226 2.652 2.439
4.113 2.304 4.112
4.021 2.233 4.377
4.369 2.603 4.657
4.255 2.334 4.666
4.514 2.242 4.960
2.800 2.653 0.884
3.029 2.735 1.180
3.238 2.640 1.758
3.319 2.522 1.870
3.195 2.379 2.253
3.266 2.271 1.934
3.958 2.136 3.714
3.827 2.195 4.100
3.780 2.356 4.373
3.883 2.312 4.429
4.364 2.096 5.000
4.278 2.191 5.129
2.546 2.605 0.865
2.596 2.489 1.048
2.811 2.284 1.219
2.853 2.215 1.704
3.175 2.518 2.050
3.314 2.469 2.181
3.418 2.078 3.338
3.497 2.235 3.626
3.682 2.022 4.146
3.850 2.247 4.321
4.008 2.065 4.606
3.964 2.198 4.975
2.260 2.353 0.789
2.231 2.117 1.130
2.411 2.469 1.131
2.556 2.126 1.638
2.679 2.088 1.784
2.569 2.224 2.045
2.878 2.115 3.552
3.254 2.167 3.808
3.516 1.962 3.797
3.534 1.887 4.191
3.453 1.839 4.259
3.650 2.122 4.851
2.038 2.190 0.628
2.129 2.153 0.631
2.077 1.986 0.979
2.114 2.244 1.469
2.146 1.902 1.343
2.525 2.017 1.906
2.682 1.815 3.379
2.780 1.885 3.424
2.871 1.917 3.856
3.191 1.953 4.046
3.287 1.888 4.180
3.321 1.583 4.709
1.407 2.112 0.101
1.793 1.868 0.589
1.596 1.819 0.751
1.860 1.877 1.106
2.022 2.068 1.256
2.271 1.853 1.768
2.549 1.513 2.833
2.354 1.568 3.210
2.767 1.867 3.705
2.745 1.427 3.703
2.654 1.727 4.079
2.915 1.779 4.232
1.440 1.989 0.178
1.389 1.771 0.170
1.557 1.831 0.556
1.774 1.596 0.683
1.770 1.572 1.111
1.892 1.742 1.465
2.283 1.550 2.879
2.127 1.495 2.885
2.464 1.516 3.186
2.307 1.407 3.524
2.520 1.437 3.724
2.646 1.392 4.328
1.169 1.466 0.151
1.058 1.790 0.426
1.299 1.509 0.674
1.251 1.485 0.898
1.252 1.485 1.037
1.910 1.366 2.584
1.730 1.289 2.916
2.189 1.360 2.949
2.252 1.199 3.596
2.229 1.437 3.556
2.315 1.214 4.080
2.891 1.291 5.721
0.770 1.296 0.078
0.930 1.310 0.478
1.077 1.362 0.586
1.337 1.587 1.142
1.772 1.294 2.807
1.439 1.243 2.858
1.708 1.225 3.137
1.608 0.993 3.244
1.818 1.157 3.673
2.168 1.350 3.658
2.497 1.233 5.172
2.720 0.898 5.805
0.505 1.560 -0.073
0.451 1.566 0.432
0.564 1.152 0.768
0.610 1.489 0.719
1.582 1.367 2.609
1.590 1.401 2.547
1.493 1.017 2.647
1.515 0.929 3.000
1.394 0.927 3.159
1.708 1.227 3.677
2.258 1.001 4.975
2.554 1.064 5.651
2.694 1.122 5.506
0.284 1.092 -0.011
0.349 1.289 0.283
0.561 1.034 0.862
0.912 0.889 2.126
1.123 1.174 2.572
1.218 0.930 2.793
1.184 0.885 2.947
1.300 0.985 3.328
1.477 0.801 3.555
1.931 0.610 5.175
2.157 0.701 5.136
2.159 0.654 5.410
2.153 0.541 5.864
-0.089 0.881 0.434
0.350 1.069 0.531
0.799 1.014 2.080
0.713 0.857 2.253
1.120 0.986 2.833
1.085 0.970 2.833
0.918 0.764 2.755
1.088 0.543 3.022
1.721 0.709 4.820
1.841 0.419 5.042
1.658 0.786 5.369
1.976 0.613 5.461
1.947 0.417 6.036
0.314 0.826 2.069
0.368 0.576 2.342
0.565 0.732 2.260
0.629 0.546 2.834
0.996 0.546 3.055
5.339 3.962 1.072
6.045 4.039 2.852
6.213 3.922 2.974
5.015 4.223 0.170
5.001 4.228 0.559
5.476 4.379 0.924
5.360 4.181 0.968
5.658 4.165 1.071
5.962 3.859 2.807
5.996 4.050 3.107
5.863 3.789 3.101
6.085 4.038 3.377
6.365 3.938 3.939
4.708 3.878 0.222
4.941 3.863 0.379
4.865 4.054 0.764
5.116 3.848 0.619
5.395 3.985 1.215
5.701 3.990 2.389
5.602 3.832 2.587
5.772 3.583 2.954
5.805 3.565 3.361
5.750 3.670 3.518
6.134 3.509 3.704
4.654 3.884 0.132
4.756 3.815 0.419
4.564 3.744 0.535
4.970 3.696 1.071
5.291 3.843 2.284
5.063 3.644 2.378
5.180 3.665 2.975
5.590 3.579 3.303
5.670 3.602 3.359
5.616 3.496 3.640
4.269 3.583 0.112
4.507 3.735 0.652
4.740 3.859 0.724
5.123 3.303 1.830
5.267 3.607 2.122
5.352 3.345 2.514
5.594 3.555 2.608
