3.378 0.623 2.677
3.626 0.883 2.499
3.621 1.049 2.957
3.982 1.090 2.735
2.939 0.449 2.711
3.448 0.789 3.005
3.660 0.839 2.895
3.732 1.211 3.036
3.847 1.437 3.227
3.074 0.678 3.255
3.530 1.005 3.200
3.524 1.082 3.468
3.728 1.128 3.684
4.032 1.445 3.920
3.376 0.928 3.764
3.580 1.086 3.890
3.764 1.281 4.048
3.818 1.280 4.119
3.982 1.641 4.111
3.544 0.932 4.009
3.626 1.243 3.989
3.843 1.544 4.425
3.917 1.616 4.269
4.237 1.782 4.586
3.666 1.256 4.274
3.585 1.231 4.730
3.922 1.648 4.613
4.032 1.624 4.906
4.359 1.827 5.080
2.394 0.204 4.062
3.611 1.166 4.678
3.919 1.442 5.080
3.959 1.600 4.922
4.386 1.676 5.062
2.428 0.082 4.539
3.821 1.565 5.163
3.763 1.602 5.452
4.252 1.627 5.561
2.391 0.171 4.801
2.387 0.493 5.091
3.854 1.619 5.659
4.187 1.949 5.756
2.228 -0.128 4.993
2.383 0.301 5.305
2.614 0.432 5.358
3.789 1.792 6.222
2.477 0.089 5.592
2.475 0.552 5.510
2.619 0.405 5.670
2.080 0.288 5.967
2.296 0.478 5.856
2.806 0.688 6.177
2.790 0.703 5.988
2.325 0.193 5.930
2.493 0.340 6.025
2.881 -0.089 1.104
2.904 0.152 1.444
2.998 0.261 1.485
3.465 0.520 1.608
3.484 1.016 1.473
4.793 1.885 2.291
4.819 2.077 2.510
5.057 2.386 2.596
2.871 0.112 1.745
2.893 0.452 1.861
3.400 0.403 1.820
3.364 0.663 2.141
3.758 0.884 2.040
4.959 2.167 3.022
5.241 2.473 3.138
3.019 0.194 2.196
3.323 0.433 2.113
3.498 0.527 2.305
3.375 0.868 2.534
3.662 1.165 2.455
4.862 2.379 3.190
3.066 0.322 2.396
3.261 0.437 2.663
3.381 0.723 2.563
3.732 1.158 2.956
3.875 1.448 3.000
3.406 0.132 2.571
3.470 0.492 2.704
3.598 0.451 2.879
3.968 0.893 2.764
4.936 2.030 3.738
3.446 0.421 2.763
3.711 0.720 3.117
3.824 0.711 2.950
4.180 1.046 4.447
4.062 1.188 4.647
4.453 1.547 4.460
3.992 0.952 4.780
4.060 1.195 4.750
4.464 1.655 4.710
4.473 1.899 5.083
2.906 -0.074 4.429
3.970 1.063 4.780
4.065 1.332 5.176
4.300 1.467 4.956
4.282 1.512 5.253
3.066 0.313 4.844
3.747 1.299 5.186
4.215 1.210 5.406
4.344 1.406 5.505
2.838 0.250 4.822
3.715 0.941 5.501
4.184 1.321 5.619
4.365 1.328 5.666
2.472 -0.173 5.353
2.764 0.053 5.379
3.937 1.101 5.943
4.066 1.535 6.016
2.637 0.114 5.648
2.697 0.133 6.059
3.301 0.146 1.262
3.561 0.390 1.592
3.693 0.410 1.847
3.813 0.961 1.892
4.935 1.987 2.581
5.074 2.184 2.557
5.597 2.071 2.616
3.379 -0.025 1.717
3.660 0.449 1.962
3.627 0.575 2.060
3.742 0.744 2.216
4.889 1.934 2.604
4.938 1.901 2.684
5.377 2.048 2.808
3.353 0.114 2.001
3.281 0.463 2.072
3.723 0.426 2.425
3.958 0.667 2.535
3.894 0.924 2.703
5.055 1.951 3.241
5.322 2.145 3.229
3.059 0.349 2.592
3.568 0.483 2.721
3.851 0.655 2.561
3.863 0.677 2.789
5.120 2.094 3.728
3.748 0.304 2.707
3.997 0.215 2.900
5.225 1.406 3.391
5.094 1.629 3.450
4.139 1.159 4.627
4.499 1.086 4.922
4.572 1.493 4.897
4.056 0.871 4.893
4.425 1.294 5.168
4.711 1.534 5.168
4.135 1.000 5.468
4.522 1.284 5.449
4.484 1.230 5.635
4.203 0.762 5.497
4.396 1.213 5.833
4.526 1.317 6.029
3.714 0.846 5.850
4.146 0.873 6.154
4.333 1.405 6.341
3.815 0.277 1.728
3.878 0.476 1.811
4.331 0.691 1.924
5.074 1.721 2.320
5.415 1.678 2.514
5.753 1.848 2.604
3.680 -0.099 1.908
3.917 0.372 2.169
4.223 0.470 2.011
4.946 1.450 2.780
5.327 1.541 2.980
5.662 1.887 3.031
3.446 0.216 2.257
3.740 0.362 2.322
4.153 0.352 2.389
4.914 1.387 3.127
5.149 1.686 3.163
5.278 1.829 3.167
3.814 -0.030 2.466
3.873 0.391 2.524
5.291 1.718 3.551
5.269 1.622 3.764
4.998 1.237 3.217
5.231 1.224 3.485
5.554 1.576 3.521
4.775 0.882 4.969
5.091 1.371 5.226
4.589 0.784 5.007
4.658 0.877 5.260
4.693 1.020 5.420
4.248 0.918 5.512
4.586 0.756 5.597
4.685 1.276 5.827
4.017 0.475 5.521
4.591 0.864 5.628
4.738 0.925 5.843
4.219 0.767 5.993
4.427 0.809 5.990
4.379 0.887 6.081
4.003 0.564 6.368
4.297 0.144 1.606
4.527 0.269 1.843
5.587 1.245 2.485
5.641 1.729 2.468
5.887 1.626 2.905
3.928 0.068 1.847
4.204 0.218 1.976
5.167 1.164 2.933
5.705 1.558 2.856
5.649 1.865 3.103
3.934 -0.044 2.529
4.278 0.079 2.645
5.374 1.131 3.148
5.494 1.442 3.115
5.605 1.755 3.360
5.111 1.327 3.542
5.490 1.461 3.575
5.590 1.703 3.507
4.987 0.610 3.377
5.405 0.989 3.559
5.708 1.310 3.341
5.797 1.328 3.579
4.916 0.595 3.707
5.047 0.867 3.809
5.448 0.904 3.805
5.362 0.839 5.116
4.662 0.788 5.349
4.885 0.931 5.437
4.679 0.497 5.274
4.824 0.493 5.484
5.131 0.725 5.778
4.621 0.593 5.801
4.518 0.579 5.646
4.927 0.855 5.944
3.999 0.177 5.711
4.318 0.470 6.012
4.379 0.695 5.997
4.604 0.713 6.366
4.097 0.130 5.949
4.135 0.277 6.295
4.453 0.039 1.784
5.502 1.100 2.599
5.946 1.271 2.549
6.177 1.631 2.645
4.545 0.036 2.062
5.576 1.161 3.000
5.644 1.226 3.042
6.022 1.682 2.962
5.159 0.861 2.907
5.271 1.022 2.978
5.756 1.355 3.098
5.889 1.475 3.529
5.072 0.774 3.461
5.410 1.136 3.348
5.370 1.058 3.405
5.699 1.506 3.743
5.084 0.186 3.309
5.162 0.697 3.259
5.733 0.746 3.437
5.661 0.786 3.501
5.841 0.997 3.826
4.926 -0.103 3.289
4.979 0.144 3.607
5.222 0.614 3.762
5.606 0.549 3.556
5.764 0.836 3.711
4.921 0.062 3.886
5.242 0.235 3.951
5.177 0.708 4.070
4.650 0.106 3.953
4.852 0.284 4.282
4.583 0.146 4.158
5.207 0.676 5.430
4.783 0.415 5.430
5.322 0.501 5.735
4.632 0.240 5.600
4.680 0.423 6.018
5.255 0.800 5.989
4.413 0.081 5.913
4.584 0.518 5.934
4.765 0.544 6.210
6.150 0.955 2.558
6.288 1.263 2.782
5.791 0.964 2.979
6.134 1.091 3.073
6.133 1.303 2.925
5.528 0.431 3.144
5.812 0.869 3.131
5.654 0.998 3.325
6.248 1.310 3.361
5.116 0.179 3.169
5.485 0.399 3.298
5.532 0.749 3.439
5.600 0.925 3.477
5.968 0.923 3.643
5.418 0.179 3.091
5.446 0.340 3.434
5.740 0.379 3.313
6.027 0.499 3.593
5.356 -0.032 3.299
5.554 0.299 3.813
5.609 0.609 3.695
5.761 0.432 3.945
5.495 0.241 3.740
5.465 0.340 4.151
5.090 0.147 4.228
5.461 0.155 4.335
4.975 0.188 4.634
4.868 0.307 6.013
5.510 0.398 2.879
6.059 0.513 3.302
6.064 0.726 3.438
5.450 0.135 3.304
5.415 0.242 3.207
5.561 0.519 3.566
6.047 0.540 3.455
5.736 0.021 3.490
5.781 0.421 3.501
5.947 0.200 3.835
5.793 0.158 4.164
5.830 -0.091 4.184
5.803 0.255 3.399
5.871 0.183 3.351
1.053 1.105 1.682
0.970 1.017 2.019
1.428 1.389 1.940
1.772 1.741 2.173
1.944 1.677 2.110
3.088 3.005 3.074
3.316 3.274 2.911
3.363 3.334 3.152
3.738 3.810 3.537
0.785 1.076 2.120
0.878 1.134 2.058
1.205 1.513 2.160
2.883 2.956 3.414
3.211 2.992 3.377
3.458 3.242 3.440
1.686 1.757 3.649
1.644 2.068 3.719
2.140 1.994 3.779
0.883 1.115 3.490
1.072 1.487 3.830
1.562 1.485 3.906
1.503 1.950 3.862
1.786 2.241 4.029
3.212 3.415 4.748
0.542 1.196 3.781
1.079 1.119 3.620
1.265 1.500 3.902
1.373 1.551 3.873
1.425 1.852 4.153
1.780 2.083 4.330
2.709 3.092 4.990
2.762 3.429 4.912
0.507 0.817 4.055
0.755 0.933 3.936
0.736 1.161 3.984
0.989 1.352 4.419
1.324 1.513 4.385
1.440 1.872 4.294
2.524 2.952 4.906
2.774 3.034 5.151
2.990 3.294 5.208
0.440 0.639 4.317
0.308 1.056 4.131
0.886 1.033 4.238
0.680 1.162 4.677
1.110 1.631 4.504
1.200 1.726 4.611
2.431 2.804 5.489
2.500 3.019 5.367
2.721 3.241 5.734
0.256 0.681 4.481
0.392 0.794 4.754
0.568 0.897 4.846
0.588 1.261 4.980
1.122 1.278 4.768
2.046 2.420 5.411
2.316 2.477 5.726
2.560 2.741 5.840
2.684 3.255 5.975
-0.007 0.339 4.619
0.336 0.745 4.765
0.326 0.903 4.880
0.528 0.985 5.005
1.982 2.175 5.749
2.241 2.665 5.993
2.077 2.657 6.161
2.396 2.990 6.316
0.342 0.505 4.995
1.589 2.228 6.222
1.991 2.589 6.355
0.504 0.174 0.560
1.307 1.398 0.889
1.502 1.597 1.201
1.767 1.769 1.084
1.908 2.116 1.418
2.397 2.353 1.387
2.319 2.488 1.566
3.533 3.282 2.051
3.669 3.720 2.202
3.881 4.040 2.566
0.325 0.158 0.351
0.368 0.474 0.293
0.473 0.407 0.839
1.419 1.322 1.246
1.583 1.407 1.324
1.597 1.874 1.374
2.198 1.923 1.621
2.165 2.102 1.777
2.311 2.274 1.928
3.295 3.261 2.618
3.614 3.495 2.764
3.902 3.584 2.889
-0.013 -0.006 0.427
0.350 0.161 0.806
1.207 0.967 1.464
1.449 1.065 1.419
1.278 1.464 1.774
1.766 1.738 1.825
1.889 1.895 1.851
2.080 1.945 2.051
3.148 2.918 2.514
3.497 3.266 2.966
3.623 3.373 2.801
3.798 3.793 3.057
0.133 -0.047 0.702
0.848 1.171 1.814
1.036 1.084 1.940
1.552 1.479 2.081
1.673 1.425 1.989
1.633 1.911 2.327
2.949 3.137 2.858
3.106 3.291 3.079
3.366 3.372 3.100
3.694 3.762 3.394
1.122 0.501 1.733
1.018 0.936 1.734
1.335 0.911 1.882
1.452 1.053 1.850
1.638 1.457 2.231
2.820 2.405 2.913
3.013 2.981 3.152
3.445 3.109 2.978
3.650 3.380 3.453
3.694 3.404 3.486
0.859 0.385 1.892
0.955 0.344 1.882
1.267 0.698 1.907
1.350 1.050 2.080
1.446 0.939 2.462
2.742 2.392 3.099
2.822 2.523 3.285
3.071 2.626 3.096
3.473 2.919 3.442
3.325 3.304 3.415
0.531 0.016 1.986
0.417 0.127 1.925
0.595 0.602 2.277
1.089 0.483 2.312
0.970 0.976 2.324
2.548 1.918 3.276
2.535 2.126 3.396
2.750 2.282 3.519
3.150 2.556 3.614
2.993 2.756 3.672
0.319 0.010 2.363
0.578 0.338 2.499
0.789 0.714 2.583
2.198 1.721 3.331
2.253 2.148 3.348
2.536 2.094 3.547
2.786 2.403 3.901
2.906 2.512 3.814
0.199 0.178 2.492
0.564 0.248 2.920
1.745 1.716 3.447
1.781 1.843 3.634
2.284 1.779 3.848
2.322 2.268 3.796
2.683 2.504 3.943
0.392 0.215 3.095
1.299 1.091 3.884
1.613 1.607 3.873
1.934 1.550 3.993
2.019 1.984 4.165
2.037 2.003 4.214
1.254 1.056 3.734
1.237 1.211 4.040
1.326 1.260 4.180
1.833 1.776 4.398
2.093 1.720 4.420
3.195 2.994 5.051
0.790 0.594 3.978
0.917 0.887 4.201
1.388 1.130 4.195
1.585 1.197 4.402
1.653 1.502 4.632
2.981 2.608 5.312
3.200 2.939 5.283
0.302 0.358 4.254
0.559 0.771 4.104
0.759 0.819 4.327
1.001 1.132 4.341
1.329 1.317 4.689
2.456 2.473 5.218
2.772 2.521 5.542
2.890 2.811 5.718
0.010 0.215 4.375
0.465 0.301 4.432
0.394 0.453 4.544
0.737 0.714 4.835
1.042 1.124 5.030
2.162 2.413 5.787
2.412 2.314 5.815
2.493 2.686 5.947
2.735 2.782 5.781
-0.018 0.243 4.517
0.471 0.361 4.846
0.425 0.605 4.841
0.794 0.576 4.871
1.719 1.814 5.913
2.245 2.255 5.774
2.237 2.377 6.016
2.684 2.562 6.095
2.885 2.761 6.114
-0.018 0.356 4.829
0.536 0.421 5.311
1.668 1.782 5.868
1.792 2.071 5.958
2.057 2.235 6.228
2.088 2.195 6.105
-0.064 0.232 5.458
1.088 1.556 6.044
1.412 1.700 6.285
1.030 1.274 6.405
0.588 -0.029 0.237
1.733 1.552 1.184
2.226 1.686 1.403
2.448 1.970 1.499
2.337 2.037 1.719
2.899 2.201 1.640
3.788 3.313 2.487
4.090 3.651 2.420
0.696 0.261 0.371
1.398 1.288 1.113
1.833 1.352 1.325
1.875 1.550 1.456
2.338 1.672 1.662
2.313 1.885 1.673
3.726 3.228 2.668
3.953 3.214 2.671
3.896 3.703 2.937
1.448 0.972 1.543
1.478 1.104 1.682
1.676 1.162 1.777
1.939 1.453 1.978
2.046 1.524 2.044
3.504 2.948 2.848
3.641 2.978 2.931
3.915 3.210 2.802
4.024 3.639 3.028
0.979 0.522 1.463
1.286 0.829 1.900
1.250 0.984 1.908
1.721 1.153 1.952
1.666 1.504 2.061
2.863 2.479 3.010
3.008 2.710 2.895
3.272 2.923 3.277
3.653 3.059 3.327
3.686 3.496 3.438
0.045 6.204 0.039
0.528 6.377 0.103
0.358 6.243 0.509
0.682 6.309 1.252
-0.083 5.252 1.053
1.275 6.092 1.577
0.152 4.783 0.399
0.379 5.020 0.608
-0.057 4.704 0.785
0.471 4.893 1.099
1.272 6.217 1.632
1.620 6.194 1.831
1.909 6.033 0.023
2.212 5.911 0.094
0.370 4.840 0.416
0.802 4.910 0.521
0.969 5.046 0.376
0.262 4.271 0.455
0.309 4.439 0.676
0.544 4.647 0.795
0.833 4.954 0.804
2.113 6.292 1.812
0.248 4.485 0.656
0.381 4.459 0.938
0.359 4.852 0.851
0.807 5.064 1.130
1.647 5.848 1.775
1.817 5.997 1.956
2.647 6.062 0.009
2.107 5.627 0.219
2.383 5.679 0.222
2.638 5.890 0.376
1.253 4.963 0.151
1.604 5.126 0.305
1.725 5.265 0.404
1.800 5.524 0.358
2.208 5.811 0.457
0.898 4.634 0.302
1.404 5.087 0.490
1.552 5.168 0.248
1.547 5.490 0.392
1.821 5.484 0.531
0.766 4.453 0.314
0.933 4.584 0.549
1.199 4.957 0.567
1.514 4.931 0.676
1.342 5.421 1.005
0.406 4.055 0.394
0.407 4.249 0.703
0.949 4.398 0.773
1.217 4.601 0.731
1.040 4.867 1.008
0.210 3.863 0.712
0.288 4.078 0.896
0.601 4.228 1.081
0.880 4.716 0.883
0.872 4.663 1.038
2.096 6.043 1.870
2.594 5.933 -0.019
2.046 5.151 0.116
2.284 5.398 0.137
2.545 5.522 0.285
2.504 5.902 0.594
1.743 4.776 -0.064
1.820 4.813 0.059
1.893 5.079 0.510
2.143 5.575 0.545
2.460 5.391 0.429
1.151 4.334 0.343
1.413 4.813 0.535
1.590 5.046 0.400
1.978 5.026 0.655
2.158 5.264 0.725
2.396 5.489 0.907
0.768 4.173 0.563
1.169 4.389 0.609
1.423 4.817 0.564
1.692 4.691 0.926
1.706 5.145 0.779
1.933 5.402 1.171
0.789 4.255 0.619
1.034 4.410 0.753
1.064 4.593 0.855
1.284 4.742 0.975
1.811 4.908 1.106
0.841 4.064 1.124
1.031 4.356 0.932
1.278 4.398 1.327
2.846 5.622 0.151
2.164 5.055 0.130
2.533 5.071 0.162
2.700 5.273 0.125
1.714 4.484 0.122
1.965 4.588 0.084
2.273 5.097 0.147
2.333 5.109 0.350
2.496 5.269 0.675
1.411 4.119 0.385
1.523 4.587 0.361
2.008 4.718 0.349
2.038 4.980 0.510
2.387 5.041 0.643
2.575 5.270 1.054
1.414 4.076 0.501
1.702 4.502 0.849
1.940 4.767 0.802
1.811 4.794 0.998
2.161 4.919 1.011
2.182 5.275 1.185
-0.067 2.838 -0.053
1.130 4.287 0.651
1.399 4.481 0.951
1.640 4.683 1.109
2.046 4.624 1.101
2.255 4.994 1.352
2.410 4.908 -0.013
2.622 4.830 0.044
3.075 5.017 0.461
1.787 4.223 -0.064
2.134 4.619 0.202
2.241 4.574 0.405
2.492 4.790 0.667
2.793 5.116 0.464
1.708 4.001 0.184
1.812 4.093 0.349
1.950 4.481 0.338
2.217 4.689 0.817
2.334 4.904 0.619
2.886 5.211 1.049
1.529 3.894 0.581
1.837 4.369 0.793
1.936 4.501 0.846
1.968 4.553 0.958
2.513 4.911 1.188
2.510 4.962 1.147
0.149 2.832 -0.030
0.562 2.728 0.254
1.780 4.161 1.076
2.042 4.255 1.306
1.905 4.461 1.343
2.370 4.654 1.417
2.512 5.026 1.345
2.540 4.729 0.101
2.972 4.637 0.251
2.097 3.942 -0.046
2.403 3.990 -0.006
2.475 4.492 0.190
2.530 4.374 0.365
2.936 4.754 0.368
2.938 4.996 0.476
2.090 3.990 0.461
1.980 4.161 0.490
2.235 4.356 0.396
2.698 4.287 0.554
2.735 4.753 0.739
2.796 4.874 0.850
1.081 2.798 0.089
1.930 3.877 0.865
2.169 4.171 0.679
2.418 4.336 1.028
2.597 4.582 1.247
2.737 4.768 1.330
2.800 4.834 1.484
0.068 2.067 -0.169
0.341 2.605 0.218
0.654 2.767 0.321
0.868 2.741 0.360
2.131 4.202 1.166
2.464 4.319 1.152
2.387 4.683 1.380
2.559 4.822 1.626
2.955 4.816 1.794
0.204 2.412 0.283
0.588 2.552 0.358
0.946 2.836 0.758
2.530 4.268 1.837
2.587 4.650 1.658
2.634 4.833 2.099
4.022 5.341 0.280
2.554 4.058 0.025
2.904 4.280 -0.044
2.222 3.821 0.007
2.303 3.891 0.382
2.563 3.883 0.152
2.673 4.395 0.237
3.194 4.535 0.560
2.338 3.758 0.448
2.693 3.807 0.629
2.581 4.402 0.787
3.053 4.470 0.836
3.152 4.672 1.021
1.174 2.619 -0.004
1.248 2.656 0.196
2.215 3.746 0.716
2.724 4.169 0.921
2.846 4.500 0.972
2.978 4.490 1.065
3.261 4.575 1.521
0.377 2.005 -0.030
0.512 2.211 0.143
0.704 2.628 0.192
0.911 2.445 0.571
1.090 2.811 0.587
2.298 3.890 1.428
2.627 4.402 1.496
2.718 4.626 1.553
3.000 4.739 1.857
3.313 4.833 1.785
0.456 2.050 0.497
0.839 2.454 0.532
0.844 2.461 0.678
1.108 2.729 0.867
1.187 3.046 1.043
2.762 4.348 1.588
2.821 4.258 1.753
3.074 4.550 1.838
3.355 4.801 2.190
4.302 5.103 0.058
3.909 4.895 0.573
1.141 2.113 0.007
1.207 2.308 0.364
2.872 4.115 0.985
3.035 4.153 1.274
3.349 4.625 1.514
0.908 1.944 0.397
1.168 2.270 0.152
1.449 2.569 0.395
1.369 2.783 0.390
1.486 2.628 0.526
2.771 4.081 1.367
2.979 4.156 1.623
3.248 4.404 1.764
3.474 4.745 1.942
0.625 1.798 0.547
1.100 2.326 0.759
1.260 2.315 0.697
1.232 2.408 0.832
1.737 2.565 0.846
1.652 2.990 1.275
2.687 3.813 1.746
3.006 4.176 1.854
3.079 4.454 2.129
3.211 4.537 2.097
4.195 4.741 -0.067
4.204 4.972 0.123
4.052 4.493 0.246
4.238 4.662 0.323
1.124 1.768 0.422
1.327 2.035 0.484
1.650 2.201 0.753
1.731 2.667 0.781
2.268 2.667 0.867
3.374 3.903 1.626
3.694 4.343 1.530
3.656 4.591 1.949
0.057 0.696 0.191
1.298 1.781 0.627
1.445 1.992 0.760
1.727 2.202 0.748
1.842 2.338 0.841
2.104 2.538 1.072
2.287 2.727 1.388
3.383 4.119 1.839
3.542 3.988 2.109
3.689 4.161 2.002
0.229 0.757 0.048
4.363 4.245 -0.012
4.582 4.439 0.370
3.976 4.102 0.016
4.409 4.363 0.222
4.658 4.640 0.318
1.720 1.884 0.334
1.959 1.984 0.452
2.139 2.380 0.905
2.434 2.546 0.681
2.447 2.737 0.858
3.613 4.059 1.753
3.835 4.294 1.789
0.384 0.519 0.214
1.446 1.652 0.795
1.611 2.010 0.884
1.689 2.137 0.891
2.153 2.285 1.247
2.245 2.478 1.257
2.371 2.788 1.265
3.381 3.805 2.107
3.475 3.996 2.006
3.784 4.017 1.983
0.503 0.769 0.101
2.595 6.155 1.953
2.372 6.348 2.022
2.911 6.279 1.577
2.781 6.135 2.071
2.698 6.153 2.329
3.421 6.163 1.833
3.521 6.256 1.934
3.241 6.076 2.218
3.392 6.237 2.106
4.002 6.103 1.123
3.942 6.363 1.092
3.639 6.076 1.258
3.958 6.261 1.242
3.903 5.972 1.517
3.539 6.198 1.612
3.587 6.003 2.020
3.910 6.131 2.023
3.650 6.007 1.829
3.649 6.045 2.140
4.519 6.253 0.443
4.206 5.736 0.125
4.282 6.058 0.580
4.445 5.944 0.572
4.544 6.313 0.992
3.947 5.665 0.482
4.298 5.964 0.846
4.284 5.950 1.066
4.401 6.280 1.242
3.844 5.948 0.723
3.945 5.965 0.987
3.921 6.062 1.243
4.349 6.234 1.574
3.887 5.917 1.436
3.974 6.036 1.473
4.045 5.869 1.548
4.315 6.121 1.875
4.059 6.009 1.509
3.902 5.975 1.867
4.014 6.275 2.091
3.907 5.986 2.423
4.805 5.938 0.091
4.580 5.669 -0.037
4.719 5.950 0.160
4.735 6.064 0.420
4.937 5.914 0.759
4.136 5.460 0.053
4.494 5.644 0.474
4.556 5.824 0.384
4.270 5.742 0.742
4.646 6.224 1.014
4.828 6.300 1.169
4.227 5.393 0.462
4.068 5.514 0.800
4.423 6.023 0.921
4.325 5.643 1.133
4.523 6.018 1.112
4.645 6.223 1.167
4.144 5.731 0.889
4.321 5.589 1.106
4.076 5.552 1.459
4.549 5.919 1.433
4.845 5.977 1.586
4.208 5.623 1.248
4.187 5.942 1.889
4.731 6.143 1.674
4.780 6.275 2.047
4.249 5.990 2.322
4.531 6.189 2.220
4.322 6.115 2.408
4.784 6.088 2.935
3.566 5.011 2.057
5.080 5.873 0.078
4.567 5.353 0.275
4.812 5.891 0.048
4.862 5.503 0.300
4.928 5.688 0.691
4.414 5.428 0.325
4.677 5.268 0.405
4.636 5.797 0.418
4.545 5.731 0.793
4.943 5.600 0.706
4.081 5.157 0.718
4.322 5.357 0.814
4.770 5.503 0.949
4.535 5.595 0.860
4.855 5.662 1.137
4.341 5.161 1.005
4.379 5.471 1.250
5.145 6.083 2.615
5.103 6.182 2.848
3.848 4.707 1.904
4.862 5.887 3.045
4.928 6.312 3.114
3.790 5.001 2.215
3.718 5.095 2.308
5.281 5.418 0.123
5.100 5.253 0.300
4.974 5.353 0.195
4.796 5.373 0.504
4.722 5.148 0.127
4.893 5.109 0.319
4.974 5.246 0.644
4.695 5.332 0.600
4.303 4.909 0.544
4.837 4.969 0.520
5.024 5.393 0.626
5.391 5.917 2.918
5.546 6.411 3.001
3.785 4.723 1.899
4.013 5.024 2.071
4.355 5.067 2.533
5.118 6.052 3.073
5.526 6.397 3.119
3.815 4.395 2.414
3.863 4.883 2.496
4.308 4.816 2.585
5.262 5.213 0.379
4.892 4.697 0.084
5.277 5.230 0.119
5.451 5.126 0.144
5.099 5.411 0.427
6.377 6.043 0.984
4.653 4.711 0.377
4.999 4.966 0.542
5.350 5.394 0.425
6.264 6.009 1.585
4.523 4.806 0.637
5.048 4.984 0.746
4.735 4.885 2.453
5.757 5.942 3.109
5.824 6.394 3.224
4.329 4.239 2.173
4.396 4.490 2.229
4.541 4.705 2.370
4.452 4.852 2.376
5.648 5.731 2.995
5.599 6.034 3.314
5.867 6.128 3.447
4.149 4.513 2.459
4.033 4.602 2.253
4.320 4.945 2.754
4.871 3.876 -0.099
5.064 4.152 0.385
4.121 3.162 -0.190
4.108 3.580 -0.010
4.527 3.798 0.464
4.750 3.996 0.391
4.929 4.215 0.343
3.791 3.060 0.223
4.076 3.295 0.271
4.320 3.287 0.581
4.528 3.553 0.467
4.433 3.878 0.858
3.626 2.675 0.344
3.802 2.899 0.419
3.894 3.229 0.710
4.181 3.448 0.558
4.163 3.418 0.917
3.192 2.244 0.412
3.338 2.696 0.708
3.743 2.710 0.636
3.838 3.172 0.969
4.150 3.208 0.901
2.758 2.362 0.563
3.043 2.318 0.906
3.413 2.493 0.805
3.379 2.965 1.040
3.842 3.112 1.204
1.324 0.771 0.112
2.447 1.862 0.925
2.632 1.920 0.873
2.950 2.169 1.073
3.159 2.361 1.302
3.304 2.723 1.238
0.712 0.337 0.017
1.037 0.303 0.274
2.139 1.635 1.119
2.628 1.912 0.976
2.720 1.899 1.067
2.947 2.046 1.263
3.138 2.298 1.281
4.415 3.833 2.249
0.605 0.246 0.099
4.883 3.562 0.098
4.839 3.792 0.274
4.521 3.015 -0.056
4.678 3.186 0.316
4.537 3.335 0.279
4.883 3.585 0.298
3.643 2.725 0.285
3.949 2.757 0.181
4.247 3.128 0.438
4.330 3.210 0.361
4.503 3.354 0.465
4.874 3.546 0.642
3.344 2.279 0.299
3.729 2.304 0.472
3.762 2.879 0.658
3.948 3.077 0.706
4.501 3.036 0.546
4.610 3.123 0.701
3.322 2.219 0.517
3.425 2.472 0.823
3.967 2.741 0.955
3.893 2.789 0.853
4.023 2.863 1.020
4.405 3.111 0.999
1.901 0.823 0.197
3.215 1.789 0.791
3.380 2.200 0.735
3.416 2.257 0.849
3.697 2.738 0.968
3.757 2.890 1.218
4.062 3.123 1.461
1.358 0.637 0.090
1.837 0.585 0.041
3.149 1.993 1.154
3.117 2.099 1.121
3.559 2.401 1.402
3.614 2.517 1.167
3.770 2.564 1.647
1.346 0.227 0.087
2.703 1.650 1.236
3.042 2.008 1.501
3.384 2.063 1.315
4.441 2.872 0.221
4.690 3.006 0.392
4.828 3.121 0.435
4.132 2.163 0.276
4.406 2.461 0.274
4.626 2.602 0.518
4.804 2.774 0.501
4.897 2.968 0.672
3.666 2.051 0.388
3.872 2.151 0.581
4.183 2.511 0.600
4.300 2.472 0.815
4.538 2.719 0.788
4.864 3.246 0.947
3.425 1.842 0.444
3.818 2.096 0.813
4.162 2.356 0.706
4.099 2.620 0.734
4.417 2.973 0.866
4.511 3.082 1.165
2.262 0.604 0.048
2.399 0.769 0.286
3.497 1.802 0.823
3.807 2.088 1.061
3.697 2.389 0.922
4.274 2.336 1.320
4.232 2.644 1.499
4.638 2.738 1.588
1.568 -0.068 -0.089
1.710 0.345 0.110
2.100 0.243 0.230
2.198 0.663 0.338
3.530 1.690 0.998
3.627 2.090 1.228
3.790 2.071 1.206
4.119 2.302 1.447
4.111 2.787 1.665
4.686 2.658 0.237
5.142 2.967 0.296
4.019 2.014 0.198
4.204 2.134 0.072
4.526 2.284 0.297
4.712 2.500 0.560
4.707 2.579 0.645
5.148 2.974 0.599
3.864 1.953 0.221
4.063 1.975 0.248
4.325 2.297 0.698
4.331 2.553 0.837
4.845 2.708 0.785
4.758 2.820 0.853
3.711 1.575 0.586
3.853 1.805 0.517
4.093 2.007 0.788
4.616 2.497 0.902
4.691 2.525 0.967
4.626 2.961 1.036
2.531 0.644 0.310
2.522 0.636 0.312
3.538 1.717 0.839
3.834 1.817 0.840
4.291 1.916 1.123
4.394 2.451 1.095
4.434 2.641 1.462
4.660 2.842 1.691
2.308 0.221 0.295
2.328 0.377 0.287
2.611 0.693 0.533
3.595 1.920 1.244
4.010 2.203 1.613
4.245 2.157 1.612
4.346 2.613 1.535
4.427 2.769 1.679
4.915 2.112 0.111
5.057 2.329 -0.006
4.055 1.723 -0.111
4.631 2.015 0.293
4.524 1.926 0.175
4.955 2.248 0.344
4.946 2.511 0.648
3.950 1.471 0.429
4.469 1.620 0.348
4.346 2.120 0.775
4.673 2.313 0.621
4.786 2.378 0.643
5.344 2.530 1.034
4.174 1.714 0.813
4.276 1.537 0.889
4.235 1.816 1.017
4.483 2.067 0.935
4.667 2.196 0.993
5.152 2.361 1.177
2.303 0.006 0.104
2.682 0.290 0.356
2.794 0.335 0.446
2.995 0.822 0.373
4.270 1.627 0.844
4.304 2.037 1.360
4.622 2.225 1.171
4.643 2.163 1.280
5.026 2.657 1.669
5.139 2.770 1.501
2.652 0.366 0.276
2.641 0.395 0.603
2.938 0.457 0.522
4.232 1.755 1.401
4.395 1.878 1.618
4.470 2.332 1.684
4.903 2.299 1.971
4.974 2.693 1.824
2.630 0.290 0.916
2.814 0.417 0.647
2.748 0.635 1.007
4.388 2.109 2.183
4.503 2.536 2.165
4.941 2.524 2.150
6.307 3.177 0.159
6.212 2.991 0.572
4.906 1.729 0.209
4.492 1.231 0.198
4.573 1.772 0.242
5.015 1.961 0.156
5.168 1.872 0.461
4.286 1.325 0.510
4.376 1.680 0.438
4.908 1.647 0.622
4.870 1.852 0.667
5.216 2.197 1.046
3.363 0.388 -0.116
4.601 1.572 0.839
4.542 1.846 0.758
4.879 1.980 1.114
4.930 2.251 1.131
5.158 2.124 1.376
2.972 0.174 0.313
3.186 0.491 0.637
4.528 1.647 1.331
4.697 1.834 1.185
4.839 1.929 1.402
5.182 2.305 1.372
5.276 2.394 1.815
2.884 0.280 0.478
3.238 0.540 0.641
3.387 0.721 0.762
4.654 1.804 1.705
4.728 1.788 1.716
5.091 2.098 1.874
5.148 2.328 1.885
5.307 2.502 2.002
2.853 0.164 0.875
3.257 0.200 0.896
3.449 0.632 1.051
3.425 0.733 1.430
4.651 1.894 2.040
5.016 2.017 2.161
5.126 2.374 2.387
5.422 2.586 2.187
6.100 2.551 0.316
6.141 2.648 0.896
4.505 1.095 0.206
4.983 1.365 0.291
3.411 0.205 0.544
5.051 1.662 1.505
5.374 1.920 1.515
5.622 2.100 1.782
3.394 0.214 0.794
3.739 0.204 0.808
3.843 0.449 0.812
5.004 1.612 1.864
5.434 1.759 1.973
5.594 1.978 2.123
5.487 2.451 1.988
3.442 -0.014 1.137
3.660 0.250 0.990
3.653 0.277 1.363
3.843 0.640 1.479
4.846 1.551 2.213
5.081 1.774 1.983
5.137 1.902 2.424
5.400 2.374 2.543
5.943 2.137 0.324
6.119 2.303 0.795
3.872 -0.104 0.908
4.128 0.389 0.986
4.301 0.498 1.098
5.310 1.784 2.015
5.640 1.818 2.219
6.012 2.181 2.194
3.514 0.212 1.080
4.091 0.200 1.253
4.143 0.633 1.445
4.254 0.642 1.600
5.235 1.800 2.318
5.401 1.983 2.461
5.850 1.989 2.476
6.333 1.958 0.422
4.236 -0.053 1.032
4.249 0.199 1.062
4.473 0.631 1.352
5.782 1.704 1.936
6.176 1.815 2.246
4.166 -0.089 1.480
4.522 0.347 1.325
4.375 0.352 1.650
5.425 1.471 2.063
5.675 1.638 2.232
6.098 1.918 2.492
6.074 1.596 0.407
5.963 1.381 0.709
4.701 0.039 0.823
4.918 0.421 0.919
4.983 0.538 1.237
4.723 0.070 1.064
4.860 0.104 1.305
5.013 0.448 1.308
6.305 1.781 2.350
4.583 0.281 1.636
4.981 0.532 1.558
6.080 1.374 2.471
6.017 1.588 2.321
6.037 0.922 0.339
5.818 0.740 0.455
6.076 1.059 0.661
5.514 0.454 0.607
5.949 0.779 0.865
6.017 0.999 0.709
6.298 1.161 0.815
5.321 0.069 0.873
5.579 0.447 1.121
5.741 0.490 1.108
5.790 0.640 1.010
6.250 1.098 1.414
5.319 -0.018 0.900
5.284 0.111 1.142
5.659 0.601 1.193
5.925 0.701 1.628
4.929 -0.115 1.295
5.245 0.037 1.693
5.619 0.231 1.635
5.144 0.191 1.968
6.333 0.347 0.409
6.070 0.106 0.370
6.224 0.318 0.319
5.873 0.152 0.752
5.838 0.289 0.713
6.312 0.420 0.946
5.633 -0.042 1.094
5.807 0.162 0.954
6.276 0.513 1.233
5.422 -0.135 1.379
5.905 0.336 1.293
6.113 0.641 1.643
6.293 0.471 1.454
5.795 0.347 1.536
5.930 0.377 1.690
6.376 0.279 0.079
6.300 0.156 0.605
6.424 0.147 0.857
6.201 0.082 0.948
6.206 -0.138 1.328
6.247 0.421 1.458
6.022 0.063 1.820
4.684 4.118 0.048
4.708 4.551 0.004
3.962 3.643 0.140
4.188 3.872 0.183
4.478 4.183 0.340
4.766 4.172 0.686
4.066 3.662 0.567
4.129 3.810 0.650
4.455 4.019 0.784
2.466 2.411 0.580
2.989 2.579 0.599
2.977 2.864 1.083
2.235 1.818 0.638
2.177 2.026 0.923
2.441 2.145 0.900
2.540 2.593 1.148
3.099 2.674 1.208
3.994 4.062 2.115
0.461 0.551 -0.046
0.798 0.567 0.037
1.968 1.488 0.808
1.814 1.734 0.951
2.146 2.178 1.076
2.257 2.157 1.318
2.724 2.579 1.174
2.937 2.677 1.597
3.993 3.880 2.151
4.061 3.954 2.107
0.797 0.402 -0.099
4.681 4.092 0.248
4.934 4.288 0.188
3.999 3.367 0.111
4.216 3.537 0.205
4.676 3.761 0.433
4.612 3.975 0.240
4.915 4.011 0.327
3.981 3.129 0.284
4.174 3.184 0.216
4.224 3.263 0.478
4.286 3.670 0.722
4.786 3.961 0.485
3.660 2.542 0.540
3.562 3.010 0.558
3.698 3.088 0.742
4.003 3.522 0.838
4.162 3.729 0.737
3.249 2.279 0.622
3.216 2.618 0.444
3.376 2.891 0.624
3.570 3.027 0.970
4.145 3.143 0.894
2.820 2.088 0.764
2.940 2.295 0.642
3.279 2.725 0.745
3.641 2.629 1.190
3.831 3.186 1.077
1.190 0.817 0.270
2.625 1.941 1.014
2.654 1.935 0.838
3.133 2.385 1.184
3.050 2.346 1.034
3.544 2.920 1.214
0.782 0.290 -0.047
1.120 0.518 0.377
2.036 1.617 1.084
2.310 1.837 1.303
2.729 1.983 1.308
2.794 2.056 1.193
3.002 2.580 1.280
4.223 3.585 2.063
0.905 0.016 0.119
5.678 4.897 0.186
5.946 5.017 0.154
5.268 4.420 -0.070
5.538 4.480 0.111
5.376 4.184 0.448
6.229 5.342 1.369
5.646 5.018 1.633
5.859 5.436 1.619
6.125 5.401 1.545
5.690 4.897 1.587
5.640 4.975 1.757
5.784 5.313 1.744
6.305 5.365 1.859
5.374 4.577 1.683
5.409 4.591 1.831
5.541 4.883 1.921
5.802 5.007 2.199
5.958 5.405 2.367
5.354 4.577 1.880
4.964 4.389 1.971
5.342 4.828 2.163
5.372 4.917 2.365
5.553 4.873 2.257
4.952 4.323 2.046
5.121 4.608 2.191
5.005 4.412 2.338
5.048 4.430 2.481
5.574 4.660 2.696
4.439 4.099 2.217
4.665 3.993 2.326
4.794 4.213 2.466
5.013 4.373 2.740
5.214 4.325 2.784
6.191 5.924 3.556
4.330 3.692 2.504
4.636 4.204 2.302
4.801 4.205 2.810
6.331 4.729 1.335
5.837 4.778 1.155
5.940 4.871 1.256
6.399 4.946 1.476
5.598 4.439 1.547
5.867 4.399 1.635
5.839 4.921 1.752
6.260 4.888 1.697
5.346 4.298 1.601
5.247 4.429 1.853
5.462 4.310 1.790
5.917 4.669 2.053
5.856 4.972 2.012
6.302 5.192 2.390
5.468 4.249 1.857
5.175 4.180 2.011
5.520 4.327 2.391
5.703 4.708 2.177
6.075 4.669 2.431
6.053 4.967 2.515
5.026 4.055 1.853
5.149 4.362 2.067
5.070 3.980 2.157
5.403 4.349 2.407
5.568 4.399 2.655
5.605 4.554 2.894
5.160 3.763 2.365
5.335 4.064 2.274
4.937 4.127 2.487
5.253 4.173 2.666
4.985 4.015 2.471
5.196 3.872 2.609
6.001 4.398 1.132
5.963 4.296 1.194
5.933 4.481 1.302
6.050 4.447 1.397
5.639 4.060 1.342
5.919 4.107 1.544
5.801 4.326 1.565
6.210 4.495 1.652
5.680 3.978 1.374
5.709 3.987 1.915
6.012 4.254 1.848
5.952 4.424 2.256
6.245 4.769 2.275
5.624 4.030 1.768
5.664 3.982 1.927
5.682 4.169 2.254
6.033 4.526 2.160
6.287 4.708 2.349
5.581 4.098 2.192
5.432 3.824 2.302
5.421 4.161 2.707
5.613 4.123 2.501
6.053 4.588 2.657
6.044 4.826 2.772
5.508 3.850 2.493
6.353 4.100 0.798
6.029 3.848 1.126
5.855 4.011 1.184
6.139 4.289 1.232
5.856 3.908 1.118
5.927 3.916 1.375
6.184 4.183 1.703
6.097 4.022 1.648
6.003 3.977 1.778
6.041 4.020 2.010
6.425 4.404 2.123
5.927 3.678 1.906
5.697 3.708 2.162
5.965 4.121 2.282
6.005 4.205 2.336
5.860 3.558 1.992
5.816 3.740 2.507
5.931 4.049 2.461
6.034 4.432 2.977
6.091 3.703 0.851
6.343 3.907 1.375
6.066 3.519 1.030
6.427 3.832 1.240
6.052 3.767 1.781
6.271 3.595 1.571
6.119 3.372 2.013
6.408 3.960 1.823
6.202 3.719 1.841
6.002 3.749 2.273
6.119 4.052 2.814
6.141 2.988 0.804
6.268 3.374 1.189
5.600 2.847 2.596
5.955 2.678 2.452
5.673 2.570 2.720
6.124 2.593 2.862
6.040 2.514 2.350
6.421 2.543 2.480
5.742 2.438 2.669
6.025 2.678 2.508
6.164 1.919 2.162
6.037 2.127 2.652
5.663 5.005 0.075
5.594 4.906 0.079
5.482 4.841 0.144
5.030 4.825 0.053
5.264 4.778 0.150
5.447 4.982 0.100
6.415 5.656 0.928
4.966 4.691 0.170
5.325 4.812 0.422
6.072 5.738 1.295
4.770 4.657 0.813
5.824 5.812 1.751
6.366 5.691 1.649
4.734 4.459 1.988
4.906 4.715 2.304
4.515 4.578 2.003
4.814 4.640 2.054
4.770 4.462 2.467
4.870 4.638 2.524
6.084 6.219 3.360
4.483 4.067 1.932
4.682 4.183 1.998
4.747 4.477 2.416
4.511 4.559 2.568
4.972 4.580 2.809
5.980 5.605 3.383
5.982 6.134 3.334
6.084 6.073 3.546
4.405 4.266 2.322
4.594 4.421 2.582
4.821 4.394 2.539
6.024 4.696 0.137
5.930 4.947 0.178
5.478 4.516 0.005
5.721 4.506 0.162
5.373 4.471 0.232
6.072 5.335 1.088
5.761 5.224 1.403
5.894 5.156 1.428
6.121 5.343 1.592
5.453 4.629 1.765
5.770 4.777 1.546
5.912 5.323 1.854
5.995 5.313 1.984
5.178 4.660 1.859
5.343 4.812 1.945
5.751 5.050 1.973
5.595 5.290 1.995
5.823 5.402 2.436
5.360 4.591 1.690
5.018 4.614 2.165
5.209 4.616 2.232
5.461 4.999 2.450
5.558 5.046 2.223
4.976 4.229 2.098
4.924 4.274 1.866
5.001 4.263 2.196
5.125 4.432 2.338
5.427 4.805 2.525
4.484 4.110 1.996
4.762 4.123 2.377
4.883 4.167 2.467
5.010 4.171 2.558
4.880 4.360 2.803
6.137 5.606 3.296
4.588 3.747 2.516
4.812 3.931 2.650
4.774 4.480 2.776
0.321 6.153 3.963
0.115 6.235 4.061
0.119 6.243 4.691
0.169 6.085 5.014
0.813 6.386 2.889
-0.043 5.838 4.106
0.097 6.041 4.404
0.629 6.075 4.404
0.135 5.787 4.504
0.237 5.961 4.783
-0.144 5.892 4.925
0.316 6.061 4.853
0.112 5.737 5.325
0.190 5.631 5.461
1.092 6.054 1.903
0.790 6.138 2.116
0.643 6.074 2.462
1.035 6.437 2.541
0.988 6.065 2.855
0.668 5.937 2.937
0.967 5.926 3.065
1.170 6.030 2.877
0.621 5.675 4.349
0.566 5.723 4.474
0.359 5.375 4.469
0.560 5.598 4.419
0.724 5.844 4.732
0.254 5.324 4.846
0.360 5.481 4.821
0.343 5.747 4.882
0.301 5.312 5.120
0.414 5.668 5.122
0.244 5.221 5.615
0.218 5.585 5.514
0.151 5.690 5.876
-0.014 4.952 1.117
1.152 5.746 1.723
1.445 6.084 1.828
-0.073 4.724 1.611
0.949 5.892 2.013
1.336 5.971 2.374
0.766 5.651 2.450
0.961 5.855 2.625
1.532 6.273 2.822
0.858 5.860 2.699
1.028 6.012 3.068
1.147 6.070 3.191
1.052 5.267 2.853
0.942 5.662 2.622
1.443 5.574 2.887
1.472 6.057 3.008
0.836 5.430 3.070
1.025 5.541 3.173
1.306 5.617 3.350
1.000 5.436 4.587
0.579 5.212 4.814
0.971 5.719 4.651
0.189 5.009 4.646
0.356 5.338 5.043
0.755 5.648 5.006
0.092 5.032 5.121
0.514 5.372 5.418
0.699 5.267 5.281
-0.017 4.746 5.411
0.099 5.310 5.700
0.600 5.296 5.752
0.344 5.229 5.824
0.253 5.286 5.750
0.046 5.167 6.005
0.021 4.536 1.014
0.247 4.857 1.310
1.408 5.810 1.814
1.671 5.834 2.172
1.598 6.169 2.099
0.003 4.509 1.597
0.369 4.589 1.468
1.212 5.562 2.366
1.535 5.687 2.472
1.768 6.264 2.538
1.053 5.557 2.454
1.273 5.528 2.702
1.403 5.772 2.772
1.544 6.146 2.723
0.690 5.319 2.545
1.185 5.337 2.634
1.305 5.833 2.931
1.458 5.814 3.162
1.058 5.024 2.629
1.111 5.219 2.711
1.132 5.094 2.749
1.279 5.551 2.842
1.525 5.643 2.896
0.494 4.496 2.706
0.823 4.994 2.659
1.061 5.067 2.953
1.168 5.268 3.273
1.531 5.475 3.163
0.074 4.458 2.839
0.300 4.525 2.964
0.486 4.700 3.205
0.932 5.141 3.155
1.202 5.358 3.598
0.039 4.121 3.097
0.173 4.678 3.491
0.624 4.715 3.538
0.659 5.026 3.612
-0.151 4.340 3.383
0.067 4.572 3.452
0.319 4.727 3.782
0.187 4.164 3.840
1.057 5.510 4.607
0.640 4.961 5.053
0.987 5.083 5.017
0.191 4.930 5.311
0.628 4.806 5.274
0.750 5.146 5.384
0.158 4.407 5.202
0.296 4.765 5.557
0.484 4.735 5.705
0.805 5.239 5.732
0.311 4.441 5.586
0.487 4.693 5.670
0.609 4.878 6.041
0.049 4.747 6.090
0.079 4.864 6.046
0.072 4.239 0.917
0.253 4.201 1.106
0.491 4.636 1.246
1.644 5.681 2.296
2.169 5.802 2.054
0.014 4.046 1.178
0.450 4.268 1.491
1.521 5.589 2.220
1.819 5.429 2.488
1.944 6.034 2.631
1.284 5.357 2.383
1.323 5.229 2.442
1.451 5.548 2.528
1.722 5.599 2.687
0.911 4.880 2.714
1.020 5.227 2.568
1.387 5.395 2.912
1.525 5.311 2.814
1.600 5.564 3.269
0.678 4.345 2.559
1.251 4.737 2.416
1.418 4.821 2.657
1.687 5.174 2.806
1.721 5.283 2.856
0.408 4.188 2.841
0.911 4.513 2.683
0.842 4.753 2.922
1.294 4.882 3.060
1.481 5.001 2.968
1.747 5.283 3.144
0.189 3.747 2.891
0.408 3.967 3.100
0.779 4.303 2.975
0.654 4.472 3.363
0.895 4.608 3.172
1.163 5.083 3.433
0.164 3.854 3.078
0.183 4.140 3.313
0.457 4.152 3.438
0.851 4.421 3.594
0.982 4.475 3.441
1.204 4.773 3.716
-0.118 3.679 3.500
0.262 4.101 3.689
0.318 4.306 3.656
0.458 4.538 3.804
0.759 4.521 3.866
0.218 3.998 3.681
0.482 4.063 3.747
0.351 4.402 4.075
0.048 3.975 4.048
0.266 4.432 5.296
0.307 4.531 5.500
0.523 4.563 5.586
0.030 4.276 5.399
0.276 4.526 5.548
0.655 4.422 5.861
-0.085 4.056 5.807
0.380 4.196 5.929
0.271 4.370 6.193
1.235 4.847 2.584
1.549 5.039 2.685
1.848 5.509 2.647
0.870 4.644 2.672
1.129 4.628 2.602
1.185 4.836 2.530
1.558 5.012 2.806
1.889 5.214 2.976
0.955 3.929 2.354
1.009 4.286 2.636
1.142 4.446 2.566
1.333 4.516 2.855
1.515 4.660 3.067
0.623 3.648 2.459
0.705 4.011 2.870
1.144 4.033 3.002
0.988 4.205 2.901
1.370 4.445 3.107
1.755 4.924 3.108
0.575 3.597 2.991
0.762 3.732 2.755
0.665 3.963 3.012
0.955 4.186 3.240
1.205 4.355 3.515
1.326 4.823 3.651
0.305 3.756 3.146
0.441 3.994 3.283
0.834 4.068 3.192
0.836 4.109 3.618
1.091 4.532 3.460
1.385 4.442 3.716
0.133 3.557 3.518
0.533 3.805 3.468
0.797 3.926 3.788
0.782 4.361 3.855
1.220 4.429 3.870
1.299 4.472 4.008
0.150 3.591 3.727
0.352 3.538 3.931
0.428 3.856 3.979
0.694 4.009 4.008
0.925 4.115 4.092
0.154 3.753 5.466
0.496 3.935 5.589
0.522 4.282 5.618
0.210 3.643 5.952
0.322 3.893 5.866
0.434 4.136 5.975
0.162 3.921 6.054
0.764 4.208 2.535
1.198 4.351 2.668
1.157 4.492 2.547
1.651 4.650 2.629
1.531 5.027 2.999
0.960 3.447 2.087
1.246 3.755 2.568
1.429 3.825 2.675
1.654 4.184 2.841
1.610 4.482 2.765
0.666 3.520 2.461
0.996 3.659 2.856
1.357 3.979 2.772
1.331 4.206 3.108
1.397 4.478 3.159
1.694 4.586 3.111
0.700 3.581 2.777
0.699 3.477 2.883
1.232 3.835 3.183
1.127 3.863 3.390
1.318 4.266 3.412
1.826 4.633 3.494
0.548 3.313 3.192
0.877 3.496 3.229
1.124 3.797 3.595
1.220 4.064 3.437
1.238 4.084 3.730
1.651 4.388 3.881
0.605 3.162 3.468
0.818 3.535 3.494
0.927 3.785 3.588
1.158 3.757 3.830
1.095 4.095 4.102
1.459 4.277 4.143
0.487 3.610 3.904
0.611 3.477 4.123
0.890 3.981 4.210
1.295 4.232 4.174
1.380 4.395 4.289
0.004 3.185 5.511
0.350 3.658 5.620
0.472 3.629 5.537
0.279 3.306 5.850
0.299 3.671 5.809
0.331 3.820 5.894
0.718 3.800 5.910
0.247 3.328 6.115
0.259 3.604 6.245
1.049 3.615 2.282
1.147 3.788 2.284
1.304 3.971 2.644
1.508 4.155 2.713
1.637 4.310 2.659
0.865 3.158 2.206
1.116 3.222 2.175
1.404 3.379 2.353
1.707 3.601 2.575
1.640 4.109 2.758
0.662 3.076 2.436
0.866 3.412 2.467
1.112 3.375 2.808
1.397 3.538 2.753
1.630 3.747 3.004
1.751 4.083 3.281
0.861 3.078 2.869
0.981 3.484 2.898
1.182 3.747 2.993
1.297 3.657 3.235
1.638 4.123 3.526
1.955 4.349 3.547
0.919 3.338 3.168
0.896 3.471 3.365
1.108 3.709 3.258
1.188 3.814 3.606
1.484 3.989 3.682
1.783 4.021 3.767
1.028 3.101 3.761
1.017 3.615 3.543
1.072 3.560 3.967
1.622 4.111 4.131
1.843 4.150 4.041
1.895 4.292 4.097
1.035 3.432 3.912
1.222 3.793 4.049
1.469 3.933 4.278
1.567 4.113 4.429
1.803 4.174 4.521
1.387 3.755 4.495
1.618 3.861 4.649
1.856 4.218 4.687
-0.056 2.589 5.043
0.473 2.968 4.920
-0.112 2.758 5.098
0.203 2.701 5.275
0.247 2.980 5.580
0.512 3.381 5.742
0.122 2.692 5.483
0.261 2.996 5.802
0.574 3.126 5.987
0.594 3.468 5.982
0.244 3.016 6.000
0.451 3.200 6.036
0.466 3.499 6.259
0.997 3.410 2.057
1.070 3.385 2.134
1.253 3.751 2.216
0.901 2.969 2.290
1.261 3.395 2.297
1.111 3.655 2.249
1.509 3.685 2.468
1.685 3.865 2.752
0.853 2.614 1.898
1.166 3.106 2.105
1.466 2.993 2.533
1.539 3.500 2.674
1.868 3.587 2.740
1.149 3.002 2.350
1.020 3.176 2.500
1.222 3.063 2.701
1.485 3.445 2.988
1.961 3.588 2.857
1.014 2.946 2.853
1.190 3.241 3.158
1.351 3.240 3.091
1.707 3.662 3.281
2.011 3.691 3.372
1.047 3.078 3.479
1.460 3.422 3.282
1.761 3.627 3.520
1.602 3.761 3.536
2.060 4.102 3.654
-0.117 2.182 2.880
1.337 3.165 3.708
1.438 3.488 3.852
1.864 3.552 3.804
1.692 3.802 3.973
2.051 3.937 4.163
0.360 2.374 3.447
1.374 3.252 4.262
1.639 3.743 4.321
1.918 3.984 4.498
1.790 4.047 4.553
2.030 4.236 4.458
-0.049 2.025 3.831
0.230 2.226 3.762
1.674 3.412 4.666
1.808 3.626 4.822
2.046 4.152 4.650
1.911 4.236 4.963
0.287 2.223 4.301
0.387 2.354 4.324
1.421 3.580 5.187
1.778 3.866 5.000
1.885 4.126 5.134
0.038 2.298 4.263
0.037 2.548 4.389
0.301 2.757 4.446
1.574 3.697 5.318
1.716 4.076 5.647
0.017 2.260 4.921
0.151 2.735 5.097
0.584 2.558 5.248
1.620 3.930 5.861
0.129 2.436 4.996
0.018 2.317 5.040
0.359 2.497 5.299
0.511 3.021 5.469
0.194 2.593 5.359
0.418 2.523 5.820
0.689 3.008 5.778
0.609 2.943 5.747
0.251 2.390 6.037
0.522 2.679 6.066
0.709 2.860 6.080
0.003 2.596 6.128
0.715 2.462 0.785
0.912 2.521 1.015
0.912 2.736 1.048
1.399 2.907 1.304
1.648 3.132 1.291
2.793 4.428 2.003
2.682 4.421 2.192
2.912 4.868 2.282
0.562 2.446 1.482
0.938 2.712 1.395
0.960 2.932 1.326
1.434 3.226 1.685
1.727 3.333 1.910
2.598 4.539 2.499
2.960 4.869 2.860
0.676 2.659 1.850
1.211 2.662 1.662
1.085 3.055 1.893
1.238 3.018 2.034
1.462 3.351 2.053
2.928 4.818 2.996
0.776 2.554 2.275
1.212 2.757 2.384
1.252 3.289 2.557
1.528 3.511 2.490
1.839 3.513 2.739
0.901 2.117 1.831
0.945 2.361 1.960
1.470 2.626 2.229
1.514 2.756 2.444
1.575 3.004 2.524
2.798 4.219 3.429
1.310 2.608 2.527
1.299 2.689 2.771
1.584 3.171 2.610
0.132 1.541 3.088
0.380 1.838 2.879
1.771 3.580 3.859
2.141 3.687 3.966
2.390 3.694 4.434
0.127 1.555 3.187
0.209 1.963 3.642
0.721 2.242 3.613
1.682 3.294 4.290
2.034 3.490 4.430
2.303 3.616 4.435
2.523 3.965 4.596
0.181 1.853 3.579
0.205 1.829 3.569
0.355 1.926 3.867
0.673 2.271 4.057
1.602 3.517 4.652
2.085 3.599 4.825
2.115 3.886 4.892
2.476 3.860 5.030
0.071 1.721 3.850
0.365 2.177 3.971
0.630 2.054 4.132
0.742 2.358 4.198
1.926 3.308 4.850
1.963 3.555 5.011
2.276 3.786 5.316
-0.060 1.730 4.384
0.099 2.119 4.489
0.410 2.206 4.617
0.688 2.287 4.562
1.545 3.507 5.485
1.782 3.470 5.511
2.252 3.973 5.529
0.293 2.028 4.818
0.509 2.235 4.755
0.605 2.178 4.918
0.830 2.331 4.981
1.840 3.567 5.667
2.115 3.803 5.769
0.038 1.992 4.890
0.248 2.152 5.041
0.224 2.318 5.320
0.793 2.555 5.548
1.804 3.562 6.279
0.288 1.926 5.413
0.516 2.345 5.541
0.539 2.322 5.516
0.939 2.140 0.930
0.901 2.345 1.069
1.100 2.471 0.992
1.623 2.508 1.189
1.740 2.946 1.203
1.822 3.297 1.388
2.759 4.205 2.130
3.248 4.302 2.224
3.451 4.664 2.529
0.621 2.016 1.358
1.076 2.178 1.387
1.303 2.368 1.580
1.178 2.583 1.755
1.513 3.025 1.535
1.571 3.218 1.932
2.801 4.111 2.538
2.952 4.070 2.758
2.994 4.262 2.617
0.654 2.211 1.528
0.890 2.509 1.652
1.041 2.542 2.038
1.246 2.771 1.887
1.575 2.900 1.968
1.902 2.976 2.240
2.984 4.201 2.997
2.912 4.391 2.861
0.810 2.152 1.860
1.211 2.621 2.021
1.292 2.793 2.107
1.737 2.988 2.268
1.664 2.935 2.555
3.120 4.327 3.438
1.085 1.997 1.903
1.205 2.111 1.956
1.191 2.300 2.123
1.470 2.661 2.408
1.794 2.852 2.439
2.950 3.863 2.973
3.089 4.189 3.108
0.030 1.390 3.383
0.492 1.542 3.430
0.753 1.650 3.361
0.938 2.052 3.770
1.092 2.269 3.803
2.274 3.522 4.422
2.467 3.588 4.464
2.564 3.855 4.754
-0.064 1.068 3.380
0.154 1.591 3.577
0.442 1.833 3.794
0.682 1.736 3.839
0.879 2.122 4.060
1.052 2.395 4.280
2.119 3.361 4.715
2.194 3.516 4.848
2.531 3.859 5.186
-0.027 1.205 4.096
0.514 1.620 4.220
0.422 1.657 4.347
0.721 1.976 4.280
1.157 2.337 4.282
2.180 3.279 5.212
2.165 3.572 5.112
2.348 3.696 5.406
0.205 1.348 4.140
0.459 1.370 4.214
0.406 1.531 4.574
0.519 1.780 4.423
0.898 2.064 4.659
2.001 2.967 5.320
1.975 3.258 5.315
2.283 3.719 5.645
-0.056 1.263 4.794
0.211 1.603 4.777
0.698 1.938 4.802
0.684 2.281 4.886
1.823 2.993 5.748
1.920 3.493 5.935
2.307 3.325 5.885
0.032 1.385 5.058
0.281 1.719 5.035
0.640 1.869 4.976
0.748 2.084 5.289
1.805 3.242 6.032
2.027 3.425 5.973
0.242 0.633 0.098
1.012 2.029 0.821
1.281 2.077 0.912
1.467 2.156 1.153
1.615 2.405 1.181
2.028 2.656 1.328
1.958 2.963 1.440
2.999 3.894 2.035
3.353 3.952 2.254
3.552 4.490 2.422
-0.038 0.941 0.147
1.086 1.745 1.146
1.176 2.059 1.402
1.315 2.174 1.553
1.483 2.279 1.459
1.573 2.469 1.636
1.821 2.768 1.732
3.078 3.943 2.432
3.177 4.142 2.613
3.474 4.146 2.918
0.997 1.719 1.299
1.157 1.821 1.447
1.424 2.074 1.822
1.480 2.351 2.051
1.546 2.375 2.175
1.886 2.633 1.953
2.917 3.642 2.801
2.872 4.031 2.873
3.074 4.327 2.819
1.092 1.884 2.025
1.014 1.905 2.143
1.374 2.372 2.050
1.560 2.310 2.218
1.858 2.792 2.404
2.845 3.709 3.105
3.164 4.211 3.421
0.862 1.524 1.737
1.212 1.705 1.825
1.546 1.713 1.874
1.630 2.042 2.208
1.584 2.281 2.501
2.966 3.512 2.986
3.270 3.823 3.130
3.546 3.758 3.232
0.599 1.191 3.423
0.744 1.680 3.688
0.936 1.811 3.727
1.233 1.722 3.775
1.254 2.072 3.677
2.746 3.200 4.760
3.017 3.662 4.567
0.136 0.824 3.368
0.596 1.164 3.515
0.544 1.427 3.798
0.759 1.443 3.884
1.117 1.833 4.017
1.340 1.973 4.104
2.163 2.958 4.980
2.535 3.174 5.028
2.833 3.364 5.163
0.314 0.947 3.981
0.579 1.237 3.867
0.642 1.474 4.271
0.900 1.406 4.050
1.020 1.873 4.287
1.010 1.803 4.300
2.315 2.866 4.898
2.352 3.142 5.124
2.450 3.220 5.285
0.076 0.702 4.173
0.426 1.259 4.418
0.602 1.208 4.157
0.843 1.554 4.362
1.074 1.775 4.635
1.157 1.789 4.705
2.276 3.113 5.544
2.204 2.995 5.439
2.541 3.542 5.650
0.121 0.896 4.458
0.420 1.196 4.640
0.637 1.614 4.897
0.763 1.666 5.075
1.132 1.704 4.860
2.028 2.922 5.806
2.276 3.060 5.843
2.429 3.083 6.061
-0.005 1.120 4.852
0.138 1.339 5.036
0.601 1.514 4.891
0.447 1.555 5.377
1.746 2.731 5.866
2.004 3.047 6.207
2.442 3.031 6.031
0.106 0.482 0.230
1.270 1.775 0.843
1.403 1.998 1.190
1.800 1.960 1.209
1.722 2.303 1.405
2.105 2.551 1.347
2.296 2.720 1.411
3.240 3.845 2.392
3.693 3.767 2.486
3.774 4.194 2.399
0.253 0.429 0.084
0.280 0.420 0.395
0.365 0.477 0.701
1.162 1.607 1.356
1.197 1.732 1.415
1.508 2.148 1.549
1.974 2.114 1.618
2.182 2.190 1.562
2.154 2.368 1.855
3.238 3.762 2.490
3.277 3.978 2.490
3.421 4.061 2.845
0.063 0.409 0.763
0.215 0.553 0.825
1.086 1.482 1.481
1.328 1.656 1.615
1.522 1.924 1.666
1.620 2.057 1.770
1.954 2.236 1.856
2.008 2.386 2.111
2.925 3.395 2.596
3.307 3.697 2.963
3.633 3.892 2.864
0.059 0.437 0.779
1.103 1.354 1.803
1.098 1.668 1.892
1.386 1.924 1.903
1.505 2.119 2.110
1.725 2.373 2.177
2.847 3.601 3.207
3.218 3.749 3.377
3.241 3.842 3.264
-0.100 6.034 5.694
0.838 6.088 4.731
0.739 6.087 4.738
0.327 6.055 4.951
0.420 6.016 5.597
0.453 6.370 5.715
0.208 6.129 5.825
0.551 6.386 5.883
0.157 6.114 5.959
0.412 6.185 5.988
0.943 5.931 4.672
0.994 6.332 4.511
0.957 6.129 5.017
0.896 6.241 5.136
0.808 5.998 5.339
0.725 6.177 5.134
0.998 6.247 5.527
0.690 5.816 5.232
0.615 5.872 5.537
0.816 6.170 5.726
0.953 6.094 5.795
0.429 5.931 5.546
0.697 6.071 5.768
0.916 6.369 5.878
0.351 5.772 5.914
0.578 5.720 6.048
1.471 6.149 3.030
1.498 5.928 4.259
1.697 6.224 4.774
1.095 5.893 4.659
1.120 6.120 4.527
1.436 6.014 4.996
1.290 6.136 5.125
1.172 5.748 5.021
1.271 6.025 5.160
1.516 6.103 4.982
1.330 6.245 5.237
1.091 5.687 5.313
1.035 6.028 5.157
1.300 5.941 5.488
1.158 6.096 5.793
0.581 5.539 5.285
0.979 5.867 5.438
1.061 5.978 5.615
0.495 5.456 5.651
0.914 5.717 6.025
0.579 5.520 5.951
1.792 6.330 2.449
1.678 6.337 2.906
1.765 6.242 3.176
1.898 6.107 4.113
1.887 6.048 4.171
1.637 6.153 4.435
1.927 6.399 4.631
1.499 6.011 4.388
1.769 6.137 4.748
1.822 5.804 4.715
1.940 6.310 5.174
1.242 5.378 4.577
1.666 5.670 4.894
1.864 6.119 4.972
1.623 5.765 5.276
1.892 6.049 5.268
1.317 5.343 4.773
1.493 5.580 5.147
1.634 6.011 5.139
1.311 5.695 5.303
1.208 5.614 5.371
1.142 5.542 5.164
1.470 6.027 5.584
0.993 5.283 5.677
1.200 5.467 5.657
0.681 5.493 5.804
2.334 5.937 2.283
2.119 5.892 2.771
2.243 6.118 2.882
2.002 6.008 3.107
2.556 6.292 3.781
2.105 5.866 4.143
2.615 6.084 4.295
2.209 6.114 4.100
2.058 6.095 4.477
2.258 6.301 4.636
2.364 5.941 4.411
2.256 5.996 4.742
2.144 6.179 4.844
2.347 6.194 4.929
1.806 5.778 4.541
2.136 5.751 4.679
1.807 5.715 4.897
2.023 5.887 5.047
2.216 6.074 5.213
1.755 5.547 4.591
1.951 5.825 4.741
1.977 5.593 5.298
1.859 5.898 5.204
1.821 5.484 4.940
1.672 5.824 5.244
2.740 6.191 3.820
3.162 6.404 3.637
2.766 5.770 3.632
2.999 5.958 4.074
3.051 6.338 4.211
2.787 5.679 3.887
2.368 5.827 4.250
2.714 5.819 4.081
2.879 6.082 4.395
2.362 5.864 4.008
2.394 5.774 4.460
2.694 5.827 4.562
2.896 6.138 4.822
3.066 6.085 4.657
2.480 5.623 4.456
2.070 5.514 4.844
2.564 5.683 4.809
2.693 6.211 4.800
3.033 6.216 4.889
2.171 5.794 4.799
2.052 5.503 5.074
2.524 5.919 5.030
2.676 5.821 5.337
2.651 5.980 5.365
2.158 5.425 4.993
2.736 5.969 3.468
2.947 6.082 3.793
3.128 5.786 3.608
3.120 5.808 3.594
3.174 6.066 3.733
3.579 6.060 3.764
3.117 5.720 3.656
2.689 5.643 3.915
3.022 5.700 3.972
3.352 5.904 4.049
3.356 6.334 4.200
2.776 5.577 3.794
2.799 5.639 4.282
2.787 5.585 4.337
2.976 6.035 4.266
3.423 5.939 4.309
2.781 5.416 4.280
2.460 5.292 4.315
2.772 5.462 4.467
2.999 5.928 4.496
3.319 6.169 4.879
3.493 6.283 4.828
2.743 5.625 4.422
2.307 5.427 4.502
2.661 5.684 4.765
3.001 5.607 4.815
3.275 5.929 5.028
3.299 6.106 5.373
2.680 5.399 4.554
2.686 5.478 4.959
2.735 5.871 5.352
2.926 5.780 5.218
3.060 5.933 5.388
3.004 5.471 3.745
3.217 5.658 3.783
3.149 6.245 3.878
3.616 6.173 3.811
3.056 5.565 3.547
3.110 5.371 3.780
3.528 5.751 3.668
3.503 5.692 3.814
3.873 6.199 3.926
3.031 5.214 3.277
3.290 5.416 3.646
3.130 5.364 3.782
3.139 5.386 4.039
3.590 5.627 4.077
3.834 6.147 4.214
3.928 6.070 4.428
2.806 5.045 3.665
3.186 5.164 3.700
3.086 5.265 3.982
3.198 5.478 4.102
3.430 5.679 4.217
3.500 5.892 4.518
3.658 6.080 4.736
2.731 5.470 4.016
2.638 5.211 4.478
2.969 5.513 4.645
3.011 5.529 4.505
3.498 5.852 4.862
3.697 6.141 4.751
3.898 6.173 4.943
2.773 5.384 4.624
2.950 5.171 4.816
3.023 5.612 4.780
3.369 5.786 5.046
3.519 5.976 5.040
3.501 6.114 5.341
3.128 5.538 5.290
3.126 5.813 5.221
3.200 5.775 5.521
3.436 5.927 5.583
3.211 5.787 5.679
3.545 5.893 5.775
3.870 6.267 5.930
2.047 4.737 6.077
2.409 5.078 6.090
1.837 4.529 5.915
2.098 4.930 5.965
3.330 5.326 3.249
3.563 5.870 3.453
2.934 5.069 3.119
3.210 5.556 3.329
2.940 5.496 3.734
3.194 5.578 3.601
3.441 5.928 4.022
3.833 6.196 3.831
2.733 5.386 3.427
3.113 5.564 3.370
3.450 5.323 3.418
3.742 5.276 3.543
3.613 5.413 3.789
2.741 4.645 3.506
3.259 5.082 3.280
3.259 5.215 3.533
3.297 5.099 3.902
3.368 5.232 4.199
3.709 5.695 4.204
3.998 5.753 4.340
3.047 4.817 3.725
3.199 5.158 3.976
3.167 4.863 3.988
3.361 5.105 4.327
3.582 5.555 4.324
3.614 5.605 4.630
3.980 5.899 4.517
3.229 5.096 4.304
3.417 5.173 4.407
3.463 5.426 4.730
3.614 5.597 4.956
3.634 5.825 5.119
4.108 5.864 4.913
3.298 5.295 5.141
3.573 5.683 4.964
3.676 5.907 5.188
3.990 5.774 5.422
4.173 6.088 5.540
3.369 5.347 5.288
3.576 5.499 5.504
3.603 5.885 5.539
3.946 6.281 5.880
4.057 6.199 5.951
3.464 5.533 5.840
3.812 5.873 5.900
3.707 6.068 6.112
3.896 6.311 6.180
2.390 4.420 5.124
3.511 5.712 6.112
2.365 4.276 5.334
2.488 4.594 5.309
2.419 4.609 6.000
2.099 4.125 5.778
2.123 4.258 5.810
2.373 4.542 5.798
2.537 4.395 6.155
2.021 4.299 5.895
2.251 4.367 5.880
2.494 4.765 6.049
1.930 3.922 6.138
3.408 5.097 2.639
3.395 5.119 2.445
3.742 5.114 3.046
3.325 4.948 2.582
3.355 5.083 2.945
3.506 5.118 3.203
3.501 5.055 3.137
3.819 5.621 3.646
3.187 4.767 3.166
3.301 5.046 3.370
3.372 5.253 3.324
3.289 4.994 3.739
3.540 5.190 3.713
3.726 5.663 4.003
2.740 4.896 3.197
3.075 4.908 3.315
3.184 5.227 3.752
3.372 4.812 3.788
3.928 5.277 3.686
3.096 4.488 3.240
3.266 4.660 3.458
3.714 4.906 3.660
3.316 4.683 3.782
3.706 5.130 4.200
3.393 4.551 3.680
3.368 5.033 3.807
3.968 5.668 5.136
4.310 5.735 5.369
4.166 5.862 5.378
3.996 5.369 5.386
4.048 5.618 5.491
4.112 5.772 5.731
4.296 5.871 5.851
4.455 6.280 5.878
2.547 4.247 4.897
3.580 5.292 5.810
4.074 5.532 6.126
4.149 5.937 6.103
4.243 5.819 6.253
2.303 4.149 5.151
2.871 4.492 5.235
2.761 4.300 5.802
3.946 5.337 6.122
2.427 3.939 5.466
2.713 4.480 5.337
2.785 4.653 5.630
2.608 4.292 5.728
2.207 4.157 5.813
2.379 4.326 5.866
2.654 4.268 6.121
2.687 4.383 6.107
1.980 3.903 5.973
2.336 4.137 6.128
2.721 4.399 6.318
2.028 4.001 6.364
4.024 5.120 2.937
5.068 6.329 3.367
3.474 4.727 2.569
3.827 5.048 2.804
3.732 5.279 2.858
3.620 5.142 2.886
4.882 6.072 3.514
3.535 4.757 2.744
