5.854 1.326 0.312
5.211 0.618 0.060
5.453 0.840 0.050
5.759 0.938 0.148
5.936 1.114 0.240
6.235 1.193 0.276
5.862 0.713 0.011
6.118 0.816 0.122
2.114 1.053 0.228
2.369 1.239 0.304
2.557 1.373 0.397
2.798 1.571 0.472
3.053 1.688 0.532
4.566 2.564 0.872
4.819 2.711 0.994
5.099 2.840 1.040
5.354 3.014 1.068
2.439 1.015 0.180
2.780 1.138 0.289
2.991 1.337 0.319
3.245 1.402 0.386
5.269 2.612 0.908
5.518 2.775 0.974
3.134 1.051 0.169
3.378 1.230 0.272
3.690 1.350 0.335
4.611 1.009 0.151
4.900 1.068 0.222
5.108 1.274 0.296
4.809 0.707 0.028
5.083 0.875 0.167
5.318 0.982 0.195
5.572 1.125 0.216
5.805 1.352 0.299
2.366 1.382 0.045
2.587 1.519 0.069
2.821 1.695 0.177
3.099 1.800 0.230
5.110 2.950 0.757
5.397 3.155 0.804
2.960 1.416 0.026
3.260 1.581 0.160
3.524 1.684 0.211
3.764 1.858 0.224
5.219 2.764 0.669
5.518 2.929 0.716
3.394 1.316 -0.025
3.696 1.483 0.091
3.906 1.601 0.091
4.135 1.806 0.226
5.627 2.634 0.580
4.047 1.391 -0.006
4.355 1.532 0.068
4.568 1.681 0.147
4.724 1.480 0.102
5.127 1.417 0.037
3.365 2.099 0.047
4.010 2.091 -0.011
5.515 2.992 0.379
5.639 2.765 0.348
0.418 6.220 6.117
0.826 6.118 6.079
1.084 6.251 6.190
0.201 2.950 5.981
0.412 3.141 6.073
0.678 3.275 6.165
0.939 3.415 6.234
0.111 2.577 5.847
0.380 2.751 5.904
0.637 2.848 5.937
0.878 3.056 6.068
0.024 2.200 5.727
0.221 2.402 5.768
0.478 2.556 5.854
0.808 2.627 5.878
0.160 2.013 5.552
0.465 2.147 5.675
0.623 2.283 5.735
2.416 3.309 6.134
2.702 3.455 6.228
0.106 1.650 5.421
0.374 1.730 5.464
0.580 1.936 5.517
2.328 2.891 6.026
2.580 3.129 6.098
2.814 3.217 6.090
3.081 3.358 6.215
3.405 3.524 6.258
0.273 1.346 5.291
0.468 1.519 5.327
2.240 2.548 5.779
2.472 2.744 5.841
2.791 2.831 5.997
3.059 3.037 6.046
3.228 3.145 6.131
0.114 0.968 5.179
0.368 1.204 5.169
2.156 2.219 5.671
2.371 2.325 5.738
2.683 2.444 5.832
2.895 2.625 5.801
3.142 2.779 5.894
0.102 1.024 5.087
0.280 0.813 4.994
2.052 1.786 5.464
2.338 1.990 5.501
2.605 2.067 5.578
2.785 2.257 5.638
3.050 2.377 5.720
0.039 0.621 4.950
0.337 0.821 5.014
1.957 1.384 5.331
2.179 1.610 5.385
2.433 1.730 5.434
2.713 1.896 5.537
2.981 2.035 5.583
0.162 0.455 4.896
1.919 1.022 5.104
2.146 1.225 5.254
2.403 1.390 5.277
2.620 1.468 5.301
2.914 1.682 5.422
4.433 2.505 5.824
0.126 0.017 4.673
1.829 0.683 4.967
2.062 0.857 5.067
2.313 1.019 5.077
2.572 1.139 5.139
2.769 1.280 5.271
4.362 2.120 5.639
4.530 2.298 5.691
1.650 0.305 4.812
1.932 0.460 4.908
2.182 0.586 4.984
2.436 0.771 4.983
2.710 0.852 5.021
4.217 1.804 5.425
4.516 1.941 5.517
4.750 2.052 5.554
1.880 0.035 4.664
2.125 0.234 4.783
2.336 0.380 4.873
2.601 0.510 4.891
4.129 1.409 5.268
4.357 1.510 5.382
4.600 1.708 5.380
4.871 1.823 5.521
2.512 0.097 4.756
4.019 0.995 5.092
4.248 1.111 5.154
4.588 1.309 5.264
4.752 1.434 5.330
5.048 1.641 5.351
3.928 0.663 4.896
4.202 0.733 5.050
4.450 0.897 5.058
4.746 1.076 5.148
4.973 1.220 5.181
-0.019 3.169 6.138
0.301 3.391 6.157
0.511 3.460 6.275
0.164 2.940 6.001
0.403 3.142 6.102
0.703 3.267 6.159
0.961 3.432 6.183
0.158 3.074 5.741
0.488 3.266 5.793
0.723 3.376 5.862
0.046 2.729 5.562
0.393 2.832 5.687
0.648 3.025 5.660
0.852 3.162 5.796
2.414 4.044 6.144
2.597 4.215 6.251
-0.046 2.330 5.430
0.281 2.452 5.461
0.557 2.650 5.558
0.724 2.819 5.604
2.256 3.698 5.991
2.535 3.840 6.104
2.736 3.958 6.079
3.014 4.059 6.173
3.309 4.216 6.267
0.193 2.097 5.289
0.464 2.299 5.347
0.712 2.443 5.453
0.951 2.601 5.462
2.155 3.304 5.777
2.478 3.444 5.868
2.657 3.615 5.927
2.937 3.724 5.992
3.191 3.848 6.054
3.484 3.994 6.133
0.086 1.773 5.092
0.362 1.851 5.202
0.570 2.070 5.284
0.818 2.211 5.350
2.353 3.026 5.722
2.630 3.199 5.816
2.841 3.385 5.850
3.150 3.490 5.964
3.321 3.664 5.933
3.625 3.834 6.061
0.278 1.559 5.044
0.497 1.666 5.067
0.698 1.792 5.205
2.517 2.862 5.656
2.759 2.982 5.654
3.043 3.090 5.758
3.312 3.256 5.838
3.545 3.446 5.885
0.170 1.127 4.906
0.437 1.288 4.904
2.700 2.613 5.560
2.902 2.706 5.553
3.198 2.898 5.625
0.130 1.185 4.833
1.498 0.662 4.669
1.772 0.831 4.733
2.035 0.910 4.727
2.344 1.086 4.874
4.267 2.269 5.307
4.579 2.384 5.380
1.434 0.298 4.442
1.713 0.382 4.578
1.970 0.613 4.588
2.191 0.736 4.640
2.476 0.815 4.696
3.923 1.752 5.167
4.232 1.853 5.186
4.518 2.077 5.288
4.701 2.146 5.285
1.559 0.066 4.395
1.898 0.205 4.466
2.074 0.314 4.468
2.386 0.463 4.576
2.641 0.618 4.621
3.920 1.335 4.963
4.116 1.551 4.994
4.347 1.702 5.105
4.641 1.829 5.180
4.896 1.929 5.207
2.224 0.125 4.337
2.530 0.217 4.483
4.057 1.109 4.823
4.323 1.255 4.911
4.567 1.404 4.977
4.833 1.563 5.065
5.065 1.767 5.097
2.688 0.010 4.335
3.994 0.742 4.682
4.191 0.873 4.755
4.452 1.065 4.841
4.656 1.182 4.899
5.005 1.379 4.938
5.165 1.454 4.972
0.274 3.474 5.890
0.514 3.650 6.000
0.205 3.099 5.742
0.455 3.226 5.841
0.655 3.404 5.925
0.203 3.242 5.460
0.424 3.407 5.527
2.191 4.354 5.995
2.416 4.501 6.075
2.675 4.735 6.123
2.996 4.809 6.228
0.137 2.848 5.278
0.373 3.026 5.336
0.586 3.125 5.408
2.118 4.043 5.853
2.362 4.122 5.936
2.655 4.316 5.961
2.923 4.500 6.050
3.099 4.577 6.117
0.023 2.504 5.182
0.239 2.607 5.166
0.532 2.766 5.230
0.795 2.903 5.357
2.288 3.798 5.674
2.497 3.944 5.818
2.777 4.118 5.818
3.035 4.217 5.872
3.242 4.334 5.942
0.170 2.233 5.008
0.452 2.390 5.136
0.697 2.550 5.126
0.889 2.720 5.200
2.219 3.392 5.590
2.438 3.604 5.608
2.681 3.671 5.720
2.900 3.896 5.769
3.231 3.998 5.822
3.437 4.136 5.848
0.090 1.840 4.864
0.353 1.973 4.957
0.560 2.187 5.040
0.860 2.284 5.060
1.058 2.452 5.143
2.321 3.221 5.402
2.553 3.374 5.505
2.815 3.455 5.571
3.139 3.640 5.676
3.372 3.786 5.750
3.590 3.904 5.737
0.182 1.660 4.753
0.525 1.791 4.800
0.784 1.917 4.846
0.952 2.075 4.933
2.718 3.134 5.405
2.983 3.288 5.467
3.269 3.409 5.532
3.551 3.539 5.577
3.721 3.641 5.649
1.565 0.825 4.407
1.810 0.890 4.403
4.088 2.208 5.048
4.278 2.412 5.047
4.613 2.497 5.185
1.163 0.294 4.082
1.487 0.437 4.184
1.731 0.589 4.271
1.955 0.672 4.318
2.184 0.881 4.409
3.684 1.747 4.734
3.992 1.914 4.809
4.253 2.056 4.926
4.503 2.161 4.999
4.729 2.298 5.062
1.331 -0.008 4.030
1.562 0.150 4.055
1.900 0.311 4.177
2.091 0.484 4.184
2.327 0.649 4.278
3.876 1.476 4.696
4.098 1.615 4.712
4.409 1.759 4.810
4.656 1.960 4.904
4.932 2.105 4.889
2.062 0.090 4.063
2.299 0.206 4.147
2.572 0.361 4.143
3.761 1.074 4.476
4.018 1.229 4.580
4.253 1.405 4.662
4.570 1.519 4.677
4.806 1.719 4.796
5.090 1.883 4.856
2.475 -0.032 3.990
2.662 0.181 4.124
3.915 0.873 4.395
4.164 1.062 4.504
4.411 1.213 4.495
4.727 1.372 4.624
5.001 1.469 4.683
5.206 1.655 4.775
0.218 3.213 5.516
0.438 3.409 5.572
2.216 4.380 5.965
2.489 4.521 6.017
2.759 4.710 6.079
2.935 4.788 6.174
0.191 3.370 5.239
1.989 4.389 5.670
2.212 4.527 5.750
2.496 4.700 5.792
2.739 4.783 5.815
3.011 4.921 5.953
0.055 2.985 5.004
0.313 3.085 5.078
0.631 3.277 5.127
1.901 3.966 5.473
2.149 4.134 5.567
2.341 4.318 5.654
2.647 4.418 5.656
2.890 4.552 5.780
3.165 4.743 5.794
-0.050 2.562 4.909
0.223 2.715 4.973
0.467 2.930 5.021
0.799 3.003 5.014
2.047 3.796 5.379
2.292 3.947 5.477
2.509 4.021 5.562
2.747 4.233 5.598
3.021 4.393 5.629
3.279 4.544 5.752
0.194 2.337 4.732
0.397 2.500 4.776
0.714 2.662 4.854
0.928 2.810 4.988
2.154 3.562 5.310
2.428 3.676 5.373
2.705 3.853 5.372
2.946 3.997 5.506
3.234 4.131 5.513
3.411 4.220 5.586
0.084 1.975 4.572
0.303 2.127 4.643
0.550 2.330 4.683
0.809 2.405 4.822
1.060 2.569 4.859
2.563 3.496 5.206
2.808 3.640 5.297
3.071 3.764 5.361
3.346 3.865 5.390
3.591 4.006 5.529
0.276 1.751 4.464
0.447 1.950 4.566
0.688 2.006 4.649
0.951 2.232 4.718
1.242 2.306 4.710
2.770 3.270 5.150
3.040 3.414 5.189
3.231 3.530 5.246
3.475 3.662 5.348
3.719 3.781 5.393
1.062 0.646 3.959
1.321 0.741 4.044
1.545 0.910 4.058
3.790 2.264 4.647
4.110 2.411 4.709
0.900 0.201 3.832
1.212 0.365 3.848
1.477 0.475 3.909
1.671 0.633 4.023
1.921 0.775 4.044
2.184 0.918 4.080
3.745 1.856 4.485
3.973 2.031 4.566
4.264 2.146 4.598
4.506 2.261 4.669
4.693 2.453 4.732
0.979 0.216 3.791
1.052 0.036 3.704
1.362 0.185 3.740
1.570 0.317 3.774
1.876 0.425 3.873
2.059 0.554 3.978
2.335 0.757 4.011
3.587 1.421 4.312
3.856 1.606 4.363
4.107 1.733 4.450
4.398 1.936 4.529
4.680 2.028 4.576
4.917 2.160 4.713
1.096 -0.021 3.719
1.780 0.027 3.759
2.051 0.218 3.816
2.316 0.398 3.836
2.503 0.517 3.871
3.745 1.195 4.211
4.077 1.412 4.266
4.277 1.545 4.403
4.495 1.656 4.427
4.750 1.785 4.463
5.074 1.976 4.538
2.452 0.123 3.760
2.714 0.228 3.784
4.205 1.121 4.152
4.418 1.280 4.231
4.703 1.446 4.346
4.925 1.634 4.396
5.236 1.766 4.408
1.449 5.657 6.216
0.225 3.340 5.195
1.931 4.401 5.680
2.213 4.479 5.767
2.457 4.661 5.835
2.729 4.764 5.820
2.969 4.925 5.898
1.730 4.301 5.321
1.928 4.508 5.413
2.247 4.600 5.478
2.464 4.788 5.536
2.715 4.930 5.603
0.099 3.127 4.714
0.385 3.220 4.823
1.885 4.115 5.243
2.064 4.246 5.259
2.348 4.380 5.330
2.651 4.535 5.375
2.870 4.725 5.465
3.173 4.844 5.563
0.260 2.870 4.606
0.550 2.999 4.725
0.786 3.115 4.808
2.070 3.843 5.133
2.249 4.048 5.133
2.548 4.132 5.232
2.768 4.349 5.282
3.036 4.515 5.362
3.304 4.635 5.479
0.151 2.470 4.487
0.434 2.620 4.563
0.635 2.744 4.607
0.934 2.891 4.720
2.469 3.840 5.030
2.678 3.915 5.161
2.911 4.127 5.207
3.209 4.237 5.235
3.402 4.383 5.350
0.047 2.137 4.337
0.337 2.221 4.394
0.622 2.377 4.476
0.853 2.527 4.500
1.101 2.712 4.617
1.328 2.829 4.642
2.614 3.569 5.013
2.878 3.764 5.077
3.149 3.896 5.054
3.338 4.018 5.125
3.626 4.204 5.222
0.513 2.007 4.291
0.762 2.205 4.364
0.966 2.299 4.361
1.204 2.429 4.511
1.531 2.597 4.502
3.038 3.529 4.908
3.239 3.601 4.988
3.537 3.777 5.076
3.722 3.935 5.166
1.157 2.116 4.351
1.376 2.276 4.330
3.678 3.523 4.940
3.916 3.714 5.041
0.820 0.560 3.633
1.034 0.696 3.657
1.261 0.911 3.741
3.327 2.076 4.226
3.573 2.151 4.309
3.851 2.304 4.382
4.074 2.531 4.502
0.775 0.578 3.669
0.911 0.333 3.519
1.227 0.497 3.554
1.400 0.631 3.608
1.742 0.827 3.748
1.936 0.909 3.763
3.451 1.857 4.143
3.761 1.978 4.253
3.993 2.105 4.262
4.227 2.274 4.322
4.452 2.427 4.403
0.684 0.206 3.499
0.963 0.378 3.561
1.065 0.138 3.454
1.378 0.244 3.504
1.621 0.392 3.560
1.858 0.545 3.651
2.111 0.698 3.625
2.350 0.882 3.773
3.638 1.602 4.070
3.830 1.748 4.092
4.172 1.876 4.180
4.362 2.054 4.275
4.679 2.140 4.365
4.936 2.295 4.347
1.067 0.139 3.438
1.514 0.038 3.333
1.782 0.218 3.413
2.035 0.351 3.481
2.267 0.479 3.584
2.482 0.585 3.590
3.826 1.340 3.971
4.077 1.507 4.030
4.243 1.618 4.095
4.542 1.833 4.151
4.789 1.933 4.184
4.997 2.093 4.308
2.136 0.069 3.372
2.381 0.229 3.480
2.725 0.397 3.507
2.915 0.556 3.580
4.219 1.295 3.887
4.490 1.406 3.938
4.686 1.521 4.066
4.922 1.697 4.118
5.195 1.847 4.193
1.205 5.992 6.122
1.485 6.124 6.114
1.627 5.895 6.071
1.912 6.060 6.063
2.154 6.185 6.199
1.753 4.676 5.497
1.737 4.364 5.367
1.954 4.455 5.340
2.238 4.619 5.442
2.456 4.781 5.540
2.742 4.929 5.578
1.479 4.315 5.031
1.673 4.464 5.039
1.911 4.646 5.161
2.219 4.756 5.208
2.416 4.882 5.289
0.059 3.259 4.518
1.852 4.199 4.948
2.080 4.420 4.990
2.314 4.495 5.077
2.640 4.664 5.179
2.844 4.800 5.189
0.242 2.951 4.353
0.463 3.122 4.467
2.258 4.175 4.950
2.504 4.274 5.008
2.779 4.457 5.023
3.035 4.580 5.136
3.237 4.732 5.178
0.141 2.641 4.180
0.442 2.709 4.281
0.656 2.926 4.298
0.906 3.029 4.410
2.393 3.955 4.791
2.659 4.061 4.873
2.888 4.239 4.908
3.169 4.375 5.024
3.465 4.534 5.081
0.333 2.431 4.072
0.620 2.508 4.197
0.794 2.668 4.217
1.083 2.772 4.322
1.322 2.997 4.365
2.880 3.840 4.732
3.068 3.959 4.847
3.372 4.142 4.869
3.602 4.316 4.978
0.699 2.317 4.042
0.940 2.476 4.106
1.239 2.597 4.166
1.441 2.732 4.224
1.787 2.911 4.377
3.252 3.784 4.737
3.497 3.931 4.776
3.750 4.076 4.855
1.157 2.238 4.005
1.360 2.324 4.063
1.652 2.475 4.132
1.902 2.662 4.239
3.925 3.795 4.706
1.563 2.170 4.009
1.857 2.295 4.024
2.087 2.433 4.155
2.335 2.546 4.190
2.231 2.174 3.980
2.495 2.368 4.047
2.763 2.473 4.096
0.152 1.005 3.488
0.606 0.922 3.461
2.609 2.074 3.974
2.894 2.237 4.085
3.115 2.366 4.086
3.402 2.501 4.167
0.099 0.687 3.323
0.326 0.759 3.419
0.653 0.899 3.498
0.756 0.690 3.332
0.997 0.827 3.371
3.035 2.020 3.892
3.258 2.160 3.998
3.516 2.288 4.080
3.823 2.492 4.137
0.235 0.383 3.223
0.489 0.550 3.262
0.757 0.665 3.365
0.939 0.479 3.212
1.191 0.623 3.280
1.476 0.758 3.395
1.644 0.881 3.455
3.216 1.837 3.840
3.447 1.926 3.943
3.732 2.071 3.918
3.941 2.260 4.062
4.207 2.401 4.130
0.657 0.325 3.190
0.929 0.496 3.234
1.101 0.246 3.184
1.301 0.356 3.160
1.583 0.516 3.302
1.811 0.710 3.353
2.125 0.829 3.355
3.667 1.732 3.823
3.915 1.842 3.895
4.079 1.973 3.932
4.362 2.111 3.958
4.679 2.329 4.061
1.145 0.231 3.175
1.215 0.021 3.042
1.465 0.159 3.126
1.760 0.316 3.178
1.987 0.447 3.219
2.248 0.555 3.318
2.481 0.746 3.382
4.016 1.611 3.771
4.290 1.753 3.812
4.563 1.937 3.868
4.752 2.114 3.989
4.997 2.211 3.979
1.224 0.026 2.999
1.927 0.050 3.050
2.191 0.248 3.147
2.381 0.368 3.145
2.713 0.477 3.214
4.455 1.498 3.676
4.675 1.661 3.828
4.988 1.791 3.868
5.170 2.004 3.934
0.122 5.212 5.387
1.954 6.183 5.848
0.084 4.835 5.234
0.255 4.922 5.280
0.576 5.081 5.312
2.288 6.171 5.829
0.239 4.623 5.076
0.444 4.708 5.161
0.762 4.823 5.190
1.007 4.998 5.254
0.664 4.449 5.075
0.889 4.667 5.169
1.093 4.776 5.189
1.425 4.901 5.244
0.994 4.460 5.072
1.332 4.579 5.122
1.505 4.751 5.160
1.800 4.871 5.192
1.443 4.375 4.944
1.676 4.464 5.050
1.975 4.615 5.161
2.160 4.767 5.172
2.470 4.916 5.263
1.196 4.299 4.623
1.474 4.449 4.738
1.723 4.585 4.825
1.975 4.782 4.854
2.193 4.850 4.905
1.857 4.398 4.712
2.071 4.558 4.737
2.361 4.622 4.821
0.857 2.803 3.954
1.083 2.958 4.046
3.304 4.229 4.590
3.616 4.408 4.656
0.959 2.550 3.817
1.224 2.755 3.967
1.531 2.871 3.989
1.698 3.026 4.031
3.807 4.214 4.538
1.398 2.436 3.869
1.617 2.668 3.930
1.931 2.752 4.000
2.139 2.947 4.029
2.370 3.024 4.118
3.937 3.998 4.493
1.543 2.279 3.753
1.761 2.448 3.759
2.050 2.512 3.822
2.323 2.663 3.909
2.602 2.887 3.997
2.809 3.011 4.085
0.029 1.387 3.323
0.483 1.249 3.317
2.015 2.155 3.648
2.223 2.348 3.706
2.524 2.417 3.822
2.774 2.580 3.894
3.004 2.731 3.961
0.241 1.169 3.251
0.461 1.326 3.273
0.642 1.072 3.214
2.081 1.936 3.619
2.333 2.115 3.600
2.595 2.271 3.669
2.902 2.368 3.804
3.166 2.544 3.842
3.356 2.720 3.934
0.082 0.812 3.045
0.390 0.966 3.154
0.585 1.044 3.133
0.769 0.850 3.088
1.076 0.960 3.167
2.496 1.901 3.521
2.808 2.003 3.611
3.073 2.115 3.665
3.251 2.288 3.679
3.503 2.441 3.843
0.064 0.387 2.886
0.305 0.534 2.976
0.523 0.683 3.038
0.808 0.830 3.070
0.958 0.652 2.945
1.151 0.790 3.075
3.233 1.914 3.510
3.415 2.057 3.623
3.750 2.173 3.666
3.960 2.314 3.735
0.479 0.279 2.872
0.708 0.462 2.945
0.975 0.614 2.933
1.142 0.355 2.899
1.363 0.474 2.932
3.859 2.031 3.587
4.096 2.122 3.667
1.111 0.323 2.878
2.428 0.495 2.958
4.984 2.003 3.523
0.154 5.336 5.078
0.412 5.429 5.185
0.047 4.926 4.973
0.285 5.069 5.021
0.597 5.263 5.063
0.836 5.350 5.179
2.290 6.210 5.553
0.189 4.750 4.784
0.471 4.856 4.867
0.723 5.002 4.917
1.009 5.158 5.041
1.250 5.319 5.104
0.355 4.480 4.748
0.614 4.631 4.775
0.849 4.793 4.837
1.150 4.942 4.905
1.381 5.072 4.976
1.643 5.184 5.081
0.810 4.411 4.651
1.039 4.578 4.756
1.235 4.659 4.861
1.582 4.788 4.847
1.809 4.924 4.947
1.235 4.260 4.602
1.412 4.488 4.670
1.700 4.622 4.798
1.993 4.728 4.815
2.216 4.865 4.925
0.965 4.240 4.312
1.234 4.420 4.373
1.449 4.527 4.427
1.680 4.673 4.484
1.902 4.832 4.560
1.240 2.801 3.634
1.490 3.027 3.711
1.694 3.095 3.768
2.008 3.288 3.811
1.405 2.567 3.521
1.606 2.716 3.638
1.903 2.894 3.635
2.187 3.028 3.737
2.424 3.144 3.825
2.614 3.299 3.874
0.258 1.670 3.166
1.567 2.387 3.464
1.795 2.503 3.519
2.080 2.680 3.536
2.363 2.853 3.635
2.602 2.920 3.745
2.855 3.136 3.802
4.093 3.890 4.063
-0.005 1.460 3.053
0.313 1.696 3.096
0.465 1.446 3.028
1.727 2.182 3.329
1.965 2.331 3.400
2.248 2.417 3.481
2.438 2.556 3.505
2.700 2.687 3.615
2.986 2.864 3.631
3.221 3.015 3.717
0.163 1.260 2.903
0.442 1.383 3.022
0.625 1.178 2.864
2.130 2.097 3.303
2.426 2.254 3.402
2.584 2.366 3.463
2.912 2.478 3.451
3.157 2.651 3.556
3.398 2.782 3.636
0.111 0.916 2.818
0.324 1.044 2.826
0.630 1.136 2.924
0.795 0.924 2.789
2.269 1.805 3.153
2.586 2.015 3.280
2.797 2.129 3.282
3.079 2.258 3.370
3.303 2.394 3.474
3.572 2.592 3.545
0.019 0.530 2.608
0.289 0.626 2.701
0.470 0.797 2.734
0.745 0.958 2.839
0.890 0.748 2.732
3.001 1.897 3.267
3.200 2.011 3.265
3.428 2.236 3.316
0.390 0.469 2.523
0.712 0.570 2.670
0.977 0.756 2.710
0.139 5.443 4.796
0.362 5.599 4.937
0.682 5.761 4.968
0.042 5.064 4.693
0.275 5.161 4.745
0.552 5.364 4.785
0.838 5.499 4.871
1.025 5.641 4.956
0.196 4.791 4.580
0.466 4.971 4.652
0.722 5.100 4.729
0.913 5.310 4.788
1.254 5.381 4.785
0.096 4.480 4.337
0.372 4.594 4.465
0.591 4.724 4.485
0.901 4.840 4.617
1.134 5.009 4.691
1.396 5.228 4.712
1.598 5.366 4.828
0.560 4.376 4.360
0.805 4.468 4.425
1.063 4.676 4.456
1.269 4.815 4.542
1.545 4.968 4.634
1.826 5.064 4.626
0.980 4.313 4.287
1.183 4.383 4.379
1.487 4.575 4.485
1.673 4.686 4.468
1.987 4.911 4.519
0.692 4.265 3.932
0.987 4.393 4.045
1.221 4.550 4.082
1.464 4.666 4.180
1.660 4.880 4.208
1.727 3.274 3.551
1.971 3.404 3.546
2.197 3.538 3.692
0.129 2.049 2.939
1.618 2.868 3.329
1.878 3.036 3.408
2.102 3.190 3.466
2.446 3.334 3.527
2.649 3.453 3.580
0.087 2.012 2.970
0.295 1.763 2.818
1.537 2.493 3.134
1.772 2.646 3.221
2.088 2.766 3.270
2.358 2.971 3.365
2.531 3.108 3.444
2.785 3.264 3.496
3.062 3.384 3.607
0.024 1.620 2.829
0.285 1.802 2.831
0.452 1.537 2.712
1.734 2.241 3.028
1.927 2.378 3.119
2.248 2.594 3.176
2.462 2.718 3.291
2.742 2.861 3.333
2.974 3.016 3.407
3.280 3.180 3.447
0.231 1.380 2.662
0.451 1.539 2.774
0.597 1.268 2.637
1.872 2.028 2.925
2.144 2.185 3.052
2.414 2.331 3.056
2.611 2.528 3.179
2.836 2.636 3.200
3.175 2.782 3.276
0.091 1.011 2.515
0.339 1.197 2.522
0.588 1.325 2.598
0.790 1.099 2.558
2.298 1.988 2.965
2.515 2.119 3.002
2.764 2.205 3.036
3.013 2.418 3.148
3.333 2.503 3.205
0.014 0.594 2.374
0.220 0.761 2.445
0.481 0.941 2.441
0.758 1.042 2.514
2.689 1.866 2.879
2.955 2.031 2.936
0.203 0.442 2.279
0.402 0.603 2.268
0.172 5.554 4.533
0.385 5.665 4.621
0.635 5.800 4.673
0.932 5.983 4.733
0.081 5.173 4.391
0.315 5.306 4.447
0.592 5.421 4.564
0.769 5.639 4.565
1.042 5.789 4.669
1.335 5.913 4.665
0.232 4.925 4.322
0.507 5.072 4.304
0.697 5.194 4.457
0.949 5.344 4.452
1.247 5.540 4.536
1.484 5.702 4.567
0.155 4.568 4.103
0.395 4.762 4.203
0.645 4.904 4.293
0.879 5.010 4.279
1.137 5.120 4.332
1.347 5.256 4.419
1.589 5.473 4.498
0.292 4.308 3.976
0.559 4.536 4.110
0.738 4.621 4.190
0.989 4.784 4.188
1.243 4.954 4.261
1.558 5.024 4.351
0.701 4.262 4.005
0.959 4.442 4.053
1.146 4.549 4.101
1.477 4.711 4.194
1.746 4.874 4.182
0.396 4.249 3.584
0.733 4.362 3.684
0.924 4.498 3.810
1.172 4.694 3.837
1.441 4.860 3.880
2.980 5.743 4.285
2.021 3.513 3.286
2.214 3.698 3.364
2.488 3.767 3.483
2.718 3.994 3.492
0.108 2.105 2.699
1.684 3.004 3.022
1.890 3.174 3.090
2.185 3.306 3.244
2.378 3.454 3.299
2.618 3.629 3.331
2.936 3.709 3.430
0.174 2.162 2.634
0.324 1.843 2.579
1.761 2.812 2.976
2.107 2.954 3.032
2.268 3.036 3.107
2.585 3.249 3.155
2.774 3.353 3.222
3.085 3.454 3.265
0.016 1.792 2.506
0.333 1.860 2.579
0.430 1.676 2.497
1.741 2.379 2.790
1.935 2.494 2.865
2.245 2.718 2.941
2.440 2.787 3.019
2.755 2.979 3.058
2.971 3.096 3.166
0.239 1.559 2.362
0.443 1.655 2.495
0.614 1.452 2.387
1.883 2.172 2.655
2.165 2.349 2.798
2.394 2.466 2.861
2.641 2.572 2.862
2.896 2.712 2.944
3.128 2.866 2.984
4.418 3.650 3.360
0.139 1.117 2.215
0.401 1.331 2.307
0.630 1.410 2.380
1.998 1.924 2.576
2.244 2.125 2.654
2.536 2.184 2.752
2.788 2.419 2.774
3.054 2.483 2.835
4.581 3.427 3.248
0.028 0.788 2.029
0.258 0.897 2.147
0.557 1.081 2.185
2.224 1.718 2.486
2.457 1.870 2.562
2.717 1.994 2.658
0.198 0.581 1.975
0.498 6.189 4.542
0.155 5.663 4.300
0.370 5.803 4.383
0.602 5.966 4.373
0.902 6.070 4.474
1.163 6.225 4.556
0.016 5.293 4.127
0.330 5.457 4.201
0.559 5.635 4.294
0.844 5.708 4.304
1.084 5.895 4.388
1.288 6.008 4.431
0.154 5.040 4.059
0.466 5.241 4.072
0.678 5.317 4.140
0.961 5.473 4.244
1.218 5.623 4.285
1.449 5.835 4.350
0.153 4.652 3.863
0.356 4.856 3.926
0.590 4.937 3.935
0.838 5.115 4.056
1.149 5.296 4.130
1.398 5.466 4.141
0.253 4.420 3.723
0.570 4.563 3.780
0.730 4.776 3.916
1.019 4.877 3.962
1.235 5.097 4.016
1.579 5.225 4.055
2.813 5.910 4.417
0.461 4.194 3.599
0.724 4.395 3.704
0.959 4.487 3.795
1.146 4.696 3.803
1.413 4.850 3.910
2.967 5.714 4.237
0.192 4.235 3.289
0.401 4.343 3.367
0.717 4.476 3.377
0.974 4.660 3.446
1.158 4.780 3.575
2.685 5.666 3.942
2.927 5.804 3.982
0.118 3.806 3.105
0.350 4.017 3.153
0.564 4.171 3.305
0.803 4.225 3.357
2.815 5.481 3.863
3.089 5.558 3.929
0.253 3.588 2.998
0.514 3.732 3.063
2.767 5.088 3.720
3.036 5.177 3.738
3.288 5.411 3.790
0.107 3.212 2.894
0.402 3.413 2.909
2.726 4.727 3.463
2.952 4.883 3.519
0.102 2.842 2.640
0.319 3.023 2.778
2.303 4.212 3.244
2.550 4.366 3.303
2.840 4.495 3.429
3.067 4.646 3.510
0.255 2.665 2.607
2.231 3.802 3.134
2.520 3.926 3.122
2.742 4.059 3.263
3.021 4.278 3.339
0.175 2.207 2.394
0.409 2.434 2.462
1.902 3.266 2.874
2.110 3.454 2.918
2.357 3.543 3.006
2.704 3.733 3.013
2.865 3.833 3.156
0.104 2.230 2.398
0.314 2.009 2.305
1.791 2.856 2.650
2.037 3.078 2.794
2.319 3.229 2.840
2.515 3.371 2.869
2.807 3.460 2.942
3.047 3.673 2.974
-0.010 1.829 2.258
0.253 2.034 2.269
0.444 1.835 2.210
1.943 2.697 2.557
2.206 2.781 2.604
2.468 2.936 2.696
2.721 3.074 2.765
2.939 3.258 2.856
0.181 1.664 2.111
0.463 1.835 2.244
1.894 2.331 2.378
2.141 2.448 2.487
2.426 2.584 2.517
2.644 2.769 2.565
2.859 2.836 2.647
4.409 3.769 3.044
0.112 1.285 1.997
0.318 1.363 2.017
1.781 1.962 2.202
1.984 2.015 2.293
2.318 2.202 2.342
2.535 2.373 2.479
2.814 2.493 2.506
4.538 3.548 2.997
-0.023 0.874 1.815
0.242 1.003 1.826
1.929 1.702 2.148
2.157 1.858 2.209
2.481 1.925 2.305
2.702 2.101 2.377
4.426 3.159 2.820
4.738 3.299 2.875
1.863 1.284 2.008
2.119 1.457 2.056
2.352 1.600 2.145
4.626 2.939 2.712
4.857 3.038 2.766
1.706 0.901 1.819
1.966 1.037 1.852
2.250 1.175 1.924
4.542 2.552 2.525
4.749 2.719 2.588
1.458 0.390 1.612
1.654 0.557 1.664
1.917 0.691 1.679
4.208 2.008 2.267
4.451 2.161 2.301
4.658 2.316 2.456
1.446 0.449 1.542
0.384 5.988 4.081
0.671 6.108 4.141
0.937 6.281 4.217
0.279 5.587 3.956
0.587 5.724 3.965
0.791 5.905 4.013
1.019 5.987 4.115
1.283 6.111 4.177
0.178 5.180 3.691
0.426 5.319 3.817
0.726 5.500 3.821
0.916 5.589 3.954
1.229 5.760 3.989
0.065 4.828 3.609
0.374 4.995 3.670
0.657 5.142 3.716
0.895 5.256 3.790
1.146 5.373 3.798
1.326 5.545 3.888
0.270 4.539 3.508
0.532 4.688 3.556
0.792 4.908 3.579
1.063 5.006 3.661
1.272 5.175 3.750
2.782 6.075 4.134
0.144 4.233 3.267
0.467 4.397 3.353
0.684 4.473 3.405
0.921 4.605 3.447
1.190 4.747 3.540
2.673 5.692 3.994
2.993 5.777 4.051
0.132 4.372 3.020
0.430 4.471 3.127
0.673 4.599 3.168
0.913 4.807 3.183
2.491 5.667 3.589
2.684 5.755 3.699
2.957 5.940 3.771
0.115 3.919 2.828
0.340 4.105 2.917
0.590 4.273 2.980
0.832 4.423 3.015
2.381 5.251 3.422
2.568 5.419 3.502
2.890 5.552 3.534
3.153 5.733 3.611
0.231 3.735 2.725
0.507 3.836 2.812
0.727 4.036 2.917
2.298 4.852 3.257
2.524 5.072 3.364
2.750 5.170 3.370
3.068 5.379 3.497
3.297 5.494 3.527
0.198 3.355 2.602
0.404 3.522 2.610
0.692 3.695 2.738
0.919 3.807 2.803
2.453 4.700 3.133
2.670 4.860 3.221
2.963 4.954 3.255
3.146 5.115 3.323
3.477 5.281 3.474
0.097 2.983 2.393
0.262 3.102 2.478
0.577 3.232 2.518
0.847 3.412 2.647
2.356 4.312 2.965
2.586 4.459 3.026
2.879 4.544 3.165
3.099 4.717 3.147
3.332 4.914 3.250
0.253 2.713 2.260
0.464 2.916 2.339
0.738 3.047 2.434
2.212 3.910 2.854
2.511 4.032 2.852
2.733 4.232 2.946
2.952 4.341 3.011
3.273 4.547 3.064
0.114 2.413 2.112
0.348 2.487 2.159
2.444 3.637 2.742
2.670 3.798 2.782
2.896 4.015 2.809
3.109 4.153 2.916
0.108 2.394 2.088
0.260 2.091 2.014
2.350 3.273 2.512
2.526 3.470 2.653
2.836 3.607 2.673
0.084 2.006 1.915
0.237 2.092 2.071
2.169 2.943 2.362
2.466 3.045 2.414
1.854 2.396 2.181
2.117 2.508 2.253
2.414 2.715 2.320
1.786 2.056 1.952
2.046 2.230 2.008
2.314 2.300 2.130
2.552 2.494 2.193
4.298 3.523 2.630
4.540 3.617 2.720
1.476 1.555 1.786
1.691 1.614 1.767
1.963 1.792 1.833
2.238 1.927 1.924
2.414 2.134 2.020
4.237 3.075 2.490
4.418 3.255 2.571
4.742 3.375 2.563
1.295 1.182 1.520
1.617 1.316 1.644
1.821 1.413 1.712
2.121 1.580 1.718
2.302 1.731 1.872
2.623 1.860 1.935
4.105 2.778 2.315
4.411 2.857 2.320
4.587 2.991 2.432
4.928 3.164 2.499
1.207 0.744 1.428
1.461 0.856 1.423
1.745 1.024 1.567
2.013 1.180 1.630
2.215 1.391 1.631
2.525 1.530 1.761
4.045 2.329 2.099
4.244 2.530 2.230
4.526 2.710 2.280
4.754 2.797 2.362
5.071 2.918 2.337
1.233 0.785 1.402
1.403 0.560 1.280
1.619 0.646 1.394
1.923 0.803 1.472
2.165 0.955 1.490
2.376 1.142 1.599
3.936 1.977 1.958
4.182 2.122 2.024
4.399 2.250 2.052
4.680 2.434 2.157
4.919 2.589 2.238
5.159 2.721 2.238
1.426 0.486 1.256
0.638 6.218 3.828
0.592 5.846 3.670
0.817 5.998 3.777
1.057 6.140 3.844
1.265 6.299 3.930
0.679 5.624 3.598
0.987 5.754 3.671
0.376 5.120 3.342
0.626 5.274 3.436
0.891 5.348 3.499
0.003 4.559 3.148
0.285 4.742 3.219
0.490 4.818 3.282
0.821 5.019 3.316
2.826 6.224 3.892
0.148 4.297 3.001
0.454 4.433 3.064
0.704 4.599 3.153
0.886 4.800 3.263
2.460 5.672 3.627
2.660 5.782 3.706
2.942 5.899 3.725
0.217 4.415 2.738
0.439 4.558 2.857
0.684 4.707 2.882
2.198 5.662 3.242
2.435 5.756 3.364
2.696 5.947 3.408
2.918 6.075 3.459
0.116 4.071 2.629
0.287 4.254 2.638
0.626 4.353 2.760
0.807 4.504 2.821
2.132 5.213 3.073
2.342 5.392 3.118
2.635 5.571 3.230
2.868 5.728 3.273
3.119 5.847 3.352
0.211 3.805 2.491
0.478 3.983 2.532
0.764 4.128 2.597
2.300 5.023 2.988
2.532 5.140 3.107
2.725 5.332 3.171
3.042 5.412 3.236
3.265 5.608 3.288
0.144 3.525 2.299
0.366 3.626 2.396
0.665 3.738 2.426
0.886 3.937 2.474
2.127 4.606 2.792
2.421 4.787 2.940
2.712 4.983 2.955
2.956 5.121 3.045
3.188 5.269 3.069
3.470 5.425 3.158
0.083 3.130 2.132
0.304 3.218 2.246
0.601 3.346 2.287
0.804 3.518 2.323
1.072 3.636 2.406
2.327 4.403 2.764
2.581 4.570 2.800
2.809 4.711 2.868
3.130 4.853 2.956
3.298 5.047 2.991
3.576 5.134 3.042
0.232 2.862 2.021
0.463 2.968 2.060
0.697 3.199 2.168
0.993 3.260 2.209
2.478 4.228 2.630
2.742 4.360 2.642
3.008 4.507 2.789
3.240 4.640 2.763
3.507 4.732 2.911
0.145 2.446 1.818
0.368 2.660 1.883
2.868 4.146 2.573
3.152 4.269 2.641
0.153 2.531 1.839
1.522 1.978 1.597
1.787 2.126 1.698
1.981 2.269 1.780
4.283 3.629 2.332
4.512 3.780 2.468
1.156 1.480 1.366
1.431 1.607 1.455
1.722 1.800 1.554
1.979 1.951 1.567
2.185 2.115 1.702
2.400 2.196 1.753
3.945 3.086 2.139
4.241 3.232 2.218
4.452 3.412 2.246
4.689 3.527 2.353
1.129 1.106 1.229
1.342 1.273 1.264
1.605 1.431 1.345
1.836 1.514 1.396
2.142 1.666 1.462
2.342 1.892 1.608
2.611 2.032 1.625
3.836 2.681 1.990
4.134 2.826 1.976
4.416 3.059 2.080
4.591 3.207 2.195
4.850 3.312 2.198
1.065 1.092 1.228
1.289 0.884 1.162
1.480 1.065 1.233
1.801 1.170 1.225
2.030 1.341 1.318
2.256 1.470 1.430
2.514 1.610 1.483
4.061 2.473 1.801
4.287 2.605 1.904
4.550 2.759 1.965
4.807 2.942 2.040
5.054 3.053 2.141
1.287 0.840 1.162
1.360 0.624 0.999
1.645 0.824 1.077
1.948 0.979 1.154
2.141 1.110 1.266
2.391 1.283 1.260
2.634 1.349 1.386
3.944 2.100 1.639
4.142 2.231 1.720
4.485 2.393 1.834
4.676 2.551 1.880
4.973 2.675 1.891
5.201 2.828 2.030
1.445 0.642 1.009
0.128 4.466 2.791
0.432 4.652 2.863
0.708 4.784 2.879
2.245 5.674 3.244
2.463 5.798 3.334
2.714 5.961 3.437
2.952 6.038 3.450
0.159 4.597 2.479
0.425 4.712 2.493
1.902 5.608 2.958
2.240 5.746 2.951
2.496 5.903 3.057
2.685 6.044 3.090
2.926 6.236 3.236
0.064 4.160 2.338
0.350 4.397 2.405
0.595 4.476 2.387
2.145 5.410 2.788
2.306 5.531 2.909
2.628 5.681 3.003
2.887 5.823 3.059
3.151 5.943 3.065
0.274 4.004 2.170
0.508 4.099 2.236
0.794 4.258 2.343
2.018 5.047 2.669
2.278 5.132 2.751
2.491 5.329 2.744
2.772 5.407 2.858
2.977 5.570 2.951
3.318 5.720 2.980
0.102 3.613 2.051
0.386 3.720 2.080
0.670 3.941 2.186
0.950 3.997 2.248
2.190 4.788 2.546
2.462 4.888 2.630
2.640 5.112 2.685
2.969 5.227 2.754
3.217 5.317 2.842
3.462 5.534 2.859
0.027 3.215 1.814
0.357 3.394 1.959
0.533 3.471 2.028
0.782 3.642 2.059
1.098 3.783 2.096
2.346 4.583 2.477
2.633 4.685 2.476
2.850 4.849 2.599
3.069 4.972 2.603
3.337 5.150 2.723
3.554 5.251 2.727
0.180 2.953 1.779
0.460 3.140 1.807
0.689 3.253 1.915
1.000 3.436 1.943
1.236 3.562 1.975
2.769 4.495 2.415
3.037 4.633 2.428
3.230 4.799 2.520
3.539 4.878 2.652
3.705 5.022 2.656
1.300 1.965 1.333
1.524 2.095 1.384
1.760 2.251 1.425
4.093 3.599 2.031
4.295 3.706 2.085
0.936 1.487 1.062
1.158 1.565 1.104
1.474 1.773 1.179
1.703 1.865 1.232
1.954 2.025 1.334
2.223 2.172 1.342
3.740 3.036 1.825
3.988 3.250 1.868
4.168 3.403 1.927
4.435 3.473 2.025
4.764 3.677 2.006
0.916 1.426 1.016
1.088 1.264 1.004
1.337 1.361 1.007
1.569 1.530 1.059
1.834 1.695 1.173
2.088 1.849 1.214
2.380 1.923 1.315
3.845 2.870 1.710
4.113 2.962 1.715
4.401 3.176 1.841
4.643 3.327 1.849
4.845 3.402 1.897
1.097 1.277 0.966
1.250 1.021 0.835
1.501 1.198 0.903
1.751 1.288 0.950
2.053 1.493 1.066
2.277 1.572 1.150
2.533 1.762 1.174
3.760 2.505 1.550
4.030 2.604 1.571
4.291 2.731 1.686
4.572 2.918 1.702
4.783 3.028 1.780
5.061 3.226 1.864
1.263 1.036 0.840
1.446 0.818 0.730
1.610 0.915 0.788
1.937 1.035 0.835
2.203 1.201 0.900
2.437 1.382 1.042
2.720 1.470 1.047
3.931 2.287 1.384
4.145 2.401 1.502
4.446 2.524 1.495
4.676 2.648 1.570
4.925 2.795 1.660
5.194 2.985 1.715
0.189 0.013 0.473
1.407 0.826 0.767
0.224 4.628 2.509
0.449 4.753 2.503
1.956 5.650 2.937
2.222 5.782 3.035
2.479 5.945 3.093
2.652 6.065 3.165
3.002 6.219 3.202
0.208 4.748 2.157
1.676 5.619 2.550
1.968 5.716 2.645
2.182 5.828 2.739
2.413 6.020 2.831
2.681 6.204 2.827
0.046 4.362 2.055
0.319 4.446 2.093
0.633 4.584 2.159
1.808 5.393 2.456
2.085 5.499 2.527
2.309 5.672 2.649
2.623 5.814 2.694
2.877 5.931 2.794
3.106 6.056 2.836
0.253 4.135 1.920
0.502 4.267 2.022
0.700 4.344 2.094
1.961 5.144 2.432
2.254 5.286 2.501
2.524 5.409 2.467
2.793 5.574 2.591
3.017 5.749 2.600
3.265 5.871 2.748
0.132 3.767 1.758
0.410 3.831 1.851
0.623 4.054 1.856
0.881 4.196 1.954
2.392 5.081 2.307
2.658 5.177 2.445
2.882 5.315 2.476
3.177 5.513 2.508
3.388 5.626 2.590
0.073 3.305 1.554
0.334 3.528 1.661
0.561 3.662 1.727
0.849 3.778 1.740
1.075 3.961 1.821
1.336 4.058 1.879
2.581 4.777 2.237
2.789 4.921 2.325
3.134 5.112 2.358
3.355 5.268 2.466
3.638 5.401 2.522
0.222 3.112 1.477
0.443 3.233 1.542
0.724 3.411 1.664
0.952 3.507 1.704
1.182 3.679 1.723
3.032 4.691 2.215
3.242 4.857 2.239
3.509 5.033 2.347
3.708 5.169 2.369
1.142 3.300 1.544
3.697 4.772 2.200
0.755 1.857 0.926
0.980 2.013 0.985
1.306 2.110 0.989
3.529 3.454 1.578
3.765 3.563 1.664
4.054 3.771 1.773
0.757 1.795 0.872
0.941 1.560 0.836
1.146 1.731 0.896
1.396 1.931 0.951
1.641 1.992 1.009
1.921 2.145 1.034
3.481 3.060 1.422
3.745 3.239 1.558
3.993 3.299 1.533
4.257 3.516 1.653
4.469 3.672 1.671
4.718 3.758 1.775
0.940 1.631 0.837
1.104 1.391 0.687
1.346 1.483 0.779
1.550 1.614 0.819
1.862 1.785 0.913
2.065 1.948 0.915
2.372 2.077 0.980
3.627 2.843 1.318
3.900 2.991 1.388
4.106 3.136 1.468
4.414 3.228 1.577
4.659 3.412 1.614
4.861 3.580 1.635
1.109 1.385 0.649
1.228 1.100 0.558
1.509 1.255 0.688
1.708 1.393 0.670
1.960 1.571 0.767
2.221 1.666 0.871
2.476 1.887 0.923
3.806 2.570 1.202
3.989 2.789 1.251
4.290 2.887 1.376
4.546 2.986 1.434
4.771 3.155 1.473
5.000 3.293 1.546
1.254 1.093 0.623
1.422 0.916 0.477
1.682 1.077 0.527
1.878 1.199 0.579
2.202 1.301 0.704
2.377 1.437 0.754
2.717 1.591 0.808
2.938 1.828 0.886
4.186 2.470 1.238
4.389 2.613 1.257
4.684 2.844 1.355
4.956 2.999 1.380
5.232 3.054 1.457
0.132 0.134 0.107
1.403 0.947 0.497
0.151 4.733 2.248
1.685 5.577 2.606
1.963 5.699 2.660
2.187 5.837 2.749
2.416 6.052 2.830
2.668 6.197 2.897
0.306 0.259 6.079
0.032 0.101 6.048
0.285 0.336 6.132
0.469 0.055 5.976
0.434 0.021 6.042
2.521 0.588 6.216
3.000 0.575 6.181
0.093 0.684 5.968
1.436 1.366 6.281
0.150 0.688 5.986
0.337 0.420 5.859
1.588 1.149 6.209
1.828 1.333 6.217
0.066 0.238 5.738
0.323 0.365 5.870
0.509 0.171 5.769
1.694 0.935 6.016
2.019 1.090 6.106
2.263 1.186 6.238
2.518 1.365 6.220
0.213 0.068 5.644
0.458 0.204 5.714
1.866 0.661 5.960
2.124 0.854 6.071
2.397 1.020 6.119
2.678 1.105 6.115
2.946 1.296 6.180
2.314 0.592 5.926
2.538 0.791 6.015
2.816 0.942 6.087
3.073 1.063 6.129
3.303 1.230 6.228
2.962 0.638 5.972
3.191 0.840 6.062
1.777 2.018 6.211
0.182 0.731 5.692
1.633 1.594 6.111
1.951 1.833 6.097
2.181 1.953 6.233
2.388 2.108 6.262
0.134 0.737 5.683
0.259 0.580 5.595
1.525 1.290 5.895
1.805 1.457 5.962
2.069 1.606 6.016
2.301 1.733 6.114
2.578 1.809 6.139
2.865 1.986 6.194
0.021 0.432 5.498
0.274 0.495 5.610
0.487 0.275 5.510
1.685 1.005 5.758
1.959 1.197 5.828
2.279 1.294 5.909
2.442 1.458 5.941
2.734 1.577 6.015
2.941 1.770 6.089
3.203 1.942 6.180
0.195 0.160 5.425
0.449 0.287 5.464
0.592 0.100 5.372
1.898 0.806 5.657
2.108 0.974 5.796
2.412 1.063 5.798
2.605 1.230 5.878
2.933 1.420 5.924
3.147 1.532 6.036
0.606 0.118 5.380
1.997 0.623 5.574
2.293 0.713 5.651
2.513 0.878 5.683
2.837 0.968 5.768
3.078 1.142 5.880
3.331 1.307 5.921
2.466 0.492 5.506
2.699 0.678 5.643
2.978 0.802 5.670
0.617 2.764 6.274
0.182 1.220 5.552
1.999 2.299 6.051
2.219 2.485 6.081
2.526 2.590 6.149
2.798 2.695 6.225
0.098 0.928 5.424
0.375 0.987 5.430
1.895 1.866 5.810
2.138 2.043 5.886
2.385 2.183 5.990
2.706 2.350 6.045
2.915 2.461 6.153
0.117 0.923 5.408
0.290 0.691 5.273
1.830 1.507 5.669
2.060 1.718 5.785
2.314 1.871 5.828
2.585 2.009 5.889
2.791 2.168 5.944
3.076 2.299 5.987
0.074 0.494 5.192
0.297 0.689 5.344
0.498 0.420 5.231
1.747 1.190 5.527
2.002 1.300 5.626
2.205 1.451 5.612
2.472 1.555 5.747
2.767 1.735 5.738
2.963 1.855 5.838
0.177 0.296 5.135
0.432 0.405 5.172
1.842 0.915 5.380
2.172 1.060 5.529
2.363 1.199 5.586
2.681 1.353 5.625
2.930 1.501 5.630
3.121 1.651 5.751
4.401 2.381 6.081
0.348 0.007 5.049
2.072 0.738 5.277
2.277 0.889 5.376
2.572 0.948 5.421
2.768 1.186 5.517
3.063 1.254 5.599
4.521 2.202 6.012
1.965 0.290 5.180
2.190 0.471 5.166
2.456 0.638 5.260
2.752 0.718 5.350
4.750 1.924 5.840
0.228 2.946 6.033
0.394 3.161 6.069
0.742 3.253 6.104
0.927 3.416 6.227
0.104 2.601 5.866
0.314 2.788 5.881
0.625 2.926 5.983
0.846 3.041 6.049
-0.021 2.198 5.644
0.273 2.361 5.765
0.501 2.474 5.840
0.769 2.647 5.914
0.134 1.963 5.618
0.421 2.186 5.632
0.646 2.269 5.660
2.486 3.306 6.119
2.690 3.491 6.194
0.064 1.583 5.406
0.282 1.720 5.435
0.541 1.896 5.497
2.349 2.971 5.987
2.586 3.115 6.053
2.801 3.217 6.165
3.111 3.329 6.164
3.385 3.540 6.264
0.267 1.378 5.337
0.488 1.486 5.336
2.253 2.583 5.799
2.456 2.711 5.922
2.763 2.808 5.940
3.010 2.973 6.002
3.280 3.097 6.078
0.138 0.979 5.117
0.391 1.148 5.185
2.201 2.207 5.668
2.366 2.334 5.679
2.692 2.451 5.772
2.926 2.604 5.834
3.133 2.785 5.964
0.151 1.025 5.088
0.261 0.815 5.003
2.051 1.816 5.496
2.280 1.957 5.545
2.567 2.121 5.588
2.843 2.226 5.650
3.069 2.410 5.707
0.073 0.593 4.995
0.316 0.797 4.998
1.939 1.476 5.289
2.263 1.573 5.424
2.527 1.769 5.440
2.746 1.878 5.533
2.947 1.975 5.547
0.230 0.402 4.808
1.933 1.045 5.156
2.109 1.163 5.244
2.350 1.397 5.286
2.617 1.461 5.373
2.879 1.635 5.381
4.366 2.527 5.821
0.139 0.062 4.698
1.835 0.685 5.005
2.085 0.817 5.011
2.252 1.020 5.111
2.573 1.145 5.138
2.822 1.220 5.221
4.355 2.108 5.578
4.591 2.327 5.647
1.739 0.261 4.791
1.925 0.436 4.842
2.191 0.601 4.973
2.418 0.759 5.032
2.673 0.916 5.074
4.216 1.760 5.408
4.431 1.925 5.516
4.695 2.024 5.543
1.884 0.026 4.658
2.130 0.189 4.767
2.366 0.385 4.862
2.612 0.514 4.844
4.086 1.426 5.249
4.360 1.583 5.382
4.633 1.727 5.371
4.845 1.835 5.456
2.527 0.146 4.746
4.058 1.011 5.128
4.289 1.205 5.220
4.556 1.328 5.257
4.837 1.485 5.280
5.071 1.609 5.382
3.909 0.634 4.907
4.195 0.747 4.972
4.440 0.918 5.052
4.665 1.047 5.166
4.992 1.206 5.236
-0.022 3.209 6.144
0.315 3.352 6.140
0.543 3.480 6.270
0.218 2.978 6.016
0.449 3.136 6.121
0.672 3.259 6.107
0.960 3.451 6.259
4.616 3.250 6.136
4.862 3.448 6.202
5.116 3.536 6.235
4.504 2.849 5.991
4.769 3.069 6.023
5.020 3.178 6.135
5.298 3.297 6.129
5.473 3.455 6.271
4.661 2.647 5.847
4.916 2.776 5.892
5.165 3.001 5.949
5.438 3.110 6.081
4.805 2.454 5.735
5.074 2.571 5.805
5.356 2.722 5.911
5.001 2.184 5.607
5.206 2.396 5.747
5.138 1.970 5.579
4.984 4.307 6.259
5.402 4.169 6.237
5.226 4.065 6.140
5.438 4.180 6.239
4.834 2.524 5.525
5.105 2.712 5.563
5.008 2.310 5.418
5.187 2.068 5.264
5.260 1.866 5.172
3.212 4.935 6.238
3.332 4.724 6.190
3.528 4.543 6.024
5.010 4.975 6.271
3.748 4.251 5.938
4.933 5.057 6.304
5.146 4.816 6.168
5.364 4.911 6.216
5.093 4.837 6.210
5.249 4.541 6.078
5.489 4.661 6.160
5.795 4.832 6.153
6.071 5.004 6.305
5.325 4.542 6.088
5.029 2.449 5.112
5.122 2.264 4.953
5.256 2.032 4.920
5.464 1.731 4.809
3.256 4.975 6.246
4.631 5.565 6.252
4.921 5.745 6.322
4.680 5.557 6.229
4.766 5.343 6.088
5.053 5.504 6.149
5.276 5.673 6.259
3.544 4.688 5.778
4.849 5.372 6.095
4.912 5.116 6.002
5.219 5.286 6.108
5.463 5.440 6.111
5.708 5.569 6.204
5.987 5.733 6.221
3.658 4.422 5.704
4.969 5.122 5.955
5.085 4.924 5.852
5.373 5.017 5.997
5.674 5.215 5.982
5.916 5.402 6.042
6.159 5.478 6.203
3.884 4.142 5.595
5.095 4.882 5.901
5.487 4.837 5.813
5.784 4.943 5.893
6.008 5.154 5.951
6.284 3.329 5.173
6.201 3.286 5.131
5.131 2.362 4.717
5.316 2.096 4.574
5.490 1.866 4.523
4.494 5.965 6.032
4.778 6.100 6.092
4.973 6.202 6.144
4.251 5.818 6.022
4.455 5.909 6.043
4.615 5.762 5.941
4.848 5.870 6.028
5.111 5.977 6.044
5.395 6.173 6.160
4.689 5.692 5.930
4.844 5.473 5.816
5.068 5.669 5.875
5.280 5.782 5.980
5.585 5.911 6.014
5.853 6.064 6.119
6.031 6.184 6.195
4.796 5.468 5.810
4.981 5.240 5.734
5.219 5.438 5.748
5.436 5.606 5.829
5.763 5.691 5.927
6.015 5.855 6.024
6.242 6.001 6.015
3.713 4.490 5.444
4.948 5.236 5.690
5.334 5.190 5.725
5.611 5.334 5.735
5.832 5.459 5.796
6.097 5.592 5.845
3.868 4.298 5.296
5.794 5.138 5.647
6.080 5.211 5.716
3.986 4.059 5.221
4.152 3.823 5.085
6.071 3.676 5.018
6.062 3.677 5.036
6.230 3.407 4.863
6.014 3.307 4.786
6.291 3.473 4.912
5.309 2.273 4.397
5.455 2.058 4.288
4.286 6.170 6.145
4.350 6.205 6.174
4.501 5.960 6.009
4.749 6.149 6.142
4.983 6.224 6.156
4.184 5.815 5.964
4.526 5.991 5.996
4.428 6.039 5.773
4.713 6.230 5.857
3.980 5.788 5.672
4.224 5.950 5.691
4.459 6.033 5.808
4.649 5.819 5.703
4.858 6.027 5.686
5.182 6.141 5.796
4.426 5.714 5.580
4.589 5.843 5.702
4.820 5.608 5.560
5.060 5.720 5.643
5.324 5.888 5.699
5.580 6.095 5.802
5.782 6.187 5.868
4.766 5.616 5.577
5.173 5.588 5.552
5.437 5.658 5.605
5.740 5.844 5.619
5.979 5.976 5.694
6.178 6.151 5.827
5.638 5.423 5.514
5.857 5.651 5.504
6.119 5.767 5.624
3.846 4.389 5.033
6.000 5.381 5.401
4.009 4.181 4.964
4.303 4.341 4.957
4.188 3.991 4.819
4.452 4.145 4.901
4.720 4.224 4.935
4.345 3.789 4.745
4.591 3.850 4.733
4.853 3.996 4.839
5.138 4.228 4.880
4.724 3.627 4.629
4.972 3.754 4.696
5.294 3.966 4.840
5.494 4.063 4.820
5.924 4.060 4.839
5.126 3.580 4.628
5.410 3.729 4.680
5.620 3.890 4.718
5.877 4.057 4.777
6.082 3.752 4.741
5.542 3.460 4.594
5.803 3.684 4.693
6.033 3.830 4.750
6.262 3.508 4.624
5.981 3.399 4.534
6.205 3.592 4.635
5.427 2.091 3.935
2.537 6.247 5.815
2.942 6.155 5.803
3.423 6.085 5.738
3.640 6.232 5.890
3.859 6.026 5.754
4.051 6.136 5.782
4.455 6.061 5.777
4.713 6.245 5.832
3.982 5.838 5.600
4.268 5.904 5.738
4.489 6.102 5.805
4.471 6.205 5.449
3.754 5.793 5.256
3.922 5.913 5.383
4.260 6.082 5.412
4.494 6.188 5.525
4.590 5.979 5.398
4.924 6.167 5.425
4.426 5.780 5.293
4.643 6.004 5.380
6.169 5.834 5.316
3.809 4.601 4.777
4.049 4.353 4.629
4.226 4.435 4.667
4.483 4.587 4.738
4.198 4.057 4.537
4.393 4.222 4.607
4.714 4.431 4.714
4.969 4.493 4.767
4.348 3.908 4.432
4.552 3.994 4.545
4.816 4.156 4.548
5.142 4.301 4.597
5.383 4.489 4.739
5.782 4.391 4.626
4.474 3.594 4.343
4.711 3.764 4.370
4.976 3.880 4.510
5.210 4.096 4.535
5.552 4.245 4.556
5.772 4.321 4.635
5.942 4.156 4.506
4.861 3.502 4.251
5.209 3.654 4.322
5.443 3.799 4.426
5.652 3.995 4.457
5.944 4.182 4.574
6.109 3.865 4.485
5.310 3.422 4.212
5.615 3.591 4.361
5.837 3.744 4.377
6.031 3.930 4.494
6.249 3.652 4.314
5.712 3.355 4.168
5.967 3.513 4.244
6.266 3.649 4.316
2.684 6.145 5.501
2.866 5.947 5.356
3.190 6.032 5.450
3.382 6.238 5.496
3.266 5.847 5.308
3.585 5.965 5.409
3.773 6.187 5.496
4.444 6.236 5.523
3.743 5.726 5.328
4.019 5.952 5.317
4.193 6.069 5.382
4.472 6.232 5.456
3.485 5.757 4.939
3.744 5.865 5.065
3.975 6.064 5.093
4.211 6.221 5.147
3.980 4.436 4.338
4.302 4.618 4.432
4.506 4.705 4.483
4.762 4.934 4.527
4.218 4.248 4.244
4.397 4.329 4.297
4.698 4.464 4.410
4.952 4.696 4.510
5.222 4.753 4.575
5.551 4.721 4.462
4.346 3.974 4.161
4.607 4.183 4.221
4.850 4.296 4.260
5.130 4.449 4.355
5.304 4.600 4.460
5.557 4.740 4.484
5.732 4.464 4.378
4.447 3.758 4.101
4.722 3.897 4.157
5.032 4.095 4.154
5.236 4.155 4.285
5.509 4.353 4.365
5.712 4.457 4.366
5.915 4.289 4.317
4.642 3.515 3.992
4.887 3.630 3.981
5.165 3.854 4.076
5.384 3.979 4.110
5.714 4.120 4.180
5.951 4.290 4.254
6.091 4.066 4.202
5.092 3.473 3.895
5.346 3.555 3.968
5.623 3.729 4.005
5.828 3.840 4.128
6.056 4.070 4.149
6.266 3.781 4.046
5.772 3.534 3.900
5.959 3.644 4.001
6.227 3.770 4.101
2.874 6.095 5.141
3.145 6.192 5.151
3.078 5.813 4.992
3.256 5.978 5.080
3.548 6.155 5.107
3.790 6.309 5.186
3.477 5.743 4.985
3.694 5.846 5.037
3.924 6.029 5.141
4.225 6.201 5.118
3.237 5.671 4.652
3.425 5.891 4.734
3.690 5.965 4.782
3.943 6.169 4.819
4.233 4.709 4.213
4.477 4.878 4.273
4.740 5.055 4.284
4.979 5.204 4.353
5.466 5.116 4.355
4.181 4.347 4.044
4.449 4.461 4.037
4.638 4.666 4.166
4.966 4.812 4.221
5.151 4.890 4.249
5.468 5.080 4.355
5.603 4.848 4.262
4.313 4.160 3.913
4.593 4.221 3.907
4.789 4.434 3.973
5.064 4.541 4.049
5.385 4.682 4.106
5.634 4.856 4.225
5.770 4.654 4.095
4.518 3.859 3.824
4.758 3.978 3.861
4.983 4.159 3.948
5.222 4.347 3.935
5.460 4.419 4.008
5.729 4.597 4.144
5.879 4.418 3.968
4.654 3.658 3.671
4.889 3.817 3.779
5.169 3.917 3.844
5.380 4.064 3.915
5.696 4.242 3.913
5.903 4.380 4.049
6.119 4.144 3.908
4.841 3.438 3.587
5.066 3.550 3.643
5.291 3.738 3.746
5.543 3.829 3.741
5.820 4.052 3.828
6.112 4.164 3.879
5.233 3.301 3.548
5.488 3.511 3.556
5.734 3.616 3.639
2.911 6.147 4.794
3.038 5.903 4.777
3.323 6.060 4.819
3.522 6.239 4.863
3.233 5.685 4.593
3.484 5.912 4.645
3.685 5.976 4.777
3.995 6.175 4.776
3.188 5.796 4.386
3.414 5.959 4.437
3.752 6.183 4.433
5.254 5.441 4.103
4.540 4.988 3.974
4.722 5.134 4.000
5.055 5.329 4.119
5.290 5.459 4.187
5.480 5.162 4.002
4.444 4.612 3.772
4.629 4.787 3.833
4.943 4.854 3.905
5.225 5.073 3.964
5.459 5.174 4.065
5.560 4.958 3.950
4.333 4.279 3.579
4.628 4.396 3.649
4.861 4.509 3.754
5.066 4.656 3.775
5.299 4.816 3.851
5.584 4.962 3.909
5.767 4.778 3.863
4.532 4.040 3.513
4.768 4.167 3.618
4.985 4.285 3.617
5.201 4.490 3.681
5.525 4.575 3.745
5.763 4.745 3.884
5.903 4.511 3.684
4.669 3.806 3.367
4.949 3.902 3.449
5.134 4.060 3.496
5.375 4.210 3.567
5.667 4.325 3.679
5.900 4.537 3.730
4.811 3.585 3.317
5.110 3.710 3.362
5.295 3.818 3.458
5.546 3.950 3.498
5.796 4.162 3.555
4.942 3.333 3.243
5.198 3.469 3.313
5.505 3.631 3.286
3.054 6.058 4.495
3.273 6.188 4.534
3.212 5.844 4.379
3.426 5.991 4.369
3.684 6.088 4.487
3.162 5.981 4.071
3.482 6.159 4.123
3.751 6.211 4.228
3.326 5.750 3.974
3.578 5.845 3.996
5.227 6.109 4.108
5.115 5.747 3.981
5.394 5.905 4.004
5.660 6.065 4.123
5.085 5.816 3.972
5.288 5.586 3.897
5.554 5.662 3.935
4.771 5.218 3.732
5.059 5.384 3.844
5.278 5.511 3.887
5.463 5.364 3.802
5.701 5.441 3.818
4.662 4.900 3.585
4.893 5.020 3.602
5.154 5.174 3.726
5.480 5.353 3.820
5.622 5.087 3.621
4.545 4.511 3.416
4.838 4.681 3.465
5.103 4.805 3.515
5.349 4.941 3.632
5.620 5.125 3.650
5.762 4.878 3.542
4.459 4.100 3.191
4.718 4.238 3.299
5.017 4.391 3.369
5.241 4.531 3.431
5.526 4.678 3.534
5.716 4.822 3.603
4.611 3.945 3.101
4.907 4.085 3.152
5.197 4.193 3.308
5.403 4.367 3.304
5.659 4.497 3.358
4.827 3.646 3.077
5.071 3.862 3.143
5.333 3.933 3.136
5.617 4.057 3.222
5.010 3.434 2.970
5.235 3.570 2.994
5.089 3.197 2.776
3.015 6.195 4.208
3.193 5.919 4.107
3.495 6.080 4.191
3.711 6.233 4.210
3.206 6.094 3.839
3.482 6.245 3.834
3.323 5.818 3.673
3.549 5.664 3.625
4.939 6.170 3.794
5.202 6.329 3.898
4.966 6.135 3.775
5.126 5.854 3.744
5.334 6.087 3.761
5.667 6.159 3.892
4.860 5.740 3.619
5.123 5.951 3.707
5.262 5.702 3.571
5.563 5.792 3.710
5.807 5.937 3.690
6.038 6.153 3.822
4.973 5.499 3.514
5.224 5.629 3.590
5.400 5.480 3.489
5.640 5.616 3.571
4.975 5.138 3.381
5.199 5.288 3.460
5.455 5.449 3.473
5.637 5.231 3.385
5.046 4.952 3.270
5.316 5.038 3.381
5.595 5.249 3.372
4.720 4.401 3.003
4.983 4.506 3.065
5.223 4.679 3.118
4.601 3.986 2.874
4.926 4.145 2.958
5.200 4.280 2.987
4.852 3.795 2.764
5.023 3.976 2.849
4.952 3.564 2.662
5.191 3.711 2.695
5.091 3.311 2.524
3.197 6.085 3.759
3.507 6.265 3.886
3.254 6.239 3.544
3.410 5.988 3.411
3.530 5.759 3.356
4.982 6.306 3.557
3.718 5.475 3.257
4.941 6.266 3.507
5.126 6.054 3.452
5.372 6.210 3.512
5.110 6.014 3.480
5.279 5.834 3.299
5.549 5.934 3.436
5.736 6.103 3.430
6.038 6.229 3.511
5.233 5.810 3.383
5.450 5.553 3.262
5.693 5.689 3.292
5.434 5.600 3.263
4.796 3.928 2.501
4.949 3.694 2.406
5.167 3.490 2.303
5.284 3.260 2.156
3.207 6.190 3.503
3.364 6.136 3.140
3.564 5.916 3.054
3.643 5.650 2.949
5.146 6.193 3.171
3.870 5.432 2.805
5.071 6.102 3.155
5.302 5.928 3.077
5.545 6.079 3.159
5.795 6.183 3.158
5.269 5.910 3.107
6.239 4.552 2.417
6.242 4.512 2.389
5.164 3.552 1.954
5.284 3.337 1.916
5.476 3.077 1.795
3.526 6.017 2.807
3.699 5.799 2.628
5.066 6.273 2.881
3.843 5.585 2.589
5.095 6.300 2.872
5.489 6.161 2.866
4.049 5.310 2.447
6.109 4.878 2.255
6.095 4.922 2.286
6.270 4.631 2.206
6.186 4.650 2.204
5.277 3.424 1.675
5.446 3.217 1.495
5.282 2.131 6.312
4.529 2.778 6.252
4.665 2.520 6.169
4.869 2.656 6.219
5.200 2.873 6.222
4.829 2.345 6.073
5.119 2.492 6.140
5.366 2.633 6.134
5.534 2.792 6.200
4.936 2.051 5.921
5.247 2.221 5.954
5.466 2.383 6.037
4.576 3.307 6.159
4.849 3.401 6.232
5.134 3.567 6.238
4.552 2.848 5.987
4.737 3.043 6.049
4.997 3.198 6.084
5.254 3.317 6.180
5.557 3.450 6.267
4.651 2.649 5.821
4.925 2.782 5.923
5.159 2.917 6.032
5.392 3.101 6.098
4.815 2.471 5.743
5.083 2.556 5.831
5.295 2.681 5.839
4.942 2.187 5.628
5.231 2.318 5.704
5.169 1.940 5.558
0.155 5.532 0.277
0.375 5.700 0.398
0.645 5.849 0.441
0.903 6.037 0.530
0.037 5.214 0.135
0.347 5.343 0.162
0.558 5.519 0.248
0.851 5.586 0.324
0.226 4.962 0.064
0.462 5.154 0.129
0.727 5.297 0.192
2.556 6.237 0.618
2.460 5.865 0.430
2.654 6.057 0.553
2.903 6.236 0.535
2.360 5.540 0.301
2.601 5.633 0.369
2.823 5.841 0.399
3.037 6.006 0.495
3.344 6.068 0.515
2.223 5.169 0.087
2.533 5.275 0.124
2.763 5.400 0.264
3.020 5.612 0.310
3.251 5.747 0.406
2.690 5.018 0.046
2.904 5.183 0.145
3.190 5.367 0.163
3.037 4.962 0.014
4.397 5.121 0.107
0.080 6.217 0.547
0.031 5.810 0.407
0.260 5.946 0.420
0.482 6.063 0.532
0.802 6.217 0.596
0.188 5.569 0.260
0.465 5.762 0.373
0.696 5.811 0.452
0.965 5.971 0.515
0.136 5.698 0.007
0.426 5.860 0.102
0.705 6.028 0.154
0.809 5.723 0.092
2.278 6.281 0.266
2.162 5.906 0.129
2.396 6.017 0.151
2.652 6.125 0.185
2.595 5.822 0.058
2.855 5.993 0.083
3.108 6.066 0.189
3.347 6.265 0.267
3.012 5.754 0.045
3.276 5.852 0.049
3.464 5.964 0.178
0.288 6.033 0.231
0.511 6.193 0.286
0.171 5.720 0.057
0.442 5.820 0.136
0.714 5.939 0.122
1.442 5.596 2.231
1.667 5.711 2.355
1.946 5.808 2.360
2.169 5.965 2.478
2.436 6.097 2.540
0.092 4.405 1.734
0.289 4.630 1.848
1.894 5.461 2.180
2.113 5.593 2.300
2.318 5.728 2.315
2.601 5.899 2.420
2.843 6.108 2.511
0.288 4.191 1.662
0.489 4.321 1.698
0.768 4.490 1.743
1.975 5.208 2.104
2.294 5.378 2.160
2.560 5.535 2.238
2.804 5.726 2.336
3.014 5.791 2.365
3.255 5.950 2.478
0.178 3.798 1.458
0.434 4.013 1.529
0.676 4.155 1.648
0.888 4.236 1.661
2.378 5.211 2.118
2.639 5.316 2.163
2.924 5.436 2.190
3.131 5.631 2.292
3.404 5.789 2.297
0.092 3.459 1.357
0.351 3.657 1.334
0.581 3.742 1.465
0.793 3.915 1.522
1.105 4.072 1.602
1.342 4.236 1.678
2.848 5.063 2.001
3.108 5.257 2.130
3.343 5.322 2.146
3.571 5.503 2.192
0.456 3.358 1.238
0.682 3.537 1.388
1.001 3.654 1.387
1.239 3.860 1.442
1.461 3.971 1.503
3.215 5.003 1.960
3.515 5.151 2.067
3.733 5.278 2.101
1.173 3.495 1.281
1.349 3.585 1.415
1.607 3.780 1.473
3.935 5.095 2.050
2.053 3.637 1.378
0.559 2.218 0.689
2.836 3.531 1.281
3.082 3.678 1.423
0.369 2.060 0.676
0.635 2.145 0.731
0.769 1.977 0.667
1.008 2.053 0.652
1.284 2.192 0.794
3.040 3.239 1.189
3.338 3.382 1.235
3.579 3.504 1.304
3.786 3.663 1.365
0.499 1.805 0.560
0.781 1.971 0.592
