1.012 4.904 3.345
0.972 4.869 3.594
0.810 4.693 3.848
1.000 4.560 3.867
0.863 4.501 4.044
0.271 4.010 5.118
0.155 3.968 5.370
0.018 3.806 5.550
1.399 4.850 3.291
1.229 4.811 3.460
1.161 4.707 3.659
1.025 4.599 3.849
1.210 4.455 3.923
1.089 4.322 4.164
0.371 3.817 5.406
0.261 3.727 5.648
0.095 3.555 5.859
1.652 4.766 3.323
1.501 4.679 3.513
1.315 4.580 3.706
1.248 4.477 3.900
1.492 4.288 4.030
0.283 3.486 5.874
0.215 3.349 6.039
1.824 4.638 3.414
1.728 4.533 3.539
1.585 4.416 3.789
1.447 4.359 3.990
0.182 5.900 2.953
0.118 5.831 3.165
-0.006 5.460 3.684
0.389 5.792 3.063
0.263 5.683 3.254
0.133 5.625 3.524
-0.013 5.440 3.646
0.291 5.314 3.804
0.666 5.688 3.127
0.534 5.569 3.342
0.357 5.482 3.541
0.207 5.307 3.797
0.500 5.167 3.867
0.371 5.159 3.992
0.801 5.505 3.161
0.742 5.391 3.377
0.608 5.301 3.659
0.508 5.264 3.869
0.668 5.096 3.930
0.518 4.961 4.135
0.074 4.563 4.889
1.054 5.365 3.244
0.906 5.285 3.510
0.758 5.167 3.638
0.682 5.068 3.895
0.930 4.906 3.996
0.740 4.836 4.171
0.218 4.411 5.014
0.136 4.327 5.219
0.037 4.251 5.426
1.299 5.180 3.294
1.117 5.101 3.490
0.989 4.997 3.699
0.914 4.929 3.920
1.054 4.845 4.021
0.358 4.208 5.288
0.195 4.118 5.448
0.149 4.043 5.720
1.479 5.118 3.344
1.394 4.950 3.605
1.188 4.890 3.750
1.133 4.813 4.024
1.285 4.662 4.058
0.559 4.044 5.348
0.474 4.000 5.534
0.271 3.909 5.721
0.232 3.809 5.989
0.057 3.700 6.211
1.677 5.005 3.417
1.517 4.826 3.644
1.473 4.791 3.878
1.334 4.706 4.049
0.514 3.753 5.839
0.406 3.637 6.067
0.248 3.580 6.197
1.906 4.874 3.563
1.809 4.703 3.717
1.223 6.245 3.407
1.708 6.231 3.034
1.550 6.214 3.217
1.428 6.109 3.481
2.044 6.266 2.964
1.850 6.173 3.112
1.814 6.080 3.280
1.676 5.906 3.591
2.325 6.210 2.731
2.238 6.134 2.957
2.102 6.008 3.180
1.961 5.890 3.434
1.887 5.776 3.609
2.742 6.173 2.579
2.553 6.028 2.882
2.400 5.936 3.075
2.323 5.867 3.201
2.222 5.784 3.440
2.045 5.687 3.678
3.069 6.085 2.455
2.932 6.049 2.727
2.789 5.861 2.860
2.653 5.795 3.099
2.533 5.737 3.319
2.453 5.586 3.519
2.291 5.488 3.730
1.541 6.301 3.600
1.837 6.183 3.480
1.768 6.136 3.671
2.239 6.228 3.341
2.065 6.126 3.528
1.989 6.019 3.800
2.667 6.222 3.016
2.554 6.192 3.152
2.429 6.104 3.388
2.259 5.930 3.613
2.187 5.814 3.833
2.963 6.192 2.856
2.902 6.163 3.075
2.729 6.043 3.221
2.664 5.877 3.450
2.453 5.774 3.694
2.443 6.275 3.588
2.397 6.202 3.712
2.831 6.190 3.395
2.692 6.141 3.606
2.540 6.055 3.835
0.764 6.128 2.772
0.598 6.097 2.946
1.067 6.089 2.650
0.952 6.025 2.845
0.821 5.941 3.020
1.299 6.031 2.735
1.199 5.877 2.928
1.001 5.775 3.115
1.625 5.945 2.572
1.548 5.886 2.760
1.401 5.770 2.967
1.266 5.626 3.179
1.864 5.829 2.662
1.753 5.755 2.797
1.597 5.618 3.027
1.458 5.505 3.292
2.806 6.249 1.422
2.707 6.118 1.660
2.055 5.665 2.699
1.910 5.562 2.941
1.812 5.446 3.090
1.738 5.378 3.273
3.157 6.211 1.305
2.970 6.122 1.503
2.308 5.503 2.775
2.147 5.422 2.945
2.066 5.339 3.138
1.874 5.219 3.385
3.631 6.281 0.931
3.482 6.211 1.172
2.365 5.264 3.040
2.280 5.257 3.268
2.080 5.105 3.484
0.666 6.321 3.131
1.068 6.285 3.015
0.875 6.131 3.186
1.332 6.221 2.798
1.261 6.071 3.090
1.127 6.052 3.273
1.592 6.015 2.890
1.496 5.952 3.102
1.348 5.909 3.315
1.924 6.001 2.782
1.784 5.912 2.999
1.698 5.834 3.227
1.521 5.783 3.443
2.179 5.846 2.861
2.054 5.773 3.057
1.937 5.653 3.239
1.779 5.562 3.466
2.477 5.820 2.720
2.338 5.736 2.935
2.253 5.689 3.156
2.116 5.601 3.339
1.999 5.408 3.487
2.647 5.713 2.782
2.525 5.663 3.013
2.466 5.534 3.128
2.292 5.411 3.400
2.227 5.349 3.579
1.221 6.165 3.436
1.646 6.283 3.084
1.522 6.142 3.225
1.458 6.109 3.463
2.016 6.242 2.930
1.865 6.113 3.096
1.756 6.077 3.356
1.640 5.963 3.587
2.332 6.140 2.725
2.241 6.126 2.952
2.115 5.960 3.216
1.994 5.846 3.440
1.842 5.797 3.582
2.696 6.177 2.584
2.573 6.070 2.805
2.493 5.944 3.023
2.356 5.819 3.297
2.145 5.749 3.412
2.046 5.708 3.643
3.064 6.068 2.452
2.913 5.983 2.732
2.831 5.902 2.852
2.661 5.838 3.080
2.524 5.694 3.278
2.388 5.663 3.510
2.307 5.549 3.772
0.054 6.265 4.073
0.089 6.212 4.077
0.338 6.134 4.118
0.174 6.047 4.303
0.079 5.907 4.517
0.465 6.158 3.954
0.304 6.121 4.100
0.510 5.974 4.207
0.423 5.899 4.417
0.285 5.789 4.573
0.834 6.244 3.537
0.803 6.110 3.805
0.585 6.080 3.982
0.532 5.974 4.189
0.690 5.826 4.277
0.563 5.674 4.501
1.088 6.159 3.590
0.951 6.018 3.814
0.868 5.887 4.029
0.739 5.849 4.276
0.926 5.728 4.269
0.200 5.093 5.582
0.088 4.960 5.809
1.342 5.949 3.734
1.131 5.919 3.934
1.051 5.745 4.055
0.889 5.673 4.320
0.517 5.068 5.447
0.366 4.944 5.652
0.302 4.829 5.882
0.127 4.733 6.026
-0.021 4.644 6.301
1.487 5.872 3.770
1.435 5.773 3.971
1.242 5.641 4.212
0.849 5.028 5.249
0.695 4.970 5.505
0.598 4.816 5.722
0.509 4.729 5.866
0.372 4.613 6.065
1.685 5.672 3.845
1.609 5.603 4.008
1.234 5.031 5.137
1.086 4.854 5.375
0.995 4.822 5.551
0.856 4.677 5.711
0.654 4.601 6.015
0.558 4.458 6.178
1.961 5.610 3.885
1.567 4.943 5.004
1.383 4.878 5.149
1.289 4.785 5.452
1.132 4.707 5.600
1.038 4.563 5.819
0.906 4.467 6.085
0.785 4.352 6.198
0.257 6.164 4.520
0.080 6.142 4.666
0.037 6.025 4.884
0.588 6.135 4.322
0.460 6.014 4.498
0.316 5.950 4.702
0.759 6.237 4.090
0.576 6.184 4.325
0.768 5.980 4.408
1.052 6.167 3.924
0.915 6.109 4.189
0.793 5.980 4.419
0.032 5.155 6.121
1.412 6.147 3.859
1.309 6.031 3.991
0.465 5.160 5.752
0.394 5.062 6.027
0.246 4.989 6.202
1.580 6.044 3.859
0.912 5.177 5.379
0.859 5.159 5.592
0.707 5.071 5.788
0.554 4.923 6.043
0.498 4.866 6.252
1.376 5.242 5.116
1.264 5.194 5.277
1.124 5.044 5.481
1.053 4.951 5.658
0.895 4.866 5.867
0.817 4.776 6.157
1.711 5.206 4.902
1.574 5.167 5.172
1.476 5.074 5.353
1.342 4.996 5.574
1.290 4.888 5.730
1.171 4.804 5.942
1.018 4.624 6.167
0.036 6.216 5.001
0.584 6.293 4.656
0.467 6.195 4.884
0.319 6.030 5.144
1.148 5.487 5.390
1.053 5.439 5.611
0.882 5.322 5.725
0.800 5.279 5.965
1.577 5.586 4.974
1.488 5.436 5.172
1.418 5.375 5.413
1.214 5.268 5.593
1.114 5.192 5.824
0.967 5.069 6.015
0.858 4.964 6.237
1.937 5.578 4.896
1.792 5.490 5.109
1.673 5.308 5.318
1.608 5.294 5.497
1.496 5.146 5.657
1.342 5.100 5.887
1.235 4.991 6.155
2.008 5.502 4.844
0.381 6.317 5.204
0.217 6.126 5.490
1.399 5.777 5.259
1.228 5.693 5.532
1.095 5.658 5.702
1.874 5.837 4.973
1.755 5.773 5.104
1.549 5.644 5.382
1.457 5.582 5.594
1.289 5.525 5.740
1.216 5.375 5.960
1.070 5.266 6.231
1.874 5.833 4.944
2.079 5.738 4.966
1.942 5.682 5.211
1.824 5.596 5.405
1.652 5.491 5.631
1.573 5.332 5.792
1.448 5.213 6.069
1.279 5.131 6.306
2.071 5.763 5.024
0.253 6.270 5.772
0.094 6.210 6.049
1.748 6.239 5.001
1.590 6.153 5.190
1.485 6.035 5.432
1.335 5.977 5.659
1.732 6.171 4.984
1.956 6.074 5.102
1.810 5.981 5.251
1.693 5.883 5.533
1.563 5.782 5.674
1.433 5.670 5.898
1.303 5.649 6.164
2.054 6.134 4.920
1.924 6.113 5.070
2.091 5.943 5.104
2.041 5.803 5.371
1.860 5.794 5.605
1.752 5.618 5.751
1.666 5.598 5.991
1.464 5.472 6.221
2.237 6.057 4.955
2.163 5.991 5.118
0.380 6.249 6.225
1.571 6.270 5.580
2.020 6.314 5.203
1.893 6.139 5.440
1.768 6.062 5.665
1.611 6.026 5.893
1.533 5.892 6.094
2.046 6.271 5.242
2.189 6.164 5.298
2.138 6.048 5.481
1.956 5.971 5.743
1.808 5.814 5.902
1.689 5.801 6.137
2.286 6.285 5.130
2.210 6.177 5.253
1.740 6.179 6.047
2.144 6.246 5.633
2.014 6.160 5.894
1.924 6.026 6.054
1.847 5.974 6.251
0.277 6.146 3.145
0.189 5.973 3.400
0.080 5.932 3.572
0.091 5.642 3.879
0.531 6.026 3.213
0.348 5.890 3.366
0.246 5.821 3.646
0.113 5.718 3.879
0.310 5.555 3.909
0.232 5.477 4.062
0.716 5.821 3.290
0.613 5.709 3.475
0.491 5.645 3.721
0.286 5.579 3.866
0.544 5.391 3.958
0.410 5.320 4.200
0.879 5.668 3.296
0.748 5.621 3.563
0.651 5.528 3.733
0.538 5.462 3.987
0.811 5.235 4.055
0.616 5.235 4.216
0.179 4.804 5.122
-0.013 4.748 5.276
1.142 5.577 3.422
1.061 5.435 3.650
0.916 5.328 3.804
0.779 5.271 4.015
1.016 5.096 4.138
0.323 4.666 5.142
0.250 4.568 5.303
0.105 4.513 5.599
1.378 5.386 3.433
1.196 5.381 3.684
1.080 5.257 3.901
0.951 5.177 4.108
1.195 4.973 4.159
0.599 4.500 5.162
0.479 4.444 5.443
0.345 4.327 5.622
0.224 4.281 5.836
0.038 4.124 6.060
1.557 5.346 3.507
1.431 5.166 3.701
1.290 5.114 3.905
1.194 5.003 4.153
0.791 4.439 5.236
0.708 4.314 5.504
0.495 4.205 5.731
0.452 4.095 5.897
0.321 3.992 6.056
1.739 5.129 3.605
1.696 5.036 3.783
1.506 4.948 4.061
0.851 4.129 5.527
0.710 4.056 5.735
0.618 3.991 5.974
0.541 3.872 6.114
1.979 4.986 3.616
0.243 6.257 3.516
0.071 6.099 3.740
0.156 5.876 3.940
0.111 5.807 4.175
0.542 6.204 3.301
0.475 6.105 3.523
0.343 5.949 3.784
0.187 5.884 4.006
0.413 5.747 4.004
0.314 5.660 4.231
0.802 6.019 3.399
0.645 5.949 3.575
0.531 5.822 3.783
0.390 5.723 4.021
0.592 5.600 4.155
0.547 5.516 4.300
1.018 5.940 3.487
0.909 5.794 3.712
0.775 5.713 3.849
0.584 5.659 4.067
0.875 5.459 4.143
0.148 4.888 5.388
1.219 5.809 3.518
1.128 5.721 3.761
0.932 5.597 4.006
0.797 5.441 4.175
1.083 5.390 4.238
0.489 4.892 5.307
0.310 4.818 5.528
0.195 4.644 5.646
0.076 4.572 5.857
1.447 5.649 3.627
1.355 5.579 3.852
1.225 5.455 4.068
1.012 5.341 4.279
0.670 4.691 5.395
0.565 4.652 5.508
0.373 4.565 5.741
0.302 4.389 5.978
0.164 4.322 6.209
1.620 5.484 3.621
1.491 5.352 3.902
1.370 5.352 4.139
0.983 4.644 5.191
0.908 4.569 5.369
0.749 4.473 5.624
0.630 4.437 5.786
0.492 4.274 5.986
0.356 4.170 6.277
1.814 5.342 3.765
1.770 5.313 3.979
1.174 4.573 5.261
1.070 4.501 5.428
1.006 4.384 5.644
0.813 4.298 5.926
0.741 4.188 6.139
0.094 6.239 4.010
0.092 6.226 4.102
0.268 6.058 4.143
0.127 6.009 4.277
0.018 5.884 4.558
0.396 6.213 3.930
0.275 6.046 4.153
0.454 5.921 4.203
0.330 5.833 4.428
0.218 5.813 4.625
0.904 6.211 3.586
0.721 6.174 3.784
0.638 6.014 4.015
0.483 5.960 4.221
0.748 5.820 4.211
0.610 5.685 4.435
1.101 6.158 3.647
0.961 5.976 3.836
0.817 5.933 4.012
0.683 5.871 4.201
0.906 5.685 4.309
0.185 5.106 5.572
0.096 5.004 5.744
1.278 5.962 3.732
1.204 5.882 3.865
1.070 5.769 4.066
0.928 5.684 4.337
0.535 5.070 5.433
0.362 4.949 5.598
0.295 4.903 5.813
0.177 4.797 6.041
-0.012 4.727 6.239
1.542 5.848 3.733
1.432 5.723 3.963
1.259 5.673 4.146
0.849 5.046 5.311
0.693 4.889 5.461
0.633 4.815 5.731
0.468 4.746 5.879
0.334 4.623 6.081
1.705 5.665 3.809
1.624 5.619 3.997
1.239 4.942 5.126
1.069 4.853 5.353
0.988 4.794 5.574
0.877 4.702 5.780
0.680 4.625 5.973
0.624 4.546 6.215
1.942 5.580 3.871
1.523 4.956 5.022
1.444 4.815 5.193
1.313 4.749 5.401
1.151 4.624 5.629
1.028 4.565 5.854
0.905 4.414 5.995
0.805 4.381 6.229
0.625 0.654 0.105
0.755 0.943 0.122
0.652 0.866 0.275
1.054 0.808 0.141
1.175 0.683 0.164
1.506 0.605 0.047
3.479 0.172 0.070
3.425 0.112 0.198
3.756 -0.003 0.122
1.044 1.230 0.036
0.830 1.125 0.174
0.760 1.052 0.397
1.186 1.100 0.069
1.043 0.961 0.262
0.993 0.931 0.463
1.398 0.977 0.189
1.350 0.920 0.337
1.636 0.822 0.202
1.526 0.710 0.364
1.940 0.757 0.095
1.826 0.739 0.265
3.192 0.216 0.191
3.041 0.142 0.333
2.884 0.022 0.630
3.564 0.216 0.071
3.370 0.063 0.190
3.625 0.417 0.149
3.436 0.246 0.376
3.352 0.161 0.556
3.190 0.064 0.849
3.980 0.361 0.075
3.822 0.263 0.249
3.730 0.159 0.467
3.589 0.087 0.608
4.147 0.227 0.089
4.058 0.122 0.256
3.885 -0.031 0.478
4.381 0.020 0.107
4.727 0.066 0.045
1.083 1.431 0.200
0.935 1.321 0.407
0.846 1.262 0.528
1.419 1.439 -0.003
1.322 1.283 0.202
1.180 1.218 0.400
1.006 1.131 0.687
1.659 1.313 0.116
1.556 1.221 0.240
1.401 1.030 0.480
1.248 0.972 0.749
1.818 1.115 0.153
1.774 1.059 0.318
1.634 0.961 0.596
2.051 0.981 0.228
1.965 0.911 0.420
1.767 0.850 0.574
2.362 0.972 0.095
2.327 0.865 0.298
3.383 0.462 0.080
3.301 0.417 0.292
3.132 0.356 0.569
3.640 0.335 0.134
3.475 0.272 0.352
3.308 0.140 0.549
3.229 0.034 0.808
3.765 0.719 0.149
3.723 0.575 0.334
3.607 0.483 0.499
3.408 0.332 0.712
3.351 0.255 0.954
4.032 0.571 0.209
3.908 0.481 0.354
3.771 0.358 0.540
3.647 0.229 0.825
3.574 0.131 0.997
3.422 0.072 1.225
4.351 0.468 0.032
4.235 0.416 0.189
4.089 0.301 0.487
4.030 0.232 0.677
3.886 0.066 0.829
3.712 -0.008 1.070
4.561 0.358 0.107
4.437 0.272 0.287
4.360 0.205 0.494
4.249 0.082 0.698
4.817 0.224 0.121
4.636 0.151 0.408
4.564 0.007 0.575
4.952 0.110 0.259
1.300 1.785 0.115
1.120 1.645 0.268
1.000 1.558 0.475
1.528 1.650 0.113
1.400 1.459 0.330
1.306 1.463 0.559
1.085 1.328 0.753
1.892 1.536 -0.017
1.721 1.485 0.246
1.612 1.360 0.440
1.462 1.311 0.678
1.312 1.221 0.815
2.082 1.414 0.113
1.955 1.310 0.243
1.768 1.187 0.518
1.679 1.170 0.695
1.527 1.045 0.878
2.232 1.342 0.093
2.118 1.169 0.355
2.008 1.078 0.584
1.943 0.976 0.798
1.792 0.915 0.964
2.485 1.191 0.206
2.334 1.049 0.430
2.207 0.997 0.578
2.083 0.873 0.816
3.626 0.757 0.056
3.456 0.662 0.281
3.358 0.567 0.437
3.816 0.652 0.095
3.662 0.534 0.276
3.591 0.500 0.565
3.480 0.349 0.744
3.321 0.276 0.941
4.005 0.999 0.008
3.910 0.843 0.291
3.805 0.791 0.468
3.665 0.668 0.619
3.569 0.584 0.827
4.256 0.816 0.065
4.156 0.706 0.352
3.991 0.632 0.547
3.871 0.505 0.717
3.739 0.412 0.898
3.630 0.319 1.184
4.496 0.681 0.181
4.299 0.632 0.370
4.146 0.486 0.595
4.060 0.370 0.833
3.914 0.339 1.012
3.774 0.231 1.259
3.692 0.128 1.470
4.684 0.587 0.223
4.530 0.462 0.439
4.432 0.391 0.633
4.259 0.293 0.870
4.163 0.125 1.067
3.985 0.066 1.240
4.899 0.470 0.305
4.756 0.288 0.501
4.626 0.234 0.729
4.509 0.182 0.924
4.410 0.032 1.089
4.979 0.189 0.550
4.808 0.045 0.772
1.535 2.021 0.059
1.396 1.995 0.263
1.236 1.804 0.422
1.083 1.780 0.676
1.672 1.930 0.064
1.564 1.764 0.332
1.507 1.756 0.478
1.327 1.622 0.682
1.903 1.810 0.179
1.814 1.666 0.356
1.718 1.546 0.592
1.533 1.497 0.807
1.427 1.384 1.032
2.241 1.700 0.028
2.120 1.618 0.226
2.013 1.502 0.434
1.873 1.460 0.625
1.748 1.361 0.872
1.635 1.208 1.015
2.483 1.567 0.071
2.318 1.487 0.272
2.274 1.446 0.457
2.158 1.341 0.707
1.938 1.224 0.874
1.880 1.144 1.067
1.768 1.015 1.332
2.480 1.251 0.574
2.342 1.119 0.746
2.172 1.076 0.935
2.103 1.016 1.145
1.956 0.830 1.360
2.443 0.912 1.013
2.307 0.883 1.245
2.212 0.708 1.488
2.430 0.632 1.522
3.682 1.015 0.157
3.560 0.908 0.387
4.056 0.965 0.031
3.846 0.868 0.246
3.796 0.809 0.473
3.627 0.686 0.619
3.477 0.612 0.856
4.095 1.118 0.183
3.936 1.031 0.428
3.832 0.954 0.606
3.772 0.897 0.810
4.400 1.160 0.039
4.344 1.028 0.219
4.220 0.893 0.419
4.097 0.837 0.630
3.899 0.696 0.915
3.835 0.673 1.096
4.654 1.009 0.122
4.526 0.929 0.311
4.435 0.780 0.527
4.249 0.754 0.680
4.192 0.656 0.918
4.044 0.532 1.158
3.868 0.429 1.380
4.739 0.779 0.378
4.636 0.634 0.552
4.467 0.530 0.763
4.367 0.474 1.038
4.288 0.326 1.191
4.148 0.326 1.412
3.990 0.223 1.628
4.856 0.568 0.691
4.713 0.391 0.841
4.564 0.355 1.078
4.485 0.238 1.315
4.341 0.165 1.507
4.170 0.094 1.717
4.906 0.299 0.915
4.850 0.228 1.115
4.705 0.129 1.326
4.531 -0.013 1.523
5.040 0.042 1.213
5.936 0.532 -0.004
5.866 0.433 0.222
6.221 0.339 0.087
6.031 0.268 0.258
5.911 0.212 0.525
6.315 0.160 0.370
6.110 0.089 0.511
1.632 2.244 0.217
1.440 2.165 0.337
1.327 2.006 0.569
1.933 2.203 0.030
1.841 2.125 0.206
1.729 2.015 0.437
1.579 1.952 0.639
1.407 1.848 0.906
2.139 2.090 0.055
2.053 1.919 0.303
1.857 1.856 0.513
1.752 1.745 0.748
1.618 1.724 0.914
1.484 1.610 1.106
2.390 1.965 0.188
2.197 1.880 0.350
2.087 1.700 0.613
2.005 1.686 0.797
1.867 1.580 0.983
1.723 1.463 1.211
1.560 1.318 1.386
2.423 1.674 0.395
2.283 1.609 0.651
2.158 1.540 0.827
2.115 1.451 1.009
1.952 1.346 1.225
1.771 1.208 1.487
2.562 1.500 0.653
2.417 1.320 0.953
2.315 1.285 1.136
2.179 1.209 1.363
2.066 1.085 1.552
2.664 1.282 0.967
2.474 1.166 1.152
2.354 1.001 1.418
2.268 0.970 1.569
2.679 0.999 1.196
2.622 0.907 1.407
2.458 0.855 1.681
3.626 1.443 0.098
3.540 1.318 0.245
2.832 0.785 1.518
2.699 0.678 1.721
3.904 1.283 0.072
3.786 1.165 0.358
3.608 1.064 0.494
2.842 0.561 1.747
4.118 1.187 0.137
3.994 1.034 0.373
3.881 1.026 0.582
3.728 0.845 0.780
4.300 1.513 0.106
4.140 1.367 0.306
4.016 1.254 0.564
3.901 1.219 0.720
3.204 0.600 2.024
4.558 1.312 0.168
4.380 1.213 0.365
4.304 1.109 0.581
4.176 0.991 0.815
4.585 1.135 0.502
4.509 1.025 0.663
4.406 0.905 0.848
4.234 0.790 1.083
4.562 0.749 0.982
4.470 0.646 1.105
4.322 0.618 1.381
4.669 0.523 1.193
4.567 0.478 1.380
4.467 0.325 1.654
4.318 0.232 1.868
4.798 0.295 1.520
4.610 0.238 1.719
4.509 0.156 1.930
4.360 -0.025 2.157
5.895 0.849 0.123
5.750 0.782 0.324
4.948 0.184 1.560
4.873 0.058 1.770
6.108 0.670 0.190
5.897 0.615 0.320
5.845 0.460 0.551
6.252 0.586 0.216
6.101 0.491 0.436
5.993 0.350 0.608
5.922 0.315 0.844
6.288 0.256 0.700
6.065 0.185 0.934
1.825 2.589 0.128
1.622 2.404 0.303
2.006 2.377 0.148
1.908 2.317 0.388
1.792 2.220 0.585
2.123 2.169 0.395
1.932 2.029 0.634
1.845 1.936 0.829
1.712 1.849 1.046
2.200 1.945 0.662
2.055 1.868 0.934
1.927 1.790 1.156
1.838 1.687 1.322
1.644 1.586 1.528
2.399 1.769 0.742
2.290 1.706 0.973
2.117 1.558 1.241
2.046 1.518 1.451
1.917 1.400 1.637
2.462 1.531 1.037
2.409 1.465 1.210
2.259 1.381 1.494
2.080 1.314 1.710
3.365 1.953 0.053
2.714 1.388 1.110
2.534 1.342 1.285
2.496 1.220 1.550
2.377 1.134 1.789
3.504 1.781 0.131
2.850 1.166 1.357
2.684 1.066 1.623
2.577 0.981 1.765
3.718 1.601 0.174
3.671 1.591 0.454
2.980 1.031 1.470
2.940 0.942 1.624
2.734 0.891 1.871
4.050 1.633 0.030
4.019 1.510 0.234
3.890 1.371 0.482
3.142 0.802 1.756
2.970 0.696 1.956
4.261 1.513 0.151
4.138 1.385 0.358
4.029 1.281 0.552
3.901 1.146 0.730
3.173 0.620 1.976
4.487 1.815 0.007
4.433 1.665 0.304
4.227 1.622 0.480
4.200 1.472 0.681
3.446 0.917 1.954
3.265 0.832 2.195
4.764 1.622 0.143
4.656 1.573 0.286
4.531 1.410 0.500
5.681 1.135 0.210
4.562 0.291 2.058
4.454 0.236 2.235
4.333 0.068 2.505
6.101 1.160 0.052
5.956 1.020 0.207
5.764 0.904 0.395
5.670 0.862 0.673
4.911 0.228 1.878
4.788 0.214 2.073
4.657 0.108 2.327
6.285 1.037 0.046
6.141 0.910 0.253
6.017 0.785 0.531
5.928 0.744 0.678
5.793 0.600 0.871
5.119 0.179 2.000
5.056 0.035 2.149
6.239 0.663 0.619
6.095 0.593 0.751
6.000 0.513 0.960
6.159 0.323 1.078
6.043 0.274 1.212
2.014 1.939 1.314
1.868 1.856 1.530
1.811 1.736 1.675
2.383 1.886 1.144
2.240 1.828 1.338
2.119 1.713 1.506
2.019 1.588 1.753
3.209 2.241 0.109
2.619 1.792 1.213
2.492 1.708 1.356
2.296 1.527 1.582
2.229 1.439 1.811
3.546 2.205 0.005
3.456 2.147 0.179
2.814 1.600 1.305
2.618 1.507 1.505
2.500 1.399 1.638
2.438 1.385 1.898
3.779 2.062 0.055
3.652 1.980 0.327
3.527 1.844 0.487
3.019 1.532 1.315
2.845 1.396 1.556
2.785 1.349 1.699
2.649 1.254 1.905
4.010 1.943 0.086
3.873 1.850 0.330
3.742 1.719 0.566
3.112 1.278 1.580
3.021 1.139 1.759
2.891 1.083 2.026
4.203 1.782 0.164
4.097 1.731 0.452
3.959 1.607 0.585
3.341 1.149 1.637
3.205 1.042 1.872
3.044 0.944 2.123
4.566 1.777 0.098
4.363 1.701 0.254
4.292 1.580 0.433
4.100 1.429 0.698
3.391 0.932 1.948
3.273 0.767 2.192
4.617 1.971 0.205
4.479 1.916 0.363
4.342 1.820 0.652
3.560 1.182 1.864
3.527 1.047 2.060
3.393 1.035 2.299
4.958 1.932 0.040
4.789 1.783 0.214
3.550 0.839 2.402
5.888 1.527 0.066
5.800 1.343 0.278
5.645 1.262 0.548
4.457 0.353 2.587
6.115 1.392 0.185
6.055 1.196 0.335
5.911 1.102 0.580
5.744 1.090 0.831
5.621 0.959 1.030
4.870 0.368 2.211
4.775 0.279 2.440
4.670 0.145 2.658
6.276 1.141 0.408
6.112 0.978 0.647
5.932 0.897 0.828
5.845 0.837 1.108
5.148 0.204 2.336
4.959 0.095 2.534
4.814 0.090 2.700
6.245 0.753 0.941
6.039 0.636 1.100
5.933 0.544 1.305
5.486 0.148 2.210
5.357 0.074 2.353
5.174 -0.023 2.630
6.196 0.461 1.432
5.638 0.077 2.201
1.882 1.980 1.885
3.177 2.714 0.026
3.054 2.611 0.200
2.334 2.000 1.487
2.236 1.866 1.661
2.045 1.793 1.946
3.366 2.514 0.082
3.317 2.450 0.245
2.552 1.921 1.567
2.467 1.776 1.719
2.268 1.693 1.986
3.656 2.463 0.181
3.483 2.295 0.333
3.348 2.232 0.516
2.874 1.847 1.406
2.805 1.787 1.567
2.629 1.689 1.784
2.457 1.587 2.032
3.980 2.329 0.015
3.811 2.276 0.224
3.684 2.169 0.448
3.605 2.036 0.580
3.144 1.694 1.466
2.950 1.604 1.678
2.868 1.470 1.879
2.743 1.406 2.122
4.201 2.223 0.031
4.008 2.102 0.293
3.920 2.079 0.467
3.778 1.963 0.688
3.315 1.533 1.560
3.161 1.489 1.698
3.093 1.325 1.988
2.884 1.226 2.182
4.410 2.135 0.097
4.250 1.977 0.293
4.096 1.872 0.600
3.417 1.296 1.780
3.247 1.275 1.971
3.158 1.174 2.235
4.571 1.914 0.237
4.498 1.870 0.355
4.362 1.763 0.606
3.610 1.234 1.870
3.465 1.101 2.112
3.355 0.965 2.334
4.851 2.213 0.133
4.714 2.121 0.300
4.575 2.027 0.560
3.771 1.493 1.828
3.675 1.398 2.033
3.539 1.269 2.231
3.462 1.175 2.446
5.029 2.129 0.157
3.907 1.271 2.099
3.745 1.203 2.303
3.637 1.033 2.497
5.866 1.569 0.444
5.808 1.498 0.649
5.657 1.383 0.915
5.535 1.248 1.105
6.238 1.577 0.350
6.054 1.460 0.492
5.982 1.385 0.694
5.887 1.221 0.907
5.768 1.199 1.113
5.551 1.085 1.391
4.826 0.528 2.614
4.708 0.362 2.776
6.174 1.162 0.774
6.043 1.104 0.985
5.986 1.029 1.195
5.777 0.954 1.439
5.184 0.392 2.469
5.118 0.389 2.674
4.897 0.220 2.925
6.307 1.021 1.076
6.197 0.922 1.270
6.076 0.757 1.455
5.428 0.261 2.550
5.316 0.179 2.770
5.126 0.150 2.983
6.220 0.648 1.598
5.792 0.278 2.341
5.614 0.145 2.597
5.510 0.069 2.777
5.941 0.090 2.488
5.829 -0.004 2.630
3.103 3.013 0.112
2.952 2.916 0.256
3.326 2.885 0.126
3.162 2.748 0.387
3.022 2.682 0.597
2.251 2.155 1.876
2.128 2.013 2.032
3.603 2.806 0.062
3.499 2.728 0.228
3.365 2.641 0.471
3.205 2.547 0.632
2.669 2.047 1.728
2.475 1.960 1.891
2.378 1.865 2.114
3.863 2.733 0.122
3.711 2.662 0.323
3.577 2.517 0.480
3.485 2.379 0.695
2.827 1.931 1.717
2.688 1.817 1.937
2.580 1.712 2.124
4.041 2.610 0.095
3.975 2.437 0.394
3.784 2.423 0.613
3.674 2.322 0.825
3.175 1.880 1.577
3.016 1.845 1.846
2.932 1.682 2.055
2.757 1.635 2.235
4.391 2.550 -0.020
4.310 2.413 0.230
4.090 2.332 0.445
3.968 2.257 0.657
3.406 1.780 1.692
3.233 1.659 1.844
3.182 1.551 2.131
2.969 1.495 2.304
4.630 2.440 0.061
4.442 2.255 0.281
4.343 2.228 0.448
4.236 2.150 0.696
3.654 1.595 1.753
3.526 1.492 1.954
3.396 1.414 2.118
3.266 1.294 2.370
4.776 2.220 0.137
4.715 2.194 0.353
4.532 2.110 0.574
3.812 1.465 1.799
3.729 1.432 1.984
3.579 1.287 2.264
3.489 1.208 2.405
5.066 2.520 0.017
4.947 2.421 0.292
4.798 2.414 0.463
4.055 1.739 1.731
3.917 1.727 1.934
3.810 1.614 2.186
3.676 1.523 2.414
3.530 1.409 2.529
5.277 2.458 0.091
4.247 1.668 1.765
4.163 1.559 2.000
3.954 1.452 2.209
3.824 1.388 2.475
3.753 1.278 2.639
4.588 1.640 1.666
4.419 1.505 1.874
4.358 1.449 2.035
4.195 1.295 2.299
4.897 1.580 1.506
4.745 1.471 1.672
4.668 1.405 1.897
5.389 1.667 1.210
5.228 1.568 1.318
5.158 1.454 1.557
5.011 1.332 1.789
5.897 1.678 0.825
5.711 1.616 1.008
5.610 1.545 1.183
5.509 1.406 1.441
5.305 1.332 1.657
6.148 1.650 0.634
6.087 1.548 0.827
5.961 1.485 1.117
5.819 1.323 1.282
5.669 1.256 1.456
5.579 1.132 1.657
4.833 0.604 2.925
6.265 1.438 0.959
6.101 1.337 1.154
6.020 1.228 1.385
5.901 1.151 1.519
5.176 0.510 2.868
5.006 0.418 2.987
6.260 1.049 1.436
6.159 0.962 1.583
5.478 0.535 2.652
5.410 0.461 2.880
5.220 0.293 3.139
5.748 0.333 2.690
5.591 0.281 2.971
5.437 0.200 3.114
6.059 0.294 2.612
5.920 0.184 2.797
5.806 0.102 3.028
5.714 0.074 3.227
6.252 0.209 2.616
6.123 0.082 2.853
6.058 -0.005 3.076
1.987 3.236 0.882
1.921 3.167 1.114
1.786 3.083 1.319
1.653 2.920 1.494
2.364 3.228 0.774
2.272 3.082 0.957
2.150 3.054 1.183
2.855 3.242 0.396
2.679 3.183 0.609
2.610 3.059 0.756
2.409 2.927 1.054
3.292 3.284 0.064
3.108 3.218 0.275
3.053 3.135 0.464
2.941 3.073 0.665
2.742 2.910 0.840
3.521 3.159 0.135
3.417 3.078 0.338
3.198 2.972 0.469
3.077 2.905 0.708
3.010 2.768 0.962
2.238 2.187 2.145
3.742 3.076 0.115
3.581 2.993 0.403
3.460 2.812 0.617
3.334 2.741 0.802
2.597 2.153 2.082
2.487 2.088 2.292
4.026 3.055 -0.032
3.907 2.931 0.196
3.788 2.812 0.413
3.661 2.703 0.601
3.571 2.581 0.874
2.946 2.135 1.856
2.833 1.995 2.121
2.673 1.913 2.270
4.309 2.885 0.057
4.136 2.818 0.294
3.984 2.654 0.538
3.856 2.591 0.715
3.109 2.056 1.931
3.023 1.884 2.213
2.933 1.836 2.431
4.507 2.729 0.096
4.352 2.634 0.388
4.266 2.553 0.524
4.097 2.408 0.735
3.473 1.968 1.782
3.377 1.899 2.006
3.258 1.794 2.288
3.055 1.663 2.401
4.802 2.719 0.005
4.646 2.629 0.169
4.573 2.458 0.370
4.459 2.364 0.604
3.662 1.809 1.927
3.516 1.691 2.100
3.488 1.681 2.308
3.367 1.548 2.550
5.053 2.610 0.092
4.852 2.454 0.235
4.805 2.324 0.511
4.003 1.841 1.748
3.877 1.707 1.986
3.775 1.605 2.157
3.605 1.458 2.377
3.492 1.425 2.585
5.068 2.730 0.249
4.987 2.699 0.457
4.229 2.109 1.648
4.110 2.013 1.831
4.010 1.934 2.070
3.851 1.811 2.279
3.705 1.710 2.539
3.662 1.631 2.754
5.435 2.746 0.070
5.306 2.597 0.297
4.601 2.015 1.558
4.453 1.904 1.741
4.362 1.881 1.996
4.206 1.766 2.126
4.041 1.680 2.413
3.971 1.608 2.559
3.828 1.430 2.734
5.674 2.551 0.170
4.926 1.986 1.430
4.789 1.910 1.591
4.618 1.851 1.820
4.527 1.700 1.965
4.412 1.664 2.242
4.318 1.554 2.391
4.122 1.433 2.658
5.280 1.977 1.215
5.092 1.922 1.418
5.005 1.724 1.610
4.909 1.661 1.845
4.782 1.532 2.032
4.609 1.526 2.278
4.531 1.425 2.524
5.623 1.924 1.141
5.500 1.859 1.268
5.301 1.743 1.558
5.265 1.615 1.757
5.143 1.522 1.906
4.940 1.443 2.185
4.817 1.334 2.319
5.919 1.877 0.985
5.804 1.784 1.150
5.650 1.687 1.391
5.545 1.549 1.581
5.438 1.496 1.765
5.291 1.441 2.037
5.169 1.271 2.217
6.308 1.874 0.794
6.160 1.796 0.976
6.028 1.690 1.259
5.847 1.512 1.394
5.824 1.472 1.596
5.642 1.413 1.822
5.546 1.258 2.094
6.216 1.547 1.339
6.126 1.449 1.528
6.000 1.374 1.666
5.873 1.280 1.888
5.143 0.687 3.161
6.244 1.163 1.736
5.426 0.567 3.021
5.291 0.473 3.206
5.792 0.613 2.838
5.668 0.462 3.126
5.551 0.371 3.284
6.141 0.557 2.685
6.018 0.402 2.979
5.923 0.350 3.140
5.777 0.250 3.364
6.241 0.285 2.974
6.073 0.197 3.224
5.960 0.099 3.444
2.344 3.596 0.562
2.179 3.507 0.854
2.143 3.479 1.064
2.019 3.405 1.188
1.855 3.270 1.424
1.718 3.177 1.703
1.615 3.043 1.909
2.693 3.634 0.509
2.515 3.552 0.677
2.428 3.448 0.850
2.357 3.288 1.093
2.166 3.247 1.306
2.052 3.150 1.483
1.962 2.975 1.761
3.022 3.526 0.270
2.953 3.492 0.555
2.764 3.400 0.743
2.650 3.233 0.914
2.550 3.214 1.203
2.375 3.097 1.402
2.274 2.948 1.563
3.395 3.532 0.192
3.283 3.433 0.431
3.128 3.345 0.543
2.982 3.215 0.781
2.845 3.157 0.969
2.706 2.998 1.247
2.617 2.926 1.472
3.656 3.489 0.031
3.617 3.342 0.277
3.430 3.301 0.427
3.280 3.215 0.644
3.232 3.059 0.833
3.108 2.961 1.026
2.997 2.948 1.241
3.925 3.378 0.108
3.833 3.223 0.288
3.624 3.109 0.533
3.522 3.096 0.756
3.409 2.938 0.980
3.312 2.878 1.181
2.561 2.289 2.447
4.144 3.220 0.204
4.023 3.157 0.394
3.855 3.043 0.577
3.795 2.917 0.755
3.616 2.871 0.946
2.858 2.274 2.236
2.808 2.188 2.418
4.473 3.172 0.020
4.320 3.035 0.193
4.235 2.994 0.411
4.128 2.884 0.644
3.942 2.789 0.901
3.273 2.187 2.143
3.135 2.093 2.271
2.941 2.059 2.475
4.667 3.061 0.102
4.548 2.980 0.258
4.444 2.817 0.508
4.298 2.710 0.707
3.547 2.159 1.989
3.450 2.068 2.220
3.363 1.945 2.387
3.203 1.899 2.604
4.883 2.929 0.133
4.734 2.756 0.393
4.597 2.724 0.529
3.885 2.086 1.861
3.792 2.035 1.987
3.607 1.935 2.244
3.492 1.840 2.479
3.441 1.725 2.667
5.102 2.756 0.222
5.004 2.682 0.416
4.203 2.043 1.652
4.089 1.961 1.877
4.040 1.890 2.057
3.917 1.751 2.298
3.738 1.742 2.543
3.577 1.654 2.764
5.335 3.082 0.179
5.146 3.002 0.337
4.430 2.430 1.590
4.293 2.271 1.770
4.218 2.202 2.007
4.073 2.124 2.245
3.974 1.974 2.392
3.875 1.886 2.641
3.668 1.845 2.897
5.514 2.916 0.165
4.767 2.345 1.479
4.712 2.221 1.709
4.493 2.108 1.891
4.410 2.054 2.092
4.268 1.989 2.331
4.118 1.818 2.510
4.022 1.776 2.738
5.880 2.917 0.072
5.783 2.748 0.275
5.084 2.290 1.370
4.976 2.227 1.555
4.833 2.113 1.689
4.704 1.969 1.995
4.615 1.965 2.114
4.518 1.860 2.348
4.416 1.748 2.581
4.286 1.678 2.745
6.120 2.730 0.136
5.316 2.183 1.402
5.221 2.074 1.627
5.131 1.945 1.830
4.937 1.896 2.023
4.822 1.824 2.210
4.721 1.665 2.472
4.641 1.619 2.672
5.720 2.092 1.285
5.597 2.012 1.494
5.390 1.978 1.616
5.319 1.861 1.836
5.163 1.778 2.035
5.020 1.692 2.315
4.925 1.582 2.503
4.853 1.488 2.719
5.907 1.945 1.279
5.718 1.904 1.521
5.625 1.840 1.755
5.533 1.753 1.883
5.415 1.560 2.098
5.288 1.469 2.339
5.167 1.419 2.533
6.211 1.994 1.141
6.145 1.807 1.356
6.002 1.730 1.572
5.885 1.697 1.781
5.722 1.615 1.964
5.654 1.500 2.215
5.506 1.356 2.400
6.248 1.590 1.644
6.040 1.539 1.867
5.954 1.469 2.022
5.642 0.536 3.391
6.081 0.602 3.072
5.972 0.571 3.284
5.802 0.451 3.455
6.224 0.388 3.367
6.098 0.296 3.572
6.295 0.142 3.641
2.535 3.977 0.537
2.428 3.860 0.746
2.285 3.759 0.931
2.213 3.609 1.151
2.056 3.599 1.367
1.970 3.474 1.541
1.793 3.349 1.750
1.659 3.245 2.034
2.799 3.817 0.558
2.646 3.753 0.791
2.521 3.575 1.046
2.390 3.516 1.263
2.325 3.384 1.430
2.164 3.349 1.638
2.074 3.213 1.909
3.086 3.770 0.432
2.960 3.674 0.648
2.906 3.584 0.850
2.698 3.441 1.090
2.648 3.344 1.281
2.460 3.293 1.469
2.388 3.196 1.699
2.239 3.116 1.973
3.319 3.597 0.495
3.217 3.528 0.753
3.055 3.394 0.911
2.906 3.328 1.165
2.794 3.231 1.357
2.715 3.174 1.558
2.571 3.084 1.738
3.713 3.592 0.351
3.522 3.457 0.563
3.408 3.379 0.761
3.246 3.275 1.001
3.170 3.221 1.250
3.011 3.066 1.410
2.885 3.015 1.656
3.880 3.419 0.431
3.768 3.376 0.677
3.583 3.264 0.912
3.528 3.129 1.115
3.423 3.089 1.286
4.189 3.430 0.288
4.101 3.272 0.549
3.988 3.175 0.755
3.877 3.132 0.895
4.563 3.400 0.209
4.398 3.230 0.342
4.298 3.229 0.526
3.070 2.216 2.719
4.924 3.290 -0.016
4.719 3.285 0.230
4.602 3.189 0.409
3.486 2.294 2.294
3.417 2.132 2.476
3.285 2.050 2.735
5.078 3.232 0.093
4.988 3.053 0.318
3.952 2.368 1.936
3.820 2.204 2.166
3.692 2.136 2.391
3.588 2.081 2.623
3.504 1.938 2.813
5.345 3.023 0.176
5.175 2.934 0.341
4.428 2.336 1.635
4.313 2.315 1.786
4.242 2.226 2.064
4.070 2.054 2.213
3.920 1.991 2.456
3.795 1.923 2.606
3.691 1.775 2.875
5.494 3.397 0.042
5.374 3.224 0.294
4.694 2.649 1.542
4.520 2.550 1.791
4.362 2.501 1.992
4.254 2.398 2.156
4.153 2.323 2.419
4.063 2.246 2.556
3.901 2.061 2.786
5.783 3.264 0.128
5.568 3.092 0.349
4.973 2.687 1.411
4.913 2.578 1.565
4.792 2.468 1.835
4.623 2.352 2.019
4.504 2.239 2.257
4.414 2.199 2.485
4.216 2.038 2.645
4.156 1.941 2.847
5.974 3.086 0.238
5.876 3.015 0.427
5.241 2.536 1.507
5.123 2.400 1.632
5.014 2.277 1.840
4.817 2.226 2.049
4.732 2.154 2.288
4.623 2.035 2.545
4.429 1.878 2.765
4.339 1.802 2.976
6.219 2.941 0.295
6.032 2.886 0.450
5.583 2.450 1.347
5.426 2.330 1.524
5.254 2.260 1.758
5.201 2.163 1.920
5.018 2.105 2.205
4.895 1.944 2.344
4.793 1.866 2.620
4.701 1.780 2.799
4.515 1.712 2.941
5.763 2.320 1.352
5.672 2.261 1.599
5.550 2.105 1.763
5.417 2.036 2.032
5.255 1.948 2.200
5.193 1.866 2.432
4.979 1.750 2.609
4.874 1.685 2.894
5.995 2.154 1.396
5.840 2.102 1.687
5.778 1.955 1.848
5.637 1.941 2.083
5.530 1.830 2.287
5.378 1.700 2.452
5.210 1.619 2.730
5.150 1.533 2.872
6.200 2.061 1.546
6.024 1.984 1.683
5.983 1.870 1.979
5.787 1.762 2.189
5.722 1.679 2.321
5.589 1.605 2.509
5.411 1.502 2.747
6.283 1.833 1.766
6.139 1.695 1.947
6.038 1.652 2.207
5.867 1.517 2.434
2.645 4.109 0.655
2.541 4.011 0.905
2.395 3.949 1.063
2.313 3.891 1.291
2.105 3.751 1.577
2.016 3.706 1.719
1.918 3.587 1.945
1.815 3.476 2.180
3.003 4.058 0.503
2.822 4.023 0.798
2.771 3.917 0.955
2.597 3.778 1.160
2.446 3.681 1.365
2.314 3.659 1.579
2.215 3.500 1.826
2.086 3.414 1.962
2.014 3.281 2.173
3.144 3.969 0.572
3.041 3.846 0.820
2.962 3.809 1.065
2.805 3.654 1.192
2.726 3.590 1.489
2.616 3.508 1.613
2.426 3.345 1.812
2.301 3.247 2.078
3.446 3.881 0.655
3.252 3.758 0.896
3.116 3.620 1.048
3.006 3.529 1.261
2.920 3.492 1.459
2.806 3.385 1.679
2.709 3.251 1.958
2.542 3.105 2.098
3.627 3.726 0.724
3.514 3.646 0.992
3.345 3.536 1.128
3.207 3.408 1.373
3.178 3.339 1.541
3.002 3.183 1.795
2.856 3.088 1.956
3.668 3.433 0.987
3.552 3.375 1.178
3.419 3.272 1.410
3.293 3.213 1.657
5.365 3.444 0.040
4.215 2.676 1.924
4.099 2.485 2.147
3.921 2.394 2.334
3.799 2.318 2.517
5.511 3.388 0.044
5.382 3.306 0.295
4.704 2.722 1.514
4.540 2.618 1.710
4.410 2.444 1.965
4.248 2.382 2.121
4.137 2.346 2.388
4.051 2.182 2.592
3.926 2.116 2.787
5.749 3.640 -0.033
5.603 3.561 0.259
4.904 2.949 1.428
4.703 2.877 1.653
4.603 2.743 1.846
4.484 2.736 2.147
4.421 2.636 2.311
4.292 2.453 2.564
4.072 2.421 2.719
5.920 3.488 0.084
5.791 3.463 0.323
5.095 2.813 1.545
4.910 2.734 1.742
4.785 2.617 1.956
4.750 2.547 2.207
4.593 2.501 2.418
4.478 2.328 2.602
4.322 2.309 2.807
6.134 3.361 0.175
6.065 3.318 0.386
5.933 3.154 0.566
5.455 2.774 1.358
5.334 2.736 1.556
5.198 2.627 1.772
5.054 2.524 1.977
4.947 2.450 2.189
4.750 2.290 2.401
4.709 2.188 2.612
4.522 2.132 2.833
4.415 2.041 3.117
6.272 3.203 0.383
6.152 3.088 0.659
5.662 2.624 1.453
5.559 2.547 1.639
5.359 2.506 1.905
5.263 2.393 2.071
5.110 2.315 2.312
5.019 2.206 2.479
4.901 2.054 2.750
4.810 1.978 2.966
4.643 1.934 3.107
5.898 2.537 1.504
5.716 2.425 1.736
5.557 2.335 1.930
5.515 2.238 2.197
5.313 2.147 2.374
5.192 2.005 2.574
5.052 1.939 2.742
4.949 1.854 2.964
4.888 1.762 3.147
5.901 2.310 1.811
5.856 2.168 2.015
5.675 2.117 2.199
5.564 2.043 2.384
5.451 1.928 2.681
5.307 1.844 2.861
5.193 1.689 3.068
6.121 2.203 1.823
6.057 2.082 2.062
5.919 1.939 2.242
5.759 1.833 2.461
5.674 1.768 2.696
5.560 1.642 2.914
5.400 1.544 3.135
6.165 1.828 2.396
6.023 1.786 2.512
5.920 1.599 2.798
2.878 4.492 0.613
2.774 4.337 0.801
2.568 4.251 1.092
2.439 4.104 1.274
2.366 4.085 1.424
2.230 3.923 1.678
2.131 3.842 1.889
1.943 3.767 2.107
1.890 3.720 2.343
3.099 4.305 0.723
2.977 4.162 0.886
2.783 4.155 1.124
2.663 3.970 1.338
2.521 3.923 1.516
2.396 3.787 1.725
2.367 3.726 1.988
2.207 3.624 2.178
2.032 3.546 2.314
3.261 4.163 0.796
3.120 4.046 0.915
3.047 3.948 1.143
2.860 3.931 1.408
2.781 3.831 1.595
2.710 3.693 1.802
2.514 3.570 2.039
2.436 3.464 2.238
2.250 3.408 2.444
3.410 3.972 0.978
3.224 3.813 1.185
3.109 3.692 1.437
3.045 3.669 1.702
2.839 3.520 1.895
2.770 3.446 2.094
2.595 3.327 2.290
3.576 3.801 1.136
3.442 3.720 1.300
3.378 3.644 1.517
3.220 3.481 1.677
3.067 3.388 1.963
2.974 3.331 2.139
2.848 3.227 2.304
3.584 3.429 1.624
3.468 3.410 1.784
3.280 3.242 1.967
4.419 2.926 1.802
4.244 2.827 2.029
4.196 2.713 2.252
5.744 3.688 -0.013
5.629 3.544 0.186
4.843 2.976 1.487
4.730 2.883 1.723
4.612 2.834 1.929
4.515 2.668 2.110
4.340 2.594 2.326
4.265 2.549 2.484
4.116 2.437 2.723
5.806 3.877 0.162
5.061 3.304 1.447
4.953 3.149 1.641
4.794 3.101 1.786
4.683 2.977 2.084
4.562 2.915 2.256
4.474 2.798 2.474
4.337 2.663 2.615
6.167 3.829 -0.004
6.048 3.703 0.204
5.940 3.584 0.401
5.329 3.110 1.509
5.191 3.023 1.695
5.042 2.994 1.925
4.876 2.832 2.096
4.781 2.723 2.337
4.644 2.648 2.476
4.569 2.528 2.681
4.440 2.511 2.906
6.271 3.581 0.259
6.140 3.501 0.540
5.515 3.027 1.563
5.362 2.883 1.759
5.304 2.835 1.974
5.090 2.692 2.152
4.972 2.660 2.373
4.834 2.571 2.598
4.752 2.477 2.765
4.670 2.383 2.959
6.267 3.299 0.767
5.689 2.836 1.587
5.582 2.788 1.769
5.476 2.650 2.007
5.311 2.551 2.205
5.250 2.454 2.486
5.106 2.372 2.609
5.014 2.327 2.838
4.830 2.189 3.060
4.752 2.060 3.244
5.852 2.610 1.882
5.729 2.537 2.131
5.527 2.482 2.299
5.432 2.389 2.553
5.313 2.235 2.681
5.223 2.117 2.904
5.066 2.096 3.116
4.989 1.983 3.367
6.017 2.451 1.994
5.929 2.377 2.119
5.802 2.285 2.367
5.635 2.214 2.587
5.554 2.164 2.828
5.404 1.986 2.947
5.306 1.965 3.163
5.153 1.790 3.457
6.147 2.218 2.230
5.940 2.181 2.434
5.881 2.053 2.680
5.766 1.960 2.882
5.624 1.901 3.093
5.508 1.802 3.292
5.348 1.654 3.462
6.088 1.926 2.704
5.922 1.819 2.915
5.789 1.744 3.106
5.708 1.653 3.333
2.894 4.661 0.748
2.806 4.536 1.018
2.667 4.473 1.236
2.560 4.373 1.445
2.487 4.216 1.652
2.321 4.147 1.815
2.160 4.104 2.052
2.042 3.929 2.268
3.188 4.496 0.833
3.025 4.446 0.994
2.934 4.338 1.201
2.798 4.255 1.465
2.679 4.128 1.633
2.505 4.062 1.861
2.385 3.932 2.062
2.332 3.782 2.286
2.140 3.741 2.494
3.849 4.720 0.105
3.197 4.274 1.120
3.101 4.154 1.266
3.020 4.103 1.557
2.852 4.030 1.755
2.745 3.917 1.939
2.633 3.745 2.180
2.495 3.660 2.312
2.394 3.613 2.530
4.089 4.659 0.098
3.503 4.183 1.186
3.323 4.028 1.399
3.214 3.935 1.539
3.081 3.873 1.803
2.967 3.746 2.012
2.789 3.687 2.178
2.679 3.611 2.470
2.561 3.433 2.640
4.324 4.474 0.156
3.510 3.893 1.467
3.398 3.792 1.616
3.291 3.707 1.890
3.128 3.637 2.086
3.044 3.517 2.246
2.906 3.466 2.451
2.787 3.342 2.686
4.660 4.479 0.054
3.522 3.541 1.946
3.341 3.459 2.106
3.242 3.421 2.332
3.096 3.287 2.604
4.777 3.354 1.579
4.628 3.223 1.715
4.522 3.172 2.011
4.383 3.024 2.164
5.874 3.884 0.163
5.106 3.303 1.449
4.950 3.231 1.575
4.867 3.131 1.779
4.743 3.015 2.089
4.541 2.878 2.244
4.425 2.766 2.463
4.327 2.679 2.681
6.030 4.108 0.139
5.279 3.535 1.379
5.204 3.516 1.539
4.996 3.416 1.790
4.914 3.333 1.924
4.766 3.168 2.184
4.710 3.102 2.423
4.592 3.051 2.614
6.291 4.040 0.170
6.074 3.973 0.314
5.415 3.359 1.664
5.296 3.276 1.818
5.170 3.109 2.048
4.991 3.085 2.205
4.874 2.949 2.505
4.767 2.873 2.710
4.670 2.798 2.864
6.263 3.724 0.597
5.612 3.216 1.701
5.448 3.136 1.901
5.372 3.014 2.088
5.251 2.930 2.350
5.071 2.819 2.526
4.982 2.744 2.772
4.822 2.649 2.985
4.704 2.532 3.106
5.678 2.928 1.918
5.562 2.889 2.149
5.411 2.793 2.393
5.276 2.725 2.543
5.161 2.591 2.821
5.102 2.449 3.045
4.971 2.389 3.180
5.869 2.857 2.050
5.812 2.711 2.238
5.620 2.635 2.392
5.491 2.599 2.698
5.385 2.431 2.859
5.234 2.360 3.107
5.113 2.249 3.264
5.047 2.210 3.469
6.000 2.623 2.244
5.823 2.509 2.553
5.704 2.425 2.752
5.594 2.324 2.915
5.443 2.181 3.110
5.336 2.095 3.319
5.235 2.011 3.586
6.098 2.363 2.609
5.942 2.227 2.784
5.829 2.150 2.994
5.738 2.055 3.154
5.566 1.999 3.372
5.502 1.913 3.565
5.283 1.797 3.800
6.063 2.020 3.080
5.965 1.928 3.268
5.800 1.838 3.480
5.704 1.728 3.688
5.536 1.675 3.878
5.966 1.765 3.544
5.916 1.624 3.772
5.717 1.503 3.967
5.949 1.362 4.056
3.018 4.886 0.905
2.852 4.763 1.073
2.757 4.658 1.327
2.651 4.586 1.575
2.571 4.419 1.723
2.439 4.397 1.924
2.292 4.250 2.119
2.159 4.176 2.415
3.083 4.651 1.165
2.977 4.529 1.422
2.878 4.450 1.559
2.718 4.364 1.803
2.567 4.193 2.061
2.508 4.121 2.253
2.322 4.069 2.435
3.991 4.971 0.196
3.279 4.487 1.199
3.176 4.425 1.432
3.116 4.253 1.701
2.982 4.155 1.837
2.814 4.076 2.131
2.658 3.984 2.248
2.616 3.932 2.544
2.467 3.852 2.697
4.281 4.954 0.074
4.166 4.774 0.286
3.425 4.291 1.497
3.318 4.143 1.778
3.127 4.000 1.893
2.993 3.979 2.099
2.879 3.881 2.407
2.831 3.736 2.594
2.696 3.684 2.760
4.508 4.815 0.118
4.357 4.647 0.364
4.220 4.632 0.540
3.477 4.052 1.802
3.370 3.864 1.969
3.235 3.819 2.220
3.135 3.670 2.445
2.962 3.589 2.587
2.880 3.493 2.867
2.751 3.402 3.097
4.675 4.661 0.148
4.576 4.597 0.435
4.477 4.478 0.595
3.470 3.636 2.313
3.330 3.608 2.439
3.221 3.502 2.698
3.086 3.351 2.891
2.992 3.299 3.134
4.981 4.498 0.219
4.822 4.437 0.511
4.640 4.296 0.669
4.607 4.239 0.916
3.409 3.396 2.803
3.260 3.265 3.002
3.214 3.110 3.136
4.877 4.219 0.750
4.796 4.110 0.995
4.689 4.024 1.182
3.409 3.029 3.258
4.953 3.989 0.961
4.891 3.865 1.252
4.715 3.786 1.412
4.651 3.660 1.634
5.046 3.697 1.290
4.964 3.625 1.489
4.844 3.543 1.675
4.698 3.438 1.902
4.557 3.370 2.069
6.084 4.140 0.040
5.243 3.534 1.377
5.174 3.477 1.567
5.004 3.398 1.764
4.965 3.329 1.954
4.740 3.227 2.137
4.707 3.087 2.408
4.516 3.004 2.651
6.256 4.413 0.004
5.498 3.857 1.286
5.390 3.823 1.479
5.227 3.715 1.720
5.143 3.575 1.948
4.987 3.523 2.118
4.849 3.433 2.294
4.767 3.264 2.505
5.628 3.692 1.599
5.463 3.583 1.770
5.376 3.485 2.006
5.208 3.361 2.139
5.050 3.308 2.404
4.924 3.181 2.585
4.856 3.105 2.830
5.708 3.364 1.835
5.582 3.340 2.024
5.468 3.245 2.226
5.354 3.145 2.414
5.192 3.003 2.644
5.094 2.897 2.907
4.880 2.843 3.048
5.805 3.200 2.117
5.631 3.114 2.354
5.552 3.029 2.533
5.381 2.873 2.725
5.220 2.794 2.936
5.115 2.647 3.144
5.019 2.630 3.391
5.884 2.921 2.326
5.714 2.898 2.594
5.583 2.766 2.802
5.526 2.660 3.048
5.389 2.588 3.241
5.265 2.483 3.403
5.058 2.411 3.602
5.974 2.757 2.608
5.853 2.643 2.840
5.667 2.500 3.053
5.526 2.448 3.273
5.453 2.343 3.447
5.287 2.203 3.721
5.148 2.110 3.899
5.991 2.511 2.932
5.953 2.350 3.091
5.742 2.261 3.327
5.642 2.200 3.532
5.488 2.077 3.720
5.362 1.984 4.014
6.146 2.201 3.148
5.989 2.163 3.456
5.879 2.101 3.616
5.729 1.957 3.847
5.646 1.838 4.048
6.189 2.058 3.454
6.116 1.917 3.629
5.936 1.863 3.871
5.826 1.751 4.110
6.129 1.700 3.967
6.081 1.626 4.124
6.260 1.406 4.199
3.113 5.086 1.082
2.997 4.994 1.299
2.855 4.849 1.431
2.700 4.788 1.677
2.610 4.682 1.895
2.517 4.615 2.051
2.338 4.440 2.265
3.905 5.439 0.105
3.218 4.778 1.350
3.044 4.718 1.564
2.906 4.608 1.700
2.800 4.473 1.904
2.684 4.377 2.131
2.610 4.310 2.388
2.448 4.280 2.609
4.109 5.301 0.106
4.076 5.143 0.342
3.239 4.609 1.578
3.161 4.504 1.844
3.076 4.390 1.974
2.866 4.308 2.258
2.832 4.203 2.444
2.628 4.108 2.684
2.491 4.021 2.845
4.405 5.098 0.245
4.212 5.060 0.371
4.144 4.921 0.668
3.336 4.314 1.878
3.274 4.235 2.079
3.109 4.170 2.334
2.999 4.033 2.496
2.864 3.947 2.753
2.806 3.856 2.909
2.629 3.786 3.095
4.703 5.101 0.027
4.542 4.969 0.234
4.427 4.929 0.519
4.360 4.806 0.727
4.236 4.646 0.867
3.472 4.119 2.123
3.380 4.028 2.402
3.210 3.917 2.580
3.143 3.828 2.752
2.929 3.716 3.019
2.895 3.649 3.181
4.975 4.928 0.139
4.787 4.860 0.332
4.724 4.726 0.490
4.543 4.660 0.774
4.430 4.590 1.004
4.317 4.424 1.145
3.586 3.911 2.467
3.454 3.834 2.635
3.289 3.713 2.815
3.215 3.563 3.064
3.015 3.545 3.212
5.136 4.826 0.146
5.044 4.697 0.388
4.931 4.628 0.553
4.817 4.513 0.771
4.600 4.373 1.039
4.538 4.341 1.242
4.382 4.202 1.437
3.606 3.610 2.692
3.484 3.541 2.860
3.386 3.503 3.070
3.304 3.368 3.318
5.191 4.587 0.492
5.122 4.467 0.657
5.003 4.335 0.895
4.839 4.322 1.106
4.711 4.237 1.312
4.586 4.136 1.509
4.505 3.951 1.724
3.738 3.416 2.937
3.570 3.325 3.226
3.478 3.255 3.393
5.268 4.376 0.778
5.240 4.258 0.955
5.085 4.126 1.170
4.953 4.064 1.409
4.818 3.909 1.619
4.730 3.841 1.798
4.604 3.765 2.002
3.778 3.155 3.283
3.667 3.087 3.451
5.452 4.105 1.002
5.232 3.978 1.176
5.152 3.929 1.444
4.997 3.778 1.585
4.958 3.700 1.804
4.836 3.645 2.043
4.612 3.572 2.307
3.883 2.996 3.479
6.282 4.450 -0.022
5.511 3.880 1.261
5.374 3.801 1.487
5.245 3.710 1.695
5.083 3.560 1.959
4.997 3.492 2.111
4.921 3.432 2.337
4.719 3.323 2.545
5.704 4.145 1.255
5.616 4.078 1.458
5.434 3.990 1.620
5.335 3.912 1.865
5.211 3.770 2.053
5.092 3.660 2.284
4.962 3.624 2.505
4.199 2.987 3.687
5.720 3.840 1.664
5.503 3.717 1.931
5.452 3.680 2.166
5.333 3.591 2.323
5.135 3.440 2.525
5.641 3.494 2.148
5.496 3.416 2.369
5.362 3.305 2.562
5.259 3.222 2.759
5.610 3.189 2.618
5.475 3.042 2.920
5.337 2.954 3.098
5.643 2.911 2.889
5.529 2.819 3.134
5.415 2.746 3.317
5.320 2.698 3.525
5.771 2.751 3.222
5.635 2.647 3.443
5.532 2.556 3.609
5.419 2.435 3.885
5.315 2.312 4.075
6.026 2.620 3.230
5.892 2.523 3.504
5.782 2.385 3.737
5.653 2.332 3.860
5.492 2.196 4.131
6.040 2.315 3.539
5.997 2.209 3.780
5.809 2.144 4.001
5.706 2.065 4.161
6.130 2.108 3.782
6.093 2.023 4.021
5.917 1.961 4.232
6.226 1.861 4.092
6.097 1.769 4.302
3.046 5.168 1.375
2.962 5.038 1.637
2.849 4.998 1.857
2.711 4.825 2.077
3.033 4.780 1.871
2.903 4.711 2.084
2.736 4.649 2.259
4.338 5.583 0.076
4.236 5.494 0.332
3.154 4.565 2.186
2.955 4.498 2.328
2.915 4.397 2.556
2.755 4.269 2.741
4.552 5.461 0.100
4.495 5.368 0.362
4.344 5.185 0.550
4.209 5.124 0.808
3.189 4.393 2.402
3.113 4.216 2.651
3.016 4.147 2.847
2.836 4.072 3.031
2.709 4.010 3.302
4.772 5.243 0.226
4.720 5.150 0.403
4.539 5.098 0.640
4.411 5.009 0.822
4.310 4.882 1.027
4.213 4.769 1.255
3.419 4.222 2.530
3.293 4.094 2.708
3.152 4.000 2.889
3.034 3.888 3.121
2.951 3.857 3.388
5.016 5.101 0.302
4.854 4.999 0.471
4.768 4.949 0.653
4.667 4.887 0.909
4.467 4.773 1.111
4.346 4.677 1.294
4.310 4.542 1.553
3.481 3.959 2.769
3.428 3.910 3.033
3.249 3.784 3.223
3.176 3.737 3.411
5.191 5.001 0.330
5.100 4.880 0.500
4.971 4.844 0.777
4.897 4.677 0.938
4.719 4.662 1.183
4.637 4.488 1.403
4.478 4.465 1.603
4.357 4.298 1.822
3.765 3.805 2.835
3.563 3.713 3.085
3.460 3.642 3.298
3.336 3.510 3.517
5.286 4.763 0.597
5.141 4.663 0.797
5.094 4.560 1.071
4.940 4.453 1.276
4.809 4.389 1.399
4.722 4.285 1.655
4.618 4.215 1.851
3.858 3.624 3.157
3.742 3.518 3.320
3.589 3.418 3.536
5.537 4.649 0.644
5.410 4.571 0.862
5.325 4.481 1.071
5.157 4.317 1.296
5.013 4.299 1.548
4.940 4.120 1.683
4.733 4.093 1.908
4.668 3.916 2.121
4.059 3.483 3.171
3.916 3.437 3.362
3.760 3.341 3.544
5.615 4.417 0.988
5.461 4.329 1.109
5.371 4.165 1.309
5.226 4.074 1.607
5.122 4.020 1.768
5.006 3.892 1.946
4.819 3.827 2.158
4.156 3.278 3.469
3.963 3.185 3.693
5.753 4.191 1.189
5.621 4.073 1.387
5.422 3.932 1.637
5.327 3.924 1.876
5.215 3.792 2.066
5.100 3.725 2.238
4.983 3.556 2.456
4.165 2.984 3.679
5.894 4.435 1.153
5.774 4.327 1.333
5.682 4.306 1.537
5.543 4.231 1.750
5.409 4.120 1.949
5.317 3.997 2.171
5.206 3.940 2.422
4.456 3.328 3.689
4.296 3.167 3.901
5.925 4.184 1.655
5.707 3.999 1.891
5.651 3.925 2.065
5.478 3.831 2.223
5.578 2.711 3.799
5.482 2.675 3.946
5.348 2.501 4.149
5.934 2.739 3.617
5.871 2.606 3.848
5.724 2.510 4.072
5.609 2.426 4.252
6.173 2.541 3.729
6.042 2.433 3.933
5.946 2.341 4.109
5.834 2.227 4.324
6.299 2.285 3.954
6.121 2.210 4.185
6.027 2.106 4.341
6.197 1.943 4.490
4.500 5.536 0.527
4.397 5.410 0.717
4.334 5.313 0.902
4.168 5.245 1.079
3.091 4.339 3.002
2.896 4.302 3.223
2.834 4.192 3.377
4.908 5.477 0.382
4.783 5.422 0.550
4.628 5.242 0.779
4.483 5.233 0.932
4.342 5.086 1.171
4.255 4.962 1.402
4.086 4.882 1.584
3.375 4.285 2.807
3.226 4.244 3.064
3.129 4.140 3.319
3.013 3.997 3.499
5.129 5.362 0.453
4.941 5.273 0.648
4.811 5.166 0.868
4.684 5.093 1.030
4.623 5.000 1.252
4.447 4.883 1.404
4.350 4.748 1.685
4.272 4.665 1.855
3.613 4.204 2.951
3.509 4.102 3.162
3.323 3.957 3.344
3.180 3.875 3.533
5.307 5.246 0.435
5.191 5.118 0.709
5.054 5.059 0.929
4.916 4.875 1.079
4.835 4.827 1.293
4.666 4.763 1.520
4.597 4.625 1.779
4.412 4.555 1.976
3.784 4.060 2.969
3.680 3.979 3.141
3.538 3.834 3.367
3.398 3.787 3.659
5.494 5.070 0.531
5.436 4.954 0.763
5.247 4.871 0.974
5.191 4.758 1.193
5.009 4.708 1.363
4.919 4.541 1.597
4.768 4.513 1.797
4.700 4.437 1.959
4.565 4.268 2.192
4.066 3.875 3.041
3.955 3.773 3.217
3.827 3.735 3.459
3.691 3.668 3.707
5.638 4.814 0.822
5.510 4.695 1.029
5.314 4.606 1.187
5.209 4.556 1.406
5.145 4.463 1.597
4.944 4.329 1.842
4.886 4.287 2.078
4.698 4.199 2.274
4.105 3.708 3.290
3.947 3.599 3.507
3.903 3.469 3.786
5.808 4.716 0.870
5.697 4.640 1.090
5.602 4.537 1.283
5.432 4.419 1.551
5.306 4.322 1.688
5.175 4.177 1.871
5.112 4.157 2.082
4.956 4.048 2.386
4.374 3.508 3.409
4.219 3.458 3.549
4.053 3.391 3.803
5.875 4.481 1.165
5.791 4.347 1.341
5.630 4.294 1.522
5.568 4.231 1.803
5.401 4.112 1.937
5.316 3.957 2.216
5.148 3.893 2.409
4.389 3.272 3.625
4.262 3.186 3.826
6.078 4.769 1.056
6.034 4.704 1.306
5.890 4.539 1.541
5.768 4.487 1.745
5.595 4.345 1.946
5.544 4.304 2.105
5.347 4.190 2.315
4.582 3.648 3.616
4.472 3.524 3.768
4.340 3.408 4.011
6.069 4.472 1.580
5.936 4.295 1.778
5.799 4.206 1.995
4.620 3.261 4.032
5.484 2.753 4.376
5.942 2.753 4.003
5.799 2.658 4.147
5.699 2.615 4.381
6.136 2.703 4.085
5.967 2.526 4.214
5.893 2.480 4.416
6.193 2.471 4.287
6.125 2.290 4.478
4.334 5.534 1.003
4.250 5.430 1.281
4.091 5.376 1.492
2.870 4.324 3.545
4.807 5.598 0.744
4.738 5.540 0.935
4.594 5.366 1.096
4.508 5.346 1.360
4.383 5.206 1.528
4.194 5.127 1.716
4.048 5.028 1.936
3.349 4.461 3.237
3.254 4.353 3.441
3.100 4.284 3.622
5.081 5.475 0.742
4.887 5.334 0.939
4.819 5.274 1.153
4.720 5.182 1.433
4.589 5.113 1.562
4.427 4.951 1.810
4.280 4.838 2.053
3.603 4.249 3.274
3.472 4.162 3.429
3.274 4.123 3.664
5.398 5.424 0.579
5.249 5.313 0.799
5.184 5.218 1.081
4.999 5.082 1.287
4.921 5.055 1.486
4.779 4.952 1.697
4.620 4.885 1.831
4.516 4.788 2.053
4.437 4.623 2.255
3.883 4.248 3.142
3.770 4.166 3.295
3.621 4.044 3.504
3.516 3.966 3.705
5.591 5.319 0.671
5.536 5.162 0.844
5.329 5.095 1.083
5.211 4.938 1.345
5.077 4.927 1.548
4.946 4.784 1.760
4.899 4.679 1.895
4.721 4.596 2.149
4.620 4.483 2.386
4.151 4.118 3.190
3.943 4.045 3.443
3.863 3.961 3.622
3.720 3.844 3.814
5.775 5.099 0.771
5.696 5.051 0.966
5.611 4.944 1.216
5.406 4.902 1.372
5.375 4.800 1.619
5.173 4.610 1.784
5.108 4.529 2.048
4.975 4.474 2.250
4.851 4.393 2.445
4.332 3.989 3.288
4.243 3.879 3.428
4.103 3.754 3.628
3.965 3.705 3.869
5.952 4.945 0.969
5.825 4.844 1.216
5.619 4.730 1.432
5.487 4.624 1.609
5.461 4.565 1.869
5.318 4.422 2.112
5.180 4.310 2.259
4.453 3.750 3.525
4.307 3.651 3.718
4.164 3.599 3.969
6.167 4.775 1.062
6.047 4.669 1.332
5.904 4.588 1.496
5.769 4.450 1.719
5.660 4.405 1.897
5.552 4.331 2.160
5.397 4.190 2.367
4.643 3.621 3.555
4.467 3.545 3.751
4.398 3.404 4.057
0.603 0.669 0.180
6.294 5.253 1.775
6.135 5.212 1.958
6.005 5.098 2.155
5.271 4.526 3.360
5.181 4.404 3.582
4.970 4.312 3.858
4.878 4.189 4.016
4.771 4.160 4.262
4.614 3.990 4.463
5.607 4.445 3.256
5.508 4.329 3.459
5.386 4.244 3.645
5.221 4.147 3.914
5.091 4.132 4.139
5.013 3.976 4.324
4.805 3.856 4.550
5.921 4.466 3.117
