5.147 1.831 5.074
4.887 1.752 4.901
6.304 2.275 5.611
6.017 1.959 5.325
5.610 2.138 5.465
6.161 2.239 6.125
6.206 2.636 6.083
5.863 2.353 5.841
6.173 2.516 6.438
4.317 2.354 5.870
4.022 2.449 5.697
4.435 2.705 5.946
4.246 2.829 6.109
3.877 2.798 6.094
4.093 2.972 6.153
5.729 0.928 3.097
6.000 0.964 3.676
5.499 1.013 3.348
6.105 1.256 4.243
5.826 1.359 3.647
5.174 1.270 3.578
6.173 1.288 4.606
5.693 1.247 4.420
5.286 1.283 4.338
5.340 1.379 3.736
6.191 1.950 4.594
6.008 1.864 4.460
5.711 1.669 4.491
5.352 1.723 4.578
5.317 1.521 4.165
6.229 1.784 5.233
5.825 1.785 5.042
5.454 1.557 4.692
5.392 1.741 4.437
5.119 1.664 4.709
6.031 2.032 5.153
6.183 2.159 5.003
5.772 1.862 5.282
5.345 1.829 5.033
5.144 1.927 5.066
6.179 2.198 5.155
5.711 2.498 4.808
5.313 2.250 4.821
6.168 2.413 5.705
6.079 2.299 5.553
5.715 2.246 5.016
6.164 2.484 5.854
5.563 2.448 5.496
5.218 2.705 5.466
6.278 2.689 5.837
5.970 2.808 5.703
5.601 2.961 5.640
5.829 3.044 6.171
4.236 2.661 5.370
4.585 3.214 5.765
4.330 3.057 5.797
4.012 3.122 6.355
3.935 3.336 6.066
3.688 3.225 6.320
5.632 1.018 3.010
5.353 1.486 3.362
5.631 1.593 3.610
5.392 1.482 3.581
5.756 1.744 4.132
5.633 1.758 3.687
5.252 1.588 3.801
6.227 1.877 4.537
5.459 1.936 4.330
5.557 1.636 4.044
6.028 1.998 4.987
6.087 1.986 4.731
5.464 2.207 4.555
5.989 2.336 5.316
5.669 2.332 4.825
5.189 2.223 4.630
0.951 -0.229 6.129
3.788 -0.047 6.073
3.313 -0.033 5.981
3.489 0.141 6.136
3.163 -0.006 5.872
2.673 0.061 5.865
2.530 0.030 5.890
2.443 0.360 5.990
2.350 0.345 6.322
0.754 0.312 5.478
0.199 -0.143 5.408
4.440 0.199 5.795
4.161 0.198 5.727
4.477 -0.057 5.454
4.347 0.273 5.898
4.135 0.239 5.826
3.485 0.056 5.821
3.127 0.201 5.309
2.784 0.203 5.324
4.205 0.175 5.795
3.840 0.395 5.957
3.809 0.240 5.772
3.490 0.316 6.000
3.280 0.301 5.510
2.608 0.014 5.627
2.609 0.180 5.588
3.797 0.241 6.072
3.396 0.658 6.392
3.427 0.247 6.285
2.992 0.511 5.709
2.942 0.219 6.037
2.419 0.266 5.907
1.171 0.071 4.926
0.678 0.099 5.195
2.730 0.483 6.139
2.347 0.715 6.215
2.425 0.643 6.085
0.773 0.011 5.059
0.726 0.293 5.147
0.214 0.025 5.117
2.074 0.726 6.403
0.339 0.414 5.184
-0.113 0.059 5.292
4.261 0.073 5.541
4.225 0.151 5.652
4.576 -0.116 5.369
4.592 0.515 5.320
4.007 0.541 5.421
3.972 0.372 4.958
3.297 0.004 4.884
4.142 0.157 5.485
3.988 0.667 5.635
4.123 0.446 5.782
3.803 0.472 5.194
3.132 0.559 5.272
2.898 0.256 5.378
1.332 -0.144 4.224
4.047 0.372 5.672
4.218 0.589 6.074
3.559 0.731 5.970
3.324 0.629 5.764
3.155 0.340 5.763
2.704 0.355 5.544
2.460 0.568 5.276
1.176 0.400 4.569
0.925 0.154 4.591
1.022 -0.177 4.299
0.486 0.044 4.461
4.267 0.704 6.031
3.693 0.815 6.106
3.478 0.758 6.248
3.450 0.985 5.786
3.153 0.557 5.984
2.565 0.882 5.733
2.574 0.421 5.301
0.832 0.483 4.887
0.642 0.112 4.517
0.183 -0.018 4.593
-0.163 0.050 4.553
3.691 1.063 6.203
3.170 0.855 6.155
2.712 0.852 5.828
2.462 1.060 6.068
2.531 0.949 5.760
1.877 0.729 5.622
0.707 0.443 5.033
0.102 0.108 4.994
2.516 1.157 6.229
2.519 1.052 6.208
2.145 0.681 6.084
1.869 0.953 5.878
0.303 0.747 4.982
2.046 1.055 6.209
1.916 0.858 6.029
1.313 1.146 5.829
1.295 0.965 6.309
0.934 1.001 5.975
0.569 1.292 6.315
0.480 0.885 5.831
-0.107 1.506 6.115
4.508 0.317 4.999
4.122 0.182 5.239
4.269 0.329 5.183
4.338 0.288 5.277
4.207 0.303 5.264
3.658 0.453 5.056
3.450 0.016 5.193
4.341 0.260 5.566
4.281 0.406 5.024
4.319 0.443 4.929
3.917 0.421 5.119
2.103 0.001 4.156
1.950 0.063 4.421
1.595 0.091 3.831
1.270 -0.042 4.065
1.030 -0.143 3.957
4.479 0.410 5.119
4.224 1.029 5.475
4.016 0.884 5.386
3.409 0.681 5.081
3.510 0.844 5.356
1.648 0.323 4.622
1.691 0.314 4.304
1.244 0.400 3.988
1.018 0.412 4.212
0.895 -0.008 4.024
4.122 0.885 5.398
4.297 1.145 5.934
3.923 0.706 5.399
3.697 0.666 5.304
3.372 0.930 5.498
2.996 0.503 5.298
1.268 0.425 4.452
0.873 0.302 4.401
0.368 0.251 3.961
0.240 0.231 3.986
4.163 0.916 5.860
3.647 1.282 6.012
3.239 0.986 5.694
2.998 1.137 5.753
2.934 1.043 5.539
2.360 1.099 5.544
0.514 0.547 4.406
0.573 0.250 4.600
-0.088 0.166 4.040
3.337 1.058 5.878
3.161 0.898 5.650
2.679 0.896 5.895
2.304 0.995 5.552
2.275 1.039 5.502
0.263 0.596 4.600
2.706 1.236 5.936
2.708 1.322 5.793
2.010 1.228 5.601
2.088 1.214 5.588
1.418 0.864 5.360
2.256 1.180 5.967
1.929 1.591 6.276
1.529 1.329 5.725
1.658 1.417 5.780
1.344 1.154 5.866
1.372 1.436 6.362
1.111 1.189 6.034
1.249 1.107 5.973
0.948 1.274 5.710
0.943 1.557 6.431
0.976 1.647 6.321
0.483 1.603 6.150
0.511 1.372 5.930
0.258 1.878 6.375
0.310 1.481 5.845
4.918 0.116 4.895
3.042 0.267 3.958
4.797 0.493 4.996
4.345 0.696 5.154
4.398 0.473 5.054
2.586 0.087 4.191
2.470 -0.089 4.184
2.384 0.115 3.774
4.481 0.266 4.911
4.231 0.715 5.239
4.245 0.478 4.994
3.659 0.371 5.141
2.110 0.411 4.255
1.995 0.262 4.340
1.854 -0.011 3.895
1.558 0.173 3.984
1.308 -0.094 3.818
4.241 0.818 5.420
4.259 0.700 5.083
3.997 0.983 4.932
2.411 0.636 4.060
2.497 0.757 4.209
2.072 0.260 4.023
1.795 0.333 4.001
1.627 0.306 3.840
4.518 0.672 5.350
4.340 1.311 5.506
1.779 0.736 4.295
1.358 0.315 4.245
1.094 0.427 4.005
4.090 0.907 5.580
2.808 1.428 5.537
2.374 1.147 5.249
2.270 1.248 5.374
1.730 1.423 5.133
2.577 1.455 5.910
2.263 1.257 5.378
1.860 1.508 5.693
1.834 1.269 5.458
1.303 1.118 5.418
2.484 1.475 6.122
2.069 1.668 5.838
1.719 1.468 5.564
1.663 1.500 5.745
1.394 1.364 5.565
0.834 1.633 5.240
2.424 2.077 6.226
2.001 1.585 5.934
1.752 1.980 6.080
1.451 1.917 5.823
1.147 1.699 5.937
0.805 1.573 5.323
0.260 1.545 5.461
1.295 1.940 6.136
1.314 1.790 6.262
0.706 1.998 5.854
0.704 1.593 5.960
0.191 1.484 5.780
0.701 2.055 6.404
0.182 1.683 5.955
0.153 1.680 6.054
3.953 0.015 3.716
4.673 0.209 4.354
3.532 0.395 3.652
3.480 0.340 3.670
3.196 0.294 3.540
3.022 -0.184 3.653
4.853 0.548 4.255
4.670 0.625 4.553
3.204 0.268 4.167
2.751 0.281 3.697
2.670 0.239 3.663
2.372 0.326 3.634
2.172 0.278 3.469
1.798 -0.254 3.026
4.859 0.817 4.390
4.408 0.944 5.089
4.154 0.557 4.709
2.889 0.665 4.253
3.009 0.408 4.021
2.243 0.188 4.030
2.338 0.446 3.949
1.781 0.038 3.458
1.371 0.262 3.305
4.311 0.994 4.976
4.489 1.015 5.178
4.223 0.843 5.035
2.662 0.651 4.079
2.344 0.605 4.054
2.208 0.563 4.018
1.991 0.470 3.681
1.650 0.316 3.502
4.221 1.123 5.178
4.279 1.384 5.115
2.871 1.022 4.395
2.913 0.910 4.263
2.360 0.661 3.962
2.071 0.742 3.878
1.540 0.567 3.732
0.118 0.216 3.109
4.532 1.419 4.857
1.954 1.560 4.872
1.670 1.585 5.048
1.323 1.659 4.779
3.882 2.016 5.994
2.296 1.999 5.200
1.711 1.470 5.407
1.575 1.810 5.399
1.172 1.478 4.963
0.816 1.758 4.887
3.921 1.914 6.186
2.436 1.773 6.066
2.045 1.841 5.790
1.743 1.815 5.574
1.668 1.901 5.432
0.962 1.919 5.228
1.149 1.676 4.894
0.625 1.690 4.818
1.999 2.059 6.141
1.818 2.056 6.130
1.562 2.059 5.606
1.187 2.223 5.605
1.294 1.831 5.620
0.932 1.997 5.196
0.438 1.917 5.443
1.539 2.044 6.262
1.607 2.374 6.252
1.005 1.921 6.014
1.161 1.923 5.647
0.659 2.192 5.428
0.155 1.886 5.718
0.976 2.498 6.219
0.845 2.042 6.150
0.426 2.054 5.908
-0.054 2.048 5.722
0.591 2.357 6.318
0.251 2.301 6.315
3.736 0.169 3.056
3.393 -0.129 2.912
4.916 0.705 4.178
3.473 0.424 3.298
3.381 0.073 3.337
2.931 0.327 2.768
2.519 0.042 2.687
2.293 0.088 2.788
4.952 0.296 3.933
5.027 0.468 3.991
3.777 0.556 3.629
3.609 0.484 3.569
3.053 0.147 3.554
2.952 0.411 3.168
2.595 0.372 3.042
2.380 0.067 3.135
2.088 0.166 2.718
4.762 0.632 4.206
4.972 0.972 4.522
3.746 0.605 3.931
3.091 0.708 3.822
2.931 0.695 3.699
2.874 0.375 3.343
2.192 0.551 3.385
1.924 0.213 3.418
1.747 0.034 3.119
0.767 0.060 2.619
4.842 1.088 4.195
4.654 1.015 4.735
3.019 0.651 3.853
2.721 0.565 3.946
2.707 0.684 3.665
2.171 0.694 3.467
2.029 0.509 3.617
1.773 0.586 3.422
0.582 0.384 2.787
0.340 0.013 2.735
4.482 0.871 4.787
4.644 1.388 4.921
2.883 0.652 4.335
2.898 0.765 4.078
2.362 0.927 3.760
2.091 0.514 3.975
1.954 0.819 3.918
-0.231 0.199 2.610
4.324 1.357 4.700
3.421 1.350 3.951
2.901 0.978 3.919
2.549 1.005 4.173
2.562 0.905 3.737
2.170 1.031 3.827
0.486 0.816 2.801
-0.198 0.679 2.540
2.773 1.226 4.188
2.597 1.505 4.385
4.107 2.065 5.749
1.598 1.634 4.539
1.465 1.880 4.810
1.477 1.687 4.260
0.684 1.576 4.283
4.124 2.254 5.636
3.624 2.550 5.948
3.295 2.409 5.926
1.949 2.134 5.208
1.439 2.123 4.742
1.541 1.794 4.613
1.230 1.732 4.491
0.784 1.545 4.386
3.764 2.160 5.801
3.764 2.694 6.202
3.324 2.453 6.291
2.036 2.202 5.673
1.815 2.175 5.485
1.345 1.864 5.004
0.998 2.109 5.013
0.721 2.003 5.088
0.491 1.768 5.034
3.795 2.522 6.118
2.131 2.585 5.715
2.191 2.606 5.774
1.927 2.191 5.583
1.356 2.191 5.547
1.032 2.364 5.433
0.837 2.244 5.381
0.337 2.072 5.171
2.131 2.835 6.354
1.895 2.661 5.861
1.275 2.719 5.759
1.313 2.543 5.572
1.185 2.485 5.670
0.595 2.263 5.647
1.581 2.550 6.023
1.559 2.620 6.097
1.185 2.579 5.999
0.577 2.575 5.888
0.437 2.733 5.693
0.925 2.961 5.988
5.224 0.869 3.692
3.367 0.465 2.545
3.217 0.018 2.470
2.844 0.130 2.310
2.370 -0.054 2.085
2.467 -0.057 1.946
5.036 0.684 3.641
5.185 0.811 3.548
4.963 0.754 3.462
3.579 0.359 3.114
3.443 0.229 2.847
3.058 0.422 2.628
2.570 0.103 2.429
2.271 0.199 2.461
2.294 0.312 2.391
5.149 0.885 3.649
4.964 0.812 3.996
3.388 0.880 3.269
3.202 0.655 3.231
2.892 0.452 2.821
2.561 0.598 2.803
2.153 0.651 2.660
1.931 0.621 2.831
0.797 0.283 1.980
0.676 0.027 1.777
0.140 -0.137 1.970
4.867 1.165 4.193
4.666 1.335 4.238
3.365 0.901 3.617
3.088 0.834 3.533
2.897 0.942 3.219
2.807 0.881 3.097
2.285 0.735 3.052
2.054 0.402 3.234
1.888 0.488 2.844
0.655 0.346 2.074
0.482 0.091 1.980
0.117 0.211 1.847
4.946 1.280 4.422
4.419 1.436 4.749
3.378 1.180 3.861
3.330 1.175 4.043
2.633 0.932 3.888
2.301 0.717 3.728
2.278 0.757 3.235
2.111 0.984 3.066
0.699 0.655 2.479
0.426 0.350 2.520
4.858 1.324 4.479
3.196 1.004 4.118
2.884 1.411 4.196
2.699 0.895 3.700
2.429 0.880 3.745
2.335 1.152 3.664
0.408 0.763 2.790
0.238 0.436 2.714
3.680 1.427 4.187
3.565 1.756 3.827
3.116 1.361 3.723
2.519 1.517 3.974
2.362 1.551 3.757
0.704 1.060 2.890
0.608 0.743 2.697
-0.166 0.783 2.719
3.548 1.928 4.619
3.222 1.545 4.142
2.981 1.765 3.874
2.381 1.331 3.784
0.903 1.436 3.142
0.708 0.961 3.170
0.389 1.285 2.981
3.402 1.868 4.613
3.282 2.054 4.753
2.879 1.855 4.684
1.064 1.255 3.464
0.441 1.650 3.406
0.200 1.266 3.154
-0.148 1.084 2.956
4.271 2.196 5.243
3.853 2.240 4.917
3.339 2.138 5.090
2.914 1.888 4.693
1.322 1.453 4.171
0.752 1.842 3.871
0.568 1.784 3.820
4.167 2.046 5.304
3.951 2.184 5.580
3.483 2.362 5.224
3.289 2.211 5.414
1.546 1.807 4.220
1.006 1.771 4.214
1.012 1.711 4.358
0.662 2.002 4.184
0.580 1.513 3.982
3.708 2.195 5.771
4.014 2.692 5.591
3.485 2.371 5.794
1.466 2.253 4.728
1.222 2.052 4.456
1.271 2.282 4.492
0.563 1.930 4.160
0.594 2.166 4.428
3.576 2.428 6.031
3.641 2.862 6.228
3.248 2.574 5.870
2.023 2.430 5.179
1.337 2.450 5.267
1.345 2.544 4.752
1.072 2.321 4.949
0.575 2.347 4.601
3.711 2.533 6.068
3.372 3.151 6.059
2.120 2.888 5.820
1.938 2.676 5.359
1.268 2.616 5.064
1.032 2.520 5.396
0.734 2.636 5.093
0.741 2.541 5.131
3.406 3.013 6.299
2.230 2.684 5.918
1.864 2.955 5.627
1.698 2.769 5.897
1.507 2.721 5.368
0.845 2.824 5.546
0.529 2.419 5.399
1.882 3.193 6.295
1.596 2.762 5.876
1.359 2.671 5.993
1.061 2.691 5.950
0.978 2.695 5.654
1.077 3.062 6.141
0.793 2.915 6.275
5.173 0.858 3.016
5.213 0.755 3.013
4.814 0.801 2.704
2.569 0.417 2.049
2.464 0.201 1.955
2.049 0.332 1.618
1.785 0.170 1.239
5.317 0.853 3.199
5.078 0.865 3.523
4.982 0.928 3.160
4.488 0.760 3.245
3.373 0.704 2.228
2.778 0.694 2.360
2.472 0.310 1.988
2.292 0.549 2.054
1.887 0.152 1.980
5.069 1.123 3.437
5.204 0.930 3.544
4.648 1.206 3.311
3.565 0.576 2.773
3.076 0.663 2.791
2.915 0.473 2.711
2.428 0.704 2.207
2.321 0.367 2.230
1.716 0.286 2.189
0.401 0.173 1.169
-0.018 0.286 1.040
4.937 1.119 3.578
5.169 1.070 3.740
3.432 0.733 3.365
3.342 1.034 3.144
2.848 1.058 2.793
2.816 0.887 2.670
2.097 0.729 2.493
2.067 0.560 2.640
0.597 0.399 1.758
0.234 0.245 1.493
5.127 1.062 3.736
4.810 1.503 4.252
3.576 1.021 3.669
3.480 1.159 3.629
2.842 1.199 3.327
2.561 1.204 3.298
2.240 1.127 3.190
1.911 1.153 2.967
0.788 0.448 2.409
0.479 0.356 1.986
0.265 0.736 2.016
4.803 1.348 4.224
3.251 1.193 3.951
3.060 1.120 3.453
2.738 1.184 3.246
2.502 1.354 3.467
2.501 1.029 2.986
1.017 0.974 2.476
0.740 0.838 2.645
0.217 0.836 2.346
3.676 1.483 4.381
3.253 1.438 4.158
3.114 1.435 3.714
2.748 1.488 3.707
2.676 1.161 3.784
0.520 0.774 2.919
0.410 1.005 2.867
-0.087 0.840 2.260
3.912 1.789 4.161
3.493 1.793 4.071
3.398 1.843 4.052
3.298 1.875 3.763
2.721 1.803 3.487
1.211 1.569 2.941
0.843 1.131 2.473
0.461 1.036 2.660
0.063 1.379 2.265
4.219 2.356 4.672
3.529 1.885 4.343
3.463 2.004 4.047
3.337 1.969 4.254
2.839 1.719 3.714
2.505 1.849 3.812
1.153 1.410 2.880
0.649 1.422 2.838
0.731 1.521 2.714
0.146 1.644 2.574
4.091 2.598 4.724
3.724 2.346 4.750
3.423 2.343 4.721
3.409 2.181 4.561
3.295 2.080 4.571
2.770 2.197 4.254
1.159 1.896 3.497
1.201 1.786 3.304
0.859 1.587 3.267
0.441 1.637 2.878
0.038 1.754 3.078
4.065 2.307 5.110
3.988 2.456 4.965
3.719 2.352 5.190
3.248 2.661 4.993
3.438 2.362 4.534
2.704 2.446 4.532
1.676 2.133 4.013
1.305 1.963 3.913
0.606 1.717 3.498
0.495 1.801 3.324
0.480 1.698 3.422
4.200 2.364 4.879
3.920 2.949 5.383
3.548 2.500 5.271
3.261 2.784 5.103
2.937 2.339 4.915
1.676 2.020 4.040
1.363 2.113 4.305
1.143 1.929 3.927
0.518 2.270 3.938
0.270 2.087 3.583
0.166 1.963 3.565
3.704 2.456 5.342
3.852 3.078 5.684
3.266 2.768 5.656
3.052 2.596 5.404
1.516 2.425 4.361
1.123 2.204 4.406
0.923 2.200 4.220
0.439 2.112 4.272
0.109 2.197 4.022
3.736 2.629 5.556
3.874 3.124 5.850
3.160 2.833 5.565
1.515 2.390 4.832
1.483 2.585 4.991
1.152 2.277 4.423
0.793 2.648 4.338
3.472 2.832 5.679
1.541 2.766 5.283
1.259 2.657 5.087
1.080 2.816 4.896
0.593 2.566 4.799
1.939 2.915 5.813
1.831 3.312 5.487
1.437 3.182 5.598
1.290 3.065 5.134
2.207 3.319 5.973
1.988 3.193 6.151
1.670 3.520 5.747
1.374 3.087 5.528
0.992 3.237 5.618
1.765 3.730 6.466
1.558 3.438 6.163
1.422 3.570 5.888
0.297 3.757 6.170
5.387 0.870 3.180
5.062 1.180 2.727
4.657 0.845 2.586
4.322 0.847 2.421
4.191 0.663 2.209
2.551 0.350 1.799
2.191 0.280 1.767
2.042 0.277 1.647
1.787 0.150 1.416
1.348 0.362 1.004
5.223 0.945 2.835
5.247 1.147 3.399
4.835 0.939 3.097
4.438 0.831 3.120
4.355 1.005 2.644
2.970 0.914 2.254
2.624 0.419 1.734
2.339 0.467 1.624
2.035 0.495 1.540
1.491 0.618 1.525
5.349 1.062 3.377
4.879 1.194 3.469
4.805 1.290 3.320
4.375 1.302 3.319
2.917 1.126 2.280
2.984 0.982 2.276
2.397 1.093 1.938
1.971 0.878 2.205
1.699 0.755 1.942
0.116 0.208 1.186
5.142 1.137 3.554
5.209 1.309 3.777
3.040 1.193 2.614
2.599 1.031 2.484
2.269 0.749 2.630
0.328 0.590 1.565
4.740 1.349 3.471
3.550 1.491 2.988
2.936 1.304 3.086
2.836 1.092 2.911
2.425 1.332 2.945
0.364 0.791 1.719
0.051 0.606 1.732
3.681 1.878 3.518
3.318 1.754 3.253
3.133 1.682 3.203
2.408 1.564 3.177
0.779 1.081 2.436
0.401 0.977 2.118
0.158 0.783 1.914
3.861 1.713 4.054
3.583 1.626 3.795
3.286 1.604 3.861
3.239 1.670 3.908
2.989 1.612 3.411
0.752 1.176 2.668
0.430 1.346 2.503
0.588 1.139 2.210
0.278 1.020 2.235
6.043 4.788 3.619
6.028 4.851 3.161
5.815 4.564 3.237
5.870 5.009 3.913
5.602 4.906 3.500
6.001 5.076 4.336
6.134 5.038 3.886
6.307 5.320 4.139
6.179 5.763 4.719
4.319 5.421 4.039
4.830 5.552 4.229
4.513 5.678 4.393
4.568 5.569 4.640
4.260 5.916 4.745
4.341 5.776 4.328
5.098 5.772 5.072
4.603 5.970 5.061
4.346 5.640 4.612
4.089 5.573 4.571
5.202 6.356 5.639
4.942 6.036 5.104
4.302 6.035 5.097
4.245 5.797 5.145
3.933 5.966 4.693
4.110 6.013 5.637
3.945 6.067 5.250
5.980 3.670 1.404
6.209 3.633 2.044
6.050 3.516 1.790
6.239 4.054 2.363
5.779 4.191 2.294
5.819 4.105 1.779
5.969 4.142 2.636
5.834 4.229 2.211
5.331 3.985 2.454
6.401 4.302 2.683
5.837 4.391 2.857
5.482 4.374 2.486
5.238 4.177 2.493
6.264 4.848 3.223
5.937 4.472 3.088
5.763 4.638 2.962
6.051 4.963 3.263
6.180 4.528 3.395
5.493 4.737 3.420
6.142 4.979 3.555
6.197 5.136 3.328
6.015 5.436 3.312
5.975 5.091 3.225
6.109 5.322 4.121
5.841 5.430 3.557
5.696 5.341 3.656
6.295 5.542 4.118
5.706 5.630 4.178
6.441 5.836 4.672
6.075 5.714 4.472
4.680 5.406 3.659
6.185 5.953 4.692
4.202 5.601 3.971
4.000 5.795 4.136
6.040 3.612 1.507
5.916 4.219 1.309
5.720 4.218 1.589
5.909 4.653 2.866
6.134 4.854 3.462
5.887 4.895 3.247
6.314 5.593 3.539
5.886 5.451 3.343
6.154 5.627 3.792
5.627 5.426 3.435
5.991 5.773 4.244
5.788 5.764 3.728
5.340 5.905 3.927
6.045 6.029 4.131
5.764 6.311 4.205
5.919 6.514 4.690
5.955 5.595 3.271
5.839 5.987 3.288
5.563 5.882 3.343
5.946 6.252 3.882
5.949 6.016 3.698
5.618 6.126 3.623
5.614 6.325 4.008
5.234 5.654 2.247
4.799 5.881 2.482
6.104 6.505 3.509
6.443 5.202 1.790
6.112 5.103 1.427
5.984 5.463 2.183
5.679 5.442 2.027
5.317 5.597 1.607
5.758 5.669 2.317
5.569 5.739 1.814
5.219 5.827 2.286
5.493 6.067 2.388
5.265 5.981 1.903
4.911 6.318 2.245
5.892 5.555 0.987
6.345 5.372 1.641
5.942 5.541 1.370
5.789 5.380 1.257
5.944 5.744 1.933
5.601 5.686 1.484
5.538 5.469 1.759
6.006 6.158 1.930
5.772 6.009 1.798
5.129 5.879 1.927
5.350 5.937 2.108
5.373 5.908 2.031
5.092 6.122 1.917
6.250 5.222 1.003
6.133 5.417 0.962
5.639 5.459 0.728
6.052 5.670 1.289
6.225 5.981 1.138
5.826 5.684 1.132
5.975 6.015 1.911
5.692 6.181 1.545
5.728 6.007 1.191
6.096 6.135 1.818
5.738 6.281 2.121
5.554 6.374 1.935
5.465 6.289 1.591
5.065 6.312 2.024
5.775 5.551 0.387
6.150 5.821 0.886
5.829 5.900 0.727
6.245 6.054 1.091
5.921 6.025 1.146
5.853 6.505 1.100
5.799 5.993 1.302
6.182 6.141 0.080
6.405 6.317 0.455
5.634 6.056 0.357
6.195 6.372 0.154
6.126 2.524 4.722
5.655 2.491 4.938
5.950 3.046 5.108
5.881 2.689 5.019
5.541 2.947 4.890
6.229 3.022 5.391
5.613 2.995 5.500
5.595 3.112 5.462
6.042 2.974 6.091
5.770 3.140 5.676
5.370 3.186 5.376
6.048 3.223 5.931
5.650 3.150 6.054
5.477 3.087 5.926
4.325 2.896 5.070
5.542 3.455 6.297
5.793 1.539 2.908
5.678 1.317 3.089
6.161 2.619 4.557
5.777 2.771 5.080
5.664 2.313 4.513
6.111 2.900 4.822
6.361 2.923 5.126
5.823 2.914 4.827
6.268 3.308 5.354
5.821 3.079 5.045
5.452 3.377 4.926
6.090 3.681 5.851
6.099 3.674 5.811
5.631 3.293 5.308
5.250 3.298 5.342
6.172 3.612 6.189
5.925 3.575 6.048
5.368 3.402 5.656
6.028 3.975 5.972
5.778 3.720 5.826
5.213 3.499 5.714
6.000 2.926 4.786
5.109 3.001 3.825
6.237 3.468 5.078
5.960 3.349 5.021
4.949 3.337 3.991
6.068 3.598 5.025
5.753 3.352 5.242
6.037 4.007 5.457
5.986 3.574 5.237
5.674 3.827 5.239
5.257 3.372 5.192
5.842 3.899 5.997
5.707 3.927 5.534
5.562 4.054 5.586
5.276 3.772 5.383
6.174 4.226 5.931
6.019 3.997 5.931
5.730 4.202 5.816
5.217 4.086 5.960
5.077 3.986 5.660
5.021 4.037 6.008
3.562 4.636 6.085
5.026 3.000 4.138
5.192 3.008 3.763
5.037 2.966 3.785
6.012 3.513 4.666
4.982 3.342 4.308
6.344 3.910 5.214
5.772 3.535 4.714
6.161 4.209 5.612
6.211 3.783 5.197
5.834 3.684 4.937
5.170 4.010 4.738
6.064 4.272 5.771
5.887 4.146 5.462
5.300 4.173 5.403
5.452 3.912 5.414
5.978 4.628 5.656
5.449 4.335 5.789
5.257 4.435 5.502
5.095 4.374 5.582
4.941 4.410 5.412
5.292 4.416 6.125
5.317 4.482 5.811
5.086 4.464 5.514
4.553 4.386 5.629
4.500 4.220 5.422
4.688 4.748 6.127
4.247 4.691 5.704
4.063 4.581 5.885
4.034 4.302 5.464
4.490 4.426 6.029
3.805 4.460 5.880
3.980 4.575 5.995
3.775 4.690 6.012
3.758 4.698 5.899
3.525 4.656 6.494
6.343 2.508 2.686
6.119 2.672 3.257
5.837 2.474 3.204
6.457 3.033 3.657
6.175 3.015 3.438
5.611 2.723 3.311
5.268 2.765 3.265
6.259 3.072 3.679
5.686 3.141 3.748
5.479 2.775 3.230
5.295 2.617 3.295
5.546 3.380 3.749
5.114 3.123 3.492
5.320 3.003 3.561
4.989 3.290 3.872
4.835 3.189 3.861
5.420 3.576 3.965
5.261 3.552 3.864
4.918 3.656 3.506
4.958 3.772 4.055
6.040 4.092 5.250
5.560 4.376 5.103
6.056 4.422 5.325
5.424 4.326 4.970
5.221 4.411 5.266
4.942 4.410 4.857
5.552 4.431 5.675
5.312 4.455 5.647
4.969 4.322 5.080
4.597 4.220 5.194
4.612 4.214 5.160
5.460 4.701 5.623
5.065 4.521 5.432
4.869 4.463 5.594
4.338 4.576 5.094
4.213 4.526 5.252
4.928 4.997 5.910
4.993 5.028 5.976
4.470 4.590 5.878
4.137 4.956 5.420
3.826 4.610 5.552
4.867 5.238 6.043
4.501 4.989 6.086
4.284 4.909 5.489
4.026 4.730 5.380
4.122 4.980 6.012
4.173 5.110 6.003
3.670 4.817 5.626
3.771 5.007 6.387
3.503 5.031 6.015
6.072 2.945 2.575
6.218 2.764 2.633
5.987 2.912 2.986
5.834 2.988 2.735
5.303 2.717 2.912
6.472 3.076 3.493
6.103 3.282 3.442
5.820 3.046 3.145
5.521 2.892 2.672
6.133 3.318 3.644
5.863 3.281 3.292
5.516 3.077 3.070
5.376 3.321 3.328
6.053 3.461 3.822
5.673 3.433 3.611
5.242 3.380 3.387
5.177 3.313 3.478
5.498 3.507 4.118
5.449 3.632 3.755
4.760 3.534 3.728
5.633 3.747 3.722
5.759 4.040 3.997
5.315 3.963 3.788
4.774 3.956 3.214
5.274 4.838 5.063
5.141 4.365 4.815
4.452 4.415 4.786
5.231 4.586 5.311
5.298 4.827 5.169
5.052 4.794 5.175
4.344 4.455 4.806
4.289 4.547 4.684
5.205 5.099 5.499
4.858 5.071 5.483
4.827 4.781 5.051
4.587 4.767 4.892
3.870 4.551 4.685
5.196 5.159 5.867
4.817 5.307 5.788
4.410 5.233 5.421
4.103 5.249 5.214
3.971 5.162 5.277
5.200 5.346 5.714
4.611 5.143 5.996
4.328 5.074 5.466
4.325 5.250 5.657
3.809 5.011 5.408
4.773 5.318 6.014
4.166 5.217 5.964
3.977 5.484 5.594
3.754 5.100 5.697
4.301 5.395 6.035
3.869 5.586 5.854
3.746 5.541 5.970
6.006 2.741 2.416
5.696 3.024 2.454
6.256 3.236 2.705
5.674 3.202 2.642
5.774 3.286 2.356
5.947 3.531 2.826
5.757 3.387 2.911
5.236 3.273 2.549
6.214 3.711 3.607
5.936 3.673 3.114
5.569 3.385 3.152
5.242 3.613 2.808
5.962 3.737 3.771
5.670 3.956 3.362
5.449 3.799 3.293
5.097 3.601 3.294
5.656 3.777 4.011
5.638 3.822 3.566
5.401 3.982 3.466
4.978 3.609 3.442
6.054 4.468 3.634
6.073 4.027 3.642
5.773 4.079 3.523
5.239 4.063 3.185
5.235 3.860 3.224
5.163 4.941 4.364
4.638 4.952 4.202
4.372 4.666 4.265
5.201 5.045 4.714
4.947 5.030 4.972
4.655 4.803 4.413
4.482 4.894 4.501
5.166 5.305 5.333
5.032 5.437 5.239
4.771 4.971 5.016
4.220 5.242 4.680
4.297 5.016 4.993
5.035 5.371 5.479
4.704 5.391 5.550
4.584 5.120 5.440
4.196 5.476 5.385
3.769 5.071 5.140
5.024 5.362 6.005
4.895 5.574 5.613
4.281 5.734 5.666
4.217 5.655 5.354
4.068 5.541 5.201
5.039 5.776 5.979
4.465 5.823 5.852
4.283 5.708 5.742
4.196 5.530 5.473
3.848 5.740 5.478
4.573 5.830 6.165
4.088 5.915 5.768
3.939 5.867 5.655
6.105 3.016 2.316
5.835 2.982 2.029
6.279 3.402 2.780
5.892 3.527 2.498
5.521 3.437 2.129
6.070 3.777 2.815
5.719 3.426 2.793
5.498 3.363 2.465
6.074 3.830 3.316
5.844 4.002 3.136
5.563 3.898 2.967
5.168 3.949 2.823
6.257 3.884 3.470
5.563 3.784 3.073
5.441 3.970 3.101
5.323 3.977 2.816
6.256 4.488 4.002
5.807 4.459 3.548
5.383 4.297 3.696
5.401 4.126 3.472
5.034 4.168 3.193
6.292 4.377 3.435
6.117 4.425 3.726
5.588 4.324 3.449
5.571 4.337 3.160
6.287 4.868 4.117
5.893 4.461 3.774
4.977 5.031 4.250
4.281 4.973 4.226
4.757 5.512 4.746
4.859 5.185 4.595
4.063 5.251 4.095
5.121 5.282 4.886
4.869 5.469 4.615
4.264 5.621 4.747
4.141 5.500 4.728
5.305 5.602 5.508
4.906 5.870 5.039
4.574 5.867 5.345
4.074 5.775 4.853
3.827 5.697 4.659
4.968 6.064 5.819
4.891 5.618 5.317
4.588 5.766 5.557
4.278 5.631 5.149
3.973 5.743 5.237
5.132 5.977 6.158
4.967 5.867 5.927
4.503 6.219 5.506
4.313 5.861 5.812
4.198 6.058 5.700
3.527 6.047 5.269
4.507 6.191 6.336
4.301 6.053 6.006
4.078 6.084 5.776
5.915 3.330 2.058
5.861 3.518 1.794
6.384 3.689 2.365
5.958 3.524 2.172
5.836 3.535 2.161
5.910 3.985 2.761
5.822 3.870 2.476
5.575 3.564 2.601
6.345 4.335 2.946
5.785 4.165 3.019
5.631 4.264 2.743
5.262 4.038 2.671
6.248 4.208 3.303
5.974 4.437 3.306
5.366 4.018 3.140
5.075 4.046 2.803
6.033 4.435 3.887
5.936 4.612 3.330
5.578 4.389 3.352
5.381 4.617 3.463
6.239 4.704 3.589
5.912 5.004 3.524
5.442 4.512 3.280
6.044 5.195 3.484
5.670 4.943 3.513
6.380 5.198 4.153
6.048 5.170 3.928
6.060 5.617 4.224
6.213 5.601 4.792
4.294 5.113 3.981
4.853 5.595 4.176
4.215 5.297 4.085
4.833 5.916 4.467
4.389 5.793 4.301
4.300 5.472 4.541
5.092 5.841 4.802
4.668 5.644 4.697
4.129 5.875 4.614
4.206 5.842 4.845
4.957 6.307 5.192
4.663 5.939 5.500
4.364 6.104 5.410
4.261 6.008 5.235
3.974 6.194 5.110
4.212 5.991 5.271
4.142 5.939 5.051
5.758 3.579 1.521
6.340 3.567 2.005
5.832 3.933 1.497
6.353 4.029 2.397
6.099 4.095 2.301
5.642 3.820 1.947
6.090 4.261 2.384
5.764 4.112 2.428
5.706 3.912 2.373
6.322 4.630 2.722
6.085 4.374 2.888
5.734 4.522 2.802
5.305 4.401 2.395
6.326 4.712 3.328
5.726 4.361 2.826
5.684 4.531 2.770
6.043 4.925 3.554
5.859 4.525 3.102
5.562 4.525 3.437
3.814 4.504 2.188
3.809 4.351 2.044
3.329 4.011 2.186
2.835 4.224 1.738
2.526 3.995 1.725
1.246 4.092 1.144
1.067 3.720 0.860
0.720 3.719 0.678
0.439 3.561 0.612
0.060 3.872 0.418
3.899 4.725 2.717
3.704 4.505 2.783
3.616 4.329 2.436
3.154 4.610 2.478
2.625 4.165 2.200
1.612 4.087 1.399
1.171 4.066 1.154
0.553 3.867 1.204
0.731 3.838 1.185
0.232 4.023 0.999
4.344 4.841 3.338
3.994 4.835 3.184
3.849 4.580 2.840
3.249 4.638 2.884
2.800 4.480 2.705
1.651 4.180 1.789
1.091 4.066 1.842
1.090 4.076 1.533
0.587 3.900 1.536
0.536 4.166 1.532
4.492 5.062 3.647
3.912 5.209 3.192
3.560 4.779 3.090
3.410 4.863 2.978
3.378 4.904 2.885
1.457 4.286 2.293
1.567 4.429 2.275
1.268 4.666 1.852
0.747 4.224 2.007
0.334 4.428 2.000
4.335 5.220 3.608
4.114 5.184 3.619
3.813 5.097 3.681
3.839 5.015 3.457
3.217 5.220 3.310
1.589 4.973 2.831
1.678 4.544 2.610
1.133 4.543 2.537
1.107 4.761 2.268
0.477 4.769 2.006
3.934 5.390 3.750
4.158 5.602 4.190
3.642 5.533 3.987
3.412 5.252 3.820
1.991 4.786 2.955
1.890 5.174 3.118
1.260 5.100 3.034
1.340 4.779 2.706
0.540 4.717 2.430
4.106 5.468 4.004
3.870 5.293 4.165
3.355 5.590 4.032
2.171 5.213 3.408
2.075 5.162 3.130
1.787 4.944 3.371
1.051 4.911 3.285
1.156 4.847 2.882
3.793 5.725 4.515
3.707 5.728 4.742
2.123 5.481 4.047
1.970 5.249 3.750
1.616 5.125 3.618
1.418 5.317 3.392
0.838 5.444 3.469
3.620 5.684 4.558
2.582 5.848 4.415
2.145 5.446 4.249
1.705 5.323 4.050
1.511 5.597 3.802
1.290 5.531 3.568
2.540 6.044 4.393
2.245 5.614 4.610
2.079 5.595 4.106
1.709 5.901 4.131
1.212 5.451 3.960
2.474 6.003 4.907
2.521 6.142 4.583
2.269 6.048 4.876
1.961 5.805 4.346
1.633 5.718 4.620
2.724 6.275 5.099
2.448 6.180 5.149
1.929 6.349 4.927
1.865 5.891 4.805
0.070 5.748 4.489
5.709 3.505 1.298
5.153 3.437 1.188
5.234 3.497 0.907
4.712 3.307 0.937
3.099 3.048 0.148
5.597 3.453 1.572
5.418 3.603 1.337
4.953 3.430 1.379
4.775 3.806 1.555
3.222 3.445 0.666
2.991 3.201 0.152
2.725 3.170 0.110
2.044 3.256 -0.043
5.651 3.784 1.692
5.165 4.103 1.606
5.216 3.917 1.770
3.412 3.536 0.687
2.958 3.642 0.803
2.924 3.438 0.679
2.512 3.423 0.432
2.261 3.274 0.409
5.480 3.851 1.848
5.176 4.015 2.203
3.271 3.894 1.376
3.334 3.637 0.983
2.893 3.415 1.016
2.613 3.608 1.037
2.297 3.278 0.592
0.605 3.145 -0.198
5.266 4.169 1.946
3.410 3.707 1.783
3.421 3.701 1.561
3.140 3.870 1.558
2.463 3.677 1.193
2.314 3.763 1.306
0.806 3.604 0.420
0.709 3.485 0.032
0.182 3.470 0.126
3.547 3.998 1.942
3.514 4.189 1.640
3.297 3.801 1.738
2.883 3.877 1.608
2.448 3.906 1.606
1.132 3.466 0.723
0.947 3.616 0.840
0.395 3.405 0.653
0.413 3.265 0.587
3.937 4.271 2.253
3.478 4.511 2.067
3.300 4.000 2.030
3.115 4.070 1.825
2.761 4.038 1.859
1.031 3.700 1.228
0.947 3.554 0.901
0.393 3.640 0.876
0.112 3.602 0.525
0.020 3.506 0.652
3.991 4.568 2.421
3.884 4.737 2.257
3.795 4.400 2.213
3.188 4.552 1.982
2.861 4.421 1.621
1.736 4.220 1.164
1.201 4.081 0.915
1.130 4.094 0.818
0.618 3.790 0.779
0.198 3.835 0.738
4.419 5.137 2.968
3.861 4.781 2.813
3.633 4.623 2.489
3.443 4.514 2.411
3.416 4.935 1.955
1.608 4.529 1.742
1.244 4.444 1.557
0.987 4.258 1.389
0.827 4.368 1.300
0.551 4.340 0.819
0.344 3.951 0.984
4.486 5.129 3.108
4.321 5.043 2.735
4.006 4.902 2.829
3.444 5.200 2.885
3.455 4.732 2.792
3.142 5.108 2.287
1.645 4.427 1.955
1.341 4.638 1.759
1.218 4.394 1.226
0.868 4.364 1.445
0.338 4.136 1.039
0.108 4.416 1.150
4.333 5.356 3.333
4.183 5.094 3.230
3.912 5.371 3.464
3.964 5.071 2.931
3.486 5.307 2.814
3.182 4.895 3.032
2.797 4.863 2.864
1.678 4.806 2.342
1.285 4.981 1.919
1.306 4.710 1.907
0.609 4.466 1.649
0.500 4.513 1.792
0.425 4.703 1.428
4.558 5.227 3.589
3.980 5.505 3.495
4.110 5.643 3.387
3.515 5.455 3.557
3.518 5.350 2.969
2.891 5.408 2.850
1.559 5.163 2.548
1.279 5.001 2.297
1.175 5.096 2.103
0.710 4.742 1.822
0.282 4.520 1.827
4.150 5.370 3.468
4.157 5.750 4.000
3.997 5.761 3.539
3.458 5.753 3.451
3.293 5.714 3.487
1.533 5.333 2.825
1.242 5.344 2.864
1.195 5.238 2.637
0.884 5.144 2.269
0.450 5.081 2.175
3.854 5.874 3.589
3.999 5.608 4.029
1.752 5.171 2.979
1.383 5.332 3.083
1.017 5.040 2.903
4.035 6.040 3.986
2.072 6.115 3.696
1.970 6.043 3.740
2.462 6.276 4.598
2.438 5.863 4.080
2.251 6.068 4.137
1.541 5.946 3.907
2.229 6.186 4.628
1.997 6.330 4.471
1.595 6.378 4.280
0.057 5.894 3.316
0.066 6.349 3.997
0.324 6.161 3.938
5.764 3.851 0.928
5.554 3.854 0.859
5.071 3.577 1.049
4.986 3.506 0.599
4.710 3.364 0.423
5.432 3.643 1.396
5.598 3.818 1.166
5.080 3.971 1.390
4.908 3.673 1.377
4.397 3.962 1.079
3.011 3.372 0.239
2.511 3.347 -0.174
5.620 3.756 1.556
5.510 4.119 1.880
5.224 4.191 1.595
5.031 3.835 1.471
3.045 3.608 0.757
2.628 3.612 0.604
2.675 3.424 0.084
2.395 3.316 0.000
5.340 4.122 1.633
3.713 4.257 1.853
3.543 4.196 1.655
2.994 4.388 1.686
0.865 4.066 0.533
0.710 3.710 0.636
0.434 3.714 0.475
3.956 4.714 2.107
4.050 4.628 2.155
3.388 4.482 2.193
3.362 4.333 1.812
3.242 4.463 1.712
1.591 3.929 1.177
1.325 4.176 0.885
0.755 4.273 0.583
0.607 3.862 0.925
0.326 4.042 0.611
4.297 5.119 2.377
4.252 4.989 2.258
4.002 4.794 2.284
3.734 5.109 1.802
3.307 4.683 1.772
2.058 4.392 1.052
1.688 4.598 0.715
1.490 4.640 0.728
0.762 4.581 0.523
0.876 4.445 0.750
4.843 5.292 2.731
4.602 4.989 2.632
3.905 5.301 2.400
3.733 4.991 2.337
3.445 5.028 2.144
3.022 5.168 1.980
1.978 4.600 1.478
1.505 4.492 1.081
1.079 4.669 0.878
0.972 4.309 0.673
0.574 4.598 0.625
0.383 4.528 0.572
4.783 5.328 2.598
4.642 5.668 2.797
4.226 5.530 2.670
4.039 5.427 2.655
3.498 5.008 2.741
3.213 5.268 2.500
3.256 5.264 2.070
1.743 5.049 1.447
1.606 4.687 1.530
1.292 4.696 1.313
0.743 4.784 1.457
0.721 4.688 1.081
0.250 4.772 0.787
-0.048 4.410 0.907
4.490 5.438 3.023
4.435 5.687 3.406
4.177 5.554 3.184
4.018 5.399 2.710
3.663 5.463 2.762
2.994 5.172 2.570
3.008 5.531 2.702
1.629 5.247 1.910
1.349 5.156 1.985
1.082 4.767 1.821
0.824 4.833 1.459
0.795 5.108 1.429
0.443 5.031 1.076
4.308 5.549 3.393
4.342 5.681 3.599
4.005 5.624 3.114
3.466 5.670 3.063
3.248 5.550 2.928
3.133 5.503 2.807
2.993 5.290 2.613
1.732 5.430 2.057
1.285 5.142 1.856
0.919 4.968 1.919
0.915 4.988 1.602
0.311 4.975 1.386
-0.022 5.032 1.322
4.038 5.593 3.384
4.291 5.683 3.707
3.801 5.629 3.725
3.435 5.666 3.174
3.098 5.749 3.020
2.978 5.911 3.185
1.332 5.149 2.534
0.727 5.105 2.116
0.674 5.482 2.182
0.081 5.384 1.646
4.266 6.092 3.492
0.444 6.059 3.061
0.477 6.164 3.470
-0.091 6.350 3.200
5.915 3.825 0.902
5.173 4.057 0.877
5.115 4.069 0.891
4.785 4.113 0.500
4.470 3.720 0.477
4.444 3.823 0.187
5.642 3.940 1.080
5.308 4.438 1.163
5.248 4.400 1.321
4.817 4.369 1.071
4.480 4.256 1.023
4.553 3.890 0.625
5.476 4.316 1.326
5.037 4.388 1.514
4.681 4.499 1.274
4.761 4.005 1.067
2.437 4.055 0.178
4.745 5.259 2.193
4.207 5.083 2.428
4.016 5.054 1.929
3.827 5.082 1.839
3.380 4.681 1.662
1.735 4.608 1.015
1.526 4.648 0.880
1.148 4.546 0.809
1.053 4.202 0.439
0.802 4.449 0.619
5.022 5.308 2.177
4.427 5.380 2.022
4.398 5.385 1.892
3.846 4.952 2.063
3.530 5.353 1.574
1.957 4.910 1.091
1.811 4.541 0.873
1.818 4.554 0.738
1.196 4.629 0.666
1.223 4.651 0.603
4.986 5.449 2.124
4.952 5.515 2.345
4.454 5.495 2.214
4.300 5.356 2.300
3.829 5.326 2.212
3.604 5.355 1.960
3.199 5.003 2.061
1.845 4.825 1.144
1.933 5.218 1.109
1.621 4.935 0.801
1.338 4.799 0.759
0.817 4.800 0.584
0.322 4.852 0.455
4.478 5.568 2.575
4.552 5.783 2.693
4.480 5.624 2.855
3.953 5.794 2.347
3.578 5.345 2.408
3.171 5.633 2.303
2.899 5.642 2.075
1.894 5.068 1.725
1.356 4.978 1.222
1.389 5.036 1.365
1.148 5.258 1.029
0.799 5.203 0.988
0.362 5.095 0.770
0.162 4.623 0.779
4.497 5.567 2.640
4.420 5.901 3.253
4.120 5.794 2.718
3.784 5.959 2.610
3.420 5.866 2.559
3.486 5.704 2.200
2.850 5.387 2.116
1.793 5.227 1.653
1.704 5.544 1.491
1.034 5.163 1.533
1.049 5.287 1.550
0.556 4.959 1.193
0.173 5.074 1.272
4.504 5.963 3.203
4.042 5.912 3.283
4.054 6.123 3.038
3.867 6.145 3.083
3.466 5.828 2.878
2.920 5.784 2.615
2.752 5.891 2.454
1.099 5.680 1.753
1.158 5.478 1.972
0.917 5.469 1.637
0.460 5.236 1.692
0.038 5.390 1.501
4.407 5.870 3.487
3.912 6.072 3.465
3.691 5.922 3.267
3.328 6.178 3.290
2.722 5.985 2.868
2.449 6.156 2.560
1.101 5.470 1.759
0.690 5.643 1.895
0.435 5.383 1.562
0.143 6.041 3.129
5.662 4.306 0.813
5.505 4.094 0.596
5.304 4.463 0.338
5.019 4.057 0.597
4.303 4.347 0.300
4.212 4.254 -0.059
5.636 4.337 0.928
5.230 4.253 0.679
5.231 4.205 0.789
4.709 4.118 0.392
4.533 4.306 0.384
4.155 4.068 0.143
4.840 4.347 0.805
4.324 4.356 1.035
4.007 4.525 0.754
4.938 5.311 2.415
4.778 5.171 2.024
4.502 5.442 2.123
3.971 5.270 1.900
3.730 5.139 1.680
2.265 4.610 1.193
1.926 4.779 0.805
1.558 4.685 0.728
1.406 4.593 0.605
1.117 4.639 0.468
4.857 5.625 2.497
4.942 5.557 2.148
4.633 5.661 1.906
4.402 5.356 1.958
3.910 5.681 1.596
2.303 5.252 0.812
2.177 4.923 0.846
2.075 5.068 0.932
1.579 4.883 0.552
1.224 4.835 0.632
5.039 5.590 2.327
4.573 5.709 2.446
4.638 5.689 2.049
4.321 5.817 2.233
3.879 5.894 2.079
3.684 5.641 2.012
1.853 5.181 1.018
1.635 5.425 0.793
1.618 5.266 0.574
1.062 4.977 0.530
0.679 4.817 0.550
4.630 5.834 2.347
4.674 6.135 2.519
4.288 6.135 2.553
4.012 5.919 2.192
3.522 5.978 2.320
3.501 5.981 1.813
3.246 5.799 1.655
1.935 5.493 1.100
1.845 5.339 1.067
1.421 5.219 0.990
1.100 5.135 1.186
0.550 5.020 0.796
0.311 5.156 0.468
4.371 5.831 2.811
4.375 6.115 2.880
4.083 5.939 2.598
3.681 6.258 2.756
3.735 5.955 2.381
3.405 5.886 2.415
2.735 5.884 2.222
1.645 5.411 1.614
1.399 5.337 1.343
0.711 5.397 1.401
0.795 5.159 1.083
0.410 5.600 1.019
0.027 5.383 0.812
4.392 6.182 2.871
3.888 6.396 2.795
3.602 6.002 3.043
3.474 6.197 2.449
3.354 6.164 2.271
3.004 6.189 2.173
2.281 5.780 2.448
1.173 5.454 1.695
0.701 5.577 1.234
0.534 5.552 1.220
0.261 5.599 1.008
2.994 6.051 2.734
2.868 6.048 2.699
2.160 6.228 2.369
0.840 5.725 1.711
0.517 5.993 1.607
0.257 5.824 1.322
2.178 6.318 2.826
5.457 4.395 0.580
5.254 4.514 0.529
4.847 4.332 0.095
4.713 4.405 -0.101
5.136 4.799 0.857
4.906 4.435 0.640
4.554 4.671 0.544
4.118 4.435 0.051
4.066 4.552 0.163
4.787 4.923 0.718
4.319 4.739 0.772
4.094 4.616 0.597
3.697 4.398 0.143
4.038 4.725 0.697
3.685 4.669 0.570
3.414 4.985 0.537
3.364 4.934 0.673
2.908 5.064 0.504
2.532 4.627 0.424
5.180 5.599 1.615
4.666 5.284 1.688
2.644 4.935 0.850
2.448 5.180 0.403
2.073 5.054 0.678
1.865 4.613 0.330
5.231 5.237 2.067
5.038 5.547 1.908
4.589 5.585 1.774
4.530 5.735 2.051
4.042 5.643 1.629
2.461 5.235 1.149
2.305 5.081 0.646
2.121 4.839 0.685
1.625 4.927 0.800
1.090 4.814 0.319
4.959 5.746 2.090
4.681 5.875 1.707
4.514 5.671 1.707
4.267 6.008 1.403
2.667 5.724 0.970
2.416 5.383 0.697
2.199 5.622 0.822
1.824 5.321 0.398
1.761 5.280 0.340
5.140 6.006 2.129
4.778 5.912 2.054
4.512 5.912 1.969
4.371 6.136 1.853
3.764 5.674 1.802
2.222 5.525 0.817
1.873 5.445 0.743
1.916 5.494 0.963
1.491 5.532 0.909
1.468 5.428 0.376
4.731 6.276 2.278
4.735 6.333 2.585
4.427 5.960 2.444
4.267 6.182 2.264
3.990 6.047 1.829
3.670 6.279 1.835
1.900 5.843 0.962
1.343 5.574 1.091
1.164 5.426 0.632
0.553 5.321 0.438
4.453 6.095 2.223
3.740 6.180 2.265
3.447 6.377 2.299
2.916 6.340 2.118
1.274 5.764 1.328
1.113 5.704 1.172
0.660 5.677 0.834
0.482 5.542 0.726
2.361 6.333 2.146
0.999 5.757 1.320
0.635 6.048 0.907
0.363 5.622 0.988
0.243 5.818 1.440
0.165 5.727 1.266
0.085 5.969 1.659
5.080 4.990 0.101
4.876 4.856 -0.041
4.674 4.743 0.050
4.210 4.822 0.242
4.118 4.995 0.192
4.286 5.237 0.197
4.108 4.904 0.122
3.624 4.701 0.036
4.371 4.984 0.848
3.854 5.303 0.715
3.711 5.099 0.476
3.275 5.127 0.101
3.057 4.963 0.237
5.385 5.420 1.362
3.686 5.338 0.491
3.664 5.467 0.427
3.229 4.939 0.348
2.665 5.167 0.184
2.602 5.249 0.356
2.003 5.215 0.168
5.106 5.592 1.428
5.057 5.980 1.524
4.906 5.512 1.686
3.455 5.280 0.950
2.812 5.304 0.859
2.624 5.490 0.597
2.434 5.092 0.218
2.017 5.356 0.487
4.906 5.543 1.474
5.008 6.156 1.987
4.560 5.851 1.534
4.392 6.005 1.697
2.850 5.625 1.114
2.398 5.597 1.006
2.089 5.594 0.722
1.927 5.377 0.784
1.482 5.190 0.623
4.763 5.719 1.920
4.863 6.097 1.619
4.537 6.297 1.762
3.006 5.665 1.006
2.869 6.014 0.854
2.564 5.888 0.760
2.230 5.651 0.719
1.932 5.558 0.540
4.987 6.278 1.954
2.458 5.855 1.104
2.211 6.103 0.941
2.035 5.556 0.823
0.448 6.117 1.018
-0.044 6.356 1.005
4.468 5.082 0.409
3.990 5.144 -0.044
5.161 5.819 0.901
4.142 5.472 0.522
3.676 5.535 0.280
3.745 5.560 0.443
3.190 5.068 0.232
5.206 5.903 0.903
5.081 5.887 1.283
3.757 5.723 0.476
3.631 5.275 0.590
3.141 5.253 0.422
2.930 5.457 -0.015
2.775 5.281 -0.169
5.289 5.996 1.404
5.056 6.229 1.528
4.621 5.978 1.602
3.361 5.840 0.651
3.362 5.550 0.617
2.823 5.852 0.428
2.790 5.703 0.443
2.456 5.692 0.369
1.988 5.389 0.322
5.130 5.831 1.271
4.971 6.090 1.723
4.902 5.986 1.569
3.359 5.760 0.763
2.895 5.899 0.910
2.405 5.746 0.633
2.361 5.467 0.457
2.082 5.517 0.171
4.846 6.444 1.660
3.643 6.384 0.690
3.383 6.085 1.002
3.053 6.191 0.571
2.780 5.974 0.644
2.076 5.721 0.283
5.634 5.769 0.835
5.478 6.033 0.395
5.165 5.999 0.883
4.294 5.983 0.343
3.776 5.802 0.166
3.609 5.569 0.240
5.162 6.138 0.978
5.228 6.402 0.935
4.314 5.832 0.715
3.817 5.645 0.542
3.566 5.813 0.030
3.003 5.978 -0.064
5.476 6.242 1.151
3.687 6.151 0.773
3.496 5.722 0.393
3.092 5.755 0.590
2.596 5.932 0.158
2.571 5.839 0.285
3.597 6.055 1.131
3.356 6.021 0.550
2.848 6.167 0.613
2.584 6.063 0.244
2.473 5.751 0.452
5.570 6.006 -0.018
5.765 6.144 0.116
5.442 6.178 0.580
5.234 6.223 0.167
5.714 5.971 0.301
5.623 6.281 0.598
5.512 6.293 0.406
3.877 6.033 0.290
4.035 5.944 0.399
3.306 6.083 0.071
3.397 6.223 0.485
3.134 6.031 -0.049
2.719 6.212 0.136
4.463 2.204 4.332
3.973 2.422 3.982
3.917 2.037 3.779
3.386 1.871 3.518
3.287 2.116 3.724
1.267 1.691 2.872
1.108 1.769 2.474
0.845 1.381 2.343
0.566 1.671 2.075
0.323 1.361 2.330
4.232 2.303 4.694
4.070 2.296 4.415
3.577 2.374 4.322
3.319 2.062 4.178
3.158 2.238 3.716
2.878 2.150 3.927
1.516 2.030 3.101
1.044 1.938 2.960
0.955 1.792 2.610
0.387 1.710 2.698
0.353 1.804 2.514
4.200 2.230 4.598
4.327 2.694 4.637
3.900 2.512 4.356
3.445 2.420 4.361
3.246 2.269 4.425
3.071 2.303 4.353
2.940 2.453 4.192
1.396 2.075 3.514
1.169 2.033 3.184
1.250 2.089 3.088
0.813 1.906 2.828
0.521 1.774 3.033
0.176 1.829 2.765
4.054 2.725 4.908
4.264 2.599 5.149
3.717 2.862 5.057
3.709 2.496 4.481
3.224 2.437 4.353
2.789 2.540 4.350
2.802 2.597 4.425
1.354 2.331 3.893
1.205 2.418 3.422
0.775 2.152 3.191
0.714 2.285 3.517
0.343 2.216 2.946
4.194 2.758 4.996
4.174 3.225 5.365
3.514 2.872 5.059
3.132 2.651 4.875
2.936 2.766 4.668
2.870 2.618 4.776
1.422 2.713 3.817
1.195 2.426 3.717
0.939 2.221 3.539
0.368 2.045 3.434
0.086 2.148 3.291
4.138 2.865 5.123
3.998 3.005 5.237
3.344 2.910 5.309
3.319 2.913 5.237
2.715 3.151 4.841
1.258 2.529 4.427
1.050 2.421 3.906
0.710 2.614 3.790
0.251 2.456 3.764
3.832 3.400 5.389
2.492 3.852 6.230
2.496 3.870 5.866
2.205 3.708 5.974
1.682 3.386 5.869
2.406 3.587 6.310
2.070 3.970 5.943
1.650 3.909 6.138
0.033 3.299 5.495
1.408 4.093 6.269
0.265 3.957 5.937
5.558 1.411 2.618
5.325 1.094 2.472
4.750 1.070 2.460
4.586 1.121 2.263
4.238 1.320 2.359
3.911 1.119 2.029
2.727 0.769 1.730
2.708 0.643 1.323
2.141 0.492 1.405
2.079 0.781 0.862
1.511 0.416 0.867
1.547 0.721 0.744
0.186 0.363 0.347
5.548 1.550 2.852
5.459 1.297 2.945
4.908 1.599 2.939
4.944 1.426 2.688
4.199 1.454 2.523
4.254 1.287 2.547
2.563 0.905 1.659
2.407 0.966 1.578
2.130 1.026 1.375
1.529 0.544 1.403
1.668 0.587 1.272
5.348 1.583 2.906
5.221 1.775 3.050
4.672 1.425 2.878
4.774 1.423 3.147
2.619 1.137 2.136
2.273 0.857 1.707
1.763 1.071 1.584
1.340 0.939 1.742
5.028 1.396 3.272
3.706 1.950 3.312
0.613 1.288 2.324
0.771 1.360 2.106
4.319 2.167 4.145
4.000 2.432 4.171
3.749 1.929 3.751
3.569 1.898 3.419
3.155 2.073 3.661
1.087 1.758 2.522
1.058 1.417 2.444
0.538 1.537 2.371
0.640 1.656 2.413
0.010 1.688 2.356
4.814 2.488 4.224
4.244 2.469 3.723
4.112 2.349 3.629
3.815 2.232 3.437
3.185 2.600 3.640
1.651 1.984 2.816
1.352 2.157 2.532
0.825 1.722 2.595
0.546 1.876 2.504
0.263 1.553 2.186
4.446 2.688 4.254
4.531 2.917 4.254
4.199 2.478 4.020
3.935 2.846 3.889
3.353 2.745 4.023
3.285 2.407 3.579
2.917 2.385 3.404
2.017 2.400 2.949
1.663 1.924 2.834
1.316 2.237 2.878
1.042 1.809 2.524
0.648 1.954 2.364
0.377 1.926 2.236
4.378 2.498 4.335
4.259 2.944 4.388
3.998 2.774 4.187
3.793 2.563 4.208
3.414 2.832 4.144
3.283 2.662 4.024
2.736 2.645 3.882
1.794 2.623 3.104
1.340 2.487 3.392
0.875 2.457 3.140
0.897 2.061 2.807
0.262 2.183 2.519
0.324 2.370 2.449
4.300 3.180 4.370
4.299 3.232 4.792
3.686 3.157 4.699
3.792 2.949 4.605
3.438 3.119 4.282
3.138 2.911 4.395
2.421 2.874 3.927
1.579 2.786 3.769
1.039 2.405 3.148
1.078 2.487 3.021
0.729 2.585 3.078
0.121 2.093 3.075
0.146 2.120 2.810
3.934 3.205 4.681
4.199 3.156 4.797
3.851 2.962 5.097
3.285 3.236 4.874
2.971 3.341 4.380
2.853 3.255 4.619
2.623 2.844 4.511
1.365 2.715 3.712
1.262 2.493 3.537
0.541 2.427 3.276
0.526 2.402 3.374
0.394 2.303 3.423
3.821 3.158 5.144
3.519 3.275 5.084
3.116 3.482 4.967
2.858 3.398 4.657
2.910 3.223 4.490
0.983 2.935 4.060
0.678 2.672 3.761
0.089 2.873 3.769
0.172 2.466 3.457
3.161 4.002 5.854
2.722 3.842 6.187
2.173 4.053 5.937
2.019 3.951 5.857
0.522 3.631 5.091
0.207 3.435 4.522
2.554 4.236 5.968
2.056 3.881 6.209
1.839 3.796 6.030
1.760 4.009 5.894
0.368 3.651 5.222
-0.065 3.697 4.891
1.582 4.457 5.954
1.640 3.961 6.163
0.195 4.165 5.556
0.062 3.758 5.224
1.138 4.157 6.519
0.381 4.274 5.642
5.565 1.333 2.458
5.204 1.496 2.340
5.008 1.493 2.215
4.517 1.348 2.392
4.300 1.338 2.070
3.867 1.355 1.800
2.644 0.947 1.385
2.696 0.887 1.191
2.226 1.037 0.951
2.163 1.062 0.874
1.479 0.731 0.752
1.432 0.741 0.659
1.272 0.497 0.724
5.660 1.549 2.800
5.237 1.990 2.938
4.910 1.762 2.797
4.850 1.533 2.333
4.573 1.713 2.284
4.375 1.650 2.369
4.018 1.329 2.347
2.113 1.401 1.281
1.927 1.094 1.058
1.688 1.114 1.157
1.425 0.883 0.974
1.192 0.884 0.987
5.053 1.705 2.677
4.625 1.597 2.747
4.170 1.785 2.595
1.688 1.056 1.340
1.424 1.407 1.438
1.425 1.382 1.489
4.772 2.838 4.078
4.209 2.367 3.763
3.851 2.225 3.577
3.558 2.226 3.444
3.367 2.343 3.421
1.653 2.216 2.413
1.516 1.987 2.359
1.197 1.862 2.517
0.961 2.081 2.467
0.321 2.005 1.923
4.501 2.720 3.991
4.545 2.913 3.897
4.430 2.613 3.648
4.053 2.711 3.531
3.798 2.949 3.645
1.813 2.258 2.817
1.632 2.216 2.238
1.516 2.328 2.407
0.977 2.191 2.269
0.755 2.134 2.241
4.572 3.012 4.065
4.591 2.837 4.208
4.405 3.168 3.939
4.064 3.175 3.858
3.323 2.981 3.813
3.082 2.684 3.398
1.869 2.571 3.075
1.342 2.291 2.798
1.246 2.638 2.715
0.908 2.222 2.344
0.516 2.276 2.355
0.352 2.394 2.120
4.365 3.214 3.879
4.091 3.089 4.512
3.909 3.117 4.211
3.496 3.266 3.936
3.541 2.786 3.940
3.263 3.032 3.637
2.822 3.170 3.751
1.719 2.728 2.888
1.233 2.488 3.175
1.214 2.499 3.072
0.590 2.568 2.881
0.678 2.462 2.385
0.109 2.192 2.345
4.435 3.399 4.547
3.999 3.324 4.757
3.812 3.104 4.498
3.351 3.284 4.541
3.192 3.443 3.932
3.020 3.068 3.882
2.440 3.322 3.754
1.326 2.746 3.062
1.046 2.849 3.117
0.565 2.478 2.876
0.379 2.639 2.905
0.050 2.694 2.649
3.918 3.338 4.668
3.740 3.627 4.638
3.474 3.228 4.556
3.314 3.475 4.676
2.732 3.234 4.089
2.350 3.121 3.899
1.075 2.730 3.618
0.656 2.749 3.150
0.620 2.627 2.956
0.375 2.861 2.950
3.372 3.847 4.606
2.879 3.581 4.834
2.588 3.315 4.370
2.189 3.377 4.269
2.299 3.483 4.205
0.520 3.294 3.597
0.536 3.213 3.450
-0.021 3.096 3.362
2.289 3.556 4.834
3.452 4.481 6.284
2.781 4.339 5.669
2.613 4.229 5.820
0.811 3.992 4.574
0.494 3.882 4.766
0.058 4.007 4.782
3.179 4.234 5.853
2.726 4.369 6.167
2.601 4.358 5.775
2.251 4.350 5.759
1.834 4.460 5.978
0.500 3.952 5.191
0.145 4.108 4.784
2.188 4.574 6.250
1.961 4.532 6.246
1.895 4.537 6.217
1.411 4.652 5.866
0.429 4.280 5.332
-0.176 3.931 5.392
1.874 4.479 6.441
1.356 4.823 6.066
0.306 4.231 5.391
5.381 1.837 2.206
5.104 1.646 2.458
5.083 1.615 2.084
4.853 1.925 1.818
4.395 1.565 1.681
4.232 1.812 1.833
2.720 1.120 0.961
2.464 0.972 0.674
2.087 1.403 0.985
1.537 1.295 0.739
1.501 1.104 0.294
0.933 1.055 0.274
5.637 1.974 2.301
4.955 2.027 2.725
4.523 2.098 2.128
4.421 1.889 2.383
3.942 1.626 2.229
4.005 1.851 2.040
3.679 1.611 1.944
2.249 1.586 1.302
2.025 1.570 0.799
1.526 1.141 0.959
1.383 1.295 0.964
0.858 1.267 0.743
4.345 1.777 2.276
3.996 2.212 2.345
3.678 1.693 2.041
1.541 1.605 1.111
1.505 1.279 0.880
0.850 1.641 1.100
0.961 1.269 1.068
4.503 2.544 3.554
4.700 2.425 3.593
2.258 2.183 2.486
1.922 2.168 2.463
1.353 1.828 1.854
4.580 2.806 3.471
4.671 3.113 4.114
4.488 2.579 3.613
4.200 2.835 3.694
3.903 2.748 3.528
1.944 2.588 2.505
1.405 2.479 2.691
1.274 2.096 2.596
1.021 2.316 2.036
0.514 2.362 2.017
4.739 2.692 3.931
4.468 3.365 3.480
4.490 3.269 3.391
4.046 2.808 3.309
2.249 2.554 2.547
2.160 2.496 2.674
1.626 2.602 2.314
1.324 2.583 2.141
1.221 2.345 2.031
4.759 3.364 3.802
4.511 3.131 3.834
4.109 3.286 3.612
3.642 3.042 3.515
3.362 3.391 3.712
1.596 2.722 2.664
1.531 2.859 2.579
1.130 2.853 2.464
0.873 2.396 2.119
0.551 2.508 2.299
4.310 3.292 3.838
4.228 3.305 3.948
4.098 3.269 3.940
4.007 3.144 4.058
3.436 3.117 3.880
3.127 3.329 3.776
1.494 2.947 2.961
1.551 2.788 3.019
1.247 3.080 2.649
0.639 2.695 2.319
0.425 2.670 2.236
0.449 2.617 2.400
4.269 3.252 4.186
3.697 3.435 4.402
3.506 3.446 4.332
3.444 3.315 3.872
3.159 3.382 4.064
2.965 3.215 3.787
1.125 2.963 2.877
1.142 2.966 2.907
0.691 3.071 2.777
0.372 2.740 2.497
-0.012 2.996 2.694
3.224 3.572 4.431
3.353 3.409 4.132
2.874 3.374 4.233
2.775 3.566 3.999
2.394 3.458 3.840
0.890 3.144 3.379
0.402 3.124 3.176
0.092 3.008 3.014
3.143 3.909 4.285
2.964 3.896 4.227
2.210 3.591 4.027
2.053 3.517 4.116
1.924 3.692 3.778
0.555 3.442 3.188
0.032 3.010 3.211
2.520 4.169 4.791
2.285 3.780 4.593
2.044 3.902 4.300
1.569 3.649 4.366
1.152 3.747 3.982
2.011 3.877 4.720
1.667 4.074 4.522
1.529 3.906 4.658
1.201 4.001 4.244
0.831 3.561 4.195
3.374 4.424 5.703
1.701 4.205 5.040
1.372 4.127 4.538
1.132 4.102 4.376
0.855 3.878 4.280
0.722 3.872 4.027
3.233 4.371 5.760
3.482 4.586 5.826
3.262 4.629 5.594
2.796 4.570 5.416
1.445 4.248 4.811
0.995 4.393 4.935
0.833 4.307 4.510
0.184 4.325 4.288
0.217 4.001 4.534
3.169 4.530 5.644
3.382 4.664 6.240
3.132 4.585 5.878
2.330 4.583 5.961
2.244 4.911 5.946
1.044 4.400 5.224
0.582 4.270 4.981
0.275 4.115 4.541
2.926 4.840 5.979
2.965 4.985 6.204
2.640 5.034 6.105
2.045 4.857 6.148
2.098 4.967 5.580
0.288 4.491 5.094
-0.018 4.212 5.235
1.798 4.991 6.288
1.607 4.934 5.983
1.256 4.987 5.843
5.258 1.882 2.296
4.921 2.105 1.965
4.423 2.185 1.677
4.543 1.889 1.825
3.800 1.856 1.441
3.625 1.784 1.440
2.319 1.646 0.580
1.718 1.404 0.828
1.723 1.178 0.530
1.263 1.418 0.145
0.923 1.469 0.330
4.936 2.377 2.288
4.727 1.935 2.043
4.236 1.862 1.986
4.053 1.847 1.835
3.417 1.829 1.855
1.946 1.517 0.802
1.365 1.537 0.529
1.053 1.679 0.783
1.142 1.641 0.597
0.742 1.318 0.289
4.256 2.386 2.374
4.237 2.211 2.168
3.894 2.305 2.061
3.641 2.265 1.884
2.978 1.904 1.885
1.132 1.726 0.741
0.950 1.789 0.681
0.984 1.372 0.867
0.650 1.601 0.684
0.272 1.461 0.260
3.416 2.482 2.056
3.236 2.258 2.226
3.037 2.373 1.774
2.465 2.044 1.629
0.904 1.854 0.848
0.598 1.815 0.672
0.518 1.486 0.643
-0.030 1.646 0.614
5.182 2.624 3.185
3.171 2.378 2.601
2.790 2.184 2.306
2.359 2.474 2.066
2.356 2.225 1.956
0.699 1.760 1.384
0.129 1.956 1.058
4.856 2.885 3.304
4.783 2.908 3.351
4.538 2.924 3.233
2.513 2.752 2.321
2.443 2.314 2.570
2.175 2.569 2.376
2.063 2.319 1.925
1.443 2.386 1.889
0.095 2.189 1.336
4.638 2.778 3.612
4.664 3.254 3.758
4.506 3.037 3.767
4.093 2.975 3.263
2.017 2.597 2.575
1.990 2.794 2.419
1.642 2.809 2.502
1.630 2.515 1.922
0.856 2.300 2.229
4.706 3.098 3.933
4.440 3.520 3.499
4.299 3.565 3.167
2.456 2.793 2.514
2.162 2.728 2.282
1.801 2.716 2.075
1.701 2.776 1.886
1.344 2.974 2.043
4.490 3.444 3.468
4.561 3.546 3.966
3.980 3.545 3.709
3.809 3.723 3.664
2.332 3.076 2.528
1.948 3.047 2.744
1.689 2.787 2.418
1.366 3.124 2.386
4.620 3.477 3.671
4.261 3.811 3.938
4.006 3.867 3.526
3.255 3.612 3.446
1.490 3.209 2.618
0.969 2.884 2.330
0.824 3.110 2.119
3.795 3.597 4.208
3.588 3.776 3.995
2.946 3.691 3.483
0.547 3.407 2.348
0.320 3.394 2.245
0.022 3.291 2.397
3.217 3.872 4.173
3.076 3.690 4.078
2.427 3.663 3.971
2.154 3.759 3.695
0.424 3.528 2.681
2.651 4.267 4.197
2.370 3.905 4.149
2.008 3.826 4.157
1.808 4.043 3.859
1.419 3.951 3.700
0.292 3.350 3.074
2.666 4.189 4.557
