2.857 1.089 0.022
2.573 1.060 -0.065
6.060 1.773 0.845
6.152 3.799 0.176
6.157 3.975 0.217
6.029 4.215 0.081
6.121 0.793 1.083
6.167 1.114 1.118
6.055 1.276 1.025
6.150 1.548 0.916
6.076 1.753 0.895
5.828 1.817 0.823
5.862 2.061 0.618
5.809 4.066 0.121
5.759 4.176 0.079
5.869 0.922 0.891
5.765 1.318 0.822
5.807 1.559 0.901
5.926 1.756 0.727
5.509 1.691 0.702
5.581 1.954 0.663
5.592 2.294 0.630
5.664 1.307 0.838
5.529 1.539 0.823
5.581 1.796 0.724
5.529 1.807 0.884
5.496 2.057 0.829
5.499 4.013 0.331
5.562 4.310 0.253
5.538 4.472 0.135
5.520 4.878 -0.018
5.561 1.146 1.075
5.491 1.291 0.994
5.616 1.616 0.971
5.570 1.746 0.849
5.312 1.723 0.922
5.263 2.055 0.837
5.288 4.594 0.113
5.287 1.553 0.916
5.218 1.750 0.809
4.251 3.033 0.182
4.250 3.208 0.187
4.246 3.455 0.004
4.256 0.395 0.933
3.973 2.988 0.072
4.077 3.275 0.036
3.965 0.356 0.954
4.103 0.672 0.725
4.026 0.880 0.653
3.839 2.849 0.024
3.676 0.433 0.810
3.838 0.591 0.704
3.852 0.922 0.752
3.706 1.087 0.521
3.572 0.444 0.756
3.513 0.685 0.612
3.526 0.957 0.573
3.484 1.219 0.523
3.476 1.351 0.372
3.352 1.680 0.278
3.261 0.275 0.733
3.260 0.637 0.543
3.253 0.788 0.503
3.254 1.060 0.500
3.298 1.303 0.402
3.256 1.583 0.301
3.039 1.654 0.274
3.027 0.409 0.669
2.918 0.595 0.446
2.987 0.805 0.522
3.023 1.184 0.351
3.093 1.345 0.298
3.016 1.578 0.158
2.810 1.559 0.085
2.714 1.743 0.002
2.753 0.660 0.503
2.717 0.794 0.466
2.706 0.992 0.224
2.712 1.379 0.216
2.695 1.598 0.139
2.552 1.539 0.055
2.537 1.822 0.023
2.452 0.800 0.315
2.523 0.969 0.204
2.576 1.380 0.181
2.588 1.609 0.187
2.204 1.466 0.065
2.347 1.250 0.180
2.318 1.458 -0.028
1.175 0.244 0.148
1.050 0.177 -0.039
6.020 1.860 1.066
6.092 3.593 0.471
6.059 3.773 0.434
6.092 4.099 0.435
5.982 4.332 0.265
6.106 4.520 0.255
6.050 4.938 0.234
6.054 0.606 1.423
6.055 0.783 1.318
6.010 1.056 1.217
5.954 1.311 1.291
6.065 1.533 1.077
5.937 1.784 1.047
5.753 1.843 1.037
5.723 2.053 0.850
5.803 3.746 0.454
5.703 4.024 0.256
5.784 4.255 0.246
5.790 4.647 0.120
5.692 4.877 0.122
5.841 5.041 0.075
5.813 0.826 1.325
5.711 0.984 1.192
5.784 1.385 1.151
5.814 1.579 1.111
5.789 1.868 0.914
5.614 1.812 0.932
5.504 1.992 0.779
5.468 4.052 0.295
5.596 4.322 0.163
5.618 4.551 0.041
5.543 4.771 0.033
5.460 1.041 1.215
5.486 1.365 1.146
5.537 1.555 1.033
5.460 1.738 1.001
5.218 0.229 2.723
5.144 0.431 2.725
5.246 0.664 2.553
4.956 0.136 2.713
4.893 0.377 2.645
4.971 0.689 2.427
4.737 0.067 2.575
4.665 0.439 2.492
4.658 0.669 2.535
4.397 0.044 2.477
4.393 0.355 2.476
4.084 0.010 2.484
2.646 0.413 1.927
2.404 0.206 1.898
2.391 0.479 1.857
2.163 0.098 1.791
2.143 0.334 1.679
1.898 0.114 1.824
1.857 0.449 1.687
1.633 0.131 1.607
1.571 0.464 1.635
1.314 0.104 1.654
5.618 0.706 2.663
5.430 0.454 2.685
5.335 0.739 2.697
5.226 0.180 2.771
5.199 0.376 2.593
5.182 0.728 2.622
5.143 0.285 2.901
5.037 0.493 2.934
5.031 0.713 2.798
4.846 0.263 2.842
4.844 0.429 2.893
4.805 0.676 2.668
4.583 0.170 2.919
4.641 0.363 2.774
4.561 0.740 2.685
4.380 0.201 2.749
4.268 0.468 2.758
4.313 0.676 2.666
4.066 0.133 2.772
4.015 0.347 2.532
3.882 0.126 2.604
2.279 0.226 2.165
2.348 0.599 2.030
2.140 0.262 2.150
2.061 0.536 1.911
1.741 0.122 1.997
1.731 0.408 1.932
1.570 0.204 1.894
1.610 0.407 1.782
1.260 0.256 1.934
1.288 0.486 1.793
1.121 0.169 1.862
5.353 0.528 2.929
5.312 0.715 2.982
5.081 0.154 3.052
5.030 0.465 2.884
5.143 0.766 2.852
5.061 0.104 3.305
5.011 0.329 3.299
4.953 0.526 3.201
4.926 0.801 3.027
4.830 0.053 3.280
4.794 0.298 3.233
4.810 0.601 3.161
4.786 0.805 2.967
4.426 0.013 3.214
4.422 0.313 3.092
4.590 0.607 2.932
4.518 0.746 2.903
4.217 0.248 2.996
4.264 0.549 2.908
4.279 0.716 2.773
3.964 0.132 3.007
4.057 0.518 2.939
4.073 0.808 2.853
3.720 0.294 2.893
3.815 0.439 2.740
3.516 0.207 2.773
2.061 0.023 2.308
2.002 0.276 2.259
2.024 0.473 2.231
1.774 -0.010 2.321
1.812 0.342 2.208
1.704 0.473 2.134
1.424 -0.029 2.258
1.405 0.194 2.206
1.543 0.445 2.040
1.228 0.259 2.171
1.286 0.434 1.966
1.077 0.158 2.063
1.040 0.413 2.014
0.686 0.198 2.043
5.081 0.124 3.271
5.007 0.378 3.178
4.926 0.591 3.059
4.948 0.839 3.100
4.986 0.169 3.474
4.915 0.442 3.459
4.871 0.582 3.336
4.755 0.103 3.407
4.769 0.328 3.347
4.642 0.662 3.284
4.729 0.832 3.193
4.531 0.040 3.352
4.409 0.428 3.372
4.371 0.530 3.216
4.501 0.857 3.174
4.121 0.002 3.263
4.242 0.318 3.302
4.143 0.575 3.185
4.199 0.858 3.069
3.936 0.070 3.268
3.944 0.291 3.167
3.871 0.638 3.095
3.953 0.723 3.108
3.675 0.077 3.116
3.734 0.256 3.025
3.593 0.465 3.043
3.617 0.739 3.015
3.385 0.069 3.101
3.442 0.215 3.004
3.510 0.562 3.028
1.958 0.187 2.567
1.999 0.321 2.576
1.730 0.111 2.503
1.666 0.290 2.458
1.601 0.611 2.413
1.469 0.034 2.471
1.442 0.390 2.442
1.481 0.583 2.257
1.098 0.153 2.424
1.148 0.371 2.391
1.213 0.559 2.311
0.831 0.120 2.401
0.903 0.212 2.314
1.008 0.573 2.220
0.634 -0.008 2.327
0.657 0.356 2.203
0.694 0.553 2.061
0.350 0.045 2.122
0.463 0.294 2.150
4.865 0.085 3.545
4.972 0.414 3.451
4.996 0.566 3.456
4.790 0.180 3.741
4.819 0.477 3.677
4.705 0.231 3.694
4.564 0.468 3.572
4.650 0.681 3.581
4.310 0.081 3.708
4.383 0.474 3.468
4.388 0.750 3.542
4.332 0.881 3.329
4.050 0.122 3.524
4.182 0.353 3.583
4.074 0.627 3.403
4.033 0.840 3.395
3.909 0.137 3.490
3.923 0.454 3.421
3.915 0.617 3.376
3.858 0.866 3.236
3.625 0.124 3.368
3.593 0.327 3.330
3.634 0.581 3.306
3.579 0.933 3.177
3.454 0.074 3.384
3.334 0.281 3.265
3.293 0.564 3.292
3.389 0.809 3.215
1.792 0.192 2.806
1.673 0.093 2.868
1.687 0.432 2.762
1.416 0.164 2.730
1.431 0.371 2.719
1.295 0.672 2.661
1.008 0.175 2.606
1.100 0.478 2.666
1.025 0.562 2.480
0.899 0.116 2.561
0.931 0.323 2.532
0.755 0.549 2.447
0.507 0.123 2.562
0.649 0.267 2.470
0.556 0.612 2.371
0.381 0.119 2.447
0.300 0.307 2.437
0.400 0.495 2.267
4.872 0.155 3.804
4.850 0.396 3.619
4.848 0.088 4.008
4.802 0.341 4.070
4.462 0.090 3.972
4.596 0.252 3.978
4.517 0.437 3.878
4.321 0.272 3.845
4.341 0.425 3.893
4.230 0.678 3.693
4.075 0.197 3.856
3.987 0.523 3.756
4.113 0.650 3.634
4.019 1.006 3.605
3.720 0.264 3.710
3.846 0.501 3.623
3.711 0.746 3.556
3.829 0.936 3.574
3.536 0.100 3.582
3.618 0.383 3.627
3.615 0.621 3.508
3.591 0.884 3.535
3.199 0.222 3.625
3.363 0.387 3.492
3.271 0.638 3.530
3.355 0.879 3.410
3.122 0.625 3.353
3.050 0.910 3.295
1.772 0.111 3.217
1.551 -0.025 3.154
1.475 0.166 2.951
1.186 0.142 3.005
1.293 0.491 2.931
0.962 0.224 2.820
1.023 0.393 2.891
1.024 0.635 2.741
0.820 0.265 2.889
0.681 0.396 2.769
0.760 0.710 2.760
0.549 0.105 2.824
0.509 0.390 2.689
0.530 0.710 2.638
0.310 0.186 2.676
0.316 0.461 2.585
0.334 0.686 2.625
-0.063 0.367 2.579
0.063 0.693 2.535
4.872 0.068 4.039
4.860 0.359 4.037
4.801 0.071 4.311
4.498 0.105 4.329
4.518 0.243 4.168
4.144 -0.003 4.228
4.305 0.334 4.043
4.277 0.623 4.072
3.954 0.090 4.062
3.964 0.213 4.019
3.943 0.498 3.966
3.896 0.768 3.922
3.703 0.017 4.047
3.710 0.335 3.920
3.661 0.481 3.813
3.681 0.801 3.866
3.746 0.974 3.784
3.420 0.290 3.972
3.412 0.552 3.870
3.495 0.821 3.809
3.418 0.933 3.728
3.302 0.386 3.757
3.221 0.689 3.683
3.232 0.924 3.550
2.973 0.622 3.608
2.888 0.868 3.606
2.774 0.877 3.531
1.505 -0.015 3.387
1.181 0.097 3.286
1.124 0.325 3.277
1.006 -0.010 3.222
0.901 0.275 3.092
0.880 0.475 3.124
0.774 0.078 3.093
0.700 0.266 3.003
0.724 0.480 2.904
0.642 0.712 2.840
0.539 0.276 2.942
0.365 0.470 2.997
0.458 0.826 2.820
0.206 0.204 3.015
0.208 0.389 2.808
0.128 0.684 2.792
4.758 0.028 4.276
3.375 0.750 4.088
3.312 1.038 3.889
3.190 0.791 3.883
3.125 0.955 3.817
2.878 0.692 3.842
2.854 1.019 3.809
2.590 0.951 3.728
2.310 0.926 3.635
0.393 0.642 3.222
0.461 0.789 3.016
0.185 0.570 3.071
0.046 0.735 3.017
2.992 1.055 4.168
2.856 1.082 3.987
2.662 1.156 3.868
2.259 1.051 3.820
2.119 0.957 3.862
0.137 0.891 3.171
5.069 1.273 4.721
2.699 1.121 4.212
2.516 1.124 4.236
2.186 1.175 4.072
1.905 1.190 4.071
1.770 1.169 3.899
4.930 1.434 4.833
4.845 1.363 4.774
4.409 1.476 4.987
2.431 1.238 4.444
2.098 1.200 4.402
1.872 1.119 4.305
1.651 1.129 4.207
1.420 1.223 4.209
4.865 1.398 5.225
4.614 1.427 5.147
4.437 1.342 5.056
4.360 1.167 5.331
4.334 1.495 5.313
4.180 1.099 5.286
4.082 1.431 5.098
3.160 0.012 5.285
2.913 0.058 5.173
2.516 -0.018 5.197
2.024 1.240 4.574
1.895 1.313 4.494
1.609 0.943 4.506
1.674 1.155 4.407
1.271 0.980 4.479
1.284 1.118 4.408
1.153 0.982 4.461
1.002 1.250 4.344
4.800 1.441 5.447
4.636 1.170 5.291
4.529 1.392 5.285
4.438 1.149 5.383
4.393 1.378 5.285
4.335 1.123 5.680
4.322 1.205 5.470
4.204 1.479 5.432
3.950 0.680 5.724
3.985 1.021 5.568
4.028 1.349 5.570
4.128 1.492 5.394
3.766 0.454 5.610
3.760 0.750 5.526
3.812 0.905 5.559
3.837 1.260 5.492
3.756 1.557 5.276
3.453 0.270 5.608
3.503 0.511 5.485
3.504 0.794 5.570
3.535 0.906 5.445
3.494 1.185 5.352
3.273 0.278 5.663
3.303 0.491 5.551
3.343 0.633 5.369
3.231 0.938 5.395
3.056 0.256 5.524
3.064 0.474 5.373
3.106 0.602 5.355
2.696 0.214 5.373
2.755 0.403 5.438
2.597 0.185 5.450
1.752 1.243 4.747
1.442 1.084 4.745
1.480 1.236 4.731
1.213 0.843 4.707
1.329 1.046 4.765
1.282 1.316 4.686
0.937 0.487 4.746
0.950 0.809 4.635
1.090 1.006 4.561
1.046 1.225 4.658
0.700 0.158 4.713
0.767 0.485 4.807
0.732 0.735 4.700
0.764 1.063 4.590
0.777 1.203 4.532
0.590 0.306 4.678
0.587 0.492 4.600
0.572 0.638 4.589
0.507 0.905 4.535
0.219 0.243 4.640
0.261 0.500 4.556
0.262 0.692 4.566
-0.040 0.138 4.614
0.098 0.364 4.546
4.865 1.541 5.624
4.500 1.377 5.688
4.600 1.509 5.528
4.278 0.942 5.545
4.293 1.298 5.628
4.319 1.477 5.526
4.308 0.792 5.973
4.207 1.014 5.884
4.243 1.443 5.747
4.223 1.522 5.759
3.925 0.580 5.900
4.036 0.744 5.842
4.018 1.127 5.882
4.018 1.426 5.679
4.046 1.600 5.687
3.756 0.254 5.866
3.712 0.599 5.921
3.712 0.775 5.849
3.639 1.071 5.812
3.629 1.255 5.675
3.727 1.565 5.657
3.411 0.121 6.023
3.484 0.320 5.848
3.409 0.552 5.723
3.424 0.826 5.663
3.460 0.968 5.648
3.498 1.262 5.636
3.383 1.479 5.601
3.192 0.006 5.939
3.224 0.346 5.876
3.176 0.462 5.721
3.197 0.852 5.737
3.279 0.939 5.627
3.300 1.301 5.446
2.896 0.206 5.807
3.011 0.570 5.736
2.978 0.832 5.669
2.958 0.954 5.465
2.652 0.179 5.623
2.634 0.517 5.625
2.790 0.649 5.553
2.466 0.141 5.685
1.513 1.095 4.976
1.433 1.336 4.966
1.131 0.518 5.166
1.167 0.911 5.124
1.259 1.021 4.990
1.239 1.267 4.824
0.942 0.422 5.023
0.937 0.591 5.013
0.988 0.759 4.914
0.861 1.091 4.935
0.955 1.289 4.726
0.690 0.116 5.114
0.691 0.385 5.022
0.780 0.635 4.931
0.781 0.781 4.850
0.634 1.073 4.738
0.616 1.358 4.809
0.387 0.039 5.086
0.448 0.228 4.963
0.446 0.596 4.972
0.382 0.769 4.771
0.526 0.992 4.669
0.468 1.240 4.742
0.156 -0.040 5.012
0.135 0.297 4.872
0.257 0.506 4.834
0.190 0.720 4.750
0.265 0.934 4.753
4.434 1.363 5.792
4.410 1.709 5.839
4.272 0.760 6.009
4.179 1.054 5.865
4.260 1.427 5.785
4.152 1.601 5.624
4.162 0.582 6.186
4.162 0.874 6.177
4.072 1.151 6.110
4.229 1.503 5.985
4.238 1.612 5.980
3.932 0.426 6.229
3.852 0.687 6.161
3.831 0.854 6.079
3.984 1.182 6.058
3.939 1.355 5.887
3.919 1.626 5.796
3.620 0.101 6.325
3.593 0.370 6.110
3.688 0.682 6.091
3.597 0.958 6.109
3.719 1.160 5.923
3.709 1.385 5.847
3.553 1.718 5.882
3.308 0.108 6.231
3.389 0.372 6.178
3.369 0.544 6.071
3.418 0.879 5.969
3.323 1.173 5.818
3.436 1.306 5.915
3.345 1.543 5.819
3.215 0.009 6.146
3.229 0.390 6.016
3.165 0.585 5.920
3.100 0.776 5.973
3.159 1.005 5.773
3.068 1.314 5.715
3.135 1.618 5.719
2.846 0.079 6.022
2.852 0.264 5.939
2.943 0.623 5.829
2.860 0.752 5.835
2.945 1.023 5.710
2.956 1.373 5.745
2.661 -0.010 5.977
2.543 0.348 5.954
2.546 0.520 5.921
2.588 0.838 5.838
2.667 0.999 5.770
1.163 0.376 5.488
1.196 0.678 5.402
1.118 0.838 5.350
1.062 1.211 5.195
1.120 1.456 5.192
0.946 0.206 5.471
0.951 0.457 5.269
0.877 0.599 5.197
0.955 0.922 5.152
0.922 1.183 5.050
0.789 1.456 5.090
0.715 0.043 5.285
0.672 0.459 5.267
0.534 0.681 5.162
0.676 0.863 5.194
0.679 1.106 4.994
0.696 1.363 5.067
0.351 0.063 5.245
0.302 0.439 5.248
0.444 0.636 5.117
0.341 0.865 5.113
0.455 1.038 4.923
0.341 1.452 4.974
0.138 0.169 5.257
0.211 0.285 5.200
0.093 0.577 4.993
0.110 0.870 4.959
0.147 1.141 4.880
0.198 1.339 4.917
4.077 0.629 6.350
4.093 1.004 6.237
4.147 1.212 6.164
4.068 1.414 6.048
4.064 1.755 5.999
4.038 1.467 6.182
3.732 1.243 6.357
3.749 1.426 6.146
3.844 1.691 6.071
3.518 1.115 6.152
3.541 1.424 6.085
3.525 1.770 6.035
3.408 0.918 6.298
3.349 1.202 6.200
3.302 1.463 6.148
3.228 1.646 6.025
3.039 0.584 6.231
3.041 0.874 6.204
3.090 1.130 5.989
3.059 1.330 5.906
3.093 1.693 5.889
2.844 0.414 6.139
2.904 0.620 6.069
2.838 0.923 6.014
2.900 1.212 5.981
2.870 1.437 5.934
2.813 1.646 5.796
2.556 0.455 6.072
2.509 0.593 6.040
2.605 0.792 6.036
2.614 1.079 5.956
2.474 1.357 5.804
1.011 0.247 5.784
1.052 0.489 5.703
1.105 0.663 5.535
1.016 1.004 5.556
1.132 1.248 5.407
0.719 0.162 5.647
0.875 0.447 5.616
0.841 0.719 5.488
0.781 1.064 5.375
0.819 1.315 5.458
0.779 1.533 5.369
0.571 0.140 5.531
0.553 0.440 5.529
0.630 0.740 5.449
0.629 1.039 5.395
0.580 1.175 5.298
0.614 1.525 5.174
0.275 0.141 5.441
0.334 0.354 5.384
0.210 0.674 5.400
0.385 0.991 5.246
0.313 1.233 5.257
0.373 1.351 5.237
0.097 0.161 5.518
-0.017 0.495 5.470
-0.020 0.741 5.321
0.102 1.005 5.288
0.052 1.183 5.215
0.006 1.379 5.166
4.002 1.515 6.364
3.268 1.766 6.266
2.916 1.529 6.320
2.977 1.816 6.247
2.676 1.161 6.216
2.712 1.413 6.256
2.810 1.713 6.058
2.483 0.865 6.279
2.428 1.103 6.125
2.464 1.454 6.052
2.471 1.741 6.067
0.997 0.086 6.120
1.041 0.288 5.943
1.000 0.598 5.877
1.053 0.892 5.787
0.898 1.019 5.743
0.803 0.138 5.920
0.805 0.270 5.852
0.802 0.517 5.811
0.693 0.861 5.850
0.668 1.088 5.716
0.787 1.368 5.551
0.456 0.063 5.993
0.451 0.332 5.917
0.511 0.542 5.763
0.464 0.743 5.738
0.519 1.007 5.532
0.543 1.196 5.509
0.484 1.527 5.474
0.313 0.051 5.914
0.260 0.206 5.764
0.153 0.432 5.711
0.213 0.834 5.558
0.286 0.955 5.530
0.256 1.175 5.506
0.248 1.438 5.353
2.419 1.698 6.348
2.242 1.460 6.345
2.187 1.785 6.206
0.891 0.409 6.211
0.979 0.730 6.068
0.843 0.852 6.123
0.624 0.051 6.248
0.597 0.393 6.219
0.706 0.607 6.102
0.710 0.924 6.006
0.588 1.117 5.864
0.424 0.038 6.100
0.442 0.413 6.032
0.412 0.594 5.915
0.482 0.914 5.884
0.491 1.058 5.786
0.467 1.320 5.807
0.227 0.139 6.073
0.190 0.281 6.012
0.120 0.569 5.897
0.226 0.807 5.901
0.096 1.025 5.792
0.157 1.299 5.636
0.139 1.588 5.593
0.614 0.907 6.251
0.381 0.593 6.313
0.400 0.854 6.192
0.311 1.171 6.180
0.168 0.323 6.178
0.165 0.580 6.135
0.070 0.834 6.107
-0.009 1.088 6.031
0.166 1.387 5.904
4.001 0.264 1.112
3.610 0.280 1.150
3.415 0.290 0.984
3.167 0.230 0.984
3.018 0.215 0.959
5.942 0.324 1.773
3.595 0.268 1.315
3.287 0.352 1.349
3.094 0.320 1.268
2.789 0.197 1.148
2.679 0.250 1.094
0.679 -0.037 0.464
0.387 0.062 0.451
0.035 -0.042 0.381
5.872 0.454 2.079
5.635 0.402 1.952
5.315 0.593 2.130
3.265 0.278 1.611
3.012 0.242 1.408
2.707 0.394 1.350
2.597 0.371 1.325
2.306 0.353 1.229
0.202 0.113 0.727
-0.032 0.160 0.603
5.769 0.549 2.168
5.481 0.602 2.147
5.297 0.532 2.062
5.203 0.248 2.482
5.142 0.507 2.421
4.891 0.262 2.375
4.932 0.656 2.234
3.039 0.320 1.723
2.812 0.385 1.637
2.445 0.114 1.668
2.545 0.325 1.502
2.298 0.102 1.592
2.178 0.400 1.478
1.929 -0.004 1.592
1.897 0.309 1.397
5.791 0.587 2.560
5.513 0.425 2.443
5.435 0.614 2.502
5.184 0.303 2.385
5.314 0.643 2.324
5.112 0.112 2.718
5.233 0.404 2.598
5.152 0.751 2.678
4.937 0.182 2.721
4.972 0.367 2.616
4.831 0.669 2.564
4.699 0.161 2.609
4.641 0.449 2.611
4.695 0.620 2.364
4.476 0.105 2.460
4.482 0.387 2.406
4.139 0.072 2.369
2.563 0.389 1.863
2.468 0.157 1.942
2.428 0.387 1.792
2.201 0.139 1.752
2.059 0.410 1.823
1.880 0.070 1.817
1.804 0.340 1.666
1.682 0.153 1.705
1.628 0.312 1.556
1.382 0.147 1.589
5.656 0.795 2.746
5.403 0.362 2.722
5.414 0.743 2.710
5.247 0.237 2.733
5.152 0.441 2.717
5.193 0.609 2.643
5.245 3.135 1.892
5.072 3.497 1.680
5.150 3.707 1.644
5.095 3.956 1.690
5.209 4.181 1.503
5.072 6.136 0.858
5.159 0.888 2.564
5.097 1.228 2.354
4.931 2.868 1.751
4.966 3.241 1.796
4.861 3.446 1.659
4.922 3.569 1.609
4.911 3.873 1.544
4.921 5.925 0.841
4.952 6.186 0.857
4.824 0.872 2.359
4.572 2.671 1.850
4.647 2.790 1.675
4.709 3.078 1.638
4.685 3.359 1.550
4.685 3.647 1.617
4.703 5.576 0.927
4.646 5.966 0.896
4.607 6.168 0.819
4.409 2.307 1.939
4.471 2.655 1.847
4.419 2.840 1.624
4.357 3.064 1.648
4.328 3.351 1.562
4.374 5.321 0.992
4.387 5.566 0.791
4.446 5.857 0.871
4.368 6.082 0.738
4.095 2.115 1.902
4.182 2.276 1.744
4.193 2.654 1.717
4.075 2.881 1.603
4.156 3.011 1.483
4.159 5.076 0.860
4.124 5.366 0.863
4.135 5.504 0.718
4.107 5.802 0.760
4.200 6.088 0.678
4.121 2.018 1.909
3.934 2.038 1.704
3.825 2.249 1.729
3.998 2.539 1.699
3.932 2.867 1.499
3.840 4.814 0.988
3.922 5.024 0.958
3.894 5.408 0.795
3.958 5.623 0.791
3.883 5.746 0.709
3.952 1.882 1.774
3.970 2.079 1.812
3.694 2.121 1.800
3.668 2.214 1.645
3.680 2.571 1.560
3.631 4.579 0.969
3.574 4.820 0.852
3.564 5.138 0.888
3.694 5.343 0.682
3.621 5.589 0.721
3.635 1.582 1.915
3.680 1.717 1.838
3.615 2.094 1.690
3.401 2.028 1.609
3.393 2.181 1.617
3.472 4.267 1.027
3.442 4.446 0.836
3.376 4.691 0.848
3.476 5.056 0.653
3.458 5.281 0.574
3.495 1.223 1.804
3.369 1.532 1.832
3.414 1.783 1.782
3.390 1.993 1.699
3.179 1.933 1.616
3.162 3.957 0.927
3.094 4.251 0.816
3.159 4.590 0.783
3.100 4.711 0.724
3.199 4.955 0.753
3.084 1.000 1.944
3.209 1.196 1.752
3.214 1.553 1.807
3.080 1.838 1.731
3.108 2.064 1.562
2.965 3.732 0.960
2.957 3.926 0.837
2.839 4.187 0.788
2.941 4.446 0.735
2.897 4.709 0.661
2.967 0.651 1.951
2.845 0.899 1.804
2.974 1.320 1.773
2.811 1.496 1.730
2.892 1.777 1.601
2.621 3.456 0.897
2.641 3.702 0.834
2.688 4.056 0.824
2.692 4.174 0.757
2.647 4.487 0.654
2.691 0.768 1.772
2.736 0.921 1.722
2.555 1.191 1.691
2.733 1.498 1.593
2.341 3.158 0.983
2.382 3.381 0.897
2.367 3.748 0.859
2.438 3.917 0.760
2.424 4.157 0.765
2.435 6.276 0.145
2.338 0.669 1.695
2.406 0.893 1.604
2.359 1.206 1.604
2.181 2.838 1.021
2.090 3.180 0.889
2.120 3.401 0.800
2.231 3.731 0.770
2.175 3.975 0.685
2.217 5.992 0.017
2.128 6.212 0.007
2.100 0.611 1.750
2.196 0.929 1.689
1.831 2.596 1.028
1.985 2.892 0.838
1.858 3.152 0.930
1.937 3.411 0.707
1.901 3.599 0.740
1.813 5.573 0.102
1.829 5.914 -0.015
1.826 0.701 1.626
1.585 2.471 0.925
1.561 2.594 0.893
1.637 2.922 0.780
1.632 3.068 0.852
1.718 3.379 0.618
1.608 5.414 0.126
1.619 5.674 0.033
1.370 2.126 1.090
1.315 2.329 1.029
1.457 2.589 0.810
1.392 2.858 0.872
1.433 3.182 0.782
1.325 5.045 0.164
1.353 5.299 0.114
1.159 1.821 1.029
1.113 2.105 0.989
1.146 2.275 0.864
1.183 2.622 0.838
1.143 2.836 0.666
1.094 4.906 0.173
1.231 5.146 -0.042
1.150 1.830 1.107
0.857 1.772 1.015
0.962 1.992 0.821
0.978 2.276 0.778
0.952 2.482 0.775
0.861 4.615 0.184
0.977 4.786 0.127
0.965 1.592 0.978
0.951 1.854 1.004
0.692 1.853 0.858
0.685 2.128 0.832
0.606 2.214 0.672
0.572 4.267 0.059
0.715 4.508 0.116
0.702 1.218 0.943
0.709 1.584 0.950
0.669 1.801 0.941
0.456 1.805 0.792
0.325 2.111 0.758
0.337 3.945 0.175
0.345 4.224 0.039
0.332 0.992 1.021
0.380 1.199 0.896
0.388 1.430 0.907
0.349 1.774 0.765
0.108 1.771 0.786
0.049 3.673 0.229
0.175 4.066 0.024
0.044 0.823 1.046
0.176 0.950 1.053
0.092 1.269 0.882
0.060 1.416 0.821
0.089 1.724 0.801
5.699 3.668 1.842
5.753 4.004 1.814
5.638 4.247 1.587
5.757 4.375 1.609
5.645 4.662 1.446
5.718 0.910 2.649
5.730 1.132 2.565
5.688 1.371 2.446
5.746 1.680 2.459
5.433 3.486 1.776
5.344 3.618 1.776
5.382 4.028 1.601
5.465 4.213 1.691
5.488 4.491 1.540
5.487 0.872 2.518
5.456 1.246 2.531
5.491 1.443 2.430
5.095 3.144 1.922
5.142 3.409 1.750
5.095 3.731 1.748
5.225 3.884 1.522
5.187 4.196 1.606
5.205 6.118 0.870
5.115 0.823 2.590
5.247 1.128 2.408
5.059 2.946 2.135
5.018 3.177 2.080
5.173 3.526 1.945
5.051 3.673 1.933
5.073 3.913 1.893
5.156 5.992 1.153
5.139 6.266 1.123
5.026 0.961 2.732
4.930 2.725 2.198
4.842 2.923 2.100
4.875 3.302 2.057
4.875 3.500 1.902
4.855 3.780 1.844
4.817 4.051 1.704
4.779 5.706 1.192
4.774 5.994 1.089
4.792 6.184 1.140
4.845 0.906 2.665
4.652 2.529 2.241
4.508 2.704 2.128
4.597 2.928 2.004
4.624 3.145 1.852
4.633 3.438 1.947
4.654 3.652 1.787
4.670 5.549 1.284
4.642 5.652 1.254
4.596 5.873 1.123
4.547 6.280 0.959
4.269 2.152 2.213
4.317 2.352 2.085
4.283 2.686 2.047
4.340 2.892 1.883
4.354 3.118 1.813
4.297 3.405 1.741
4.292 3.622 1.761
4.310 5.236 1.230
4.378 5.442 1.278
4.404 5.768 1.092
4.413 5.975 1.047
4.369 6.192 1.006
4.348 2.171 2.253
3.997 2.216 2.167
4.148 2.340 1.988
4.028 2.722 1.936
4.032 2.898 1.922
4.112 3.190 1.710
4.101 3.433 1.738
4.148 5.135 1.190
4.142 5.424 1.198
4.176 5.708 0.969
4.067 5.840 0.953
3.996 6.240 0.883
4.017 2.119 2.185
3.789 2.206 2.016
3.765 2.339 1.983
3.849 2.682 1.879
3.905 2.811 1.874
3.758 3.086 1.787
3.791 4.927 1.176
3.920 5.175 1.107
3.886 5.431 0.999
3.860 5.630 0.883
3.868 5.889 0.964
3.865 6.182 0.794
3.870 1.938 2.182
3.862 2.055 1.945
3.525 2.155 1.873
3.624 2.416 1.934
3.498 2.664 1.846
3.669 2.930 1.706
3.659 4.822 1.107
3.513 5.049 1.010
3.500 5.304 0.926
3.538 5.573 0.927
3.667 5.891 0.831
3.630 1.957 2.060
3.590 2.126 2.005
3.317 2.128 1.851
3.401 2.360 1.809
3.325 4.812 1.137
3.276 5.147 1.024
3.321 5.288 0.836
3.257 1.753 1.869
3.353 2.151 1.910
2.254 3.210 1.225
2.253 3.579 1.169
2.367 3.838 1.172
2.245 6.210 0.241
2.359 0.816 1.952
2.011 2.668 1.259
2.146 3.074 1.273
2.162 3.295 1.083
2.153 3.422 1.114
2.072 3.805 0.929
2.138 5.818 0.442
2.055 5.942 0.396
1.997 6.229 0.341
2.129 0.741 1.869
1.839 2.442 1.349
1.800 2.698 1.179
1.875 3.062 1.173
1.900 3.224 1.157
1.865 3.396 0.962
1.897 3.712 0.865
1.758 5.498 0.475
1.879 5.756 0.295
1.769 5.970 0.254
1.844 6.280 0.260
1.743 0.709 1.894
1.552 2.109 1.337
1.499 2.370 1.316
1.658 2.677 1.120
1.522 2.927 1.149
1.659 3.222 1.091
1.501 3.485 0.951
1.523 5.121 0.497
1.616 5.398 0.399
1.485 5.681 0.186
1.633 5.926 0.256
1.634 6.120 0.079
1.364 1.916 1.293
1.386 2.197 1.306
1.275 2.436 1.172
1.355 2.688 1.136
1.260 3.004 1.063
1.362 3.126 0.999
1.308 3.513 0.939
1.311 5.004 0.456
1.389 5.250 0.398
1.380 5.527 0.194
1.254 5.623 0.209
1.277 5.879 0.150
1.314 6.273 -0.040
1.393 2.002 1.291
1.092 1.876 1.193
1.107 2.083 1.175
1.115 2.473 1.078
1.075 2.656 1.008
1.014 2.896 0.966
1.072 3.071 0.873
1.093 4.972 0.340
1.071 5.074 0.328
0.994 5.423 0.276
1.149 5.699 0.204
1.025 5.842 0.121
1.156 1.994 1.325
0.801 1.907 1.274
0.849 2.128 1.180
0.840 2.304 0.982
0.896 2.632 1.017
0.876 2.850 0.913
0.859 4.597 0.319
0.844 4.808 0.284
0.883 5.216 0.181
0.734 5.405 0.211
0.772 5.711 0.029
0.763 1.555 1.307
0.759 1.805 1.183
0.502 1.880 1.053
0.579 2.127 1.067
0.473 2.360 0.937
0.537 2.533 0.963
0.494 4.624 0.385
0.579 4.829 0.125
0.497 5.130 0.110
0.614 5.449 0.067
0.595 1.617 1.125
0.590 1.787 1.186
0.380 1.870 1.062
0.387 2.038 1.014
0.260 4.545 0.215
0.246 4.934 0.057
0.296 5.135 0.004
0.325 1.582 1.120
0.234 1.791 0.964
5.270 3.568 2.131
5.291 3.858 2.014
5.381 4.067 1.917
5.431 1.096 2.905
5.026 2.974 2.141
5.013 3.201 2.061
5.031 3.470 1.966
5.000 3.795 1.886
5.162 3.954 1.854
5.141 6.000 1.325
5.054 6.207 1.158
5.090 0.935 2.811
4.963 2.801 2.439
4.942 3.005 2.357
5.090 3.262 2.244
5.098 3.580 2.280
4.963 3.900 2.159
5.057 5.908 1.482
5.088 6.082 1.417
4.843 2.481 2.547
4.780 2.787 2.327
4.820 3.018 2.389
4.686 3.225 2.298
4.743 3.515 2.219
4.761 3.719 2.105
4.687 5.547 1.524
4.716 5.746 1.453
4.847 6.122 1.405
4.529 2.328 2.544
4.553 2.456 2.493
4.596 2.761 2.362
4.577 2.972 2.318
4.588 3.228 2.159
4.496 3.435 2.085
4.549 3.683 1.977
4.513 5.268 1.549
4.483 5.607 1.588
4.579 5.796 1.486
4.480 6.023 1.426
4.608 6.263 1.260
4.422 2.362 2.441
4.341 2.200 2.368
4.180 2.493 2.309
4.191 2.713 2.297
4.302 3.055 2.266
4.256 3.330 2.162
4.258 3.486 2.082
4.196 3.694 2.018
4.298 5.230 1.511
4.239 5.547 1.422
4.207 5.676 1.366
4.340 6.051 1.235
4.319 6.177 1.291
4.227 2.318 2.379
3.994 2.138 2.307
4.036 2.546 2.342
4.067 2.710 2.214
4.098 3.024 2.190
4.078 3.286 2.051
3.977 3.456 1.996
3.927 3.779 1.804
4.036 5.300 1.513
4.024 5.457 1.325
4.070 5.674 1.217
4.031 5.909 1.198
3.973 6.181 1.091
4.063 2.298 2.419
3.779 2.189 2.290
3.678 2.445 2.257
3.791 2.644 2.204
3.676 2.929 2.103
3.716 3.176 2.001
3.847 3.447 1.820
3.787 5.262 1.303
3.670 5.510 1.379
3.833 5.645 1.157
3.749 6.012 1.190
3.676 6.185 1.093
3.676 2.209 2.255
3.424 2.227 2.219
3.452 2.505 2.155
3.425 2.599 2.066
3.592 2.939 1.881
3.431 3.222 1.885
3.445 5.248 1.352
3.453 5.512 1.165
3.498 5.674 1.179
3.502 5.869 0.990
3.425 6.227 0.902
3.522 2.103 2.223
1.923 2.549 1.694
1.920 2.781 1.474
2.039 3.135 1.400
2.023 3.398 1.359
1.933 3.583 1.363
1.954 5.593 0.703
2.017 5.848 0.678
2.092 6.035 0.492
1.770 2.238 1.633
1.695 2.590 1.630
1.759 2.761 1.553
1.807 3.099 1.353
1.836 3.237 1.302
1.717 3.521 1.285
1.689 5.327 0.668
1.656 5.467 0.704
1.664 5.792 0.597
1.815 6.060 0.434
1.457 1.992 1.616
1.468 2.180 1.558
1.427 2.436 1.519
1.535 2.795 1.484
1.525 3.039 1.378
1.583 3.233 1.257
1.579 3.607 1.163
1.544 4.963 0.695
1.451 5.365 0.590
1.482 5.591 0.593
1.430 5.838 0.488
1.510 6.065 0.511
1.542 2.107 1.574
1.244 2.007 1.600
1.243 2.180 1.488
1.194 2.433 1.461
1.173 2.806 1.436
1.266 3.043 1.338
1.175 3.338 1.151
1.225 3.582 1.161
1.292 4.947 0.680
1.318 5.259 0.594
1.231 5.603 0.514
1.206 5.804 0.469
1.322 6.001 0.428
1.222 6.338 0.215
1.329 2.039 1.637
1.029 1.905 1.542
1.054 2.274 1.508
0.923 2.463 1.291
0.908 2.674 1.249
0.980 2.957 1.293
0.908 3.294 1.201
1.065 3.404 0.961
0.939 4.924 0.627
1.085 5.152 0.441
1.083 5.513 0.460
1.059 5.798 0.443
1.077 6.060 0.291
0.927 6.205 0.149
0.989 1.907 1.562
0.834 2.014 1.343
0.816 2.243 1.412
0.754 2.384 1.326
0.771 2.641 1.188
0.780 2.983 1.052
0.813 3.268 1.115
0.797 4.994 0.474
0.739 5.312 0.424
0.665 5.457 0.308
0.750 5.786 0.300
0.680 6.051 0.166
0.663 6.247 0.118
0.704 1.975 1.377
0.404 1.850 1.426
0.538 2.127 1.379
0.566 2.482 1.232
0.475 2.701 1.120
0.463 2.997 0.975
0.478 5.003 0.491
0.490 5.127 0.370
0.451 5.491 0.342
0.423 5.754 0.210
0.464 5.987 0.080
0.533 1.936 1.454
5.006 2.840 2.485
4.966 3.145 2.296
4.954 3.269 2.249
5.056 3.642 2.151
5.012 3.843 2.094
4.984 5.851 1.569
5.077 5.992 1.483
4.872 2.573 2.754
4.977 2.857 2.668
4.997 3.221 2.600
4.887 3.467 2.550
4.885 3.554 2.543
4.935 5.622 1.787
4.874 5.947 1.849
5.009 6.062 1.688
4.632 2.385 2.768
4.681 2.599 2.662
4.641 2.784 2.565
4.709 3.066 2.487
4.681 3.365 2.572
4.757 3.576 2.394
4.761 3.798 2.294
4.655 5.366 1.865
4.603 5.652 1.825
4.645 5.874 1.648
4.610 6.159 1.666
4.605 2.291 2.843
4.523 2.265 2.681
4.366 2.677 2.679
4.513 2.870 2.526
4.473 3.049 2.430
4.361 3.425 2.334
4.529 3.611 2.420
4.523 3.908 2.175
4.373 5.271 1.882
4.383 5.661 1.781
4.359 5.778 1.685
4.369 6.113 1.530
4.504 2.257 2.799
4.174 2.379 2.586
4.206 2.602 2.653
4.211 2.910 2.566
4.259 3.063 2.367
4.260 3.258 2.343
4.111 3.634 2.206
4.271 3.751 2.262
4.252 5.294 1.790
4.227 5.495 1.724
4.132 5.764 1.594
4.114 6.023 1.432
4.277 2.241 2.736
3.886 2.343 2.545
4.025 2.528 2.473
3.926 2.746 2.509
3.846 3.072 2.422
3.932 3.285 2.363
4.028 3.618 2.197
3.966 3.854 2.170
3.861 5.390 1.697
3.901 5.651 1.584
3.962 5.765 1.470
3.889 6.097 1.438
4.030 2.376 2.577
3.717 2.300 2.525
3.726 2.557 2.493
3.759 2.760 2.306
3.619 3.112 2.286
3.709 3.246 2.243
3.751 3.585 2.095
3.665 3.784 2.001
3.636 5.300 1.531
3.729 5.482 1.485
3.656 5.803 1.521
3.721 5.975 1.412
3.611 2.296 2.568
3.480 2.534 2.358
3.442 2.733 2.287
3.452 3.037 2.140
3.450 3.263 2.175
3.457 3.437 2.072
3.428 5.511 1.403
3.407 5.771 1.373
3.468 6.041 1.351
3.524 6.224 1.250
1.880 2.343 1.898
1.889 2.698 1.822
1.901 2.951 1.811
1.899 3.207 1.757
2.005 3.475 1.596
1.890 5.314 0.991
1.929 5.621 0.945
1.894 5.916 0.970
1.979 6.114 0.885
1.691 2.041 2.044
1.725 2.446 1.921
1.740 2.664 1.791
1.740 2.776 1.726
1.660 3.075 1.715
1.628 3.418 1.563
1.700 3.597 1.544
1.742 5.061 1.033
1.766 5.375 1.044
1.713 5.550 0.882
1.631 5.804 0.896
1.742 6.052 0.765
1.622 2.175 1.976
1.410 2.073 1.889
1.385 2.350 1.770
1.385 2.587 1.681
1.486 2.864 1.742
1.502 3.105 1.542
1.466 3.436 1.494
1.451 3.641 1.387
1.397 5.064 0.886
1.454 5.380 0.927
1.379 5.663 0.817
1.391 5.799 0.696
1.488 6.114 0.622
1.485 2.168 1.809
1.255 2.091 1.740
1.130 2.293 1.770
1.152 2.601 1.607
1.129 2.802 1.536
1.222 3.033 1.443
1.168 3.294 1.419
1.176 3.660 1.275
1.226 5.123 1.001
1.091 5.355 0.896
1.219 5.512 0.777
1.241 5.922 0.696
1.102 6.161 0.578
1.127 2.144 1.739
0.898 2.119 1.745
0.871 2.391 1.648
0.922 2.467 1.526
0.883 2.822 1.490
0.939 2.976 1.461
0.960 3.357 1.338
0.870 3.541 1.263
0.981 5.086 0.877
0.835 5.329 0.831
0.869 5.594 0.690
0.843 5.726 0.537
0.921 6.143 0.524
0.923 2.108 1.658
0.735 1.955 1.713
0.733 2.260 1.516
0.733 2.594 1.554
0.689 2.822 1.357
0.627 3.024 1.412
0.601 3.352 1.379
0.692 3.561 1.160
0.637 5.127 0.801
0.607 5.260 0.733
0.762 5.545 0.704
0.650 5.744 0.605
0.665 6.061 0.557
0.716 2.000 1.675
0.477 2.303 1.486
0.436 2.567 1.481
0.437 2.775 1.313
0.404 3.002 1.274
0.403 3.349 1.245
0.348 5.284 0.660
0.479 5.504 0.456
0.329 5.828 0.420
0.427 6.037 0.483
0.372 6.258 0.413
4.909 2.557 2.805
4.993 2.801 2.721
4.917 3.209 2.630
4.977 3.328 2.538
4.931 3.644 2.417
4.928 5.730 1.906
4.920 5.986 1.855
4.909 6.193 1.772
4.895 2.550 3.005
4.948 2.679 3.046
4.786 2.911 2.892
4.922 3.263 2.963
4.913 3.422 2.864
4.887 5.459 2.281
4.895 5.636 2.200
4.849 6.015 1.966
4.818 6.178 2.019
4.856 2.365 3.075
4.641 2.483 3.094
4.636 2.669 2.937
4.563 2.976 2.863
4.645 3.172 2.739
4.592 3.496 2.819
4.580 3.636 2.587
4.655 5.487 2.085
4.706 5.747 2.057
4.676 5.927 1.905
4.696 6.208 1.860
4.639 2.355 3.029
4.335 2.383 3.043
4.373 2.667 2.875
4.307 2.836 2.772
4.279 3.117 2.783
4.377 3.367 2.720
4.383 3.702 2.488
4.280 3.871 2.568
4.459 5.357 2.081
4.375 5.632 1.910
4.342 5.952 1.926
4.283 6.199 1.818
4.403 2.370 2.959
4.171 2.432 2.865
4.062 2.676 2.849
4.093 2.983 2.791
4.031 3.064 2.748
4.060 3.390 2.503
4.163 3.664 2.485
4.169 3.852 2.503
4.078 5.422 2.036
4.161 5.657 1.973
4.175 5.919 1.890
4.145 6.185 1.741
4.171 2.378 2.937
3.786 2.331 2.873
3.884 2.705 2.806
3.812 2.869 2.705
3.782 3.088 2.581
3.859 3.380 2.471
3.828 3.561 2.509
3.823 3.913 2.365
3.774 5.419 1.917
3.906 5.546 1.919
3.945 5.872 1.731
3.884 6.116 1.680
3.810 2.431 2.873
3.691 2.678 2.723
3.541 2.943 2.519
3.525 3.109 2.444
3.588 3.286 2.447
3.640 3.548 2.439
3.547 3.795 2.229
3.549 5.635 1.699
3.637 5.900 1.735
3.671 6.097 1.673
3.286 2.756 2.515
3.295 3.046 2.536
3.407 3.244 2.372
3.352 3.643 2.273
3.272 3.757 2.189
3.271 5.837 1.598
3.407 6.091 1.506
1.940 2.282 2.276
1.895 2.495 2.163
1.879 2.747 2.136
1.922 2.972 1.948
1.897 3.121 1.950
1.774 5.282 1.421
1.849 5.545 1.271
1.837 5.715 1.135
1.928 5.918 1.224
1.830 6.235 0.998
1.869 2.274 2.318
1.539 2.266 2.259
1.644 2.422 2.207
1.566 2.627 2.113
1.644 2.878 1.965
1.665 3.103 1.829
1.610 3.430 1.866
1.646 5.176 1.201
1.637 5.427 1.256
1.568 5.752 1.145
1.650 5.885 1.129
1.623 6.219 1.010
1.595 2.177 2.112
1.350 2.094 2.136
1.377 2.449 2.018
1.442 2.667 1.926
1.327 2.831 1.941
1.373 3.260 1.751
1.269 3.464 1.735
1.356 3.704 1.670
1.301 5.177 1.252
1.422 5.501 1.084
1.399 5.769 1.004
1.408 5.843 0.912
1.310 6.124 0.914
1.404 2.150 2.100
1.028 2.160 2.136
1.123 2.347 1.918
1.151 2.580 1.826
1.136 2.930 1.776
1.048 3.147 1.762
1.014 3.354 1.625
1.062 3.609 1.545
1.020 5.172 1.147
1.009 5.345 1.027
1.093 5.692 1.017
1.129 5.824 0.936
1.051 6.245 0.913
1.110 2.220 2.095
0.795 2.142 1.964
0.865 2.432 1.844
0.776 2.655 1.761
0.866 2.819 1.792
0.834 3.197 1.651
0.852 3.445 1.693
0.830 3.683 1.466
0.813 5.227 0.998
0.764 5.311 0.913
0.828 5.722 0.849
0.884 5.922 0.896
0.881 6.187 0.781
0.779 2.155 2.048
0.534 2.346 1.780
0.567 2.519 1.710
0.629 2.792 1.690
0.649 3.090 1.580
0.593 3.282 1.553
0.587 3.576 1.517
0.650 5.388 1.024
0.603 5.615 0.817
0.536 5.792 0.757
0.643 6.185 0.681
0.333 2.584 1.670
0.320 2.850 1.615
0.376 3.048 1.600
0.430 3.405 1.522
0.434 3.651 1.394
0.380 5.637 0.766
0.334 5.852 0.784
0.342 6.185 0.569
4.795 2.388 3.007
4.846 2.711 2.958
4.937 2.885 2.973
4.783 3.178 2.882
4.903 3.443 2.872
4.864 5.471 2.196
4.854 5.637 2.056
4.943 5.998 2.090
4.841 6.197 2.023
4.925 2.506 3.134
4.883 2.559 3.256
4.722 2.856 3.192
4.725 3.036 3.114
4.778 3.311 3.147
4.842 5.315 2.558
4.717 5.571 2.402
4.755 5.788 2.429
4.889 6.065 2.213
4.836 2.338 3.399
4.877 2.465 3.276
4.541 2.458 3.297
4.461 2.741 3.264
4.557 3.005 3.029
4.616 3.294 3.048
4.531 3.549 2.889
4.572 5.293 2.453
4.466 5.507 2.292
4.535 5.810 2.217
4.548 6.036 2.135
4.489 6.246 2.052
4.547 2.292 3.272
4.621 2.575 3.296
4.203 2.445 3.247
4.358 2.743 3.179
4.310 2.953 3.030
4.231 3.333 3.023
4.275 3.457 2.845
4.261 3.728 2.823
4.235 5.589 2.306
4.209 5.837 2.252
4.212 5.950 2.122
4.309 6.191 2.145
4.320 2.412 3.147
3.973 2.443 3.087
4.069 2.694 3.144
4.011 2.995 2.963
4.022 3.298 2.821
4.040 3.416 2.827
4.013 3.763 2.787
4.082 4.058 2.602
3.986 5.471 2.199
4.123 5.657 2.223
3.990 6.016 2.003
4.003 6.221 1.994
4.050 2.518 3.106
3.750 2.611 2.896
3.750 2.977 2.907
3.709 3.219 2.923
3.774 3.481 2.746
3.797 3.707 2.726
3.725 3.908 2.691
3.702 5.629 2.022
3.753 5.995 2.035
3.750 6.178 1.957
3.554 2.973 2.893
3.478 3.164 2.691
3.563 3.401 2.665
3.486 3.618 2.533
3.537 3.991 2.542
3.551 4.249 2.533
3.484 5.991 1.882
3.528 6.123 1.785
3.515 1.225 3.425
3.366 3.101 2.647
3.206 3.430 2.605
3.233 3.656 2.548
3.337 3.889 2.559
3.376 4.136 2.358
3.370 6.135 1.725
3.205 1.121 3.258
3.103 3.708 2.436
3.086 3.831 2.452
3.037 4.169 2.365
3.047 1.146 3.308
2.104 2.257 2.596
1.942 2.460 2.532
2.085 5.151 1.830
1.944 5.283 1.577
2.113 5.548 1.565
2.070 2.043 2.705
1.980 2.268 2.584
1.808 2.220 2.495
1.735 2.478 2.423
1.848 2.717 2.262
1.797 3.111 2.282
1.798 4.991 1.672
1.851 5.205 1.666
1.868 5.533 1.502
1.843 5.732 1.389
1.790 6.078 1.339
1.812 2.025 2.643
1.755 2.227 2.455
1.504 2.348 2.492
1.613 2.453 2.321
1.443 2.838 2.369
1.605 3.059 2.178
1.462 3.196 2.061
1.533 5.075 1.568
1.593 5.353 1.481
1.527 5.441 1.399
1.601 5.791 1.345
1.534 5.933 1.229
1.482 6.312 1.165
1.451 1.971 2.509
1.506 2.255 2.456
1.265 2.178 2.443
1.358 2.509 2.286
1.313 2.713 2.143
1.262 2.930 2.173
1.281 3.227 1.998
1.230 3.571 2.024
1.258 5.176 1.471
1.239 5.475 1.451
1.332 5.670 1.373
1.310 5.947 1.163
1.273 6.240 1.176
1.244 2.273 2.454
0.968 2.214 2.278
1.049 2.394 2.311
1.026 2.746 2.058
1.043 2.954 1.998
0.962 3.300 1.956
1.041 3.416 1.980
1.084 3.800 1.898
1.050 5.185 1.436
1.067 5.554 1.282
1.064 5.693 1.193
0.997 5.955 1.193
0.963 6.280 1.167
0.979 2.155 2.276
0.848 2.449 2.215
0.727 2.739 2.045
0.864 2.999 1.976
0.760 3.186 1.960
0.806 3.386 1.860
0.852 3.672 1.844
0.803 5.541 1.257
0.707 5.746 1.215
0.757 6.022 1.050
0.703 6.298 1.082
0.462 2.596 1.924
0.480 2.973 1.845
0.589 3.263 1.772
0.467 3.382 1.696
0.484 3.692 1.747
0.549 4.017 1.661
0.599 5.663 1.130
0.493 5.965 1.085
0.610 6.217 0.934
0.566 0.979 2.503
0.348 2.827 1.935
0.205 3.170 1.786
0.286 3.362 1.631
0.356 3.746 1.543
0.361 3.958 1.572
0.229 5.906 1.036
0.254 6.189 0.881
0.341 0.990 2.434
-0.031 3.359 1.577
0.071 3.550 1.610
0.078 3.810 1.546
-0.022 0.970 2.344
5.122 2.558 3.394
5.095 2.752 3.372
4.979 5.379 2.662
5.140 5.581 2.511
5.094 5.786 2.447
5.060 2.388 3.447
5.031 2.523 3.436
4.875 2.455 3.255
4.856 2.806 3.231
4.859 3.023 3.232
4.768 3.300 3.155
4.810 5.248 2.573
4.783 5.609 2.490
4.854 5.813 2.360
4.822 5.968 2.255
4.738 2.278 3.443
4.715 2.492 3.332
4.792 2.691 3.607
4.676 2.928 3.466
4.765 3.162 3.451
4.795 5.165 2.803
4.724 5.345 2.757
4.739 5.659 2.760
4.733 5.915 2.618
4.649 6.109 2.485
4.697 2.048 3.640
4.773 2.436 3.731
4.694 2.513 3.562
4.523 2.673 3.510
4.403 2.805 3.384
4.531 3.078 3.393
4.423 3.330 3.266
4.560 5.259 2.682
4.392 5.508 2.624
4.386 5.821 2.531
4.384 6.073 2.491
4.431 2.291 3.555
4.555 2.550 3.440
4.173 2.553 3.363
4.203 2.817 3.287
4.251 2.975 3.308
4.277 3.228 3.211
4.218 3.584 3.140
4.292 5.579 2.453
4.207 5.798 2.417
4.288 6.005 2.431
4.157 2.526 3.372
3.994 2.784 3.281
3.997 3.017 3.251
4.037 3.301 3.066
3.941 3.517 3.160
4.028 3.794 3.058
3.988 5.856 2.345
3.911 6.062 2.305
3.801 3.079 3.119
3.710 3.195 3.051
3.772 3.488 3.067
3.754 3.728 2.839
3.781 4.097 2.807
3.731 6.027 2.331
3.640 6.284 2.097
3.528 3.223 2.981
3.505 3.470 2.904
3.450 3.738 2.916
3.535 4.017 2.868
3.405 4.193 2.719
3.434 6.316 2.039
3.454 1.174 3.569
3.190 3.520 2.852
3.257 3.717 2.805
3.222 3.971 2.767
3.285 4.175 2.667
3.270 4.538 2.582
3.274 1.314 3.571
3.179 1.462 3.446
2.954 3.706 2.628
2.934 3.884 2.631
3.035 4.238 2.615
2.977 4.466 2.506
2.991 4.733 2.365
3.008 1.136 3.519
2.975 1.401 3.415
3.031 1.679 3.250
2.748 3.928 2.587
2.713 4.137 2.411
2.743 4.361 2.340
2.667 4.759 2.346
2.752 4.975 2.355
2.801 1.224 3.483
2.710 1.371 3.366
2.698 1.658 3.158
2.704 1.993 3.254
2.459 4.103 2.401
2.514 4.340 2.422
2.418 4.604 2.228
2.548 4.871 2.129
2.474 5.132 2.065
2.499 1.206 3.290
2.409 1.425 3.328
2.528 1.748 3.087
2.426 1.940 3.125
2.418 2.107 3.090
2.224 2.480 2.958
2.200 4.425 2.226
2.201 4.686 2.124
2.228 4.841 2.115
2.271 5.240 1.971
2.299 5.493 2.035
2.270 1.405 3.104
2.277 1.592 3.128
2.143 1.941 2.951
2.213 2.227 2.948
2.174 2.478 2.855
1.953 2.396 2.884
1.893 2.549 2.714
1.918 4.583 2.043
1.902 4.968 2.010
1.924 5.149 1.922
2.033 5.466 1.923
2.016 5.550 1.799
1.988 1.551 2.997
1.918 1.846 2.882
1.916 2.079 2.928
1.973 2.416 2.762
1.720 2.368 2.785
1.773 2.646 2.614
1.675 2.901 2.603
1.723 4.772 2.033
1.667 5.018 1.881
1.771 5.333 1.854
1.620 5.671 1.699
1.788 5.804 1.754
1.687 1.779 2.869
1.772 2.142 2.767
1.786 2.361 2.708
1.384 2.347 2.730
1.493 2.501 2.590
1.378 2.914 2.612
1.504 3.169 2.360
1.367 5.107 1.758
1.445 5.394 1.789
1.544 5.623 1.774
1.371 5.890 1.680
1.468 6.064 1.483
1.399 2.129 2.730
1.422 2.279 2.754
1.209 2.305 2.586
1.133 2.515 2.613
1.199 2.790 2.468
1.143 3.041 2.409
1.182 3.317 2.335
1.138 5.318 1.725
1.131 5.586 1.556
1.170 5.834 1.506
1.123 6.058 1.567
1.239 2.267 2.651
0.992 2.615 2.550
0.987 2.856 2.320
0.888 3.075 2.373
1.021 3.264 2.169
0.959 3.495 2.095
0.896 5.532 1.637
0.881 5.730 1.541
0.992 6.077 1.322
0.612 2.718 2.256
0.661 2.982 2.319
0.743 3.255 2.188
0.780 3.486 2.166
0.719 3.786 1.995
0.671 5.789 1.377
0.692 5.957 1.379
0.765 6.248 1.239
0.457 3.008 2.192
0.537 3.299 2.128
0.544 3.558 2.088
0.536 3.733 1.976
0.524 4.029 1.951
0.507 6.073 1.273
0.414 6.210 1.272
0.509 1.073 2.739
0.108 3.157 1.951
0.232 3.510 1.971
0.147 3.688 1.902
0.198 3.970 1.734
0.213 4.277 1.758
0.136 6.293 1.071
0.287 0.940 2.791
0.277 1.216 2.630
5.179 2.719 3.711
5.146 4.710 3.118
5.182 4.855 3.001
5.323 5.147 3.011
5.295 5.462 2.832
5.298 5.573 2.906
5.285 1.593 4.021
5.150 1.831 3.960
5.235 2.187 3.884
5.272 2.446 3.832
5.216 2.665 3.707
5.053 2.585 3.598
4.952 2.897 3.648
4.998 4.817 3.062
5.019 5.150 2.812
5.059 5.369 2.894
4.944 5.585 2.783
4.912 5.846 2.624
4.933 1.801 3.819
5.008 2.138 3.878
4.972 2.463 3.674
5.001 2.567 3.560
4.793 2.612 3.639
4.788 2.804 3.592
4.710 3.168 3.409
4.723 5.080 2.783
4.798 5.411 2.831
4.772 5.542 2.694
4.802 5.811 2.537
4.718 6.128 2.572
4.686 2.135 3.806
4.708 2.380 3.648
4.764 2.622 3.525
4.632 2.610 3.872
4.743 2.919 3.791
4.622 5.008 3.207
4.582 5.153 3.157
4.633 5.378 3.029
4.698 5.619 2.862
4.660 5.999 2.794
4.585 1.907 4.073
4.678 2.129 4.043
4.679 2.383 3.834
4.643 2.738 3.892
4.488 2.743 3.663
4.459 2.905 3.749
4.486 5.492 2.839
4.369 5.609 2.934
4.397 5.963 2.796
4.457 2.459 3.750
4.369 2.634 3.770
3.350 3.855 3.079
3.340 4.114 2.937
3.411 4.258 3.035
3.355 1.280 3.848
3.226 3.825 3.086
3.199 4.002 2.967
3.114 4.360 2.959
3.119 4.537 2.818
3.071 4.883 2.814
3.054 1.204 3.747
3.227 1.548 3.707
3.140 1.820 3.552
2.892 3.824 2.995
2.871 4.014 2.874
2.912 4.251 2.844
2.918 4.499 2.724
2.934 4.809 2.668
2.873 5.003 2.593
2.985 1.273 3.720
2.973 1.513 3.708
2.896 1.688 3.638
2.943 2.114 3.446
2.554 3.935 2.739
2.574 4.277 2.784
2.659 4.490 2.642
2.651 4.822 2.585
2.733 5.096 2.550
2.690 5.240 2.504
2.687 1.207 3.564
2.607 1.531 3.602
2.574 1.743 3.569
2.682 2.035 3.488
2.717 2.208 3.257
2.466 2.407 3.113
2.316 4.071 2.834
2.482 4.334 2.641
2.464 4.450 2.601
2.480 4.668 2.452
2.419 5.066 2.374
2.416 5.269 2.446
2.395 5.510 2.270
2.339 1.315 3.543
2.332 1.414 3.421
2.448 1.752 3.461
2.460 2.026 3.305
2.301 2.307 3.241
2.473 2.494 3.243
2.110 2.412 3.057
2.154 4.282 2.591
2.154 4.554 2.582
2.219 4.718 2.370
2.058 5.027 2.444
2.083 5.299 2.293
2.181 5.470 2.213
2.164 1.214 3.451
2.109 1.417 3.334
2.186 1.752 3.347
2.081 1.934 3.346
2.093 2.284 3.129
2.161 2.547 3.043
1.853 2.372 3.099
1.845 2.665 2.989
1.867 4.383 2.450
1.954 4.748 2.328
1.981 4.873 2.270
1.891 5.151 2.310
1.812 5.533 2.131
1.974 5.647 2.115
1.945 1.393 3.359
1.928 1.689 3.198
1.797 1.878 3.291
1.925 2.141 3.159
1.966 2.507 3.104
1.671 2.518 3.007
1.697 2.708 2.847
1.598 4.770 2.294
1.710 4.999 2.153
1.591 5.261 2.161
1.727 5.520 2.148
1.602 5.595 1.955
1.605 1.720 3.235
1.705 1.898 3.163
1.708 2.199 3.152
1.706 2.504 2.909
1.443 2.480 2.851
1.328 2.732 2.922
1.451 5.115 2.158
1.363 5.469 2.056
1.317 5.669 1.959
1.400 2.124 2.899
1.392 2.321 2.843
0.472 3.598 2.296
0.310 3.879 2.194
0.352 4.048 2.183
0.299 1.041 2.950
0.125 3.634 2.183
0.160 3.788 2.188
0.201 4.027 1.949
0.064 4.238 2.045
0.215 4.634 1.937
0.074 0.974 2.898
0.161 1.228 2.859
0.112 1.548 2.836
5.118 2.753 3.917
5.090 4.467 3.370
5.173 4.767 3.340
5.083 5.018 3.226
5.225 5.263 3.117
5.199 5.537 3.140
5.119 5.712 3.078
5.078 1.374 4.404
5.213 1.628 4.209
5.092 1.973 4.227
5.140 2.150 4.201
5.138 2.440 3.996
5.201 2.640 3.877
4.833 2.713 3.800
4.992 3.039 3.865
4.849 4.615 3.264
4.899 4.859 3.285
4.974 5.149 3.072
4.913 5.417 2.975
4.908 5.631 3.004
4.834 5.910 2.979
4.885 1.720 4.122
4.924 1.870 4.053
4.891 2.159 4.023
4.874 2.514 4.034
4.887 2.762 3.801
4.674 2.707 3.732
4.727 2.848 3.651
4.647 4.981 3.116
4.679 5.248 2.999
4.679 5.473 3.066
4.582 5.751 2.869
4.741 5.913 2.849
4.590 1.865 4.113
4.616 2.101 3.926
4.678 2.431 3.939
4.711 2.751 3.741
4.592 2.837 4.098
4.587 4.789 3.376
4.629 5.096 3.291
4.631 5.306 3.369
4.528 5.546 3.249
4.573 5.690 3.067
4.516 1.697 4.376
4.598 2.013 4.277
4.492 2.335 4.266
4.541 2.578 4.094
4.639 2.694 4.037
3.100 4.095 3.115
3.023 4.307 3.172
3.139 4.536 3.044
2.986 4.930 3.038
3.089 5.204 2.946
2.994 1.354 4.055
3.020 1.662 3.969
3.066 1.874 3.789
2.997 2.202 3.826
2.898 4.116 3.106
2.809 4.277 3.094
2.886 4.611 2.929
2.745 4.804 2.805
2.767 5.056 2.862
2.741 5.300 2.705
2.911 1.374 3.955
2.732 1.513 3.831
2.749 1.792 3.713
2.844 2.016 3.780
2.861 2.299 3.706
2.583 2.559 3.411
2.524 4.118 3.093
2.630 4.404 3.039
2.559 4.658 2.870
2.528 4.904 2.754
2.482 5.099 2.702
2.600 5.326 2.617
2.583 5.530 2.529
2.587 1.346 3.869
2.616 1.565 3.714
2.659 1.848 3.681
2.639 2.006 3.737
2.614 2.238 3.638
2.476 2.583 3.583
2.301 2.653 3.525
2.233 4.061 2.891
2.252 4.378 2.924
2.337 4.549 2.904
2.376 4.747 2.680
2.324 4.980 2.639
2.387 5.262 2.581
2.405 5.644 2.502
2.255 1.373 3.827
2.340 1.642 3.658
2.284 1.740 3.632
2.371 2.009 3.667
2.271 2.303 3.538
2.393 2.553 3.363
2.124 2.518 3.283
2.044 4.040 2.948
2.012 4.249 2.867
2.119 4.513 2.743
2.016 4.857 2.596
1.979 5.097 2.546
1.995 5.251 2.551
1.997 5.574 2.416
2.120 1.247 3.783
2.146 1.481 3.674
2.023 1.712 3.629
2.032 1.981 3.550
2.049 2.378 3.427
1.976 2.584 3.451
1.786 2.603 3.351
1.730 4.236 2.738
1.814 4.531 2.633
1.750 4.823 2.592
1.808 5.051 2.583
1.742 5.348 2.418
1.835 5.551 2.324
1.895 1.241 3.759
1.835 1.502 3.642
1.753 1.690 3.516
1.769 1.928 3.447
1.905 2.193 3.362
1.858 2.602 3.255
1.502 2.502 3.149
1.573 4.553 2.615
1.524 4.783 2.525
1.609 5.066 2.539
1.511 5.192 2.343
1.624 5.568 2.346
1.624 1.584 3.583
1.577 1.750 3.462
1.517 1.985 3.402
1.547 2.242 3.237
1.540 2.583 3.294
-0.033 3.952 2.414
0.033 4.074 2.247
0.120 4.437 2.265
0.098 4.638 2.145
0.024 4.822 2.051
0.026 1.104 3.177
0.126 1.333 3.016
0.055 1.691 2.942
0.085 1.778 2.890
4.997 2.871 4.239
5.038 4.301 3.751
5.033 4.484 3.738
5.148 4.759 3.545
5.021 5.105 3.589
5.161 5.310 3.463
5.035 5.489 3.415
5.040 5.800 3.301
5.083 1.545 4.536
5.017 1.745 4.564
5.132 1.953 4.499
5.121 2.222 4.384
5.155 2.510 4.363
5.092 2.719 4.280
4.763 2.751 4.058
4.806 4.461 3.673
4.751 4.789 3.516
4.838 5.003 3.521
4.841 5.319 3.315
4.825 5.502 3.276
4.831 5.829 3.146
4.787 1.553 4.545
4.896 1.724 4.507
4.754 2.084 4.385
4.856 2.338 4.234
4.825 2.452 4.197
4.884 2.769 4.204
4.584 2.761 3.994
4.601 4.724 3.378
4.658 5.063 3.439
4.649 5.308 3.292
4.592 5.470 3.209
4.534 5.687 3.238
4.569 1.816 4.325
4.513 2.064 4.321
4.663 2.185 4.246
4.493 2.510 4.061
4.494 2.698 4.081
4.477 4.500 3.843
4.552 4.870 3.683
4.531 5.003 3.674
4.460 5.325 3.633
4.481 5.562 3.470
4.504 1.629 4.617
4.442 1.867 4.684
4.465 2.112 4.524
4.563 2.378 4.442
4.468 2.481 4.314
2.912 4.455 3.373
2.956 4.749 3.230
2.922 4.946 3.243
3.053 5.178 3.070
2.981 5.512 3.026
2.920 1.509 4.198
2.917 1.651 4.146
3.069 1.865 4.098
3.055 2.186 3.991
2.966 2.369 3.904
2.835 2.725 3.906
2.685 4.090 3.301
2.822 4.341 3.256
2.818 4.594 3.266
2.747 4.912 3.205
2.806 5.185 2.995
2.733 5.491 2.993
2.748 5.593 2.956
2.764 1.436 4.237
2.754 1.658 4.026
2.661 1.865 4.098
2.816 2.131 4.033
2.715 2.421 3.854
2.766 2.695 3.783
2.521 2.702 3.702
2.529 4.209 3.334
2.404 4.467 3.301
2.577 4.640 3.225
2.442 4.955 3.088
2.552 5.090 3.061
2.407 5.348 2.992
2.498 5.701 2.775
2.569 1.473 4.176
2.407 1.635 4.100
2.558 1.866 3.995
2.572 2.059 3.978
2.489 2.390 3.779
2.498 2.597 3.786
2.179 2.571 3.621
2.213 4.088 3.294
2.164 4.456 3.156
2.227 4.662 3.032
2.249 4.935 2.953
2.176 5.202 2.960
2.256 5.359 2.858
2.182 5.703 2.820
2.202 1.294 4.130
2.276 1.547 3.945
2.197 1.850 3.842
2.222 2.172 3.862
2.270 2.462 3.777
2.224 2.644 3.745
1.926 2.557 3.547
1.907 4.087 3.074
1.918 4.445 3.101
2.033 4.549 3.002
2.007 4.944 2.925
2.016 5.068 2.945
1.958 5.346 2.706
1.981 5.612 2.792
1.918 1.289 4.029
1.987 1.695 3.824
2.066 1.795 3.758
1.994 2.194 3.793
2.060 2.401 3.743
2.034 2.589 3.663
1.812 2.517 3.544
1.698 4.082 3.169
1.826 4.431 2.939
1.715 4.571 3.024
1.725 4.896 2.936
1.702 5.081 2.853
1.774 5.315 2.651
1.657 5.658 2.679
1.767 1.339 3.889
1.810 1.595 3.913
1.661 1.825 3.729
1.732 2.035 3.706
1.765 2.259 3.565
1.748 2.531 3.612
1.462 4.241 2.957
1.445 4.565 2.947
1.439 4.742 2.773
1.488 4.996 2.641
1.518 5.416 2.622
1.536 1.249 3.761
1.573 1.581 3.830
1.528 1.778 3.686
1.537 2.065 3.567
1.550 2.379 3.497
4.986 2.784 4.398
5.055 4.283 3.964
5.074 4.582 3.926
5.016 4.889 3.810
5.072 5.144 3.753
4.933 5.294 3.767
4.920 5.546 3.553
5.041 5.916 3.545
4.940 1.534 4.848
5.016 1.782 4.652
4.965 2.057 4.723
5.005 2.429 4.648
5.065 2.660 4.436
4.933 2.947 4.415
4.771 2.822 4.367
4.757 4.378 3.866
4.838 4.595 3.877
4.743 4.872 3.715
4.775 5.102 3.645
4.709 5.275 3.703
4.753 5.570 3.613
4.672 5.921 3.503
4.701 1.642 4.749
4.748 1.931 4.595
4.681 2.112 4.675
4.848 2.330 4.505
4.795 2.641 4.392
4.717 2.796 4.388
4.456 4.577 3.712
4.490 4.914 3.700
4.466 5.041 3.565
4.568 5.291 3.628
4.556 5.518 3.440
4.575 1.642 4.728
4.565 1.886 4.598
4.514 2.144 4.509
4.521 2.247 4.422
4.515 2.501 4.314
4.378 4.480 4.120
4.367 4.635 4.087
4.502 4.889 3.911
4.396 5.058 3.891
4.370 5.479 3.762
4.394 1.640 4.906
4.387 1.834 4.830
4.347 2.206 4.758
4.432 2.397 4.653
2.945 2.678 4.067
2.882 4.811 3.594
3.016 5.024 3.375
2.953 5.291 3.414
2.966 5.443 3.258
2.909 5.851 3.224
2.993 1.839 4.397
2.919 1.987 4.401
2.942 2.197 4.252
2.840 2.559 4.140
2.964 2.764 4.159
2.745 2.762 3.973
2.664 4.456 3.599
2.593 4.696 3.459
2.600 5.017 3.295
2.651 5.325 3.249
2.712 5.588 3.184
2.714 5.844 3.220
2.660 1.539 4.420
2.740 1.766 4.330
2.661 1.947 4.336
2.718 2.184 4.148
2.740 2.532 4.208
2.645 2.762 4.078
2.418 2.774 3.924
2.479 4.152 3.595
2.505 4.463 3.545
2.483 4.780 3.323
2.381 4.930 3.259
2.336 5.156 3.222
2.398 5.498 3.122
2.417 5.684 3.046
2.358 1.425 4.296
2.339 1.779 4.306
2.510 1.932 4.174
2.410 2.274 4.069
2.515 2.419 3.976
2.502 2.673 4.036
2.218 2.695 3.826
2.183 4.240 3.489
2.107 4.392 3.444
2.261 4.800 3.250
2.192 5.035 3.182
2.227 5.194 3.109
2.198 5.393 3.095
2.102 5.709 3.044
2.113 1.413 4.247
2.225 1.788 4.160
2.178 1.923 4.156
2.134 2.163 4.059
2.099 2.401 3.985
2.168 2.753 3.918
1.862 2.617 3.914
1.895 4.097 3.343
1.934 4.396 3.238
1.890 4.657 3.206
1.908 4.966 3.149
1.902 5.109 3.063
1.866 5.456 2.925
1.984 5.782 2.929
1.917 1.367 4.144
1.927 1.764 4.128
1.887 1.983 3.994
1.958 2.270 3.954
1.961 2.510 3.857
1.911 2.715 3.893
1.640 4.146 3.348
1.650 4.389 3.183
1.582 4.670 3.213
1.636 4.990 3.036
1.692 5.162 3.049
