11.013336 44.799065 4.149063
8.615336 42.993065 10.695068
8.539336 41.457066 12.316063
42.271336 63.217064 2.3290634
43.07234 64.382065 0.5620651
45.267338 1.7970581 0.92806244
47.371338 2.0270615 1.892067
27.841337 36.349064 19.576065
29.635336 37.432064 19.630066
35.992336 33.664062 23.364067
34.668335 31.502064 23.847069
6.6133366 19.939064 10.726067
6.5123367 17.903065 10.828064
9.205337 17.596064 16.751068
11.142337 18.392063 17.965065
50.718338 46.196064 31.783064
50.046337 47.746063 33.092064
46.792336 48.761063 37.344063
45.779335 50.034065 39.024063
15.527337 49.806065 65.994064
15.949337 50.048065 68.34406
12.196337 48.587063 2.1390686
12.737337 46.758064 3.4280624
51.246338 18.682064 36.225063
0.13333893 16.872065 37.905064
47.038338 11.173063 36.992065
44.980335 11.470063 38.309063
28.923336 23.664064 10.094063
30.910337 22.173065 10.259064
38.031338 25.668064 9.7660675
38.34934 26.840065 7.894066
50.208336 10.317063 20.680069
0.63834 11.489063 21.08207
5.3543396 14.690063 23.944069
6.623337 13.231064 24.962067
51.186337 26.808064 34.193066
0.008338928 25.029064 34.779064
44.289337 22.540064 30.623064
43.643337 21.043064 31.827065
4.4903364 63.001064 30.827063
4.4533367 65.46206 29.747068
5.6663365 69.62806 25.883064
5.1553364 70.12306 23.847069
32.259335 19.717064 22.55307
32.460335 17.159063 22.531067
36.462337 15.830064 28.695066
35.527336 13.448064 29.226065
23.048336 68.42006 15.658066
24.739336 69.17206 14.179062
24.637337 5.0670624 10.519066
26.400337 5.802066 9.048065
42.614338 32.259064 22.01207
40.181335 32.935062 21.154068
37.504337 32.021065 28.617064
38.179337 29.643064 29.385069
49.685337 57.500065 13.203064
50.096336 58.779064 14.643066
51.036335 65.86506 12.969063
51.372337 67.92806 14.295067
16.727337 60.426064 8.937065
16.563335 62.577065 9.130066
13.613337 67.00106 7.083069
13.265337 68.967064 5.6430664
13.739337 63.905064 24.143066
13.023336 66.47306 24.016068
18.989336 69.92806 27.16307
18.822336 1.7860565 27.444069
40.904335 58.522064 18.926064
40.852337 57.031063 20.270065
44.899338 55.264065 24.745064
44.278336 53.653065 26.688065
49.839336 10.196064 43.017063
50.021336 9.304064 41.391064
4.2593384 11.783064 38.453064
4.15234 12.963063 40.554066
51.49534 67.731064 10.614067
49.312336 67.58106 9.887062
49.129337 4.3860626 6.925064
48.735336 6.073062 8.430069
50.248337 65.202065 9.462067
49.284336 63.340065 9.446068
3.487339 59.331066 8.3530655
3.1113396 56.647064 8.555069
39.05134 16.039064 68.11006
36.876335 16.852064 67.32107
31.513336 13.016064 65.896065
31.700336 11.637064 67.771065
40.206337 46.861065 65.68507
40.138336 44.458065 65.73506
45.992336 44.093063 71.62306
46.652336 42.012066 70.465065
4.7443366 68.81506 46.213066
3.9843366 66.68306 46.238064
3.5663366 64.12406 52.776066
5.4803367 63.820065 53.864063
47.66934 43.759064 10.460068
46.836338 43.695065 12.997063
39.567337 39.969063 10.448067
38.318336 40.451065 12.234062
26.008337 37.572063 9.703064
25.874336 39.849064 8.762062
33.079334 39.148064 5.024063
33.690334 37.992065 3.5620651
44.40534 18.776064 14.533066
44.561337 18.673063 12.383064
48.344337 25.946064 9.833069
48.234337 25.449064 8.080063
42.961338 13.102063 38.163063
43.258335 12.323064 36.099064
37.066338 14.041063 31.609064
37.139336 12.163064 30.945065
34.544334 16.873064 56.507065
36.633335 17.097063 54.853065
39.298336 24.247065 58.828064
41.331337 23.165064 60.327065
0.055336773 9.059064 66.27706
1.7103364 10.236064 66.80306
8.383336 10.886064 64.828064
9.558336 12.188064 66.17007
18.734337 8.070064 1.7100677
16.487337 7.545062 1.5180664
11.368337 2.3080597 3.916069
11.935336 0.21705627 3.4450684
4.369339 40.534065 45.821064
3.0563393 40.856064 47.440063
49.499336 35.577065 46.911064
47.247337 36.684063 46.466064
0.64533997 41.508064 20.050064
51.442337 40.996063 18.240067
45.67634 38.374065 16.713066
45.97434 37.858063 14.152069
46.712337 4.1920624 53.484066
44.628338 4.538063 53.791065
43.084335 5.6450605 46.679066
44.329338 7.017062 46.324066
41.49534 65.58406 6.582062
42.290337 67.091064 8.252068
44.317337 2.6210632 3.4140625
43.12034 3.6290588 1.8330688
30.241337 0.22605896 21.877068
32.391335 0.57605743 20.73507
32.816338 69.60506 14.692062
31.349337 0.18305969 13.654068
45.032337 8.991063 50.168064
46.805336 8.301064 51.251064
50.798336 9.419064 45.789066
49.98834 11.165064 45.468063
43.518337 22.108065 3.9970627
42.730335 20.458063 4.5440674
40.357338 14.136064 0.9350662
38.979336 14.846064 71.298065
30.234337 16.625063 62.892067
29.746336 17.087065 65.24007
36.614338 19.477064 67.606064
38.07234 19.669064 65.411064
29.097336 29.835064 8.605064
28.095337 31.927065 8.643066
33.421337 37.778065 7.6530685
34.904335 37.428066 6.203064
9.827336 43.310066 13.590065
11.138336 44.312065 14.997063
16.170336 47.845066 8.855064
17.811337 48.937065 10.238068
11.075336 61.800064 26.279064
9.448337 61.623066 27.613064
7.4203367 67.27906 31.402063
8.559337 69.54706 31.649065
19.462336 44.749065 67.31906
21.103336 43.196064 67.30506
27.030336 44.958065 64.30807
27.729336 43.394066 62.823067
30.778337 51.545063 24.98507
29.055336 51.968063 26.19107
23.793337 54.337063 27.060066
21.521338 54.878063 27.19307
24.807337 33.477062 34.999065
24.050337 31.866064 36.227066
24.127337 35.406063 44.031063
26.305336 34.826065 44.792065
29.519337 3.0200577 12.534065
28.827337 1.2550583 13.930069
26.747337 68.61506 15.909065
25.217337 67.02706 16.357063
46.186337 45.839066 36.633064
46.611336 45.809063 34.612064
47.454338 41.375065 29.526064
49.404335 42.086063 29.312063
6.2793365 13.476064 21.30207
7.4943366 14.512063 19.743065
11.683336 13.807063 13.851067
13.510337 11.958064 14.455063
33.979336 55.338066 29.744064
35.399334 55.288063 31.267065
41.084335 51.835064 28.215063
41.222336 49.584064 28.224064
26.041336 22.987064 70.44206
27.114336 23.330065 0.5160675
25.642336 27.688065 6.441063
27.601337 28.390064 7.071068
20.411337 69.94706 37.249065
19.654337 68.22306 36.681065
22.600336 62.982063 31.618065
24.552338 63.713066 32.907063
26.824337 41.330063 27.486069
28.769337 42.344063 27.473068
29.506336 47.548065 22.586067
28.449337 49.236065 23.266068
27.770336 46.322063 6.2940674
28.850336 44.949066 8.241066
25.466337 40.544064 11.5770645
25.715336 39.369064 13.145065
21.742336 60.025063 6.088066
21.396338 57.776066 5.253067
20.984337 52.573063 10.313065
22.100336 53.645065 11.436066
49.373337 46.443066 3.6840668
49.242336 46.933064 1.5890656
3.6803398 50.618065 71.49506
3.1083374 52.121063 1.2020645
19.952335 36.972065 5.262062
19.771336 39.085064 6.001068
14.438336 40.770065 0.9350662
14.1013365 42.638065 2.0090637
18.063335 29.124063 22.41407
19.850336 27.868065 21.41407
14.566337 24.871065 15.790062
13.115336 23.146065 15.689064
28.819336 60.977066 22.084068
29.435337 60.720066 19.959068
34.741337 62.140064 14.348068
34.771336 60.086063 15.108063
35.536335 41.941063 27.768064
34.379337 41.892063 29.480064
38.403336 35.612064 30.134064
41.008335 36.225063 30.988064
16.773336 17.574064 23.09507
16.306335 15.779063 21.350067
21.974337 11.260063 23.044067
20.281336 9.447063 23.795067
20.489336 30.964064 27.882065
21.404337 28.792065 28.937063
14.795337 29.493065 32.104065
13.539337 29.930065 33.862064
48.993336 6.2180634 29.474064
48.932335 6.4280634 31.749063
47.950336 12.704063 33.100063
48.888336 14.720063 34.165066
8.981337 49.417065 64.492065
11.073337 49.320065 65.396065
6.7393365 49.792065 71.13406
5.8083367 52.335064 71.31906
8.237336 11.208064 24.225067
9.517337 13.016064 24.521065
15.216337 9.158064 23.613068
16.983335 10.450064 22.444069
30.913336 28.131063 9.514069
31.842337 28.936064 11.415062
35.165337 28.905064 15.139069
36.969337 28.098064 15.148064
11.995337 33.959064 9.926064
10.241337 33.828064 11.112068
8.266336 28.015064 12.356064
9.830337 27.736065 13.727066
13.880337 35.915062 65.35806
13.939337 33.61706 65.23606
7.991337 29.996065 66.84406
8.564337 27.445065 67.505066
18.836336 19.561064 34.570065
19.132336 17.673063 34.173065
20.120337 13.036063 40.066063
17.810337 12.9070635 41.106064
19.321337 11.476064 4.8960648
18.005337 11.547064 3.2160645
14.512337 15.196063 69.81007
14.355337 17.369064 70.99007
31.327337 48.373066 19.747063
30.595337 49.721066 21.230064
28.376337 56.289062 18.219063
27.256336 56.506065 16.004066
21.892336 5.4020643 11.299065
20.830338 6.3780622 12.944069
23.157337 0.9090576 18.534065
20.943336 1.351059 18.619064
22.677338 12.995064 13.151062
24.877337 12.878063 14.089066
28.229336 11.614063 6.295067
29.243338 10.181064 7.717064
16.339336 47.024063 35.202065
18.413336 48.585064 34.743065
21.800337 52.396065 29.052065
20.157337 52.250065 27.481064
22.901337 43.990063 69.26106
22.703337 42.088066 70.13406
22.356337 39.031063 5.4760666
23.816338 40.241066 6.8550644
15.501337 63.612064 17.980064
16.137337 61.542065 17.367065
7.9883366 58.842064 17.792068
7.0103364 60.760063 17.289062
19.609337 47.317066 69.46007
19.784336 45.645065 70.41206
17.445335 45.075066 6.0700684
17.525335 43.461063 6.7630615
15.158337 16.604063 25.405067
17.208336 16.239063 26.28907
16.677336 8.395063 27.971067
16.275335 7.3830633 26.113068
50.314335 19.134064 61.439064
50.985336 19.835064 63.760067
2.3093376 27.674065 61.896065
1.2643394 28.499063 63.700066
26.945337 6.9740634 15.680069
27.708336 8.767063 17.525063
23.593336 9.261064 23.381065
22.889338 7.7800636 24.821068
48.982338 56.651066 5.279068
48.973335 57.143063 3.0930634
46.705338 54.900063 68.08306
45.57234 52.736065 68.71007
14.822337 39.863064 29.496063
14.195336 39.095066 32.089066
12.827336 41.872063 38.864063
15.0943365 41.564064 39.382065
13.140337 61.393063 9.715065
11.071337 61.423065 10.397064
10.130337 64.60106 17.330063
8.582336 65.79406 17.418068
7.0473366 53.066063 13.385063
7.18734 55.273064 14.318062
2.52734 60.842064 16.884064
0.59033966 59.712063 17.054062
51.07234 45.664062 20.363068
50.233337 45.254063 22.255066
45.157337 39.149063 23.597069
45.996338 37.819065 21.683067
19.058336 47.664062 19.98307
19.768335 48.840065 17.943062
20.223337 52.179066 13.305069
18.602337 51.057064 13.725067
9.685336 1.5310593 22.31707
7.9053364 0.8670578 23.46907
3.4313366 2.337059 19.190063
3.0623364 1.7570572 17.066063
5.5253367 47.733063 63.854065
4.9643364 45.432064 64.67906
9.031337 46.484066 0.60206604
7.1353364 47.494064 1.2020645
43.255337 59.020065 8.093063
42.027336 57.038063 7.9990616
43.088337 56.409065 15.207062
41.246338 56.145065 15.711067
1.3703384 13.899063 15.932068
2.480339 15.436064 14.544067
51.145336 23.142065 16.141068
49.244335 23.268064 14.310066
41.991337 58.470066 58.000065
43.772335 57.975063 59.250065
48.744335 52.237064 61.565067
48.319336 50.427063 60.087067
4.2413363 46.047066 36.018063
5.5023365 44.102066 35.428062
4.7653365 39.734066 43.027065
6.9633365 39.931065 43.662064
3.5253365 39.981064 12.196068
6.0723367 40.303066 12.473068
3.5013366 40.396065 19.092064
4.6743364 41.283066 20.241066
13.412336 58.067066 62.211067
13.176336 59.500065 63.465065
7.846337 63.093063 60.435066
8.695336 65.60106 60.007065
7.1223364 41.102066 21.669067
5.1613364 41.265064 23.086067
3.1023366 39.547066 30.031065
4.4433365 39.618065 31.392065
8.932337 21.269064 5.9860687
9.201337 19.736063 7.649063
10.644337 22.231064 15.090065
9.874336 23.894064 16.252068
14.317337 25.407064 11.0770645
14.958337 26.305065 9.366066
14.147337 25.097065 2.251068
13.078337 23.698065 1.7970657
40.100338 31.498064 41.502064
40.626335 31.166065 39.657066
47.607338 29.472065 37.861065
48.993336 31.129065 37.785065
47.98834 16.927063 5.173065
48.685337 15.644063 7.0020676
45.96734 16.335064 13.557068
46.46734 17.266064 15.448067
27.536337 40.345066 64.44306
26.464336 40.797066 62.234066
20.185337 37.112064 62.812065
18.307337 37.309063 61.592068
2.461338 69.91506 65.37807
1.6873398 1.0390625 63.743065
49.792336 0.62506104 56.620064
51.442337 69.88606 55.919064
7.4903364 12.120064 13.595062
9.562337 12.209064 12.751068
12.890337 16.473064 7.665062
13.992336 16.573065 9.201065
43.798336 32.31106 2.5950623
45.30834 32.479065 4.007065
49.737335 28.419064 5.7160645
51.178337 29.167065 6.4760666
7.1303368 65.17106 4.628067
6.4553366 67.54106 4.328064
12.631337 0.78505707 7.510063
13.012337 69.40006 8.653069
5.8263364 42.259064 31.635065
5.7893367 41.360065 33.394066
8.011336 44.693066 36.600063
7.5583367 44.717064 38.505066
17.715336 46.663063 17.930069
16.722336 46.424065 16.102066
17.566336 45.569065 8.744064
19.218336 46.772064 9.360062
8.419336 2.976059 69.324066
9.190336 0.7930603 68.64906
6.9433365 66.95606 0.814064
4.8073363 67.814064 2.0700684
44.362335 14.668063 57.133064
43.614338 14.283063 59.311066
44.104336 8.075064 63.261066
43.07834 8.522063 65.16306
2.7143402 38.165066 25.203064
2.1133385 35.918064 24.940063
3.178337 29.141064 27.749067
2.3253403 27.596064 26.520065
30.245337 19.818064 32.567062
29.215336 18.328064 31.128063
21.706337 19.521065 35.208065
21.690336 21.322063 34.207066
7.7003365 0.22006226 35.116066
7.2893367 1.837059 36.076065
4.5723367 7.61806 35.482063
5.9913363 9.20206 36.638065
22.634336 14.355063 54.435066
22.519337 15.0580635 52.135063
17.485336 19.572063 49.594067
14.894337 19.509064 49.875065
35.183334 38.901066 13.032066
34.848335 40.052063 14.634064
40.53734 42.764065 15.682068
40.279335 44.817066 16.129066
22.128336 47.730064 16.917068
23.942337 47.282063 16.285065
23.938337 48.905064 9.028069
22.802338 50.435066 9.739067
2.482338 41.822063 0.50806427
2.364338 43.812065 71.57006
2.6253395 44.013065 64.29106
2.251339 42.588066 62.989067
43.337337 42.666065 3.6820679
44.712337 42.768063 4.848068
47.886337 39.106064 10.849068
48.272335 36.844063 10.397064
5.3783364 15.566064 14.299065
4.5503364 16.321064 16.398064
5.8003364 23.327065 13.562065
3.8003366 23.648064 12.438065
18.273336 37.289062 40.808064
17.768335 35.064064 41.434063
15.029337 31.662064 41.531063
14.962337 30.022064 41.735065
36.490337 68.106064 0.11306763
36.505337 67.57106 69.62406
37.258335 5.7090635 66.73206
38.480335 4.901062 64.40206
50.531338 27.411064 24.653069
48.323338 27.352064 25.544067
46.531338 21.324064 20.958069
47.644337 19.520063 21.709068
45.742336 60.635063 16.522064
44.956337 58.792065 14.795067
46.063335 59.696064 8.435066
48.581337 58.625065 8.572067
47.799335 48.948063 2.1850662
48.305336 51.078064 1.8490677
0.57133865 49.409065 67.078064
2.3193398 47.682064 67.258064
4.4083366 41.284065 3.0250626
2.928337 43.492065 2.6550674
2.7753372 47.710064 8.774063
1.9383392 48.913063 7.404068
51.477337 29.497065 22.696068
0.5553398 29.991064 20.896065
51.44734 25.879065 15.871063
1.6083374 24.762064 14.8910675
45.180336 56.273064 4.848068
46.547337 56.708065 6.7870636
47.736336 55.429066 13.130066
46.983337 57.436066 13.174065
42.75934 15.724064 63.355064
40.602337 15.959064 63.759068
40.38434 8.952064 64.94306
40.741337 9.723063 66.839066
29.190336 31.788065 4.330063
29.034336 29.175064 4.8890686
31.713337 23.784065 0.49006653
29.486338 23.556065 71.06606
28.643337 53.690063 28.181065
30.368338 53.043064 28.192064
28.356337 48.648064 33.950066
29.731337 47.498066 34.426064
50.16234 23.585064 68.20506
49.334335 21.748064 69.05406
0.1763382 14.845063 68.97106
1.456337 15.6500635 70.33006
49.306335 63.537064 40.654064
49.321335 65.16406 41.745064
45.673336 60.006065 47.703064
43.692337 60.417065 47.824066
44.979336 25.213064 28.266066
44.110336 25.885065 26.45707
37.832336 24.226065 25.39907
36.682335 24.879065 26.744064
4.8143387 16.125063 11.684067
2.489338 16.551064 11.843063
50.396336 10.570064 9.221062
48.715336 11.016064 7.7240677
27.959337 0.6720581 35.645065
27.524336 2.4680634 35.018063
31.541336 6.9400663 39.564064
32.226337 8.856059 39.509064
41.96734 13.232063 3.668068
42.658337 11.709064 5.3250656
46.96734 5.1280637 4.0790634
46.689335 4.0980635 6.114067
1.199337 69.05806 1.7500687
0.40633774 67.744064 2.9960632
49.244335 61.617065 1.2060623
47.154335 61.363064 0.4760666
37.228336 27.223064 55.580067
38.638336 26.196064 56.753063
35.689335 20.755064 53.756065
36.458336 18.893064 52.631065
39.568336 28.592064 66.91706
40.275337 29.271065 64.65707
39.309338 37.137066 65.01006
38.129337 37.841064 66.453064
24.867336 53.220066 10.801064
26.875338 54.309063 10.136063
26.480337 55.183064 3.9580688
25.821337 56.790066 3.0460663
33.645336 16.283064 17.715065
34.713337 15.917064 15.372063
41.70334 17.646065 19.164062
43.067337 16.382065 17.856064
33.460335 2.0440598 15.242065
34.380337 4.0700607 16.362068
36.063335 68.146065 22.12307
38.283337 68.16906 21.49707
48.107338 3.8050635 0.19806671
46.476337 5.5990634 1.378067
40.96034 4.7700634 66.41506
39.695335 6.5230637 67.227066
18.143335 13.468063 12.318062
19.066336 13.613064 10.100067
19.397337 5.3880634 10.260063
18.907337 4.0380635 8.791069
35.310337 44.207066 31.271065
33.164337 44.161064 31.286064
30.506336 48.827065 24.942064
28.413336 49.295063 25.906065
19.412336 15.939063 63.572067
19.513336 16.009064 61.375065
13.639337 21.258064 63.718067
12.917336 19.815063 65.25106
37.670338 51.606064 70.87206
35.138336 51.396065 71.241066
31.416336 58.059063 1.2660675
30.001337 57.057064 2.491066
39.605335 46.453064 19.791069
38.50934 47.590065 21.60907
36.004337 54.455063 20.936066
33.744335 53.502064 21.335068
5.1343365 39.832066 58.246063
7.0733366 39.474064 56.824066
10.467337 47.528065 57.765064
12.616337 46.251064 57.163067
22.602337 0.8120575 0.005065918
22.940336 68.36406 0.8000641
26.332336 68.422066 6.076065
27.936337 67.01206 6.5850677
22.009336 26.591064 15.176064
21.304337 26.087065 16.889069
24.458336 30.069065 22.245064
24.192337 28.058064 23.338066
46.12034 13.384064 23.258064
48.045338 14.627064 21.642067
50.664337 20.303064 21.466064
50.677338 21.617064 23.162064
47.292336 26.932064 37.084064
46.011337 25.717064 38.421066
48.531338 19.290064 40.055065
50.860336 18.838064 39.378063
23.055336 16.169064 12.340065
22.439337 15.394063 14.254066
14.707336 14.284063 15.531067
13.607337 15.672064 13.751068
40.052338 49.426064 67.09806
40.846336 49.569065 65.147064
42.505337 56.411064 68.256065
44.267338 55.951065 70.11006
51.09934 58.939064 47.761066
51.165337 57.174065 46.771065
47.94034 50.820065 50.872066
48.834335 50.895065 53.170067
28.317337 65.64806 8.901062
26.385336 64.18206 9.319069
27.687336 57.459064 10.4170685
25.446337 56.531063 10.765068
37.490337 37.225063 37.819065
36.207336 35.272064 36.849064
34.661335 31.775064 31.701065
35.250336 32.934063 30.003063
25.792337 41.330063 67.258064
27.123337 42.597065 65.71107
30.904337 38.902065 71.12707
33.235336 39.121063 0.8990631
37.341335 29.685064 6.8010635
38.698338 31.167065 5.3690643
36.824337 36.658062 11.461067
36.531338 38.885063 10.734062
44.986336 9.436064 24.088066
45.591335 11.198064 24.364067
47.97434 13.457064 29.891066
48.146336 11.578064 30.420065
14.777337 6.1710634 20.389069
14.111337 5.1230636 18.671066
7.8093367 9.445064 14.858063
9.007337 9.456063 12.775063
21.165337 69.92006 22.090065
21.384336 0.8180618 23.731064
17.120337 7.7250624 21.363068
17.391336 7.252063 19.619064
25.005337 56.960064 17.639069
24.678337 58.329063 19.258064
22.749336 64.116066 13.441063
21.919336 65.78206 15.024063
19.914337 59.447063 27.62207
21.907337 58.442066 27.793066
25.222336 61.106064 22.059067
24.771338 62.816063 22.94307
37.814335 49.264065 10.034065
36.559338 48.840065 11.5420685
36.190334 41.819065 13.343063
37.821335 43.026066 13.627068
29.814337 43.461063 53.371063
28.290337 45.200066 54.087067
30.887337 46.351063 61.015064
30.322336 48.627064 61.865067
30.982336 36.198063 45.831066
30.713337 35.116062 43.636066
27.069336 36.667065 37.394066
26.749336 38.640064 37.100063
20.676336 48.545063 26.535065
21.232336 47.372063 24.810066
13.932337 45.188065 25.95507
13.420337 43.996063 24.093071
22.872337 25.369064 48.639065
23.208336 27.465065 49.544064
25.298336 32.330063 45.785065
22.879337 33.838062 45.846066
12.098336 50.324066 25.625069
13.498337 48.393063 24.425064
15.529337 44.797066 18.364067
13.888337 44.707066 16.758064
46.337337 6.4660597 63.462067
46.277336 7.238063 65.39107
50.96734 1.0840607 66.352066
51.13434 0.14906311 68.56906
23.692337 1.7940598 22.648064
23.886337 0.1720581 20.895065
27.452337 63.702065 22.05407
26.619337 62.355064 20.036064
21.332336 69.57006 26.061066
21.223337 1.3080597 26.501068
29.066338 3.4800568 29.141066
29.990337 2.5880585 27.26107
36.000336 11.509064 23.208069
34.196335 10.790064 22.87107
30.725336 5.6290636 26.481064
31.701336 3.7770634 25.661064
12.249336 41.642063 15.517067
12.886336 42.392063 17.767067
12.6933365 39.493065 24.45607
12.483336 40.407063 26.079063
14.772337 40.572063 18.369064
15.892337 42.309063 18.473068
21.165337 45.424065 20.676064
21.724337 45.911064 18.924065
30.220337 25.689064 63.954067
29.575336 24.227064 63.017067
28.493338 22.628065 57.484066
27.092337 20.873064 57.884064
30.258337 28.468065 53.133064
28.848337 28.621065 51.121063
28.042337 31.730064 45.600063
30.031336 32.842064 44.939064
5.0573387 67.980064 30.115065
5.529339 69.27906 31.115065
0.20034027 4.708061 31.762064
50.204338 5.042061 33.610065
10.053336 15.213063 68.006065
7.9423366 13.980063 67.56007
2.4293365 13.005064 68.81007
1.1993365 11.327064 69.23807
21.858337 13.898064 1.1810684
23.309338 15.393064 2.6320648
21.345337 17.356064 9.686066
21.336336 15.163063 10.134064
12.493337 1.8400574 22.717064
13.894337 2.4590607 21.684067
16.329336 3.000061 17.164062
16.970337 4.8860626 18.476067
19.048336 31.254065 69.76607
18.489336 33.092064 68.352066
20.383337 35.592064 3.1820679
22.734337 35.799065 3.8610687
32.515335 14.678063 1.6140671
30.193336 14.441064 3.2630615
29.092337 20.004065 7.2300644
28.796337 20.208063 9.556068
27.942337 48.084064 14.466064
26.669336 47.604065 16.094063
25.402336 54.640064 12.758064
25.567337 56.220066 13.892067
32.756336 60.483063 1.7720642
33.065334 60.307064 71.450066
36.590336 57.480064 66.131065
38.272335 56.266064 66.647064
7.6603365 38.592064 1.4350662
8.948337 39.925064 2.364067
5.9053364 38.602066 10.451065
3.8593366 38.206066 9.982063
11.819337 0.45106366 32.297066
13.407337 1.5350635 33.330063
10.833337 9.753063 33.807064
12.846336 10.024064 33.320065
18.579336 43.056065 44.959064
20.379337 44.265064 44.953064
23.329336 45.393063 38.479065
23.280336 43.009064 38.528065
4.9343367 11.250064 21.02507
6.9163365 9.267064 21.155067
7.0463367 6.7900634 14.4170685
8.449336 5.1800632 14.846062
9.9433365 55.834064 20.10707
11.788337 54.752064 20.51207
17.952335 53.617065 17.253067
18.240335 54.215065 14.369064
18.956337 22.834064 63.233067
19.777336 24.362064 61.921066
24.080338 29.500065 65.86307
25.624336 27.947063 65.33406
8.460337 27.007065 17.715065
6.7883368 25.861065 16.331062
1.5473366 21.914064 20.134064
0.74433666 19.706064 19.011063
25.268337 8.890063 56.981064
27.359337 7.9550633 57.430065
29.404337 2.1220634 53.251064
31.304337 2.7400634 51.674065
26.174337 48.640064 5.2990646
26.397337 50.110065 6.847069
34.286335 50.470066 5.279068
35.703335 52.102066 4.344063
11.328337 47.199066 29.281065
9.130337 48.174065 28.613064
8.658337 47.143063 35.492065
8.498337 47.367065 37.626064
8.713337 14.399063 28.175064
6.4203377 15.796063 28.431065
50.600338 13.261064 28.888063
50.798336 11.115064 29.879065
37.748337 69.58906 59.938065
39.878338 68.62306 60.322067
45.299335 3.4730606 56.075066
46.809338 1.5040588 56.264065
4.0003395 1.438057 14.122063
1.7863388 1.2360611 14.4780655
50.928337 8.41006 13.359062
50.253338 8.935061 11.274063
31.106337 47.171062 0.7830658
32.462337 47.931065 71.20906
28.050337 54.109066 1.8310623
26.806337 52.526066 3.0860672
4.0743365 66.40506 64.44406
4.8203363 64.658066 63.930065
10.218336 63.088066 69.53207
9.026337 63.241066 0.2810669
10.423336 60.783066 7.937065
12.4693365 62.246063 7.1860657
10.948337 61.309063 71.65106
12.4693365 62.471066 71.12106
43.39834 16.486063 60.936066
41.760338 17.149063 59.433064
46.664337 20.110064 54.242065
46.177338 21.503065 55.546066
7.7993364 46.846066 18.341064
9.784336 45.935066 17.822067
11.249336 46.939064 25.408066
11.246337 44.765064 25.882065
37.07834 35.213062 25.703064
36.180336 37.025063 26.800064
29.875338 39.175064 24.70607
30.127337 38.648064 22.712067
47.608337 65.54406 10.434067
48.071335 66.62406 12.5770645
44.37734 65.76206 18.975067
42.619335 63.944065 18.538063
40.499336 51.474064 33.835064
42.234337 49.886063 32.705063
42.265335 43.579063 37.274063
41.307335 42.780064 39.439064
36.286335 39.259064 4.189064
37.165337 40.882065 2.9640656
30.765337 45.153065 3.4920654
29.244337 43.972065 2.0180664
6.8353367 48.405064 11.519066
6.1283364 49.421062 9.701065
9.9693365 47.756065 4.430069
9.421336 48.955063 2.3330688
23.341337 10.974064 15.673065
21.545338 12.351064 15.4520645
16.069336 11.814064 20.019066
15.800337 9.847064 19.913063
37.157337 5.2580633 48.346066
38.40534 4.2270637 49.771065
39.031338 5.4260635 55.766064
40.26634 5.8100634 57.902065
5.7253366 14.554064 65.88406
7.0083365 13.4070635 64.80706
6.1903367 18.310064 59.966064
5.0183363 17.709064 58.007065
0.14633942 48.086063 9.830063
50.226337 47.146065 8.711067
47.233337 43.597065 5.126068
46.247337 44.073063 7.0810623
49.555336 60.980064 53.060066
50.88434 59.136063 52.982063
48.734337 52.466064 55.409065
46.793335 52.492065 54.730064
40.013336 50.746063 69.64107
41.475338 49.456066 69.449066
44.83534 44.519066 2.3960648
46.653336 45.473064 2.7870636
41.618336 61.796062 30.008062
40.314335 62.325066 27.973066
37.596336 65.52506 23.523064
38.153336 63.699066 22.70707
38.818336 18.640064 8.398064
36.883335 18.747065 7.4830627
36.388336 15.997064 0.20406342
37.061337 16.533064 70.09506
43.437336 67.161064 63.181065
41.906338 68.660065 64.66406
41.98834 6.0790663 63.983067
39.931335 6.976062 63.216064
49.414337 32.38806 66.98706
50.465336 34.119064 66.93206
45.434338 35.209064 71.35706
44.986336 34.385063 1.4680634
37.452335 10.224064 12.264069
38.78034 9.121063 13.490067
40.770336 3.6080635 15.895065
41.942337 2.9110634 14.002068
48.353336 14.0910635 58.547066
46.779335 15.772063 57.721066
45.277336 23.316065 59.699066
47.477337 24.487064 60.088066
50.246338 49.001064 41.949066
0.81933975 48.955063 43.239063
7.3723373 45.778065 40.935066
7.86034 44.423065 42.796066
14.434337 65.438065 42.693066
13.771337 64.144066 41.397064
14.354337 57.018063 46.537064
12.921337 57.880066 48.052067
27.366337 67.520065 13.636063
26.540337 65.41606 14.751068
29.512337 58.316063 15.936066
30.200336 57.398064 13.961067
6.28434 27.055065 14.119064
5.7103386 26.249063 12.456062
2.9983368 31.344065 7.7040634
1.9893379 30.174065 6.3650665
48.284336 45.545063 71.117065
49.964336 44.046062 70.950066
51.546337 44.301064 63.718067
51.001335 43.282063 61.391068
38.689335 46.870064 63.484066
38.562336 45.508064 62.062065
38.84934 40.601063 65.868065
40.40534 41.915066 66.80206
37.508335 33.084064 14.966064
37.424335 35.281063 14.119064
44.424335 35.626064 14.379066
44.344337 34.578064 16.197067
38.340336 24.556065 64.731064
39.137337 24.427065 67.175064
45.392338 25.524065 69.73506
46.268337 27.170065 68.39107
36.489338 24.268064 69.74506
34.747337 25.213064 70.23907
29.878336 30.002064 68.522064
29.300337 29.045065 66.39806
47.008335 23.145065 2.515068
46.180336 23.492064 0.005065918
41.232338 20.237064 67.09506
40.612335 18.757065 68.675064
25.873337 30.370064 7.588066
25.210337 32.119064 7.594063
25.076336 36.684063 12.290062
25.803337 36.288063 14.411064
7.1993365 9.544064 3.6330643
9.136336 10.084064 2.689064
14.914337 14.106064 5.1430664
14.919336 14.376063 7.6050644
39.864338 44.816063 13.443062
39.256336 44.653065 11.601067
42.653336 44.805065 5.231064
41.809338 43.018063 7.0280685
35.988335 3.0460587 50.883064
35.356335 2.8280563 48.455067
30.622337 66.42106 51.399063
30.631336 67.74606 53.563065
36.071335 53.379063 6.661064
37.541336 54.824066 6.5930634
34.953335 59.796062 7.489067
35.446335 59.259064 5.5610657
30.990337 18.515064 58.872066
28.637337 19.152063 59.501064
21.912336 17.096064 59.898067
21.874336 15.034063 59.051064
15.130337 40.900063 6.715065
15.523336 42.392063 8.840065
14.809337 40.486065 15.122063
16.445335 41.144066 16.106064
0.1933403 10.906064 14.2280655
49.543335 11.671063 15.149063
47.514336 8.366063 11.440063
48.104336 8.567063 9.117065
0.87633896 25.341064 25.480064
51.619335 26.021065 27.147064
1.9953384 20.905064 32.398064
1.4263382 18.691065 32.391064
40.052338 18.478064 29.062063
37.664337 19.225063 28.493063
37.367336 20.825064 20.83007
35.524334 21.284065 21.078064
31.601337 6.7610636 12.517067
31.696337 6.8290634 10.179062
35.327335 12.805063 11.493065
33.760334 14.322063 11.089066
31.108337 69.24206 70.68507
31.864336 67.44006 70.84806
32.792336 67.23606 62.755066
31.531336 65.14906 62.910065
30.364336 56.326065 64.21207
32.788334 56.057064 64.89307
31.428337 47.729065 66.23206
31.091337 48.206066 64.35107
32.327335 58.514065 3.7190628
33.017334 60.140064 4.9590683
25.861338 61.643063 5.2000656
25.335337 61.791065 7.102066
38.786335 69.61106 2.852066
38.938335 68.06906 1.0370636
37.312336 63.731064 5.6170654
38.93334 62.959064 7.3720627
40.01634 23.664064 10.214066
41.311337 21.905064 10.741066
46.664337 27.434065 11.375069
46.814335 29.570065 11.599068
44.422337 18.119064 19.484062
46.116337 17.622065 20.493065
50.918335 12.878063 18.978065
49.08534 12.593063 20.022064
22.018337 21.826065 8.8910675
20.345337 23.314064 9.343063
16.992336 15.784063 11.208069
16.665337 15.010063 9.482063
36.961338 41.262066 25.381065
35.549335 39.276066 25.673065
32.396336 38.394066 18.696068
31.196337 39.658066 19.470062
19.900335 5.2680616 66.54507
21.659336 4.8830566 65.65507
18.551336 68.80406 60.742065
19.959335 69.45206 59.071064
37.721336 46.777065 14.404068
37.147335 48.995064 14.345062
38.091335 56.179066 17.192062
39.939335 55.983063 17.981064
13.591337 2.7010574 17.164062
12.661337 2.6870575 19.073067
7.1113367 69.69206 15.212067
5.7203364 68.79306 16.129066
4.741337 36.310062 69.01106
2.4523392 35.704063 69.466064
48.393337 39.066063 71.24706
47.193336 39.637066 69.27906
21.982336 61.959064 3.6990662
23.076336 62.088066 5.170067
20.275337 63.606064 12.247063
18.428337 62.881065 11.472069
24.589336 55.281063 44.354065
23.891336 53.797066 46.095066
17.123337 57.587063 46.849064
16.153336 59.164062 47.605064
35.985336 25.703064 62.086067
36.133335 23.909065 63.359066
31.005337 20.955065 59.763065
29.466337 21.522064 61.620068
40.541336 19.943064 63.908066
42.247337 18.463064 64.44506
48.588337 17.038063 62.370068
50.227337 15.796063 63.414066
40.25234 17.840063 61.601067
38.964336 18.012064 62.821068
32.085335 16.154064 59.846066
33.045338 15.601064 58.167065
34.085335 34.463062 56.022064
34.029335 32.527065 55.325066
34.839336 35.872063 48.007065
33.968334 38.004063 48.117065
18.962336 57.119064 6.3220673
19.220337 59.655064 6.5810623
18.441336 62.950066 71.16907
20.121336 62.169064 69.41506
50.285336 67.00206 25.158066
50.878338 66.074066 23.047066
3.1363373 67.37706 17.262062
3.6703377 69.35506 17.886063
16.538336 35.834064 19.869064
15.020337 36.396065 21.577065
14.583337 41.757065 24.379066
14.406337 42.519066 26.60707
7.3113365 2.7680588 14.151062
8.604337 2.1290588 12.690063
2.4603364 0.39205933 7.7850647
1.7013364 68.66506 8.729065
40.042336 0.20105743 69.77306
42.03734 0.276062 70.353065
47.07834 66.453064 66.64806
48.326336 67.56806 64.882065
1.8933372 31.320065 23.03807
1.5233383 32.588062 21.05307
47.876335 36.87406 17.519066
45.635338 35.673065 18.251068
26.140337 43.858063 54.783066
25.393337 42.554066 55.845066
24.320337 36.535065 50.378063
23.499336 35.08906 51.904064
10.299336 37.197063 22.444069
12.597337 36.834064 23.297066
11.758336 28.475065 25.129066
12.960337 29.181065 23.198067
27.066338 1.790062 54.433064
26.785337 69.76006 54.835064
19.602337 67.62206 57.155064
18.646336 69.09606 55.096066
5.6413383 21.917065 5.7870636
6.18034 22.170065 3.7330627
0.6403389 20.577065 0.3360672
50.830338 21.838064 71.269066
0.97633743 9.580064 7.5350647
1.7343369 8.805063 5.616066
46.802338 10.316064 1.1750641
46.843338 8.185063 0.814064
9.275336 24.763063 53.509064
11.398336 24.702065 53.118065
13.904337 18.261065 55.818066
13.332336 18.662064 57.918064
18.680336 8.917064 4.1980667
16.495337 9.188064 3.5740662
14.349337 3.6340635 9.338066
12.684337 3.6060634 8.339066
11.013336 7.3640637 1.2750626
9.637337 8.385063 0.4670639
11.619336 14.932063 70.03906
11.699336 17.093063 71.30206
5.7963367 52.262066 54.136066
7.5803366 51.485065 53.329063
5.6023364 52.784065 45.720066
5.0053363 54.974064 45.198067
23.706337 54.812065 61.129066
24.323338 55.719063 63.236065
30.795338 59.775063 62.551067
31.473337 60.893063 64.41806
13.1013365 26.742064 26.531065
11.123337 25.598064 26.770063
13.649337 22.358065 32.419064
15.657337 21.678064 33.646065
35.361336 39.284065 50.587067
35.758335 40.834064 52.235065
43.040337 41.116066 47.802067
42.438335 39.525063 47.190063
2.6813393 21.130064 49.678066
1.7973366 22.428064 50.917065
49.767338 27.528065 49.130066
47.364338 27.052065 49.912064
15.656337 9.2160635 71.03806
17.918337 9.620064 71.439064
18.320335 14.357063 65.85906
20.138336 15.649063 66.255066
1.7113364 1.6440635 67.452065
1.3903365 3.8800635 66.58707
7.221337 7.1190634 70.58406
6.860337 8.691064 71.40707
39.48834 43.622063 33.756065
39.28734 42.145065 31.904064
40.666336 37.799065 28.809065
38.45334 37.910065 27.784063
48.646336 59.463066 70.76506
50.494335 60.468063 70.43507
3.482338 55.506065 0.7770691
2.699337 53.801064 70.853065
3.2363396 66.44806 54.526066
3.3593369 64.11206 55.600063
50.22434 63.099064 60.978065
50.456337 61.539062 59.464066
7.2173367 46.827065 8.777069
8.728336 46.178066 10.307068
14.835337 44.195065 7.314064
15.368337 43.141064 5.001068
8.381336 56.677063 9.810066
9.352337 57.652065 8.656067
13.999337 54.267063 5.003067
15.587337 54.898064 3.1340637
29.815336 69.33206 62.640064
29.583336 67.08406 62.759068
28.227337 67.41606 55.118065
26.455338 66.714066 55.705067
23.590336 37.058064 7.175064
22.254337 35.220062 6.694069
16.668337 32.203064 8.980064
15.842337 31.825064 6.9940643
28.934338 21.662064 5.0060654
30.906336 21.779064 3.8500671
35.078335 27.855064 5.9260635
35.004337 30.201065 5.7660675
49.663338 12.740064 55.100063
47.46034 12.353064 56.179066
47.846336 9.393064 63.748066
49.297337 7.1170635 63.508064
9.766336 25.966064 69.84806
11.156337 25.389065 68.396065
13.886336 19.343063 69.06506
12.257337 17.854063 68.87406
14.583337 27.493065 40.523064
14.498337 26.598064 42.588066
19.451336 22.728064 44.423065
18.582336 22.162064 46.422066
32.538334 4.1230636 13.170067
34.764336 5.0550632 13.768066
40.539337 6.7540636 11.236069
39.559338 9.060063 10.855064
49.316338 29.747065 65.67606
48.557335 29.090065 67.26607
3.25634 30.140064 69.952065
3.1893387 32.195065 69.42906
46.788338 21.518064 5.795067
48.441338 22.805065 4.8720627
2.2343369 18.066065 4.489067
3.0573387 15.506063 5.0200653
27.299337 68.56007 63.817066
26.371336 67.092064 64.28706
25.522337 67.97106 71.563065
27.034336 68.54506 1.852066
10.330337 21.456064 3.2110672
9.212337 21.373064 0.927063
3.2083366 16.585064 0.6930618
2.2313366 18.717064 1.5600662
41.020336 6.0410643 6.554062
41.524338 6.819064 8.676064
42.25934 69.41606 10.196068
43.74534 67.840065 10.363068
17.003336 29.156065 2.5280685
15.402337 28.824064 4.290062
18.591337 28.009064 10.901062
17.027336 26.331064 11.318062
3.8923378 9.317063 23.203064
2.4383392 9.452064 21.74607
51.267338 2.0330634 20.993065
50.818336 1.2850635 22.73507
41.621338 11.814064 71.229065
40.063335 12.801064 69.96906
32.393337 12.166063 70.60107
31.866337 10.299064 70.41206
43.739338 15.045063 4.2380676
43.951336 14.399063 6.408066
42.35634 21.781065 8.212067
43.685337 23.141064 7.501068
44.959335 38.684063 62.818066
45.28034 36.525063 63.993065
40.885338 33.650063 59.183064
38.84234 33.419064 58.969067
4.008339 52.343063 57.056065
4.551338 53.311066 59.452065
0.5073395 49.555065 64.453064
0.40833664 46.997063 64.630066
18.460337 51.834064 11.111069
16.978336 51.399063 9.626068
10.589336 51.922066 14.297066
10.3773365 53.679066 15.951065
18.185337 41.500065 8.971062
19.708336 40.326065 8.451065
14.951337 34.46406 11.645065
15.435337 34.168064 13.816063
2.8603365 29.921064 65.23907
4.5573363 29.097065 63.501064
10.486337 28.802065 59.499065
10.417336 26.822063 60.621067
9.175337 43.139065 65.507065
8.360336 40.955063 65.27506
4.9323363 41.068066 0.08706665
6.3393364 40.945065 1.2680664
17.157337 27.283064 0.44306183
16.044336 28.725065 71.47306
14.562337 23.128065 65.61006
16.110336 22.828064 64.31007
7.360337 36.312065 10.043068
5.5433364 35.055065 10.471062
8.083337 29.131063 15.4780655
8.513336 29.759064 17.370064
21.116337 20.576063 64.80406
20.768337 20.973064 62.450066
28.656336 19.530064 64.17806
28.383337 18.311064 62.199066
8.854337 57.660065 71.55406
9.781337 57.204063 69.505066
15.813336 52.671062 68.87206
17.358335 53.840065 68.34406
2.336338 64.58406 62.683067
1.2743378 63.029064 63.696068
0.16933823 68.342064 70.64107
2.0993385 68.16506 70.895065
8.512337 50.356064 15.264069
7.515339 52.600063 16.129066
0.3013382 49.838066 16.188065
51.036335 48.639065 18.105064
9.174336 38.179066 70.77606
10.325336 37.632065 68.97507
14.246337 30.516064 69.297066
15.325336 31.171064 71.44306
11.118337 43.867065 44.371063
9.687337 45.625065 44.666065
11.108336 44.431065 52.068066
9.183336 44.313065 53.565063
4.121338 44.280064 61.598064
4.2363396 46.534065 60.920067
0.97834015 50.007065 55.628063
50.442337 50.053066 55.582066
47.236336 26.390064 27.776064
48.819336 25.816065 29.922064
46.725338 32.019062 34.056065
45.598335 31.138063 36.183064
34.427338 18.113064 10.957062
32.993336 20.121063 11.116066
34.233337 26.623064 14.771065
33.229336 26.750065 12.691063
40.630337 11.693064 56.152065
38.825336 11.464064 54.557064
43.019337 9.774064 47.152065
41.547337 7.9280634 46.191067
49.978336 46.510063 43.424065
47.778336 48.100063 43.103065
44.650337 47.918064 40.528065
42.348335 48.627064 40.323063
1.0373383 18.778065 46.360065
51.257336 17.047064 45.765064
48.449337 12.188064 50.598064
51.110336 11.862063 51.251064
46.69734 51.435066 3.8370667
45.017338 49.955063 3.6360626
47.725338 46.393063 9.745064
48.656338 47.337063 11.412064
47.817337 18.995064 45.686066
46.782337 17.886065 47.508064
47.442337 11.974064 46.909065
46.309338 11.254064 49.277065
10.117336 0.6040573 35.687065
12.176336 0.16506195 35.360065
15.104337 66.07206 39.861065
16.512337 66.47206 38.018063
40.432335 57.674065 65.68206
38.804337 58.213066 64.61006
40.196335 66.535065 63.419067
41.219337 66.25206 61.557064
35.234337 51.134064 17.473068
34.672337 49.673065 15.705063
28.280336 55.027065 13.092064
29.273336 55.402065 10.885063
39.827335 14.280064 55.386066
41.902336 14.244063 56.033066
47.378338 12.871063 53.171066
46.840336 10.882064 52.650066
4.600338 7.8380637 57.215065
4.310337 6.3660636 59.274063
48.393337 5.1810637 59.839066
47.082336 3.8140635 58.104065
42.861336 49.492065 67.17107
45.084335 48.836063 68.52306
49.704338 48.271065 63.640064
49.950336 49.249065 61.954067
41.869335 32.636063 55.644066
39.673336 33.079063 56.189064
36.119335 38.705063 55.127064
34.339336 38.357063 52.956066
40.269337 54.921062 4.963066
39.866337 57.198063 6.1500626
46.175335 58.676064 3.6150665
47.37034 58.882065 1.8240662
2.1463394 57.908066 68.41706
2.0993385 57.983063 65.58507
48.67634 52.534065 64.18407
47.603336 50.722065 64.855064
30.060337 8.78506 68.75207
31.123337 7.710063 70.00207
30.895336 2.0930634 0.21806335
29.848337 1.5290604 69.770065
1.3093364 35.341064 66.92107
3.0913365 34.70706 65.590065
5.2003365 39.161064 60.943066
6.2923365 40.773064 60.801067
22.058336 32.854065 0.24306488
23.600336 33.45006 1.9920654
26.534336 38.837063 69.74606
26.246336 38.576065 67.423065
37.862335 69.76706 13.865067
37.583336 68.54406 11.757065
38.52334 5.056061 6.2850647
38.189335 3.9590607 4.2280655
32.181335 19.444063 7.6050644
31.613337 19.829063 5.6030655
34.763336 22.684065 71.42806
33.061337 22.449064 70.18507
6.1133366 21.205065 52.171066
7.0873365 23.270065 53.075066
7.4963365 29.158064 48.741066
9.425337 28.432064 47.395065
1.87434 31.153065 3.677063
0.18533707 29.521065 3.7100677
45.427338 28.602064 70.42806
45.115337 30.695065 69.866066
34.686337 1.3850632 1.6790619
36.313335 0.8800583 3.1250687
38.761337 65.633064 7.0470657
39.754337 65.602066 8.7020645
24.524336 0.8400574 36.693066
25.925337 3.1210632 37.063065
26.149336 4.167061 44.894066
28.373337 5.611064 45.216064
38.838337 30.798065 54.980064
38.199337 29.894064 57.274063
43.185337 26.210064 60.382065
42.25234 24.742064 62.199066
14.638337 62.028065 48.917065
12.777337 62.285065 50.046066
10.139337 65.49706 44.368065
11.330337 65.36006 42.331066
23.768337 37.964066 17.486069
25.300337 39.251064 17.951065
28.269337 45.889065 17.743065
26.718336 46.453064 18.820068
36.222336 30.437065 3.4590683
34.387337 29.460064 2.0450668
31.582336 34.286064 69.29206
29.403337 33.586063 68.63906
45.788338 59.488064 36.983063
43.711338 58.749065 37.650066
39.753338 62.444065 31.675064
39.006336 64.60806 32.392063
45.851337 19.444063 49.389065
43.414337 20.146065 50.092064
38.475338 14.997064 51.226067
36.910336 14.986063 49.753063
36.147335 27.341064 1.8630676
36.60634 25.813065 0.3440628
39.811337 21.562065 6.719063
38.807335 21.296064 9.178062
38.424335 28.129065 0.2210617
39.404335 29.739065 0.154068
36.441338 36.539062 68.65607
35.866337 36.255062 67.078064
38.378338 46.048065 59.129066
37.271336 44.539062 59.690067
39.533337 38.628063 62.759068
40.917336 39.570065 64.16907
19.318336 16.642063 58.568066
19.213337 16.761065 56.313065
21.108337 23.454063 57.205067
22.325336 24.119064 59.281063
38.075336 49.960064 1.6260681
37.41234 51.786064 2.0870667
45.393337 53.709064 3.1180649
45.951336 53.287064 0.78406525
43.923336 47.885063 49.068066
42.73134 48.711063 51.166065
37.309338 53.645065 51.636066
35.101337 52.812065 51.089066
25.352337 50.457066 10.834068
26.738337 48.536064 11.624062
33.870335 51.681065 10.250069
35.087337 50.397064 8.369064
34.560337 62.316063 8.410065
35.090336 62.286064 6.2090683
34.453335 66.297066 71.284065
34.481335 64.494064 70.26607
28.631336 6.6610637 10.3530655
28.016336 8.670064 9.576065
26.763336 10.927064 15.841064
27.319336 11.529063 17.636063
21.011337 23.504065 48.942066
21.602337 22.837065 46.442066
24.642336 15.215063 49.002064
23.539337 13.991063 47.525066
27.386337 27.468065 67.33006
25.971336 28.732065 69.04407
26.506336 29.487064 4.510063
26.448338 31.403065 5.251068
41.547337 19.417065 40.918064
39.547337 18.788063 40.723064
34.864334 19.065063 46.694065
34.572334 20.615065 48.144066
48.235336 0.4900589 54.233067
46.631336 69.22106 54.312065
50.506336 62.997063 55.230064
1.3483391 62.448063 54.473064
42.154335 17.958063 13.590065
42.381336 17.843063 11.435066
42.282337 8.915064 10.421066
42.614338 9.1170635 8.550064
12.262337 20.313065 41.157066
14.008337 19.332064 42.785065
20.284336 19.945065 39.671066
21.339336 20.153065 37.689064
6.0823364 32.469063 69.35706
4.9813366 33.55406 67.91606
10.7523365 38.002064 63.781067
10.440336 37.134064 61.296066
31.556337 45.922066 18.220062
30.019337 46.023064 19.958069
33.221336 40.489063 25.548065
32.902336 42.583065 27.19207
34.321335 56.693066 4.5210648
35.877335 56.098064 5.2500687
40.76634 57.375065 69.99506
42.772335 57.687065 0.0880661
44.839336 33.576065 12.673065
44.404335 32.543064 14.902069
40.69034 27.459064 11.533066
38.617336 26.267065 12.272064
40.923336 44.537064 63.044067
41.989338 46.640064 61.969067
44.823338 41.784065 56.244064
44.161335 40.677063 54.796066
6.4933367 27.431065 3.5740662
6.4443364 29.694065 3.2040634
5.3083367 32.934063 8.004066
5.2853365 35.437065 7.840065
30.433336 12.352063 0.6240616
30.171337 14.290064 0.25006866
23.239336 16.419064 0.016067505
22.094337 15.189063 69.939064
36.729336 13.831063 47.312065
36.098335 16.369064 47.085064
33.170338 16.329063 39.519066
34.564335 18.144064 38.222065
34.013336 7.4790635 67.869064
34.676334 5.8930635 66.16907
36.350338 3.8510635 59.390064
38.612335 4.3200636 59.590065
36.859337 64.367065 54.710064
37.497337 62.450066 54.042065
28.962337 63.018063 54.214066
29.141336 61.392063 53.026066
14.789337 55.379063 63.856068
15.111337 57.738064 64.44106
18.532337 62.185066 67.33206
19.196337 63.970066 66.40206
11.341336 3.8410568 69.298065
12.154337 1.7420578 70.05706
17.407337 4.4330597 67.49906
17.337336 6.5030622 67.97306
9.916336 55.255066 24.603065
10.446337 54.286064 22.827065
8.575336 49.306065 18.311066
10.141336 48.598064 16.693062
4.4273367 53.741066 3.227066
5.8283367 54.363064 1.6300659
13.387337 52.439064 2.8710632
14.761336 53.119064 1.2220688
16.597336 33.10306 52.190063
18.602337 34.414062 52.681065
19.281336 35.538063 60.179066
21.198338 37.024063 60.067066
25.199337 34.843063 7.069069
27.632338 35.389065 7.0960617
28.082336 39.442066 0.22706604
27.879337 41.781063 0.7470627
13.463337 19.174065 20.091064
13.957336 17.545063 21.41407
8.218337 15.353064 25.69207
6.1223364 16.486063 25.62407
10.747336 17.990065 6.1030655
11.709336 16.670063 5.267067
5.1363363 12.586063 2.9710617
6.425337 10.885063 1.4630661
24.350336 52.228065 61.353065
25.069336 51.632065 63.446068
19.312336 49.873066 68.59606
18.223337 49.203064 67.00906
39.392338 64.05406 52.787064
38.102337 65.31706 50.820065
39.19034 1.186058 46.757065
39.758335 2.6780624 48.039066
23.418337 31.985064 50.848064
21.969337 30.594065 49.628063
16.010336 29.137064 53.687065
14.086337 27.437065 53.713066
33.733337 36.473064 71.46806
35.901337 37.058064 71.42107
42.540337 35.764065 1.1700668
42.61334 37.755066 2.8480682
46.59934 37.928066 36.581066
47.03734 38.821064 38.519066
50.165337 35.809063 44.340065
51.390335 34.130062 43.826065
21.136337 25.682064 46.598064
19.116337 25.360064 45.226067
13.359337 26.619064 49.935066
11.217337 26.620064 48.846066
12.629336 31.882065 3.3410645
10.649337 32.240063 4.1080627
5.3753366 34.153065 71.23706
3.1913366 34.021065 71.463066
20.745337 31.685064 67.672066
22.467337 32.253063 67.536064
23.667337 39.712063 69.14906
22.980337 40.717064 67.50006
22.337337 24.239065 32.216064
20.840336 25.811064 31.853064
14.898336 28.138063 28.725063
16.080336 28.952065 26.972065
23.835337 11.681064 5.3490677
24.626337 13.491063 3.930069
23.782337 18.753063 8.934067
24.556337 20.097063 10.777069
20.603336 66.980064 0.18406677
21.019337 64.66206 0.4760666
24.626337 61.300064 66.744064
22.825336 59.356064 67.40006
12.613337 13.171063 47.839066
10.729337 11.754064 47.996063
13.276337 4.5220633 46.978065
14.873337 2.9660635 46.623066
41.323338 12.195064 67.631065
43.588337 12.095063 67.69707
49.182335 13.409063 63.401066
48.07834 14.480063 61.862064
29.024336 58.439064 50.735065
28.731337 58.665066 48.502064
35.298336 53.938065 48.400066
36.958336 55.099064 49.271065
11.803336 33.812065 14.218063
9.715337 34.789062 13.614067
8.203337 38.767063 21.390068
6.3633366 37.973064 21.973068
44.439335 23.198065 62.311066
45.427338 25.354065 61.597065
43.219337 28.610064 65.49506
44.125336 29.249063 67.43106
3.7813377 19.410065 61.445065
3.2193375 18.978064 59.632065
49.33534 21.057064 54.779064
49.50234 23.417065 55.498066
14.358336 5.0260634 22.94207
11.925337 4.4350634 22.937065
14.104337 8.931064 28.967062
13.081337 8.017063 30.727064
27.916336 21.726065 2.6320648
29.694336 21.631063 1.3500671
30.714336 15.387063 69.576065
32.699337 14.675063 70.31506
1.074337 22.841064 69.66506
1.5803375 23.836065 67.93307
5.2543373 19.548063 63.603065
5.2223396 16.802063 64.49806
10.604337 17.283064 54.910065
9.245337 16.461063 56.090065
9.357336 11.343063 61.038067
10.220337 9.763063 60.186066
12.527337 1.4560623 46.017063
11.345337 2.9110565 47.983067
14.791337 5.6480665 51.073067
15.7853365 4.8050613 52.553066
29.130337 58.593063 53.436066
31.410337 58.907063 53.270065
36.339336 58.593063 57.877064
35.378334 57.577065 59.357063
10.939337 37.033062 47.884064
9.781337 36.217064 46.255066
12.509336 31.552065 40.496063
11.387337 32.026062 38.934063
23.436337 10.128063 47.279064
24.075336 9.922064 45.065063
29.156336 9.161063 40.877064
30.051336 10.889064 42.578064
39.70334 45.477066 46.896065
39.041336 46.734066 48.546066
32.859337 48.401066 51.496063
31.709337 47.366066 53.189064
45.152336 12.457064 70.12406
43.330338 13.578063 70.13906
47.465336 19.105064 2.8880615
