1.2140396 59.046906 29.551405
2.7550397 60.524906 28.062405
3.7920396 66.63891 30.533405
5.6380396 68.2759 30.210405
19.27804 19.804905 15.740402
17.384039 18.792906 16.668404
20.370039 12.050905 13.3824005
22.04804 13.062904 14.7314
10.45904 20.804905 32.970406
8.387039 21.257904 32.872406
10.55804 28.609905 34.770405
8.015039 28.698904 35.054405
12.95504 9.139905 49.341408
14.18304 11.257905 50.114407
11.04204 16.877905 49.719406
9.611039 15.603905 50.770405
9.03904 23.761904 20.277397
8.196039 22.016905 20.402397
10.335039 17.233906 16.0794
10.272039 17.682905 13.779404
24.13504 2.3059082 59.48541
25.14704 4.438904 59.376408
21.82304 4.776907 66.28541
21.46804 2.644905 67.39841
2.5160396 25.018906 23.597406
0.82203954 25.977905 24.861406
-0.7449604 18.635904 26.901405
0.6390396 17.274904 25.855406
24.39904 54.854908 40.123405
25.47404 56.697906 40.300407
29.05004 57.332905 37.959404
29.76204 59.390907 38.961407
5.8320394 5.754904 0.41339874
3.5330396 6.0279064 72.053406
0.92903954 68.25291 0.7834015
-0.9529604 68.05891 1.407402
29.964039 47.685905 36.134407
29.308039 45.969906 34.828407
22.93404 43.248905 32.556404
21.55604 44.564907 33.641407
42.24704 35.579906 29.493406
43.702038 37.189907 30.167406
51.11704 37.738907 28.118406
50.67104 38.661907 26.049406
11.10804 50.90991 31.663406
10.328039 52.089905 29.905405
11.10604 48.099907 22.739405
13.24704 48.014908 22.002405
39.19904 61.896908 15.753403
36.88604 61.601906 14.985405
37.05104 65.783905 8.354401
39.04404 66.993904 8.595406
50.03704 59.81991 25.803406
50.03004 61.880905 26.606405
48.12404 63.505905 32.317406
45.99604 62.78491 32.798405
41.39004 67.769905 15.5214
42.46704 68.2049 17.347397
38.59704 68.59791 23.210403
37.67304 67.02791 24.514399
28.662039 5.5469036 64.291405
29.627039 7.3109035 65.9754
33.64504 3.8419037 71.972404
31.912039 2.0059052 0.7914047
27.75704 26.227905 29.625406
28.488039 28.000904 28.832405
29.99004 33.225906 26.865406
31.16404 32.273907 25.163406
45.00804 53.362907 20.931396
45.917038 52.054905 19.156403
42.05204 55.466908 13.5774
41.75904 54.389908 11.875404
43.55504 35.008907 62.947407
41.48104 35.156906 63.663406
37.39204 30.270905 68.60541
38.31704 30.689905 70.4894
40.848038 64.05591 4.8524017
42.52204 64.853905 4.2084045
45.417038 0.0539093 0.33940125
44.03104 1.1869049 0.2624054
25.44904 28.773905 7.638405
26.43404 30.616905 6.1604004
30.55504 36.107906 6.391403
31.679039 36.454906 8.417404
0.2770396 58.408905 27.172405
2.8280396 58.879906 25.849405
5.8800397 57.347908 21.832405
7.52304 58.671906 21.223406
28.85804 25.799904 14.186401
30.05004 27.477905 13.1614
36.83104 29.745905 14.898399
37.13404 31.854904 14.787399
21.76004 21.981905 7.631401
23.57404 21.120905 6.798401
22.808039 15.684905 11.432404
22.00104 16.032906 13.735405
28.63904 14.324904 4.4364014
30.926039 14.368905 3.8624039
36.68404 12.050905 71.6434
36.32604 10.148905 71.5334
39.72404 33.448906 5.218399
39.41804 34.114906 3.409401
35.38804 39.302906 72.014404
34.63504 41.000908 0.8784027
1.0910378 7.0909047 41.248405
51.46004 9.141905 41.441406
0.53403854 4.005905 46.090405
51.04504 3.331905 44.475407
3.0590396 60.000908 4.723404
5.1210394 59.831905 3.457405
4.6690392 55.431908 69.055405
2.6940396 56.681908 67.59341
22.301039 55.163906 26.779406
22.117039 55.429905 24.766405
23.29904 60.436905 19.205399
22.686039 59.517906 17.552399
44.06404 8.248907 39.027405
44.11504 7.8109035 41.288406
46.58804 1.0489044 43.971405
46.53604 0.22290802 46.165405
46.33904 28.181904 45.241405
44.42304 28.705904 44.026405
39.17304 25.799904 43.189407
36.78104 26.643906 44.153408
47.13004 48.245907 8.145401
45.83904 50.06991 8.440399
48.28804 54.901905 3.3594055
48.12304 56.873905 3.5274048
2.1450386 30.931904 13.574402
51.85604 31.574905 15.144402
49.70804 33.060905 8.073402
50.63404 35.153904 8.346405
48.84204 55.031906 11.404404
48.15704 53.640907 9.413399
51.57104 48.398907 6.7883987
0.46003723 46.573906 7.582405
40.55304 68.795906 25.208399
42.61004 67.80591 25.120401
47.32204 67.22591 19.542397
46.85304 66.005905 17.3014
21.01504 65.826904 22.099403
21.47904 67.574905 21.395401
28.06404 67.05791 20.125397
29.87204 68.94791 19.825401
26.259039 16.426905 16.907402
25.25004 16.223906 14.836403
28.45104 14.017904 9.2164
28.05204 15.470904 7.254402
17.822039 6.236906 31.671406
19.11604 4.4739075 30.699406
21.09404 0.28390503 30.024406
22.73904 69.270905 29.107405
-1.5009604 42.289906 44.457405
-1.1829604 43.607906 46.676407
1.5200396 50.352905 44.939407
4.1360393 50.204906 46.021408
34.38404 58.935905 14.6584015
34.36104 57.682907 12.970406
32.653038 62.684906 6.7794037
33.44404 61.181908 5.312401
32.87604 49.651905 37.780407
34.85004 49.50691 38.061405
31.56704 43.621906 37.663406
30.39404 43.705906 35.981407
18.28104 10.832905 23.2994
18.96604 11.5279045 21.221397
18.64204 18.691906 19.485397
16.48004 17.934906 19.294403
39.50804 39.142906 16.991402
40.99304 39.924908 15.6064
37.70104 46.386906 17.228401
37.202038 46.022907 19.2174
33.070038 24.262905 18.2594
34.570038 22.788904 18.985397
39.52204 28.128904 17.000397
38.00804 30.160904 17.2734
10.687039 9.610905 33.804405
11.9090395 7.8409047 35.431404
18.04904 9.466905 31.068405
19.91504 9.689905 32.461407
23.707039 11.028905 70.7824
22.84804 10.0349045 0.607399
19.31904 3.1939049 68.9744
18.85004 4.552905 67.6434
12.48004 47.168907 33.503407
13.774039 48.387905 34.664406
12.22404 46.532906 41.543407
12.75704 48.301907 43.181408
16.61504 57.636906 4.5594025
16.21004 59.100906 6.3004
17.134039 57.271908 13.777405
17.62504 54.789906 13.973404
36.55504 52.217907 3.1623993
36.56604 50.245907 4.989403
40.90904 52.313908 10.406403
39.56004 51.99991 12.135399
25.72304 51.043907 61.120407
24.57604 51.443905 59.32641
25.80204 50.342907 51.355408
26.443039 48.357906 51.756405
0.9560394 55.811905 55.736404
0.43404007 54.202908 55.165405
45.64904 51.106907 55.588406
46.188038 49.82691 54.344406
17.70204 24.912905 10.997398
17.08304 24.529905 13.205399
13.02004 18.768906 15.615402
12.72604 16.487906 14.746399
7.45104 51.419907 29.080406
5.9140396 52.733906 30.620405
2.9530396 58.04891 31.278406
2.8160396 58.320908 33.815407
28.18704 47.540905 29.811405
30.56004 47.422905 29.476406
35.42504 46.269905 26.677406
33.74204 44.486908 25.982405
42.98104 5.398905 32.494408
43.42604 6.6499047 34.555405
50.80304 6.332905 34.215405
49.98104 4.1239047 34.626408
37.64504 20.703905 35.295406
37.84504 18.437904 35.453407
40.44404 18.276905 29.340406
42.47804 17.104906 27.811405
42.62404 69.01091 13.4693985
42.25804 0.043907166 11.293404
43.40404 5.0239086 6.919403
42.49604 5.7479076 8.429405
17.39704 3.4909058 3.7674026
16.98404 1.3809052 2.8234024
18.32304 66.7039 8.310402
20.17804 65.924904 8.974403
4.7480397 57.064907 18.638397
5.9890394 59.068905 19.228401
10.16204 65.00291 17.5904
8.568039 66.4549 16.7864
11.49004 36.519905 34.611404
10.30604 35.983906 36.766407
6.5940394 39.913906 41.593407
5.3020396 38.125908 42.096405
16.888039 27.630905 9.416405
17.561039 29.227905 7.426399
18.02004 34.684906 13.151405
20.08704 34.589905 13.225403
21.18504 41.668907 23.059406
20.71304 42.376907 25.590406
14.46604 39.031906 27.045406
14.37904 37.577908 28.888405
14.564039 18.349905 25.848398
16.069038 19.329905 24.0404
16.548038 26.446905 20.4264
14.071039 27.334906 20.611397
2.1350396 11.341905 33.119408
0.8940396 12.878904 31.694405
5.2570395 10.771905 25.796406
5.1040397 10.176905 23.510405
25.49004 19.626905 38.181404
24.04304 20.400906 36.326405
20.28504 27.337904 37.614407
22.280039 29.237906 36.942406
31.898039 3.498905 47.521408
29.92104 2.754905 47.438408
27.56404 8.375905 41.837406
25.91104 9.504905 42.63941
28.10504 0.85990906 14.403404
28.06004 1.1029053 16.611397
27.148039 6.7539043 20.504402
25.17404 7.752905 20.848396
6.7790394 64.059906 3.2743988
7.9790397 64.37791 5.603401
7.5150394 0.8819046 9.3964
9.446039 1.2929077 8.040405
6.3580394 23.937904 22.571404
4.1140394 23.872904 21.7024
4.3790393 28.304905 15.8694
4.8960395 30.802904 15.4664
13.95204 36.920906 33.819405
15.90304 38.454906 34.401405
14.54404 41.93791 28.250406
16.53204 41.968906 27.263405
0.80803955 29.873905 43.708405
2.1580396 31.446905 43.804405
4.0320396 29.582905 37.165405
4.7750397 30.389904 34.989407
4.8940396 53.484905 14.029404
3.9950395 55.668907 12.608398
2.0080395 56.254906 18.871399
2.9890397 53.79891 19.266403
0.55503845 7.102905 24.583399
51.25204 8.982905 26.405405
44.584038 8.798905 21.566399
44.53404 10.296905 20.263397
22.672039 29.352905 30.120405
21.07904 28.414906 29.912405
24.42504 21.718904 25.765406
25.66104 20.567905 26.550406
5.9170394 14.758904 28.804405
3.8680396 15.327905 27.822405
8.383039 19.703905 21.805405
6.6310396 20.041904 21.416405
33.89304 19.038906 67.62041
33.75404 21.189905 68.485405
37.01904 26.207905 66.473404
38.83804 27.086905 66.5604
31.53804 12.476905 13.198402
30.877039 12.173905 11.264404
31.41604 4.297905 12.0494
29.26704 2.971905 12.652405
18.73404 66.76691 20.989403
16.91604 68.30691 20.279404
12.45904 64.19791 15.613403
12.045039 65.9959 15.4114
15.25404 2.099907 33.835407
15.37004 2.4679108 35.811405
9.20904 5.955908 38.880405
9.703039 8.125906 38.903404
45.62504 49.355907 19.991402
46.92604 49.050907 18.733398
41.65204 50.081905 11.875404
42.848038 49.518906 10.423401
6.0340395 3.9259033 68.57541
5.2490396 2.1769104 66.71541
-1.6219604 0.25991058 67.4494
-3.3639603 1.6259079 67.42641
4.3060393 32.398907 45.275406
4.8090396 30.772905 44.252407
5.7160397 28.726904 39.974407
6.1500397 27.446905 38.195404
4.3360395 46.883907 35.888405
6.4870396 46.655907 34.583405
11.9750395 43.15991 39.463406
10.911039 41.657906 38.150406
28.15204 53.512905 22.422401
28.99304 52.934906 24.404406
36.70804 50.980907 23.107399
37.15704 49.640907 21.7184
51.799038 0.93090487 35.445404
51.85004 3.324905 36.215405
48.64504 8.454905 40.902405
48.50204 9.781905 39.062405
10.0930395 16.173904 70.5994
10.74504 16.180904 0.39640045
15.28504 21.362906 0.8423996
14.84604 21.965904 2.7344055
19.91504 50.170906 20.617401
19.59104 49.075905 22.733398
23.26004 43.387905 24.722399
23.08004 43.118908 26.815401
9.880039 10.5279045 27.629406
10.074039 10.590905 25.354406
9.1000395 17.984905 29.116405
10.77104 17.407906 30.728405
14.5010395 60.355907 26.344406
13.868039 62.456905 25.265406
13.63104 66.282906 31.803406
14.70704 68.5819 30.950405
15.69004 62.357906 23.103401
14.50404 60.660908 22.780403
9.939039 56.090908 18.8134
10.78304 56.934906 17.110397
48.688038 22.618904 31.953405
50.49304 23.269905 31.951406
1.4690399 21.680904 38.897408
3.4020386 22.874905 38.679405
40.57604 38.55591 20.182404
39.46904 36.566906 18.861397
45.45004 32.378906 21.764397
47.65504 32.061905 21.877403
19.287039 38.886906 45.171406
18.43404 40.836906 44.413406
16.499039 41.522907 52.884407
18.09304 42.884907 53.030407
19.81904 34.751907 57.225407
19.50704 32.546906 57.516407
21.79504 29.989904 64.2264
23.721039 29.931904 65.0014
1.0820389 4.350905 7.5923996
51.278038 5.917905 8.151405
0.11303711 13.396905 10.316399
1.5290375 12.637905 11.887405
0.58503956 64.06991 2.3614044
0.83903956 66.213905 2.9143982
2.0440395 69.46991 9.5974045
0.03403955 68.269905 9.941399
14.56104 55.681908 5.4504013
13.84104 57.905907 5.3074036
13.854039 62.453907 11.297401
15.96204 61.604908 11.524399
3.9830396 43.799908 71.471405
5.7720394 42.817905 71.6544
4.8200397 42.519905 6.0764008
5.21404 42.307907 8.331406
40.26104 62.539906 65.91141
42.27004 62.920906 67.2794
42.25204 69.5639 69.18641
44.48204 1.1999054 69.93641
26.30004 34.164906 16.8964
27.672039 35.577908 17.552399
34.88804 36.395905 17.235397
34.55204 38.11091 16.330399
2.1550395 18.770905 5.7934036
4.1720395 17.310905 5.9794006
9.17804 18.326904 11.352402
10.687039 16.940905 10.770401
45.63104 44.740906 32.110405
45.88104 47.179905 32.414406
41.27704 49.497906 35.955406
40.34304 50.822906 37.999405
11.59904 47.594906 63.269405
12.199039 47.282906 65.387405
6.3140397 46.144905 69.5464
7.1180396 45.262905 71.653404
46.09504 18.782906 33.405407
46.50804 16.664906 34.610405
39.22404 13.922905 34.238407
39.51304 11.7449045 34.023407
26.18704 21.602905 5.735405
28.561039 20.584906 5.8264008
33.79604 25.729904 5.065399
35.48604 26.785904 3.8254013
46.87304 9.445905 16.927399
48.91204 10.460905 17.0344
2.55204 13.448905 19.865402
3.516037 11.442904 20.957397
49.58804 27.177904 30.363405
48.15004 25.635904 31.428406
41.26704 23.958904 29.066406
39.89104 22.653904 29.692406
0.8330396 62.133907 26.5244
1.5680395 64.3849 25.826403
0.5370396 68.95891 22.3964
1.8730396 1.2309036 21.100403
27.27704 19.976906 20.210403
29.061039 18.086905 18.9944
32.61804 16.513905 25.495401
33.47204 14.399904 25.5244
19.19204 69.51491 11.211403
19.79204 69.0229 9.046402
23.32404 5.3769054 7.4464035
24.67404 4.5629044 5.6944046
37.20504 34.711906 17.629402
35.99804 33.273907 16.901398
35.28404 30.351904 24.368402
33.35004 29.133905 23.774399
48.52004 57.417908 10.011398
47.84904 59.309906 11.000404
49.02604 65.7329 8.426399
49.22604 68.11291 9.773399
13.65704 61.297905 5.027405
12.92204 62.857906 4.0674057
9.77504 66.91791 0.58940125
8.79904 66.20891 2.1134033
7.9890394 67.1099 21.664398
9.189039 66.854904 19.8964
15.45404 0.046905518 22.4244
15.802039 2.0489044 21.711403
39.58904 54.195908 14.010399
38.77404 56.026905 15.197403
39.47404 51.05591 22.433403
39.73804 52.684906 24.048403
45.49604 10.445905 38.986404
45.22704 9.937905 37.192406
51.50904 10.574905 36.239407
0.92403793 12.382905 35.403404
46.53704 66.47391 7.280403
45.97604 66.6489 5.2053986
45.68604 3.8129044 3.3524017
45.10404 4.929907 4.7473984
50.89304 65.632904 6.6094055
50.79004 65.19791 4.593399
0.8170395 58.542908 4.388405
51.22704 56.040905 4.9833984
33.76604 15.879905 65.681404
33.95404 16.309906 63.426407
29.013039 11.179905 61.366405
27.55304 10.944905 63.16541
34.99204 44.799908 63.647408
35.92004 43.106907 62.29741
41.10804 42.452908 68.261406
41.62804 41.000908 67.1994
-0.4789604 67.201904 44.702408
0.100039594 65.81991 42.992405
2.6240394 61.719906 48.491405
0.30103958 61.611908 48.124405
44.07604 43.49291 6.360405
42.17704 44.455906 6.7624054
37.55004 40.184906 8.377403
35.60604 41.255905 9.672401
21.71004 37.102905 5.237404
24.23404 37.25691 5.0574036
28.75704 36.326904 71.70141
27.72604 34.216908 71.097404
40.61204 18.725904 10.976402
40.855038 18.918905 8.788399
44.681038 22.718904 3.3013992
44.91804 20.049906 3.3354034
39.542038 13.314905 31.467405
39.55704 11.177905 31.497406
34.46304 12.916904 28.306406
32.466038 14.177905 27.907406
30.74304 17.036905 53.193405
32.39204 16.860905 51.089405
37.19804 22.291904 55.660408
38.74004 20.558905 56.112408
-3.5549603 8.539905 62.61741
-1.3579605 9.429905 62.36141
4.9560394 9.278905 60.469406
6.3620396 10.336905 62.163406
14.32004 6.444906 70.34241
13.88404 5.5069027 68.79941
9.81304 0.08390808 0.60040283
7.8800397 69.52791 70.972404
51.32504 39.941906 40.743404
50.81804 40.676907 42.460407
44.63604 38.141907 42.329407
44.01704 35.566906 42.335407
49.64104 40.825905 15.6614
48.27704 41.040905 13.932404
42.50704 38.986908 13.613403
41.92304 38.241905 11.512405
44.30404 3.1059036 49.653408
42.36604 3.833908 49.473408
38.69904 4.6929073 42.835407
40.00704 6.524908 42.186405
38.14404 64.852905 3.3983994
38.42004 66.65391 4.685402
41.19704 2.0229034 71.01041
39.695038 2.3789062 69.4634
27.17504 68.4669 17.873398
28.21004 67.90591 16.197403
29.95104 67.6219 9.4524
30.044039 0.44091034 9.681404
42.26204 8.550905 47.485405
44.25204 7.646905 47.849407
46.51204 9.252905 42.184406
44.69404 10.513905 41.761406
40.10204 21.157906 0.16040039
39.20604 19.506905 0.5994034
37.55704 13.478905 69.540405
36.08804 14.081904 68.180405
26.66404 17.320906 60.93041
27.36204 15.863905 62.536407
33.59204 18.824905 65.026405
34.49004 20.274904 64.64741
23.99004 34.437904 4.804405
24.478039 34.399906 2.2994003
30.06704 33.328907 72.1144
31.14704 35.426907 0.5144043
6.6030397 44.373905 11.485405
8.15204 46.458908 11.513405
13.13404 46.746906 6.457405
15.25604 47.979908 6.8394012
8.0600395 61.199905 21.924406
6.2400393 60.825905 22.777405
3.4900396 65.6479 27.739405
3.3490396 67.9129 27.518406
15.467039 42.816906 64.679405
17.73004 41.953907 64.30041
23.02604 43.233906 60.421406
22.96504 41.606907 59.316406
26.426039 51.943905 21.180397
25.065039 52.30591 22.596397
20.072039 54.261906 23.887398
17.780039 54.748905 24.473398
23.02704 33.428905 33.062405
24.002039 31.727905 33.747406
23.71904 33.522907 40.918407
22.77404 31.414906 41.558407
27.71604 4.823904 9.537399
26.388039 4.3329086 7.6223984
22.13904 68.255905 10.346405
21.69604 66.77891 12.280403
42.79004 43.133907 32.944405
42.69204 44.963905 32.056404
45.64404 43.050907 25.582405
47.17204 41.564907 26.173405
1.8520396 12.149905 16.4244
3.7300396 12.813905 17.597397
7.6630397 13.6859045 10.831406
6.62204 11.823905 10.9244
29.78304 55.579906 25.729406
30.68904 56.287907 27.401405
37.49204 53.657906 24.812405
37.74004 51.584908 25.522406
22.96704 22.248905 66.20041
20.697039 21.905905 67.6824
21.91804 25.924904 1.7554016
23.89704 26.192905 3.1524048
15.4680395 69.160904 34.634407
15.60604 67.27991 33.655407
20.742039 63.355907 28.742405
22.40304 64.602905 29.578405
24.14204 38.998905 22.372398
24.51204 41.342907 23.363403
26.83504 47.294907 18.9794
24.787039 48.582905 18.765404
25.96904 46.575905 4.056404
24.86604 44.942905 2.7914047
21.41704 40.304905 9.588402
23.60604 39.353905 9.917404
19.77804 58.994907 0.9184036
18.40204 57.241905 0.31539917
17.60004 51.775906 6.114403
19.11504 52.364906 7.7473984
45.18204 44.717907 70.88441
46.320038 46.995907 70.054405
0.5330391 50.677906 68.526405
1.8930397 49.790905 70.458405
15.1590395 36.195904 1.907402
15.03904 38.383907 2.0034027
9.84804 40.149906 69.054405
9.90704 42.295906 69.92641
16.14604 28.219904 18.073402
13.963039 27.364904 17.653397
11.15304 24.260904 12.319405
8.99404 23.025906 12.066399
25.91804 61.54191 18.803398
25.83504 61.06991 16.303398
29.32704 61.229908 10.8594055
29.61504 59.335907 11.026405
32.29604 42.316906 27.219406
34.10304 41.676907 27.731405
37.181038 36.506905 27.399405
39.34304 35.628906 28.651405
12.61204 16.044905 17.709396
14.590039 16.697905 18.310402
20.01904 10.999905 18.069397
20.23704 8.686905 18.584396
19.436039 28.135904 26.766405
18.60204 28.913904 29.193405
11.423039 27.365904 29.768406
10.361039 29.004904 29.884405
45.60604 4.983905 25.507406
46.24204 5.418905 27.738405
42.83604 11.687905 29.061405
42.19604 12.984904 30.751406
7.0160394 50.023907 59.17241
8.522039 49.768906 61.265408
2.4270396 47.771908 67.138405
3.7550397 48.286907 68.8944
5.0480394 13.176905 24.505404
4.7630396 13.400905 22.611397
11.49204 9.943905 20.6344
12.28504 10.5939045 18.919403
26.172039 26.798904 5.2364044
27.23404 28.856905 4.138405
32.68404 26.728905 9.414398
33.028038 28.459906 10.789398
7.0350394 32.534904 5.385399
6.1710396 32.237907 7.329399
4.7810397 25.897905 10.643402
6.3970394 26.084906 11.4674
9.394039 34.963905 62.276405
10.052039 32.797905 61.97241
6.0190396 28.111904 65.456406
7.87204 26.443905 65.54941
16.420038 18.338905 29.929405
16.860039 16.627905 29.225405
15.9420395 12.338905 35.351406
15.258039 12.250905 37.877407
15.93304 10.467905 0.61040497
14.13104 10.334905 71.570404
10.7250395 14.002905 66.35641
10.373039 16.150906 67.108406
27.27704 47.453907 16.308403
26.69104 49.39591 17.046402
24.51804 56.691906 15.610405
23.627039 56.743908 13.391403
17.08104 6.1649075 7.973404
16.267038 6.2709026 9.834404
20.565039 0.8549042 14.1754
18.31404 0.28090668 15.136398
21.18504 12.804905 10.778404
21.37304 14.539905 9.358398
23.804039 11.025905 3.1564026
25.53904 10.084905 1.8354034
15.06604 47.255905 32.431404
16.47604 49.031906 31.779406
17.83804 52.198906 25.638405
16.457039 51.539906 23.973406
18.71204 42.315907 66.7814
18.75304 40.335907 66.78441
17.51804 37.061905 1.7164001
18.575039 38.082905 3.1394043
13.46104 61.925907 14.4724045
12.10504 62.630905 13.322403
4.76704 58.080906 13.5074005
3.9290395 59.639908 12.735405
15.633039 45.212906 66.77241
15.56604 43.505905 67.48041
13.29404 44.696907 2.4113998
14.324039 42.718906 3.5414047
13.050039 18.411905 22.002403
14.680039 16.984905 23.394402
12.36004 10.710905 23.361397
13.48504 8.642905 24.364405
48.056038 19.439905 57.580406
49.46704 19.888905 59.751408
50.09604 27.276905 59.696407
48.94704 28.131905 61.613407
22.09504 7.232905 10.0224
22.60504 4.9989047 10.010399
20.74104 4.196905 17.346397
20.287039 5.770905 18.529404
46.26304 54.864906 1.3814011
45.99704 55.77091 71.38241
41.20404 54.885906 65.708405
41.26804 52.873905 64.721405
11.741039 39.366905 25.970406
11.88104 38.729908 28.215406
11.01604 41.054905 35.535404
10.62404 43.479908 35.435406
9.536039 61.072906 5.0694046
7.7060394 61.528908 5.9304047
8.04404 63.956905 13.017403
6.9650397 65.93091 13.512405
3.7920396 52.359905 9.284401
3.9050395 54.452908 9.9104
0.018039575 60.361908 12.126404
-2.1569605 59.297905 12.923401
47.72604 45.311905 17.0074
47.105038 44.841908 19.268402
42.13604 39.550907 18.193398
43.68504 38.88191 18.640404
16.381039 46.446907 16.225403
15.906039 47.710907 14.9674
17.22604 51.869907 10.157402
16.024038 49.871906 9.960403
2.1170394 5.996908 19.337402
4.3670397 4.6209106 19.586403
-0.58196044 0.054908752 15.2854
-0.35096037 0.76890564 13.454399
-0.52596045 45.322906 61.505405
1.0440396 44.255905 61.324406
4.0610394 44.780907 69.21541
2.1230395 46.04891 69.38341
38.16504 55.02791 3.7484055
36.74904 54.179905 5.5253983
40.47604 56.639908 11.2864
39.28704 57.412907 13.019402
49.33304 13.393905 10.639404
50.01804 15.073905 11.3414
47.91804 22.934904 12.083405
45.855038 23.234905 10.326401
37.21804 56.544907 54.817406
38.43904 57.599907 55.989407
44.50404 52.179905 58.046406
43.40404 50.289906 57.769405
3.3110397 45.114906 32.489407
2.0160396 44.558907 34.950405
0.13303958 39.141907 38.317406
1.7200396 39.596905 39.184406
1.7710396 39.445908 7.7883987
2.3970394 40.878906 8.854401
0.7180396 39.804905 15.845398
1.9540396 41.202908 16.859398
10.03904 56.378906 59.591408
9.12504 57.546906 60.803406
3.4440396 61.590908 55.832405
5.0940394 62.994907 54.984406
3.6320395 39.720905 18.515404
1.3330395 40.732906 19.739403
1.1150396 39.917908 27.292398
2.3190396 41.31991 28.1354
5.8300395 19.735905 2.7674026
6.3970394 18.531906 4.756401
7.8100395 20.880905 10.885399
6.5810394 20.974905 13.173401
11.03904 24.696905 8.096405
11.34904 25.850904 6.7193985
9.34804 22.497904 0.1434021
11.41504 22.836905 71.928406
35.820038 32.305904 37.333405
37.13804 32.309906 35.634407
43.47204 29.471905 34.031406
44.40804 31.099905 34.330406
45.80404 16.548904 2.9304047
45.54404 17.734905 4.5643997
42.36804 16.680904 9.923401
42.84004 17.634905 12.0644
24.05704 39.044907 60.53441
22.27204 38.76391 59.080406
15.835039 35.085907 59.81141
14.008039 35.602905 59.487408
49.74304 68.7179 62.130405
49.60204 67.52991 59.908405
46.75704 0.58490753 53.25741
47.54104 69.37891 51.485405
3.7770395 12.314905 10.373405
4.8670397 11.606905 8.711403
8.304039 14.956904 3.746399
9.27504 15.110905 5.5834045
41.69604 32.549904 0.44740295
42.410038 31.531904 2.4774017
45.71804 28.150906 6.1744003
44.52304 25.935905 7.4484024
8.420039 64.8599 71.1844
6.2920394 64.3329 0.3554001
7.5070395 68.38891 1.3544006
8.710039 69.312904 3.2313995
3.9330397 44.278908 27.734406
3.5620396 43.465908 29.696405
4.8380394 44.415905 34.581406
4.4960394 44.129906 36.559406
13.83604 45.422905 14.5644
12.66904 45.620907 12.676399
13.4090395 44.066906 6.1893997
15.774039 44.283905 5.334404
6.1960397 0.9069061 64.1564
5.8290396 68.2609 63.741405
3.9050395 65.809906 68.9484
2.0310395 66.2769 70.5054
40.18204 13.131905 53.815407
40.85704 13.382905 55.969406
41.53004 7.875905 59.711407
39.59204 8.531905 60.309406
1.1570396 36.86791 21.3834
51.43904 35.071907 21.2174
51.75104 28.253904 23.8564
50.21904 27.266905 23.895401
26.86404 20.013905 29.556406
26.52704 18.507906 28.092405
19.21804 16.975904 30.640406
19.73304 19.144905 31.686405
3.4990396 69.15191 31.975407
3.7520397 1.1639099 32.762405
1.1880395 7.3869076 32.711407
1.8040396 8.779905 34.354404
18.03104 13.880905 51.722404
18.228039 14.413905 49.662407
14.54004 19.496904 45.759407
12.387039 19.633905 46.048405
33.15404 40.267906 10.253403
31.55904 40.524906 11.276405
37.38504 44.455906 12.345406
36.723038 45.953907 13.194405
18.41504 46.629906 14.421402
20.38504 45.840908 13.337402
21.03604 47.629906 5.8394012
19.63504 49.658905 5.8303986
49.32604 40.627907 69.25641
49.93704 42.18091 68.33941
50.53904 42.752907 61.00041
49.48904 41.572906 59.769405
39.54804 41.904907 0.7574005
41.070038 42.709908 2.0124054
41.97104 36.359905 8.0714035
40.00804 36.426907 8.968399
0.6420396 16.130905 10.148399
0.26003957 16.283905 12.423401
-0.112960406 23.656904 9.750404
1.8230395 24.632904 10.373405
15.394039 37.182907 37.077404
14.498039 35.249905 37.516407
13.008039 31.413904 38.001408
12.33204 29.409904 38.043407
34.60204 67.19591 68.122406
34.17204 66.59891 66.20541
33.96804 5.2729015 63.43641
35.02604 4.5159073 61.287407
45.74304 26.430904 23.044403
44.26104 24.631905 22.9514
44.41304 20.291904 17.724403
42.99004 18.869905 19.208397
43.38104 58.626907 11.326401
42.09504 57.787907 9.676399
36.47704 59.74291 5.3423996
36.14904 61.912907 5.3983994
43.47204 47.920906 70.3234
45.05204 49.193905 69.1404
48.96504 48.348907 63.79041
49.26204 45.894905 63.81841
51.11404 40.707905 0.09740448
49.64904 42.450905 71.416405
50.75604 46.206905 5.350403
49.23504 48.24291 4.7674026
47.94904 29.368904 20.9384
47.38804 30.579905 19.518402
47.77904 27.493904 12.579399
49.25704 25.419905 12.582405
42.49904 54.980907 1.1304016
44.12804 55.978905 2.445404
45.59904 54.448906 8.808403
46.33904 56.118908 10.027405
40.23104 15.427905 59.419407
38.15404 15.678905 60.746407
36.98704 8.640904 61.376408
36.30504 9.622905 63.147408
26.15704 28.423904 1.7414017
25.86404 26.554905 0.41540527
27.14704 21.891905 68.12141
28.74404 21.842905 69.860405
24.75104 54.165905 25.112406
26.36404 53.143906 24.789406
23.39704 47.366905 30.494406
24.58504 45.366905 29.543406
48.24904 23.326904 65.5184
48.37104 21.505905 66.790405
47.65004 13.467905 65.956406
49.79304 13.563905 65.7274
48.03804 63.928905 35.243404
46.78604 65.4429 36.364407
45.60904 59.368908 41.515408
43.41304 59.547905 42.343407
39.50204 26.859905 23.172401
39.60104 24.572905 23.836403
34.96504 23.946905 21.376404
32.76304 24.221905 22.6764
1.0580368 16.168905 5.3944016
51.78604 16.802906 7.3214035
46.834038 9.987905 4.9254
45.40704 11.067904 4.3894043
27.13204 69.33191 31.120405
25.58304 0.19890594 32.238407
26.41004 5.649908 37.411407
27.78204 7.2499065 37.077404
40.28904 12.053905 70.2944
39.14804 11.287905 0.11440277
43.17104 3.691905 0.42140198
42.99604 3.412905 2.6994019
48.56104 67.3149 69.612404
48.84204 65.9159 71.011406
44.57404 60.024906 69.306404
44.45304 59.848907 66.96541
33.81104 27.147905 52.026405
34.29304 25.952906 50.271408
30.058039 20.994905 49.512405
30.55904 19.145905 48.074406
36.85204 27.874905 64.277405
38.46704 28.760904 62.32541
35.94204 36.484905 62.271408
34.90404 36.839905 63.68641
21.52804 52.384907 7.0144043
23.32604 53.599907 7.4154053
24.17704 54.86091 70.75941
23.23204 56.852905 70.43941
30.61904 15.573905 10.595406
32.55904 14.524904 11.879402
37.78104 15.554905 15.406403
39.40204 16.432905 14.346405
33.39004 1.1679077 10.139404
31.88604 1.123909 11.456406
30.66104 66.7619 17.3144
32.369038 66.98891 18.541397
44.51304 3.4439087 68.42741
42.25604 4.446907 68.88441
37.65904 5.054907 62.512405
36.43704 6.693907 63.307407
17.54504 11.702905 6.7733994
15.901039 12.732904 5.954399
13.288039 4.546905 6.018402
14.68304 4.085905 4.5124054
29.84704 43.394905 26.432405
27.57704 43.884907 27.092405
26.72604 49.17391 20.802406
24.67804 49.661907 21.673405
16.14004 15.304905 60.627407
15.92804 14.818905 58.55541
10.236039 20.365906 58.960407
9.821039 19.095905 61.210407
33.95104 50.14591 68.10341
31.51204 49.709908 67.43641
28.14504 57.392906 68.88341
26.71204 56.484905 69.34041
35.24404 47.181908 17.3014
35.71204 48.558907 19.458397
32.04504 53.456905 16.751404
29.311039 53.225906 17.208397
0.106039576 39.88191 54.572407
2.3520396 40.207905 53.589405
7.21404 45.965908 53.742405
9.364039 45.364906 53.162407
17.99704 1.9539108 71.3084
19.22504 0.44690704 70.38341
22.43704 67.7889 2.2193985
24.28204 66.548904 2.0534058
19.63704 25.455904 12.667404
19.19804 26.214905 14.547401
21.05904 29.020905 20.055397
21.24604 26.804905 20.653397
43.34904 14.856905 18.2864
44.53804 13.047905 18.367401
46.90504 19.975904 18.385399
47.04604 21.783905 19.3134
44.70004 26.869905 33.845406
42.82104 26.056904 34.544407
45.86604 19.361906 36.201405
47.09204 20.094906 37.975407
18.93404 14.927905 8.251404
19.05204 13.196905 9.381401
11.229039 14.932904 12.537399
11.182039 13.654904 10.504402
35.10204 47.801907 63.935406
36.03804 47.776905 61.935406
37.63704 55.121906 63.813408
40.06404 55.459908 63.386406
47.60404 56.505905 43.313408
45.93004 55.971905 44.551407
43.21504 51.231907 50.265408
45.26104 49.859905 51.00741
24.50004 64.9949 4.0474014
22.44904 64.299904 5.1254044
24.73004 56.712906 7.393402
22.38904 56.18091 7.504402
35.90404 36.215904 35.837406
35.38504 34.157906 34.348404
32.51204 32.580906 27.808405
33.89504 31.814905 26.366405
22.134039 39.981907 63.470406
23.787039 41.068905 62.352406
27.48404 37.929905 68.14941
29.308039 38.239906 69.96741
33.64104 28.914906 3.3394012
35.10304 30.410904 1.9143982
34.00704 37.278908 7.0434036
33.76604 38.850906 5.763405
41.806038 9.388905 20.539398
41.99304 11.346905 19.928398
43.29104 13.200905 26.839403
42.02504 14.493905 28.2344
10.675039 8.399905 15.926399
11.489039 7.632905 13.687401
3.6740396 9.705905 11.9844055
3.2860396 9.345905 9.433403
18.443039 1.169905 17.5374
18.18704 3.5689049 16.944397
14.25404 7.4279046 21.9794
13.29604 7.994905 20.012398
22.19804 58.418907 15.1194
20.589039 59.889908 15.322403
19.693039 62.045906 8.458405
17.72004 62.722908 9.540405
16.98204 60.230907 25.050402
19.02704 59.830906 24.115404
20.66304 61.406906 17.7164
20.40404 63.446907 19.538399
34.93504 49.48591 7.3594055
32.71504 49.385906 8.403404
33.070038 42.77791 9.543404
34.65004 43.931908 10.482399
23.075039 45.258907 49.500404
22.47304 45.925907 51.601406
25.51204 47.113907 58.924408
24.60804 45.104908 59.599407
27.197039 35.585907 42.695408
27.34204 34.460907 40.832405
25.01104 37.911907 34.523407
24.00704 39.472908 33.312405
17.10704 48.19491 21.650398
18.221039 46.515907 21.309402
12.88904 44.435905 23.192398
10.595039 45.56991 23.442398
19.23904 26.297905 47.580406
20.88504 26.064905 45.917408
22.58104 33.089905 43.554405
22.43804 35.255905 43.380405
8.04404 50.216908 20.775398
9.260039 48.128906 21.0494
11.63204 43.633907 15.197403
10.31304 43.955906 13.101402
43.64004 5.323904 59.658405
43.28404 6.6269054 61.706406
48.52204 1.3789062 63.86841
48.03604 69.535904 65.49341
20.627039 1.77491 18.9954
21.148039 0.95790863 16.957397
24.21304 63.436905 18.920403
23.780039 62.280907 17.152397
19.381039 68.910904 22.2314
18.36804 1.3139038 21.483398
24.57704 3.4159088 23.7174
26.15604 2.2299042 22.963402
33.14904 10.147905 20.278397
31.957039 9.075905 18.825401
27.52804 4.443905 22.450401
28.06404 3.188905 21.030403
7.8950396 42.31991 13.127403
8.9420395 40.595905 13.240402
8.21104 37.836906 19.989403
7.6650395 38.917908 22.084396
11.220039 39.657906 14.255402
12.170039 41.193905 13.898399
17.537039 43.935905 17.793404
18.77604 45.011906 16.3264
26.37304 26.056904 60.85441
26.21604 24.420904 59.36141
25.89504 22.556904 55.304405
24.85204 20.884905 53.919407
26.30904 26.347904 49.441406
27.19504 26.851904 47.672405
25.13204 31.396904 42.574406
27.09504 30.611904 42.269405
1.3140373 69.02991 25.458405
1.1420403 1.4249039 24.999405
49.021038 4.101906 27.602406
48.82404 5.856909 28.659405
6.92504 14.288905 64.6564
5.7770395 12.136905 64.07941
-1.1159604 10.870905 64.970406
-1.7619605 9.561905 66.886406
17.95104 13.319904 69.63541
19.19604 15.040905 70.9334
17.55604 16.239904 5.810402
18.61904 13.853905 5.7584
10.571039 67.86491 16.457397
10.951039 69.406906 15.630402
12.37204 5.182905 15.221405
12.91004 5.552908 13.4254
13.569039 30.427904 67.6164
14.03304 32.119907 65.84141
15.15004 34.599907 71.8654
17.32904 34.739906 0.5754013
27.797039 13.380905 70.32541
25.83004 13.091905 70.56141
24.00404 20.559906 2.6114044
25.77004 19.941906 3.6874008
23.57004 46.704906 11.343399
22.186039 47.934906 13.003403
22.28904 54.179905 9.685402
22.19204 56.02091 10.252403
29.471039 59.654907 70.5164
29.93004 59.245907 68.45141
31.78604 56.480907 62.703407
32.980038 54.609905 63.394405
4.6170397 38.684906 71.806404
2.8320396 37.801907 71.1574
0.22003956 36.918907 6.683403
-1.9879603 37.074905 6.1824036
7.8070397 -0.53809524 28.679405
8.76604 1.261905 29.057405
8.609039 8.799905 28.867405
6.6690397 9.145905 27.206406
15.62704 42.290905 41.091408
16.84904 43.910908 41.786407
20.67104 45.74291 36.358406
20.686039 43.495907 36.666405
1.0110396 9.361905 16.018402
2.6730397 7.8799047 16.429398
2.0700395 2.629905 9.210403
4.5490394 2.8849049 9.212402
7.24704 54.635906 15.181404
8.81604 55.40991 15.982399
14.258039 53.230907 12.751404
14.44804 52.870907 10.763405
15.30604 21.735905 60.921406
14.095039 23.853905 60.13241
21.05204 28.768906 61.67941
22.14004 26.733904 62.091408
7.0450397 24.297905 14.0494
5.2020397 23.931904 12.7193985
-1.6409605 23.069904 15.991402
-1.5379605 21.042904 14.534401
18.46104 5.354905 54.037407
19.46304 7.351905 53.137405
24.35204 2.706905 49.549408
26.24804 2.382905 49.121407
23.65604 46.876907 1.1554031
24.186039 48.192905 3.2024002
31.28204 48.300907 1.7164001
32.37504 50.366905 0.9953995
6.3710394 47.108906 23.803406
6.8630395 45.967907 25.238405
5.1500397 47.017906 32.236404
5.4400396 48.743908 32.961407
2.785038 14.544905 24.536406
1.4640388 14.327905 26.556406
45.667038 14.365905 26.279406
45.30404 13.178905 24.314405
36.96804 67.3179 56.658405
36.62304 68.366905 54.801407
42.95704 3.2179108 52.872406
44.25504 0.99591064 52.781406
51.01504 1.0059049 11.045403
48.53004 1.135905 10.3214035
46.88804 8.550905 9.850403
46.67904 9.290905 7.482399
27.23704 46.753906 69.4754
28.891039 47.682907 68.23141
23.53404 52.056908 70.443405
22.16804 49.932907 71.11941
0.66003954 65.2169 61.19441
0.69203955 63.304905 61.045406
7.0810394 61.871906 65.16041
6.26704 62.081905 67.9884
7.72704 61.578907 3.0284042
8.68304 62.714905 1.2753983
7.6740394 59.751907 67.3794
9.21204 60.92391 66.91141
38.67704 16.330906 56.345406
37.95604 16.881905 53.955406
44.49704 18.943905 50.404408
44.66204 20.817905 51.763405
3.3920395 45.448906 14.409401
5.72704 45.161907 14.362404
6.8370395 46.820908 20.570396
6.0150394 44.883907 22.321404
33.25404 37.667908 25.198404
31.464039 37.991905 24.434404
27.49004 38.082905 22.696404
26.20304 38.130905 21.101402
44.68904 63.971905 5.2613983
43.05704 64.5689 6.9884033
40.49504 64.47591 13.956406
41.83104 62.473907 14.796402
35.74104 51.63191 29.449406
37.35604 50.111908 29.395405
36.71504 44.222908 33.496407
37.18204 44.397907 35.776405
32.65804 37.642906 0.65140533
32.210037 40.121906 72.14841
27.48304 44.528908 1.1924057
26.15904 44.953907 71.46541
3.5590396 47.535908 8.048401
2.4110396 48.097908 6.405403
5.00404 46.335907 1.0044022
3.2050395 46.206905 71.96741
20.55704 9.184905 8.893402
20.40204 9.962905 11.570404
13.437039 9.075905 13.269402
12.29404 10.386905 15.1614
33.980038 4.2079086 45.294407
35.44204 1.9099045 45.737408
35.49304 4.5949097 51.760406
36.92204 5.7619076 53.874405
3.9270396 13.104905 62.26341
4.2940392 11.891905 60.314407
2.1890395 16.440905 55.298405
3.3850396 15.253904 53.791405
48.51104 46.458908 6.652405
47.223038 46.494907 5.0404053
43.55304 43.602905 1.0194016
42.94404 45.653908 1.7534027
44.98504 58.672905 48.055405
46.90604 58.427906 49.107407
45.28804 51.901905 52.893406
43.25304 52.211906 52.922405
35.95504 49.752907 66.247406
37.47104 48.474907 66.22841
40.42704 43.528908 70.611404
41.90804 45.523907 71.54741
41.24804 60.650906 24.398401
40.16504 59.473907 23.3564
35.07104 63.525906 19.3564
33.72704 64.91991 19.8154
34.63404 15.778905 5.5093994
32.79604 16.517904 4.669403
33.95704 16.130905 68.332405
32.730038 14.331904 68.165405
37.42904 67.4019 62.433407
39.38004 68.1799 62.379406
38.71904 6.0709057 60.120407
36.54504 6.379904 59.738407
49.13004 32.129906 64.4184
46.60604 32.460907 64.95541
41.77404 34.554905 68.44141
41.92104 34.288906 70.46841
32.86504 8.877905 9.235405
35.07404 8.098905 10.745399
38.06204 2.172905 12.053406
39.42804 3.063905 10.413399
44.410038 14.043904 54.579407
42.89804 15.319904 55.042408
43.31704 22.993904 55.741405
45.57404 23.484905 56.489407
48.41104 50.839905 39.945404
48.077038 48.890907 40.194405
2.9320374 46.213905 38.340405
3.44104 44.02791 39.142406
11.727039 64.80591 37.879406
10.074039 63.364906 37.420406
10.052039 56.545906 41.323406
9.24404 56.883907 43.467407
23.77404 66.4559 8.707405
22.697039 64.7889 10.062401
25.964039 58.104908 13.125404
26.12604 56.855907 11.613403
51.79804 26.329905 11.666405
50.23504 27.664906 10.798401
48.03604 30.338905 5.9584045
49.14804 30.343904 3.8054047
43.53304 44.049908 68.6424
45.35404 42.57691 67.7124
48.37304 44.376907 61.181408
47.58304 44.382908 59.231407
34.077038 45.925907 60.903408
33.90904 44.537907 59.057407
34.24404 39.221905 62.272408
36.06004 40.357906 62.842407
37.09204 35.833904 8.4394
36.21804 37.948906 8.7164
40.83804 36.226906 13.016403
41.36904 34.574905 13.630402
35.47204 22.951904 62.074406
36.53904 21.818905 64.02041
43.209038 23.993904 66.2824
43.68904 26.027905 65.24341
33.59604 23.910904 67.22841
31.61104 22.885904 67.083405
28.62504 28.990904 63.820408
26.23604 29.168905 63.668407
44.12704 21.092905 69.319405
42.11104 22.196905 68.5454
37.90604 19.602905 63.537407
36.13604 18.252905 63.741405
23.79304 30.391905 4.1254044
22.45404 32.231907 4.3474045
22.59704 36.425907 9.517403
24.31604 37.280907 8.434402
3.7930396 7.885905 1.9864044
6.4680395 7.791905 2.086403
11.53904 13.388905 1.3003998
12.272039 13.977904 3.5304031
35.62704 47.960907 9.524399
36.403038 46.339905 10.340401
40.24104 44.54891 4.157402
38.30004 44.466908 1.7544022
33.00904 1.1489105 46.897408
31.69404 69.33491 47.995407
25.59804 67.9549 49.434406
24.80204 0.28190613 48.487408
32.41604 52.721905 2.4944
34.07104 54.154907 3.0304031
31.09804 59.096905 2.659401
31.79104 58.06991 1.0614014
27.48604 17.707905 55.535408
25.53604 18.719906 55.684406
19.23904 18.000906 57.606407
18.221039 15.884905 56.963406
10.864039 40.978905 2.5044022
11.708039 41.855907 4.9184036
9.48104 40.77091 10.874405
11.52504 39.314907 11.607399
47.39104 11.286905 10.0494
44.80104 11.569905 10.932404
44.30504 7.5979047 6.803406
45.03704 7.792905 4.8583984
48.03204 24.738905 22.969406
48.910038 25.249905 25.258406
49.27404 18.782906 29.187405
48.69404 17.287905 28.082405
34.87004 19.794905 26.445398
35.30504 17.948906 25.7894
35.063038 20.180904 17.668404
33.35104 20.499905 18.181396
26.627039 6.0119047 4.431404
28.103039 5.131905 5.679405
29.05704 12.503905 5.9884033
27.49404 11.689905 7.843399
30.11404 69.09991 68.50641
29.63604 67.01591 68.3904
28.888039 66.5119 60.196407
28.48304 64.309906 60.384407
27.228039 55.772907 61.155407
29.33704 55.221905 62.54141
27.99704 48.183907 65.2534
29.471039 47.086906 63.712406
28.34004 57.13191 71.6824
29.04804 58.295906 0.6493988
21.30004 60.15291 3.5404053
21.64704 62.462906 2.1893997
37.16304 68.603905 68.8634
37.216038 66.66791 68.4054
36.09504 63.463905 2.4393997
36.10304 60.862907 2.6353989
36.18304 22.396904 6.0994034
37.34004 21.128904 7.2024
42.20704 26.815905 8.9244
42.30804 28.642904 9.498405
40.90004 17.988905 16.071404
42.94204 17.162905 17.013397
47.34604 12.525905 15.102402
45.46904 11.835905 16.182404
19.74704 20.405905 8.085403
18.37804 21.540905 6.954399
15.28904 15.533905 7.278404
13.774039 14.438905 5.6083984
32.57604 41.386906 22.627403
31.58004 39.657906 22.083397
29.00504 37.324905 15.608398
27.11404 37.737907 15.979401
17.56404 5.696905 62.363407
16.36504 4.547905 60.29741
15.97404 68.325905 58.601406
17.68704 67.13991 58.716408
33.80504 47.658905 11.531403
33.216038 49.889908 11.101402
35.92804 56.590908 14.922401
35.95104 56.151905 17.2164
9.029039 2.762909 17.922401
8.667039 4.401909 16.180397
5.2710395 1.0649109 11.046402
3.6470397 68.965904 11.568405
51.52704 36.613907 66.749405
49.855038 34.706905 67.06441
43.41504 38.808907 67.512405
42.44104 38.88191 65.9494
17.794039 60.935905 70.16241
19.69104 61.200905 71.7394
16.98904 61.93091 6.9533997
15.345039 62.986908 6.2954025
21.27204 54.503906 40.791405
20.94504 55.578907 42.950405
12.536039 55.924908 43.497406
12.826039 56.718906 41.712406
33.74404 25.205904 58.820408
33.820038 23.668905 60.026405
28.443039 19.955906 56.531406
26.57104 21.120905 57.801407
38.73104 19.557905 61.077408
40.19304 17.653906 61.844406
46.92204 17.117905 59.115406
48.341038 16.177906 60.759407
37.12804 18.170906 59.327408
36.30404 17.589905 61.043407
28.75504 15.521905 56.801407
29.631039 15.007905 55.055405
33.17904 32.855907 53.328407
34.38204 31.616905 52.461407
33.105038 33.093906 46.253407
31.353039 34.531906 45.647408
14.32704 56.065907 1.596405
15.7510395 57.836906 1.1394043
14.92604 62.790905 67.6824
16.49804 61.831905 66.624405
48.54004 65.1349 20.819397
48.82904 64.1909 18.795403
51.11404 65.368904 12.534401
0.42503738 67.504906 12.5924
15.90704 36.228905 15.291405
14.28204 34.818905 15.935402
10.45204 38.363907 21.446404
10.33404 39.510906 23.2034
5.8310394 1.3919067 5.129402
4.80604 2.5769043 3.7544022
-1.9759605 69.338905 3.579399
-2.8529603 67.242905 4.7294006
37.66504 69.00291 66.194405
39.24304 67.29391 65.13541
42.37004 64.784904 62.81841
42.47604 62.42391 63.238407
50.41804 31.473906 19.2584
49.43204 31.499905 17.474403
45.56604 37.433907 13.997398
43.63504 37.807907 15.584404
20.53304 44.19491 50.630405
21.44104 42.995907 52.435406
21.64604 35.342907 50.588406
20.47004 34.529907 49.064407
10.041039 34.953907 17.7304
7.9110394 34.700905 19.266403
8.232039 27.384905 22.267403
8.701039 26.982904 19.9124
24.74804 1.1929092 51.678406
23.31604 68.8289 50.953407
16.66504 68.73791 54.195408
15.95904 67.28091 55.949406
3.6290395 22.180904 3.2593994
3.2550397 19.876905 3.1054
1.4640396 21.741905 67.733406
-0.81696045 21.595905 66.959404
48.16904 7.364905 4.179405
49.27304 8.433905 2.4044037
42.89404 9.206905 68.97941
42.521038 7.089905 68.84141
7.9220395 23.587904 49.398407
10.07904 24.534904 48.244408
9.36004 18.294905 51.921406
10.121039 16.680904 53.979404
14.11004 7.997905 0.28240204
12.137039 8.410905 71.4774
9.3430395 2.343905 3.6674042
7.5930395 2.146905 3.0233994
7.6620398 5.1499047 70.597404
7.1120396 7.5329046 70.83041
8.15204 13.901905 67.23041
7.1990395 15.971905 68.025406
0.6850396 50.950905 50.629406
3.0110395 51.38191 50.653408
4.3070393 51.717907 43.716408
2.2660396 51.926907 42.348408
19.62504 53.891907 58.858406
21.85904 53.074905 59.394405
26.07304 59.873905 58.288406
24.35004 60.767906 59.25641
10.326039 26.261904 23.332405
8.87504 25.023905 23.950405
10.081039 20.941904 29.262405
11.69304 19.980906 30.689405
31.763039 38.727905 47.937405
32.446037 39.961906 49.377407
38.99704 40.57691 46.694405
39.53604 38.253906 46.109406
1.0940399 19.474905 45.282406
50.68704 19.803905 44.977406
46.69204 25.664906 45.602406
44.20004 25.940905 44.164406
12.7840395 7.4859047 67.304405
14.767039 8.763905 68.46641
15.085039 13.116904 62.57641
16.52604 14.931905 63.44441
-1.2739605 2.153905 65.5194
-1.2209604 4.250905 64.5054
4.9140396 6.282905 67.6964
4.6440396 6.5969048 69.68641
36.45104 44.529907 28.445406
36.056038 43.11091 26.678406
41.13204 37.891907 29.107405
40.71504 37.079906 27.098406
46.35904 58.054905 66.1984
48.32504 59.052906 67.08941
0.14103699 52.725906 70.1974
50.230038 51.987907 71.0434
0.25603867 64.9839 49.537407
51.23704 62.762905 50.319405
46.417038 61.616905 55.626408
45.12204 61.632908 54.288406
2.7490396 45.351906 5.7333984
4.7260394 45.096905 6.914398
11.064039 43.729908 3.0363998
9.677039 43.406906 1.6264038
4.5210395 55.996906 5.645401
5.79304 57.219906 4.2294006
10.142039 53.578907 0.6164017
11.069039 53.146908 71.0304
28.50304 69.198906 59.14541
26.63004 68.3579 59.96541
27.12504 66.41991 51.232407
25.79104 64.602905 51.142406
19.64004 35.746906 3.6394043
18.44604 33.921906 2.8754044
12.673039 31.730906 6.3734055
10.55604 31.075905 5.079399
25.79104 21.472904 0.5503998
27.84504 20.666904 0.39839935
32.313038 26.809904 0.85839844
32.29604 29.036905 1.0614014
46.03904 9.993905 52.082405
46.23204 12.062905 53.783405
46.02404 6.325905 60.211407
45.80304 8.092905 61.836407
8.67804 24.544905 70.6714
11.210039 24.133905 69.67741
10.06104 17.955906 65.09041
8.67804 16.556906 64.569405
10.81604 27.252905 37.323406
11.651039 27.026905 39.169407
16.482038 22.341906 41.25741
16.10804 21.482904 43.170406
29.67004 3.1649048 9.256401
32.133038 3.3689048 9.626404
37.17004 6.878905 6.973404
36.38304 8.722905 8.042404
45.10404 30.062904 64.2394
45.11104 28.439905 65.30041
50.76004 29.137905 69.164406
51.29504 30.329905 67.209404
47.12504 19.931906 1.395401
46.27404 20.977905 71.82741
51.19804 15.554905 67.0604
51.66504 14.056905 68.969406
25.29204 0.5989075 61.384407
24.02204 68.72491 61.401405
23.68704 69.04391 69.91141
21.78804 0.49290466 69.665405
7.2580395 20.799904 0.29340363
5.9700394 21.495905 71.0154
2.4950395 17.897905 65.9044
1.6390395 15.479905 65.748405
37.65104 5.554907 3.5834045
38.820038 6.220907 5.110405
39.64504 68.131905 6.3563995
41.09604 67.01391 5.1054
13.24504 27.720905 71.414406
11.70204 26.181904 0.72340393
15.00904 27.339905 7.4384003
13.776039 25.702906 8.153404
0.43603897 7.960905 18.639397
50.62004 8.309904 17.075401
49.53404 0.6999054 16.9944
48.96504 68.5389 18.153397
38.67804 11.063905 68.1024
36.97404 11.547905 66.4624
31.20604 11.723905 68.73241
29.61904 11.495905 67.6574
41.53004 13.622905 72.20441
40.50304 12.741904 1.8034058
38.11104 20.403906 4.5974045
39.64104 21.107904 3.1724014
42.05004 35.979904 59.175407
41.48104 34.972904 60.905407
36.79404 31.373905 55.772408
34.181038 31.150906 55.244408
1.7380371 51.500908 54.656406
51.327038 51.11091 54.772408
48.23404 49.332905 61.119408
48.348038 47.070908 61.046406
15.413039 51.11791 7.365402
13.934039 50.550907 5.843399
7.58904 51.151905 10.187401
7.0150394 53.215908 11.142403
15.28304 40.459908 4.3804016
15.88404 38.614906 4.725403
11.20504 33.766907 7.5124054
10.13604 34.248905 9.379402
-0.95496047 28.265905 63.462406
0.34903958 28.247904 61.467407
5.7240396 28.558905 58.918407
6.4620395 27.607904 56.69341
3.8850396 41.208908 60.59041
5.15504 40.467907 62.169407
0.01303958 39.946907 69.207405
1.6220396 40.119907 70.4184
12.97104 26.180904 69.122406
12.272039 28.102905 67.9744
11.031039 22.121904 63.010406
11.59404 21.940905 60.76441
2.0330396 35.149906 7.379402
0.6250396 33.514904 7.2873993
6.0350394 29.450905 12.890404
4.6510396 27.570904 13.023399
17.11904 19.784904 60.348408
18.082039 21.532906 59.69441
24.92304 19.756905 59.912407
25.53804 18.435905 58.42241
7.0180397 55.989906 67.872406
7.0670395 55.053905 66.13241
12.44804 50.258907 65.915405
14.288039 51.229908 65.636406
50.17304 63.465908 59.932407
48.63104 62.116905 60.086407
48.47604 67.4819 66.9744
50.73604 67.2869 67.31341
5.4550395 49.786907 11.083405
3.7380395 51.63891 11.943405
-1.7089605 47.245907 12.377403
-3.1209605 46.926907 14.363403
4.6460395 37.25691 69.139404
5.6310396 36.118904 67.91041
7.22704 29.851904 67.57741
9.25204 28.599905 66.6134
4.7550397 42.733906 41.718407
3.8160396 44.723907 41.773407
5.1260395 45.391907 49.792408
6.6700397 46.151905 48.285408
51.68204 42.568905 58.453407
51.70504 44.920906 58.946407
48.14404 48.067905 52.748405
46.80504 47.536907 50.573406
42.40704 25.554905 24.612406
44.34204 26.125904 25.520405
44.80504 30.356905 30.866405
42.88204 31.612906 32.120407
31.44504 17.094906 7.0093994
29.88604 16.940905 8.336403
27.88504 23.256905 11.803406
27.97404 25.734905 11.870399
38.04304 10.166905 52.787407
36.10704 10.458905 51.513405
37.45004 9.823905 43.981407
38.02204 8.056905 43.022408
46.27204 47.037907 40.493404
45.26504 47.993908 39.253407
39.86604 48.384907 39.077404
38.65404 48.07691 37.436405
49.40204 18.749905 42.558407
48.32804 17.268906 41.758408
47.45804 12.046905 46.853405
