46.55409 46.32468 14.012611
48.24409 46.252678 12.88961
43.84909 46.92168 5.4826126
45.749092 46.55768 4.1096115
8.963089 1.2656771 61.52761
7.443089 69.02968 60.70161
0.6520888 65.69768 60.66161
-0.6589113 67.18468 60.60961
9.036089 29.557676 38.44261
8.032088 28.037678 37.377613
9.037088 22.825678 31.533611
10.306088 23.522676 29.956612
7.076089 42.98468 29.309612
8.561089 42.364677 28.031612
13.347088 38.33268 31.767612
12.530088 36.676678 32.53561
30.847088 49.84668 14.906609
31.579088 49.46068 16.772615
38.94409 47.22168 14.993614
38.81009 46.63168 17.258615
3.3130898 -1.8963224 28.003613
3.6980882 0.3156776 28.505611
51.29809 3.4766777 33.594612
49.73409 4.5406775 31.996613
12.697088 12.347678 63.68161
14.8840885 12.897678 64.78162
17.301088 19.103678 67.96161
18.884089 19.250677 69.74561
22.981089 47.684677 14.148613
21.529089 46.26368 15.442612
24.474089 39.85868 19.596613
25.663088 39.02268 18.340616
10.847089 8.797678 21.43361
11.202088 8.743678 18.961613
11.808088 16.320677 21.165611
13.2660885 15.369678 22.39561
17.35109 57.801678 21.158611
16.630089 58.24968 23.794611
16.46909 65.51368 25.267612
15.783089 67.53568 24.264612
16.33409 60.14568 17.242617
15.2330885 57.87968 16.942614
16.520088 53.96668 11.719612
14.800088 52.68668 10.422615
-0.06391124 18.386677 26.034613
1.6420888 19.309677 24.929611
4.667089 17.804676 33.065613
6.959089 16.912678 31.825611
46.66009 32.670677 12.520615
47.40809 31.641678 14.138611
45.38409 24.362677 13.962608
45.85309 23.516678 16.096611
23.688087 35.21468 37.322613
22.781088 37.48568 37.252613
19.159088 37.080677 45.27661
20.068089 38.698677 45.55661
22.059088 31.117678 49.12461
21.956089 28.977676 49.98861
24.53909 27.062677 56.35561
25.768087 27.389677 58.48761
5.4620886 4.4596777 68.770615
5.5720887 3.6036777 70.97561
3.1100888 8.483678 1.9666138
3.1410887 7.5736775 4.210617
5.668089 58.731678 67.32961
6.6980886 58.649677 69.13661
5.6940885 65.82468 0.60061646
5.2360888 66.05468 3.0776138
16.524088 52.107677 68.32261
14.852088 53.753677 69.352615
14.503088 56.641678 4.0886154
16.03209 58.28268 4.521614
9.285089 40.38168 63.58361
10.976089 39.78268 65.05261
6.7710886 38.84868 70.770615
8.268088 39.51468 0.27161407
42.66009 59.06868 59.18561
44.381092 58.71668 59.89461
44.56509 66.368675 62.45261
46.42309 67.03768 63.60361
29.379087 34.29368 8.8596115
28.35509 32.34668 9.349609
34.813087 28.187677 7.9926147
34.17009 29.365677 6.4186172
4.648089 14.384678 69.73461
6.992089 13.154678 70.28961
11.619088 15.479678 3.6376114
14.078089 14.062678 3.5076141
46.89209 39.273678 27.212612
47.43109 40.134678 25.283611
45.17809 46.913677 29.307611
46.30809 45.61268 30.989613
13.594089 43.63968 55.20661
14.602088 44.23068 57.49461
11.057088 43.37668 62.41561
11.702088 43.294678 64.505615
49.32809 14.207678 26.298613
49.77109 11.805678 26.860613
43.98609 9.318678 25.044613
42.88909 7.6336775 26.811611
28.10509 16.982677 71.75061
30.559088 16.737677 71.49761
36.55809 21.388678 70.826614
37.52209 22.284678 68.673615
48.94809 5.6396775 12.895615
50.22009 5.7906775 10.969612
4.221091 7.2376776 12.757614
2.895092 6.1526775 14.120613
51.55909 22.642677 23.982613
50.131092 21.147676 24.815613
42.70309 19.398678 23.77061
42.08509 18.146677 21.562613
2.7770889 57.25768 19.159616
3.9540887 59.42868 19.603617
3.9510887 64.731674 15.379608
3.4260888 65.34568 13.18261
29.951088 16.079678 12.728615
32.46109 15.220678 12.929611
35.26409 10.311678 17.318613
35.66809 8.607677 16.02861
22.982088 65.23068 2.771614
21.308088 65.90268 2.1406174
25.48009 0.8546753 71.505615
26.752089 2.031676 70.45761
39.23109 32.04168 9.465614
37.41009 31.638678 10.988609
33.50309 27.038677 15.443611
35.18109 26.260677 16.873613
48.04609 55.18568 3.136612
50.18609 55.29768 2.896614
51.26709 62.238678 0.9686127
51.35209 63.17268 2.7956161
18.04609 56.83368 68.31661
15.954088 56.40768 68.70361
11.536088 61.198677 65.282616
12.182088 63.752678 65.70661
10.521089 62.948677 17.480616
11.148088 62.634678 15.5486145
16.551088 66.59568 14.974609
16.516088 68.728676 14.210609
41.71909 50.71068 6.406616
40.83409 52.12668 8.09761
38.51409 49.46468 13.353615
39.08109 50.40468 15.838615
47.50309 6.2456775 31.372612
48.05009 5.1146774 29.887611
2.5190926 7.3546777 29.138613
3.8310914 6.7986774 27.286612
49.17509 63.010677 71.74761
48.21909 63.19668 69.95861
48.54809 1.4126726 68.184616
48.06909 2.585677 69.672615
50.03809 61.370678 69.35861
0.3320923 60.14468 68.77761
1.5950928 53.780678 71.424614
2.9310913 52.18168 69.66261
37.98009 10.949677 57.07461
36.21609 10.2516775 58.07661
32.51509 4.9546776 54.23561
30.439089 4.280678 55.82161
38.43509 42.204678 55.91961
39.95109 41.80368 57.60361
44.15509 40.323677 61.92861
43.770092 38.08368 61.52061
2.1010888 61.343678 34.89061
4.7170887 60.955677 35.48061
5.1110888 57.38868 41.27561
4.4550886 55.955677 43.11661
44.85109 39.412678 71.77861
44.41309 40.343678 1.872612
37.81209 35.690678 2.0906143
38.52909 33.759678 1.3036118
23.189089 35.21468 69.69461
24.947088 33.60468 70.269615
30.391088 32.934677 65.87561
29.86909 33.169678 63.38061
42.78009 15.461678 3.7696152
44.49309 14.575678 1.5196152
45.18109 19.275677 67.58361
46.41409 17.875677 66.893616
41.20809 10.329678 27.164612
40.492092 8.914678 25.590612
35.08609 9.411678 19.985611
33.42609 9.950678 21.327612
30.679089 11.896678 48.46361
31.451088 12.907678 46.79361
38.74109 15.438678 48.143612
39.152092 14.874678 50.04761
-0.3799112 2.5566776 55.781612
-0.47291115 3.7426777 54.03761
6.5230885 6.8146772 53.19361
8.099089 7.2066774 54.56761
18.939089 1.5256716 63.156612
17.517088 2.0426776 61.816612
12.687088 64.520676 63.18561
10.7330885 66.13768 63.29761
1.3210907 35.84468 33.50561
1.4050903 36.85568 35.67561
48.79709 31.853678 35.49261
47.73709 30.613676 36.50661
51.17009 38.52568 7.809616
49.56009 40.66768 7.7516174
46.96509 36.809677 2.610611
45.36309 35.25668 2.1066132
44.67309 68.22268 43.53361
44.53309 0.12867737 41.57661
39.86209 1.7266756 36.636612
41.65709 2.4856708 35.34761
39.98909 60.732677 68.69061
40.56909 62.65868 69.924614
41.76709 66.87868 62.67861
42.82309 67.99168 63.81361
30.81709 66.55468 10.206612
28.809088 65.41168 10.07061
32.382088 64.62167 3.5056152
32.02609 62.920677 2.6696167
44.19509 5.2276773 39.565613
46.05909 4.0676775 40.393612
48.22209 5.0446777 34.61261
47.45209 6.9856772 33.93661
41.76009 17.924677 65.173615
40.67709 16.342678 65.53162
39.93809 9.170678 63.14861
38.45209 8.922678 61.976612
28.787088 14.163678 51.86261
28.109089 13.862678 54.27561
36.34709 14.996678 56.55361
36.45909 17.111677 56.04361
27.00809 31.131678 67.48361
27.986088 28.965677 67.771614
32.85209 29.854677 65.67561
33.08209 32.10568 66.061615
9.072088 41.43868 1.9676132
9.185088 42.704678 3.4136124
14.583088 45.57768 70.71961
17.01409 45.64468 70.548615
10.704088 55.065678 14.643612
9.239089 55.691677 16.278612
5.9140887 60.99268 20.342611
7.0540886 62.97068 19.99261
18.686089 38.73068 54.81961
20.120089 39.04668 56.38061
25.261087 39.69268 52.57861
25.285088 37.95668 51.08961
28.794088 48.281677 14.072609
26.998089 48.94568 15.120613
22.793089 50.885677 16.54361
21.030088 51.76468 17.635614
23.15709 30.766678 25.844612
23.593088 31.287678 27.865612
26.733088 29.053677 34.63861
27.194088 26.882677 34.572613
29.342089 1.3106753 1.2946167
28.103088 0.2336731 71.76461
25.686089 63.96068 3.1646118
24.643087 63.90268 5.377617
44.20709 41.302677 23.299612
45.43909 41.337677 21.24961
47.26209 37.24068 15.784612
47.48109 36.24168 18.218613
4.7840886 7.4966774 6.6336136
5.3680887 8.237678 8.308617
9.035089 9.777678 2.283615
10.090089 7.8466773 1.7286148
31.434088 55.142677 16.632612
31.863089 54.67968 19.077612
37.54409 48.97168 18.003613
36.40009 47.440678 19.043612
23.568089 19.578676 59.67861
21.90009 18.975677 61.12461
24.666088 22.623676 67.86461
26.683088 22.171677 68.396614
19.583088 68.63968 26.359612
18.898088 66.88968 24.913612
23.371088 61.64468 22.438612
24.793089 63.20868 21.859612
27.125088 37.01468 17.313616
28.274088 38.66168 17.359613
27.857088 43.48068 12.311615
26.465088 44.88768 12.6096115
26.284088 41.83268 69.26661
26.948088 40.27668 67.783615
23.299088 37.849678 3.2696152
22.832088 39.86968 3.8556137
21.15709 54.94368 66.61461
22.511087 53.614677 65.77261
19.614088 47.96368 71.65662
20.078089 49.19668 1.6176147
51.39909 39.56368 64.687614
50.87709 40.25768 62.63961
3.401091 45.88368 60.07461
5.502089 46.33868 61.122612
18.065088 33.38768 66.46161
17.482088 35.62468 66.01361
12.260088 36.83868 62.29761
11.220088 38.37668 62.365612
16.391088 24.906677 10.107613
14.760088 23.435677 10.364609
12.116088 19.093678 5.0186157
13.728088 17.364677 3.7806168
27.996088 57.70868 11.511612
27.618088 57.58268 9.100609
31.674088 56.878677 3.922615
33.37709 56.717678 4.929611
34.42909 38.22268 20.765612
36.62309 37.86768 19.690613
39.05809 32.870678 22.275612
39.45809 34.56868 23.700611
13.737088 9.947678 9.137611
15.027088 9.244678 8.073616
22.063087 9.689678 10.188614
21.82409 7.2546773 9.679611
21.100088 26.542677 17.769611
21.34109 26.712677 20.225613
13.888088 25.098677 20.557611
12.137089 25.255676 21.785612
47.39909 1.2296776 19.205612
48.166092 1.8376776 20.934612
45.03509 7.3746777 22.965612
43.73609 8.899677 21.88861
11.2000885 47.58868 52.85561
10.553088 45.55768 52.49261
7.3560886 44.77668 59.76561
5.7790885 43.66168 58.774612
13.149088 12.919678 15.240608
14.493089 11.875678 13.6966095
14.093088 4.1776776 13.207611
14.161088 3.9016776 11.055611
28.894089 22.518677 69.92561
29.233088 24.934677 70.78761
35.18409 23.185677 3.0716171
34.32209 22.873676 4.6736145
9.399089 28.902678 70.797615
8.298089 28.927677 0.5766144
5.9930887 22.888678 2.2056122
7.7760887 22.414677 3.502617
12.473088 29.908676 55.86061
13.526089 28.142677 54.52061
6.761089 24.341677 56.27361
8.217089 22.783676 56.43961
17.477089 14.187678 23.57961
18.32309 12.124678 23.693611
17.912088 9.820678 31.045612
16.22309 8.734677 31.727612
18.82709 6.7856774 66.768616
17.797089 6.8076773 64.31461
13.925088 10.772678 59.823612
13.461088 12.644678 60.97961
28.95909 43.86568 9.868614
28.32409 45.566677 10.835609
26.413088 52.455677 8.95961
25.279089 52.35268 6.832611
17.31609 1.3376757 1.596611
17.706089 2.4336765 3.6796112
23.820087 67.17568 5.516617
22.689089 65.39068 6.4686127
25.416088 8.558678 1.6476135
27.84809 8.555677 0.91161346
27.233088 6.8836775 65.713615
25.961088 4.971678 66.27561
16.52509 45.52268 25.466612
18.916088 45.93968 25.754612
20.094088 49.27068 18.649612
19.31009 49.023678 16.411612
19.139088 39.29968 58.90261
20.397089 37.74368 58.92261
20.552088 34.45168 65.477615
21.961088 35.50768 67.27861
14.804089 57.51968 7.0006104
15.265088 55.39568 6.488617
6.7230887 53.948677 6.0796127
6.5060887 56.07468 5.1736145
17.61109 41.55768 58.71861
16.398088 40.010677 59.39461
18.41709 38.725677 65.853615
17.32009 38.17468 68.09161
15.118089 12.223678 17.068613
16.395088 11.631678 15.428612
18.221088 6.9926777 10.344612
19.264088 5.6076775 11.310616
49.34109 14.356678 49.851612
50.47609 15.970678 51.75261
51.20509 22.651676 52.78461
1.2660904 24.358677 52.97961
21.809088 2.4876773 0.1816101
24.094088 2.4716709 0.86561584
26.106089 68.67068 6.43161
28.138088 67.41668 6.1266174
47.69809 51.82568 67.06861
48.59009 52.48768 65.323616
45.21909 48.690678 59.55461
43.17909 46.97768 59.88161
14.061089 34.482677 19.753613
14.319088 35.087677 21.333612
13.122088 38.57868 25.709612
12.120089 38.12968 27.662613
12.485088 57.11968 69.10861
10.771089 57.35168 70.29361
13.598088 59.30468 5.136612
12.957088 59.808678 6.9156113
5.3690886 49.37568 2.2786102
7.068089 51.54068 2.7516174
3.8910887 57.037678 5.1556168
1.9640888 56.066677 6.249611
49.52109 41.92868 10.01561
48.89009 41.46468 12.05761
43.93509 36.11768 11.963615
45.15709 34.70168 11.244614
18.345089 43.35168 8.106613
17.644089 44.55568 7.065613
17.950089 48.90068 3.0276108
16.81009 47.02168 2.476616
5.880089 66.81768 13.90461
6.1850886 65.37668 12.564613
1.3650888 66.311676 7.571617
1.1560888 65.13068 5.554611
1.8270888 40.42468 55.337612
3.9020889 41.232677 55.309612
5.9160886 42.371677 61.42961
8.388088 42.78668 61.30361
41.68909 48.10568 69.146614
40.44709 49.857677 70.15361
42.70609 53.11568 3.8816147
41.32809 53.767677 5.95961
0.15109253 11.535678 3.7936172
51.57509 13.645678 2.7506104
50.277092 18.257677 2.2276154
0.6690903 19.563677 1.4656143
39.94409 53.37268 47.328613
41.659092 54.72668 47.94961
47.37209 50.26268 50.552612
46.57809 48.53668 49.83261
4.649089 41.85268 26.665611
3.1600888 40.24968 28.071611
2.4050887 35.087677 31.402613
3.7000887 36.197678 32.13761
1.8610888 34.613678 1.4966125
4.104089 35.64668 0.8706131
4.1390886 34.920677 9.214615
2.7060888 36.87268 8.719612
12.5160885 53.82468 52.87361
12.150088 54.955677 54.566612
6.2260885 58.77868 50.87861
7.2960887 59.232677 49.28761
5.1260886 37.565678 10.712608
3.3300889 35.364677 11.7606125
3.7970889 37.60968 19.427614
2.5980887 35.802677 20.019617
7.7840886 17.744677 67.08661
6.3900886 18.526676 68.088615
10.875089 17.885677 2.924614
9.434089 18.544678 4.613617
14.348088 22.728678 1.4756165
13.496088 23.388678 71.51161
11.1080885 19.303677 65.313614
13.344089 19.282677 64.80561
38.93309 28.775677 29.832611
39.17409 27.317677 28.246613
46.66709 26.088676 28.153612
48.30409 27.313677 27.882612
45.32309 13.035678 68.21661
46.35209 14.649678 68.70461
47.12809 12.990678 4.5666122
47.09009 15.491678 4.9846115
26.017088 35.57868 52.15261
24.309088 34.91668 51.15361
18.655088 31.609676 51.93261
16.763088 32.57068 51.40261
51.61809 66.02868 54.40061
1.539093 65.79968 53.23161
0.21208954 66.22468 46.254612
51.51109 65.37468 44.04061
6.208089 9.068678 2.6616135
5.2960887 8.407678 0.2376175
11.459088 9.996678 70.50261
10.785089 10.581678 0.27061462
41.89809 27.647676 64.240616
43.534092 28.572678 65.33461
47.10809 22.376677 68.795616
45.66009 21.781677 70.55261
7.653089 59.32868 65.451614
6.5330887 60.885677 65.17861
11.010089 66.33868 65.91561
11.377089 66.76268 68.299614
5.999089 39.384678 20.213612
5.6600885 38.10868 21.622612
6.5410886 40.717678 28.120611
5.4160886 39.56368 29.726612
17.03509 41.41168 6.8786163
15.705089 42.21368 4.7186127
16.343088 39.26568 70.310616
16.829088 41.57768 69.17961
7.535089 67.27768 56.27661
7.9340887 64.30267 55.86461
3.8340888 61.65468 62.12861
1.9010888 61.49468 62.61061
43.88009 9.120678 44.879612
43.34509 10.000678 46.995613
41.14809 5.3156776 52.14561
42.83709 4.5866776 53.60561
1.9790916 32.94568 16.25061
0.79209137 31.584677 14.62561
0.652092 25.314676 16.796618
51.03809 23.818678 16.366615
29.19909 15.6006775 22.097612
27.672089 15.070678 20.403612
20.84109 15.127678 24.355612
21.056087 17.035677 25.369612
7.155089 64.76368 23.824612
7.266089 66.62468 24.544611
3.2850888 2.9006717 24.685612
4.511089 4.6726747 25.942612
18.565088 9.490678 41.100613
19.799088 10.535678 39.80561
16.589088 16.486677 39.176613
14.512089 16.867678 39.038612
34.54509 34.95668 4.0036163
34.09309 36.774677 5.471611
38.67909 40.544678 5.396614
39.645092 41.75168 6.68161
20.599089 44.47168 6.6196136
21.847088 42.86968 5.9076157
22.478088 44.52868 70.632614
21.401089 46.61268 70.08661
1.1470909 36.03568 62.32661
0.6010895 38.266678 61.82961
51.00709 39.36768 54.941612
50.10909 39.148678 52.990612
40.19709 40.07068 64.59661
41.63409 39.74068 66.41361
44.63409 34.86668 71.05361
44.07509 32.963676 70.87461
4.0780888 10.505678 3.1546173
2.5980887 12.345678 2.0956116
3.4010887 19.413677 2.8436127
3.4950888 18.732677 0.7626114
17.350088 34.84468 31.251612
18.412088 32.783676 31.901611
13.744088 27.348677 31.573612
14.342089 25.402678 30.925611
34.12009 63.61668 61.031612
34.72409 62.919678 59.448612
35.43009 1.465674 56.38361
37.30809 0.9456787 54.712612
45.08809 24.306677 10.823608
46.25009 22.676678 11.637611
47.53009 17.131678 11.638611
46.92309 14.437678 11.582611
45.72409 55.573677 4.9866104
44.68609 55.20268 3.1156158
38.75109 57.92968 70.58161
40.59809 58.01968 68.51461
44.66009 45.42168 61.46761
46.29009 46.46368 60.774612
51.21209 44.03668 56.29761
1.3290901 42.38768 57.163612
3.5390916 36.59068 64.59561
2.1550903 38.371677 64.34761
1.9630928 43.663677 68.95461
0.8490906 44.974678 68.37661
47.49409 25.689676 11.23761
48.617092 26.974676 9.858612
50.82809 24.089678 4.0936127
0.30709076 25.571676 2.4806137
43.763092 52.97268 67.063614
45.76409 53.69568 67.54461
46.96009 50.25668 1.9476166
48.84409 51.35368 2.5936127
41.86309 12.070678 51.84861
40.53009 11.301678 53.63461
38.60009 5.3046775 53.08161
37.68009 5.7786775 55.31461
28.596088 25.318678 68.28661
29.073088 23.419678 67.03961
27.224089 19.821676 61.71361
29.779089 18.475677 62.67161
27.141088 50.48568 17.634611
28.845089 49.83868 16.952612
26.726088 43.73768 22.494612
27.443089 41.94468 22.045612
48.80509 19.447678 56.59761
49.55109 17.743677 58.25761
51.44809 11.056678 57.95161
1.765091 11.458678 57.67361
45.05609 60.56768 28.318611
47.68109 60.14768 28.813612
45.70409 56.58868 35.67861
45.42109 57.29168 37.78361
45.37909 19.775677 16.492615
44.58309 21.499678 14.540611
36.69709 21.040676 15.357613
35.30009 21.049677 16.72661
5.3050904 11.121678 71.213615
3.63209 12.519678 71.54361
49.26009 7.5466776 70.19461
47.874092 8.259678 68.907616
29.790089 -2.2293222 22.428612
28.290089 -2.6073222 24.010612
27.131088 5.2676773 27.292612
29.364088 5.5576773 28.422611
41.63609 7.1286774 62.51261
41.17409 7.0876775 64.601616
45.25709 0.9086776 66.24661
46.01409 0.7206776 68.37461
49.81809 64.633675 61.83961
50.79809 62.731678 62.09161
48.48209 55.85368 61.80861
47.06709 55.356678 60.13361
35.91909 23.266678 44.04061
37.43309 23.076677 45.371613
32.77909 16.902678 45.413612
33.04409 17.598677 43.22361
40.33609 24.443678 55.90261
38.666092 26.396677 56.108612
38.65309 33.51268 55.68361
37.03909 33.93868 57.02561
24.30309 48.044678 0.81261444
26.205088 48.92568 71.854614
24.941088 50.60568 63.96461
25.976088 52.420677 63.80061
35.40809 12.502678 2.884613
36.23109 10.979678 4.025612
42.05609 12.839678 7.483612
42.19909 15.153678 6.7046127
35.19509 66.41268 3.1916122
33.63309 66.59568 4.7136154
34.056087 64.52868 11.534615
35.38209 66.16868 12.882614
45.80509 -0.7563224 61.29261
45.16409 1.7356776 62.00261
39.32109 1.9226776 56.03761
37.46209 3.2976778 56.69661
18.679089 7.8996773 0.5716171
17.03209 6.176677 72.15161
17.269089 -0.40732238 69.16661
17.964088 -0.49032244 71.24861
32.764088 38.88668 18.709612
30.523088 39.34168 18.80861
28.776089 45.40368 14.065612
27.073088 46.22068 14.994612
18.429089 12.371678 52.88161
18.11909 11.833678 50.97761
12.748088 16.876677 53.643612
12.145088 15.294678 55.13561
35.79809 48.356678 58.66661
36.73609 49.86968 60.219612
29.243088 51.857677 61.79861
30.118088 53.11168 63.740612
37.93109 43.09068 10.468613
38.02609 44.412678 12.311615
34.24909 51.11668 10.93161
33.69309 51.47668 9.16761
2.8280888 36.57568 48.204613
4.5390887 35.89668 47.198612
9.744088 41.981678 45.93161
9.272089 44.53368 46.086613
19.829088 67.17468 63.26761
21.608088 65.86268 62.28461
24.622087 63.599678 66.909615
26.489088 62.30668 66.79361
23.254087 25.563677 1.9136124
23.909088 26.774677 3.488617
22.859089 24.936678 9.814613
22.359089 23.159678 11.350609
44.28909 10.021678 11.461609
46.10309 8.896678 11.865608
49.62609 14.978678 11.017609
49.33009 16.214678 13.1996155
45.74809 23.580677 29.488611
46.22209 23.239677 27.343613
48.05709 15.642678 27.990612
48.90009 16.819677 29.624613
21.511087 9.535678 0.3626175
19.700089 10.658678 0.38261414
16.769089 7.8686776 2.7436142
14.625089 8.026678 2.085617
37.12609 45.15268 56.49261
38.12009 45.01168 54.71661
38.75509 53.107677 57.71561
41.21809 53.24368 57.89561
48.71609 55.76268 36.905613
47.26409 54.080677 36.47761
48.69809 48.301678 41.52161
50.60009 49.552677 42.877613
27.56009 60.83268 68.782616
24.852089 60.48368 68.97061
27.41409 53.06468 0.81461334
25.762089 51.70668 71.72461
36.48009 29.446676 28.620611
36.92109 27.771677 26.315613
33.82509 30.032677 19.192612
34.16609 28.164677 18.793612
24.718088 37.06768 55.72061
26.143087 37.52668 54.07461
29.964088 34.75768 59.60461
31.229088 35.07068 61.76361
36.22109 24.858677 68.58661
37.32509 26.637676 68.20961
33.507088 32.48568 1.1196136
35.73009 33.405678 2.096611
43.22409 5.2176776 13.979614
43.00909 7.3366776 13.6736145
44.37209 12.016678 18.916613
46.41109 13.651678 18.760614
8.806088 -0.51832247 7.7966156
10.491089 1.1706775 7.3196106
7.0340886 2.8216777 1.0656128
4.813089 3.1066775 2.0536118
19.627089 65.52968 11.870613
21.631088 67.00068 11.353615
18.29609 1.2506777 13.517609
16.220089 2.5986774 13.363609
24.044088 54.54168 8.40361
22.40709 55.830677 9.11161
22.331089 58.74268 1.6336136
20.329088 59.58468 2.08461
17.846088 57.85468 18.266611
19.095089 59.163677 16.94761
21.529089 55.87568 11.91861
21.55309 58.11068 10.84861
34.06509 44.96368 0.8096161
33.28109 44.73068 2.7866135
34.063087 36.69668 1.872612
36.20509 37.468678 3.3386154
26.312088 40.83368 41.47861
25.297089 41.745678 43.45961
27.75809 43.70068 50.56761
26.78909 41.705677 51.75061
30.391088 33.238678 35.024612
30.405088 31.447678 33.02561
25.45909 33.47368 27.224611
23.65009 33.974678 27.596611
18.689089 43.25168 13.523613
16.75809 42.38668 14.905609
12.649088 38.77268 15.694611
10.6670885 39.47068 15.219612
21.233088 21.996677 40.65761
22.374088 21.617678 38.232613
24.92109 29.867678 37.65161
23.608088 30.492678 36.106613
11.102088 45.27568 14.553612
12.782088 43.77968 13.603615
14.481089 40.288677 6.523613
12.554089 40.441677 5.1196136
45.69209 3.6346729 53.00261
44.74109 2.9786747 55.21061
49.00309 68.27768 54.54261
50.10909 67.01968 56.18861
24.570087 66.95568 8.457611
22.840088 65.50868 9.227615
26.104088 59.83568 11.254608
25.194088 58.323677 9.929611
18.919088 65.45268 15.007614
18.891088 67.12768 14.024612
26.249088 1.4196764 16.157608
27.044088 69.36068 14.508614
35.67109 7.6576777 11.399612
34.00909 5.8766775 10.604614
29.057089 3.5116777 14.622612
29.450089 1.4806776 13.464615
10.054089 38.691677 4.9166107
11.400088 37.856678 6.4876175
9.775088 35.08868 13.106613
10.429089 36.93168 14.034615
13.082088 36.63768 8.775612
14.285089 37.60168 7.363617
20.135088 41.669678 9.951614
20.972088 42.120678 8.337616
29.618088 22.332678 54.49261
28.793089 21.503677 52.89461
27.30309 19.432676 48.47061
25.759089 18.447678 47.47761
28.240088 22.056677 41.35361
26.364088 22.699677 40.732613
29.565088 27.434677 35.56061
29.297089 29.965677 35.05361
4.325091 63.31068 19.765612
3.280089 64.103676 17.996613
51.242092 0.7396774 20.706612
50.99009 2.3026721 22.136612
9.844089 11.032678 57.46361
8.247088 9.203678 56.56561
1.6110888 8.647677 57.441612
0.7360887 6.7776775 58.91061
20.196089 10.240678 61.67261
20.602089 11.051678 63.74161
19.956089 12.311678 70.38861
20.505089 9.866678 69.30361
16.01809 63.95268 6.2906113
15.282088 65.09868 8.561615
15.6340885 3.0026767 8.59861
13.805088 3.1416767 7.9866104
17.356089 27.492678 60.70361
16.826088 28.151676 58.68761
18.478088 30.639677 63.858612
20.287088 31.648678 65.323616
29.765089 8.917678 62.50061
28.026089 8.917678 63.49961
26.202087 15.947678 67.91161
28.291088 16.012678 69.10761
24.951088 44.38268 3.4846115
24.498089 44.09068 5.45961
22.649088 49.842678 2.0786133
24.408089 51.69368 2.0806122
32.88509 54.24968 64.18261
32.20309 54.080677 62.54161
34.285088 54.212677 54.75561
35.68609 52.58868 54.70661
8.7920885 35.64068 64.07061
8.977089 33.474678 65.13361
3.6620889 33.78268 71.20861
1.3630888 33.81068 71.187614
8.230088 65.51568 20.507612
8.545089 66.65268 22.156612
10.074088 4.2186723 22.20461
8.368089 5.1416764 20.224611
19.681087 38.03568 32.996613
20.386087 39.627678 34.15161
24.234089 42.80568 29.384611
25.941088 41.93168 30.903612
3.3580887 6.1156774 9.16761
3.8640888 4.3806777 10.409615
3.9520888 -1.3323225 4.0406113
5.1850886 0.39867762 2.3756104
10.798089 52.37368 11.338615
10.610088 49.823677 10.697609
13.839088 49.25068 4.5766144
15.635088 49.98068 3.2436142
17.84409 21.640676 54.899612
17.88909 23.770678 53.67461
25.038088 22.836678 56.55361
24.293089 20.777678 56.33161
7.6730905 19.806677 6.307617
6.0130906 20.568678 4.943611
50.83509 22.273678 8.26461
49.68609 21.518677 5.5556107
21.337088 67.31368 49.11361
20.979088 68.14968 47.114613
24.94909 67.54068 43.50761
26.674088 67.17968 42.704613
26.043089 44.26468 68.58661
27.29609 44.24168 66.71061
32.604088 48.641678 66.48061
34.694088 47.753677 67.018616
9.621089 44.572678 16.780611
8.277088 42.92868 17.099611
10.297089 42.565678 25.478613
9.351089 44.79068 25.532612
2.86409 11.584678 17.328611
2.62109 10.045678 15.764612
48.513092 11.8766775 19.038612
48.16409 12.807678 21.167612
37.46009 65.11468 49.45661
39.35309 64.19468 48.078613
44.97809 69.29068 47.47061
46.23409 68.26668 45.920612
0.13209152 -3.2033222 2.9476166
1.2020912 -1.4253224 3.5256119
49.29509 5.1826773 2.910614
49.41009 5.8846774 0.6516113
28.423088 41.01868 59.32261
29.321089 43.072678 58.75861
25.061089 48.45968 61.14561
24.846088 48.01268 63.469612
3.1560888 63.11868 53.71361
4.997089 61.302677 53.03461
7.5330887 58.77168 59.323612
9.906089 58.92368 58.70261
8.705089 57.94268 67.46961
10.647089 57.891678 66.69661
7.675089 56.32868 60.13261
9.707088 56.18868 58.71861
39.909092 12.025678 44.960613
42.02309 11.555678 44.94461
46.20909 18.749678 43.531612
43.97509 19.106676 43.69961
7.8350887 42.62468 5.9356155
9.839088 43.100677 7.200615
8.189089 40.961678 15.090614
6.589089 40.01968 16.179611
36.06509 32.429676 17.111612
33.96309 32.342678 17.660616
27.158089 32.789677 15.498611
27.017088 33.40468 13.5486145
47.19809 61.13868 71.687614
45.12309 61.127678 0.37161255
43.70609 60.75768 7.561615
44.62609 59.14368 8.829613
37.22409 46.74368 21.972612
39.39009 46.52168 21.68361
40.381092 39.259678 26.156612
39.72609 40.58568 27.724611
33.99909 35.26968 64.86261
33.72309 36.92968 63.94461
26.07409 39.988678 65.09561
26.19209 41.92468 65.25861
4.188089 49.184677 70.48461
4.6850886 47.14768 70.17761
6.7030888 42.42468 64.23561
8.945088 42.81968 64.158615
22.863089 7.6556773 1.9256134
21.015089 7.1186776 1.6596146
18.70909 4.431678 8.852615
16.77809 5.6556773 8.267616
36.32209 -0.8663224 38.44361
38.09109 -0.21532236 39.23561
37.70409 1.6686776 44.93061
39.04309 1.6346776 46.97861
6.630089 11.080678 55.36161
6.360089 9.5016775 54.20161
3.7940888 11.553678 48.614613
5.714089 12.424678 47.26561
51.12709 43.85568 70.534615
48.96509 43.11868 70.644615
44.25909 40.61768 66.49561
43.70409 40.07468 68.22261
46.53209 55.04168 38.79761
46.67409 55.94568 40.58461
48.242092 49.47268 44.926613
47.30809 47.62968 43.683613
37.63509 46.413677 59.031612
39.16209 45.04668 58.64261
42.44709 41.66168 63.879612
43.99509 42.77668 64.73061
41.58209 59.00468 18.227617
41.65009 57.273678 16.535614
36.08809 60.07168 12.025612
35.19509 62.184677 12.48761
36.30109 13.701678 69.407616
34.88409 13.677678 67.159615
35.31409 13.917678 59.61761
37.21709 12.972678 58.66661
39.09309 63.61868 54.68961
40.87909 64.40568 53.76261
40.45509 3.1166751 53.76661
38.46709 2.672675 53.17661
47.91909 26.905678 56.587612
48.88909 28.856676 56.48061
43.71209 31.657677 61.27561
42.86209 30.438677 62.830612
36.86409 5.2136774 3.4786148
38.99509 4.2646775 3.4826126
40.87709 -2.0093224 4.589615
43.10409 -2.1913223 3.5196152
47.24009 10.091678 47.115612
45.45509 11.570678 47.03661
42.78009 17.107677 49.60661
43.34209 18.192677 47.44961
50.33009 47.79868 33.307613
50.50709 45.68068 33.15161
4.4460893 42.989677 30.223612
5.4850907 41.61568 31.436611
12.037088 60.65068 29.007612
11.683088 58.41168 28.987612
13.154088 53.85568 35.217613
11.963088 51.92868 35.90261
25.958088 61.88968 1.2786102
24.301088 60.670677 2.283615
26.934088 54.489677 6.436615
28.274088 53.26168 4.8126144
3.7420907 22.023678 3.0926132
3.7630906 21.886677 1.1836166
1.0800896 25.934677 67.64861
51.07509 25.229677 66.674614
46.90409 41.24068 63.469612
48.45209 39.48668 62.54161
49.61909 41.70968 55.17661
48.57309 41.33368 52.79961
36.92009 42.927677 53.63161
37.10909 42.36568 51.36361
37.20909 36.37968 55.88961
37.99409 37.70268 57.46761
36.19809 30.937677 7.4116135
38.22709 30.155678 7.462616
43.28309 34.148678 7.4216156
43.60409 32.956676 9.559608
36.79309 19.872677 55.09161
38.11909 19.738676 52.94461
45.07109 20.650677 58.30561
45.29009 22.359676 56.92261
35.784092 20.423677 58.86061
34.25309 20.447678 60.43861
27.861088 25.107677 57.63861
28.63309 27.179676 58.86761
45.21809 17.950678 61.622612
43.84109 19.138678 60.27361
39.02409 15.517678 55.61461
39.89009 13.708678 54.643612
21.831089 26.071676 71.25161
22.387089 27.892677 0.8946152
22.929089 34.32568 1.6936111
23.106089 35.22668 3.7086105
7.293089 4.2596774 66.686615
9.287088 4.2706776 66.01761
12.478088 11.333678 66.16561
14.904088 10.914678 66.74961
38.25509 43.913677 4.8956146
39.92909 42.384678 3.6636124
39.44509 40.04268 69.06761
39.75309 41.70068 67.021614
33.90509 67.60568 39.49261
33.61909 65.92168 40.62561
26.905088 63.06468 41.530613
25.78209 64.96368 41.13861
35.34609 46.96368 69.66461
36.95109 48.295677 69.05461
33.89409 53.704678 68.102615
35.520092 54.871677 67.47261
29.36909 16.036678 47.552612
27.510088 16.421677 48.38061
21.082088 14.439678 49.74461
20.455088 12.132678 49.50961
12.885088 38.684677 68.05361
13.798088 40.14068 70.32861
12.152088 36.988678 4.1316147
13.7660885 35.88168 5.327614
50.48909 7.5036774 3.6096115
48.06109 8.155678 3.9266129
46.83709 5.0096774 72.01561
47.73109 5.2936773 70.05461
48.80909 23.044678 18.073612
47.54009 22.359676 19.990612
0.5970917 16.084677 21.816612
50.652092 14.498678 21.119612
36.61609 12.1596775 18.898615
38.34109 13.545678 18.686617
37.01009 17.194677 11.142609
35.24809 17.017677 11.108612
29.652088 1.5216776 68.632614
30.379087 1.5586776 70.95561
32.250088 9.183678 71.34861
31.56709 9.687678 1.5376129
30.143087 60.55568 60.68661
30.106089 62.93568 60.33261
32.73909 62.030678 52.56061
31.542088 62.905678 50.63761
31.589088 53.11268 54.48661
31.351088 52.96468 56.52361
30.693089 44.51568 56.72461
32.097088 44.288677 57.89761
32.21709 55.40968 67.159615
30.781088 56.106678 68.920616
24.110088 56.00168 65.73861
23.514088 57.58468 64.58361
37.34809 63.31368 60.56261
39.41209 63.343678 61.44361
35.78609 58.822678 67.813614
37.26009 57.39368 68.27361
38.75309 18.599676 70.95861
40.38209 17.156677 71.85661
45.03209 22.793676 0.66161346
44.51209 25.122677 0.44661713
43.82109 15.216678 9.128609
45.09809 13.679678 9.868614
48.42409 7.7676773 8.505615
46.50909 7.5496774 9.386612
20.457088 17.557676 0.41461182
21.057089 15.155678 0.8436127
12.898088 12.312678 71.72161
14.034088 10.983678 69.714615
36.17309 38.04668 16.65261
35.61809 36.08568 16.449615
36.38409 34.475677 9.328613
35.37709 32.268677 9.559608
19.909088 1.7996737 55.16161
18.416088 1.139679 56.77361
17.78809 65.26668 51.73961
18.162088 67.01568 50.57161
36.04309 43.84868 6.164612
34.76509 45.725677 4.837616
38.22509 52.44268 8.961609
37.17709 53.61568 7.124611
12.536088 0.64567566 9.172615
10.808088 69.04668 9.8596115
9.072088 64.05968 6.075615
7.214089 64.42868 5.3106155
1.5020905 31.970676 58.22061
0.05809021 30.520678 58.823612
45.69309 36.14468 61.41661
44.52109 36.00568 59.78561
20.800089 56.954678 64.28061
21.102089 59.12468 64.23761
21.224089 57.78268 71.41961
19.052088 57.22868 71.01461
23.814089 50.22768 33.44561
23.98709 51.97368 35.29161
15.344089 52.26568 36.44361
15.426088 52.739677 34.573612
35.30709 23.179676 51.413612
35.97109 21.210676 52.04761
29.85509 17.906677 49.531612
28.684088 18.864677 51.29461
41.33509 15.142678 52.434612
42.59109 13.967678 54.00761
48.80309 12.688678 51.99261
50.10409 11.821678 53.33661
38.659092 16.606678 52.91961
38.38309 14.191678 52.34561
31.350088 11.244678 52.56061
31.640089 9.214678 53.66661
35.12609 29.358677 45.92161
36.07109 27.751677 44.74861
34.19809 30.322678 38.97261
34.98409 29.629677 36.753613
16.123089 52.01568 65.34561
14.171088 52.961678 64.04261
17.402088 59.58468 61.07161
18.266088 60.21068 58.84261
50.31509 61.65468 13.613609
50.07809 61.148678 11.319611
4.9730897 60.98368 6.938614
3.9770913 59.74068 4.807617
17.173088 29.677677 10.281609
16.350088 31.478678 9.872612
12.499088 34.086678 13.532608
11.879088 35.00668 15.36261
6.4890885 0.2886734 71.66661
4.5190887 68.312675 0.22261047
0.66808885 62.81768 70.30161
2.4140887 61.76968 68.91461
42.44609 66.95768 59.79761
42.09209 64.690674 59.45161
46.21609 60.11668 58.46361
44.57609 59.63068 56.96461
51.138092 27.636677 11.805611
51.14809 28.356676 9.599609
47.72509 33.50468 4.938614
45.33009 33.52068 5.94561
24.184088 39.27668 43.23661
24.92809 37.70868 44.72761
23.188087 30.852676 39.81861
23.078089 29.351677 41.844612
12.105088 32.155678 11.352615
10.045089 31.292677 12.377609
12.421088 23.860678 12.290611
14.298088 22.662678 12.994614
26.412088 65.908676 45.04961
24.660088 64.39268 44.57561
20.07409 65.06068 50.25561
18.93109 63.04868 50.66461
6.275089 15.672678 66.381615
5.0940886 14.291677 67.214615
2.4630888 14.736678 60.483612
1.2380888 15.645678 58.71861
50.43109 6.3486776 67.993614
51.34109 4.8516774 66.27461
44.44309 5.6096773 61.87561
45.65009 4.2156777 60.58661
10.546088 21.523678 42.489613
12.537088 21.367678 41.836613
13.6410885 14.274678 45.61761
12.490088 12.905678 47.13161
18.51109 3.8046777 65.89761
17.085089 4.2506776 63.99261
12.685088 0.123677626 69.035614
10.852089 0.08067764 68.255615
11.113089 1.6926776 63.629612
9.715089 3.9086778 63.247612
11.304089 10.267678 59.86461
10.590089 12.550678 60.99561
6.4470887 45.655678 43.483612
7.0870886 45.50868 41.615612
5.6990886 52.18868 36.844612
6.2520885 50.836678 34.65961
22.957088 48.06068 49.75561
24.248089 48.54268 51.004612
28.023088 55.32668 51.20361
26.262089 56.20068 52.43161
14.470088 21.190678 15.183612
12.647088 20.802677 14.492612
13.263088 18.522676 22.188612
14.933088 17.728678 23.450611
35.70909 35.95968 40.538612
36.58209 37.45368 41.600613
43.60609 37.32768 37.66061
44.18609 35.447678 38.120613
0.883091 16.502678 40.538612
2.282093 16.403677 39.23661
49.08709 22.511677 37.95261
47.36009 21.485678 36.65861
14.976089 4.7836776 61.51061
16.564089 3.4846778 59.52961
17.62909 10.207678 55.25961
18.676088 12.190678 55.74161
1.2770888 -0.6243224 58.15761
1.2540888 0.6996776 56.42261
8.590089 3.6076777 60.02761
7.2050886 3.9356778 61.79161
39.54709 41.09168 20.233612
40.74409 39.79068 18.721611
41.88909 33.44668 22.772612
42.55409 31.570677 21.418612
50.97209 54.50868 61.524612
49.45109 54.183678 59.837612
0.9910927 47.38268 62.32561
2.5810928 48.49468 61.06461
6.6160913 57.010677 47.22361
5.127089 57.40068 48.70761
49.69209 57.15168 48.11861
50.03109 57.613678 50.087612
5.8350887 42.24268 72.157616
6.3950887 41.350677 70.088615
13.544088 42.85168 69.10961
14.411088 41.90768 67.213615
5.8910885 52.97168 70.478615
7.141089 54.184677 68.87461
10.987088 49.69668 64.66761
12.351089 51.02668 64.23861
27.749088 64.840675 52.56361
26.73009 65.94668 50.54261
27.342089 63.16868 44.134613
25.665089 61.849678 44.545612
22.354088 32.699677 68.27261
21.034088 30.676678 67.65161
15.2000885 27.940678 71.784615
13.114088 28.098677 70.978615
27.583088 17.250677 66.24961
29.800089 17.482677 65.73661
34.458088 23.288677 66.29161
33.90809 25.484676 66.98561
48.97309 4.1476774 45.066612
49.12609 5.9126773 45.66061
47.06609 5.9456773 53.25061
49.42509 5.6856775 52.79861
12.928088 22.167677 61.72861
12.692088 20.284678 62.60361
12.3250885 13.699677 58.58161
10.785089 13.434678 57.11261
13.184089 23.170677 29.394611
12.551088 22.861677 31.289612
18.391088 19.081676 34.58461
17.50109 18.453676 36.67161
31.738089 -0.27732238 2.1976166
34.15809 -0.41132244 2.6036148
39.152092 3.5246778 0.5786133
37.98809 6.0286775 1.1306152
47.27309 25.141678 54.11961
47.27309 24.072678 56.13161
1.4200897 25.512676 61.05061
2.0890923 27.540676 59.96161
48.93109 16.559677 65.51161
48.29309 14.488678 64.49661
0.5450897 10.087678 60.53961
2.1090927 10.335678 62.27361
25.563087 66.38068 54.86861
26.161089 63.88868 54.33461
26.205088 63.82768 62.28761
24.212088 64.93068 62.03261
10.144089 16.695677 65.171616
8.131088 17.108677 64.35661
3.8720887 12.509678 60.80661
4.5460887 12.977678 58.46361
39.11509 2.5386722 68.38661
40.38009 2.9486759 70.20661
41.76009 64.83468 71.74661
43.08809 63.773678 70.73661
12.762089 23.586678 64.39061
14.115088 21.885677 65.16961
17.944088 21.719677 71.51161
17.76809 23.088676 0.8916168
1.4530907 3.896674 13.698608
0.9880905 4.1396775 11.372612
51.492092 66.25868 9.595612
50.70909 65.15468 10.977615
40.24009 7.9746776 59.51661
38.409092 8.336678 59.37661
31.891088 9.063678 60.69561
32.81009 10.783678 62.13361
43.09909 8.666677 65.34461
43.15709 8.236678 67.688614
40.25809 16.090677 69.46061
41.42809 16.900677 68.104614
43.42309 33.35368 52.39661
42.52809 31.305677 53.851612
37.78209 29.230677 47.92161
36.59709 31.008677 47.780613
5.1540895 47.55368 46.238613
3.1050897 47.01468 46.620613
50.32709 45.30068 53.66461
50.08009 43.54068 52.03961
16.899088 48.17168 0.016616821
15.140088 48.16868 70.643616
9.093088 47.30568 2.6656113
9.456089 49.42968 3.95961
16.43409 35.71368 68.80361
18.454088 34.627678 69.31761
13.274088 30.057676 0.8976135
12.621088 30.894676 2.2866135
2.4290888 24.300676 55.61761
4.761089 24.380676 54.69361
8.168089 24.914677 49.13761
8.684089 23.143677 50.18661
8.609089 35.593678 53.77161
6.977089 37.52268 54.844612
5.0940886 33.09868 61.46661
4.939089 36.01468 62.09261
14.138088 25.010677 60.879612
15.841088 25.458677 59.64061
15.528089 20.135677 55.89261
13.789088 19.198677 55.46761
3.9890888 30.982677 71.46661
2.4810889 29.385677 71.04061
7.136089 26.164677 5.938614
6.6860886 24.014677 5.5486145
18.56009 19.804676 52.96661
20.036089 19.862677 54.23161
27.134089 16.091677 52.94061
27.076088 16.418678 50.969612
9.236089 52.475677 60.12461
9.874088 52.100677 57.76461
14.730088 46.745678 58.448612
16.064089 48.37368 58.07761
1.2070923 60.399677 52.31561
0.60209274 59.37668 53.77061
51.35409 65.70668 58.143612
1.4810905 66.12968 56.54261
8.341088 44.93768 2.4906158
7.161089 45.66068 4.394615
0.37608883 44.46068 5.568611
-0.9019113 44.212677 7.1666107
9.059089 33.816677 61.98961
9.522089 32.852676 60.57261
11.646089 26.021677 57.62361
13.116088 28.488676 58.03961
7.749089 39.156677 32.97361
7.637089 41.54768 33.45061
8.072088 42.406677 40.97761
6.9010887 41.91768 42.344612
0.6620903 38.530678 51.44361
2.1220932 40.495678 51.51761
51.42409 45.70768 46.11961
49.75509 46.059677 44.58961
45.33109 21.748676 18.326612
43.71609 23.296677 17.634611
46.80609 25.105677 24.253613
45.87709 26.655678 25.531612
35.16409 14.205678 71.922615
33.688087 13.681678 0.76161194
31.028088 21.067677 3.6176147
29.562088 19.347677 5.1356125
40.43409 6.2156773 45.91861
38.75709 6.1906776 43.82461
38.71809 4.2846775 37.34061
39.89109 4.4086776 34.89061
49.41409 41.72068 33.858612
48.409092 43.22968 32.598614
43.70009 44.912678 31.068611
42.65109 45.60868 28.834612
1.8850899 16.193678 36.351612
2.1550903 13.671678 36.093613
49.67509 8.338677 39.474613
49.11509 10.516678 41.108612
44.59809 47.787678 66.102615
43.13409 46.72068 67.437614
46.69209 41.93668 72.07261
47.63209 43.092678 1.1846161
46.48909 14.666677 32.84161
44.84609 15.073678 33.83261
46.85909 8.662678 38.05461
44.77309 7.2236776 37.63161
9.359089 61.86768 26.663612
8.245089 63.81068 26.171612
14.0090885 65.770676 26.891611
15.241088 67.44668 27.052612
38.17209 53.81468 54.90861
36.87309 55.19368 53.17961
37.08409 63.17868 51.59361
38.91109 63.71968 51.86861
32.80109 45.482677 8.185616
32.63509 44.871677 6.160614
26.210089 49.24468 2.6556168
26.974089 51.32068 2.8036118
38.53209 11.371678 42.68861
40.20109 10.175678 42.968613
46.87209 9.012678 40.69561
46.88409 6.8976774 40.37461
50.82809 0.49167633 45.232613
48.506092 0.83867645 45.39761
47.69609 66.78268 52.77261
45.77409 66.506676 51.95361
40.513092 45.031677 56.28961
42.37509 44.88268 57.67861
47.57309 45.649677 53.27661
47.77309 47.00068 51.29961
38.89309 27.718678 44.947613
40.57109 29.377678 45.365612
37.18209 35.801678 43.91561
34.69809 35.44668 43.11261
39.05009 51.75868 67.702614
40.55409 52.39468 66.49561
45.01709 54.21068 64.48961
46.08809 55.13268 63.16461
2.3000908 53.38868 58.51261
1.7040901 53.06468 55.94361
47.81409 48.837677 53.316612
47.08509 47.62668 55.29361
28.256088 3.4176776 58.35261
29.520088 2.9246738 60.41561
29.705088 66.68268 64.56861
31.086088 65.271675 63.323612
51.52109 29.810677 56.28761
2.3670921 29.230677 56.22161
3.259089 35.31768 51.115612
2.9980927 37.28968 51.40461
20.05309 27.675676 61.99261
20.604088 29.539677 60.95761
26.773088 33.36968 60.88461
27.22309 34.65068 59.36261
38.65009 63.70368 1.8166122
38.44309 65.59768 2.372612
37.117092 0.8176727 68.12061
36.45909 0.2846756 65.86261
31.340088 14.923678 69.68061
30.534088 15.707678 67.65461
32.85509 18.188677 61.566612
33.41809 16.958677 59.198612
7.938089 21.223677 43.497612
7.774089 22.979677 42.89461
4.077089 23.044678 36.25061
5.412089 24.519676 34.731613
51.23009 27.226677 62.622612
50.92109 24.932676 62.60761
43.84109 23.598677 59.42961
43.80809 25.375677 57.73561
35.13609 65.78068 63.91261
33.37109 63.99968 64.077614
37.32709 60.52768 69.30261
38.40809 60.57768 71.035614
21.482088 1.8436724 23.477612
23.774088 1.9476763 23.865612
23.79609 67.590675 31.717611
23.173088 0.13467407 32.78561
40.15509 26.733677 47.371613
38.131092 25.726677 47.36061
40.94509 19.196676 48.70061
40.08609 17.296677 49.23761
14.460089 56.36668 36.51361
14.273088 57.88868 37.59661
8.681088 61.60368 32.41661
8.479089 60.15068 30.650612
20.436089 34.78268 10.791611
22.458088 34.36968 9.525612
26.134089 40.82468 8.095612
24.960089 42.01568 9.629608
35.25109 26.210676 64.58261
33.52909 26.988676 64.754616
30.455088 30.520678 64.129616
29.000088 30.436678 65.59161
43.81109 52.467678 26.028612
43.38009 51.90768 24.300611
40.21209 57.73568 20.334612
39.58109 60.10868 20.608612
42.12709 17.200678 39.25861
39.07809 17.712677 39.163612
35.52209 13.054678 42.064613
34.45909 14.304678 40.36961
36.30509 21.825678 61.34861
35.53509 22.703676 63.69461
38.26909 15.868678 67.561615
36.87309 16.972677 69.58661
37.04509 23.080677 59.004612
35.79609 23.199677 57.41861
35.54409 32.011677 58.04761
34.78209 32.559677 56.23461
37.67509 42.59068 48.45661
37.00209 40.64568 49.018612
39.08909 34.815678 53.09561
39.59409 36.04068 54.899612
17.73609 11.417678 45.281612
16.11209 12.7586775 45.689613
19.30309 19.118677 48.04861
21.594088 19.726677 47.670612
38.31509 42.68268 64.76761
37.01109 44.29168 66.076614
41.00209 49.60468 66.80361
43.34309 50.309677 66.16261
41.645092 44.413677 38.44561
41.24409 46.90768 38.807613
36.42709 49.04168 41.81961
34.80009 48.620678 43.483612
24.66409 45.343678 0.4276123
26.315088 46.29668 1.1646118
32.80809 46.15868 70.67761
33.452087 44.42368 70.047615
31.977089 58.39068 69.34661
33.30309 57.781677 67.297615
33.12809 60.99468 60.62861
32.868088 59.496677 58.95961
26.319088 4.1866775 72.16861
27.840088 5.6666775 0.37861633
26.292088 7.6586776 6.652611
24.870089 7.6516776 8.0746155
20.415089 19.682676 39.59061
19.874088 18.871677 37.98461
22.401089 11.592678 39.51361
21.321089 10.415678 37.183613
25.538088 24.174677 58.64561
24.658089 25.897676 60.156612
25.974089 25.155678 67.71961
26.259089 27.072678 68.65561
38.68709 17.090677 29.716612
38.64309 16.212677 31.931612
36.277092 14.048678 37.892612
36.27609 16.011677 38.724613
45.40809 66.18168 41.97261
44.506092 65.021675 43.96561
47.78009 58.27268 43.03461
50.513092 58.378677 43.56061
42.26509 12.976678 2.8896103
41.84709 13.807678 0.91361237
41.25709 5.7026772 0.18461609
41.41409 5.393677 70.12661
12.790089 13.631678 32.13961
12.102088 15.239678 30.618612
16.961088 17.605677 25.243612
18.36209 16.449677 25.314611
4.4490886 27.738676 58.77161
4.076089 30.199677 58.41161
9.350088 31.132677 51.76461
7.436089 30.776676 50.39661
29.831089 41.70968 8.339615
28.332088 41.391678 9.647614
32.43209 35.968678 14.720612
33.40609 37.717678 16.23761
33.58009 50.829678 67.07161
36.17709 50.99968 67.15261
38.55409 53.245678 60.53061
41.11909 52.51468 60.61061
41.78809 27.169678 6.8956146
41.57409 26.124678 4.9376144
37.22409 24.819677 2.1656113
37.34509 22.952677 0.6946106
42.25909 43.68168 51.27661
41.388092 43.04968 49.06761
43.87909 37.31068 45.31361
42.93309 36.41568 43.02661
1.1350888 24.023678 64.449615
2.4040887 26.248676 63.89061
2.5710888 28.623676 68.39261
2.9720888 31.039677 68.87361
28.135088 5.5086775 60.094612
27.826088 7.2666774 61.19061
22.57409 11.967678 61.57961
21.286089 11.759678 59.48961
37.09909 9.407678 33.33361
35.03809 8.486678 32.79361
33.21109 15.951678 29.197613
31.582088 14.827678 27.803612
31.511087 1.8396776 54.20461
33.41209 2.6286776 54.75961
35.87109 1.8866776 48.21561
35.89709 0.61867756 46.58361
35.97609 58.350677 44.128613
33.861088 57.56068 45.47861
27.125088 58.90768 41.968613
28.212088 57.746677 40.391613
14.099089 50.67568 55.44961
13.730088 52.670677 54.88761
19.588089 56.18768 54.45261
19.750088 58.433678 54.48861
8.179089 69.02668 58.15561
9.603088 67.01568 58.68161
14.926088 2.4806736 57.67861
15.925088 2.2636707 55.56161
8.103088 52.198677 13.526611
5.9040885 51.29168 13.398613
9.923089 45.59168 8.197617
8.720089 45.948677 6.769615
1.8480889 48.37568 64.77261
2.7440886 49.878677 63.42261
10.162088 45.72768 63.64861
11.381088 47.40068 63.15161
14.688088 31.637676 41.696613
15.7990885 29.697678 40.877613
17.142088 30.686678 49.40561
19.354088 30.631678 49.136612
23.225088 29.508677 67.23661
24.429089 31.605677 67.241615
26.278088 37.47968 62.07161
25.093088 36.34868 59.84161
11.887089 13.234678 10.810616
11.619088 11.2256775 9.790611
5.6390886 9.114677 14.754608
6.971089 10.564678 16.136612
8.402088 14.230678 66.952614
8.503089 12.173678 68.33061
3.6470888 6.8366776 64.30761
2.4920888 7.5936775 62.70161
25.903088 45.48068 52.14061
23.998089 45.559677 50.65261
18.325089 44.287678 57.43161
16.898088 43.06068 56.39161
38.45009 59.023678 41.238613
37.41709 60.00468 39.454613
38.11009 66.00968 35.53361
38.43009 67.68968 36.892612
20.441088 29.646677 41.691612
21.054089 28.451677 40.078613
14.928088 22.748676 41.642612
13.592089 24.253677 42.20961
31.58409 31.132677 59.29961
33.41209 32.50068 59.86661
38.36409 29.256678 64.603615
36.92209 28.068678 65.96161
46.74409 36.35168 25.479612
45.41809 37.06468 27.155611
48.45209 32.491676 32.835613
49.534092 31.042677 30.983612
19.653088 21.460676 37.732613
18.90709 22.028677 35.523613
12.023088 22.798677 37.66761
9.752089 22.712677 36.96561
10.819089 29.964678 67.38561
8.412088 28.936678 67.89761
4.4140887 28.402678 61.25661
4.307089 30.528677 61.08661
19.190088 27.021677 57.73161
21.052088 28.694677 58.40961
22.813087 36.24468 58.33461
22.242088 37.37368 56.59661
20.648088 19.279676 24.167612
18.99009 18.692677 22.02061
15.125089 21.837677 17.853611
16.56009 23.134678 16.211613
21.288088 7.9116774 67.368614
20.844088 9.150678 65.48361
22.051088 14.205678 70.36461
23.338089 13.714678 0.003616333
19.957088 62.037678 59.78661
20.165089 59.99968 61.70961
23.86909 56.962677 55.524612
22.304089 55.29168 55.82561
8.020088 10.414678 39.545612
9.863089 9.589678 38.24861
13.133088 3.8976777 36.93561
11.617088 2.8506777 35.960613
40.15709 10.443678 58.66961
40.652092 10.182678 56.06261
48.05909 9.174678 54.018612
48.79009 9.955678 51.54161
28.806087 54.86968 40.77561
29.888088 55.64068 39.17861
34.09109 49.15268 37.37361
35.58809 49.25568 39.06861
10.115088 30.109676 2.4776154
8.577088 31.415676 3.0466156
7.607089 30.502678 10.769615
6.037089 31.618677 11.392609
45.64009 19.440678 48.03461
45.37109 17.937677 49.73261
43.14909 23.283676 54.60561
44.71509 24.807676 55.17461
3.4670892 14.005678 49.67861
2.1130905 14.080678 48.066612
48.76909 18.186678 43.86961
48.72309 19.623676 45.81761
13.415089 1.2916776 11.912613
11.378088 2.2026777 11.162613
9.923089 5.3366776 18.242617
9.0750885 7.4326773 17.709612
27.554089 17.090677 63.41861
27.69909 17.118677 61.34661
30.625088 10.888678 58.83861
32.61909 12.314678 59.712612
51.29709 20.647676 57.68961
51.20509 20.670677 55.43861
2.4150925 14.743678 52.03361
4.23609 13.483678 52.75561
9.944089 12.818678 44.620613
10.699088 10.956678 46.17561
8.573089 6.5986776 51.03461
8.966088 4.8736777 50.18661
8.721088 67.68068 36.870613
9.655088 0.47267914 37.29761
13.754088 1.1266785 43.913612
14.347088 3.2876728 44.190613
31.430088 55.017677 42.10561
