19.452354 10.137771 26.415245
19.603354 9.197771 24.50624
14.967354 9.671771 19.322243
14.124354 11.30477 17.879242
27.009356 68.43977 25.017242
28.016356 0.90576935 25.307243
25.044353 6.1477737 28.985245
25.800354 7.8527718 29.707245
31.678354 58.921772 20.349243
31.261354 60.15677 21.767242
30.304356 65.66577 16.906242
29.038355 64.73177 15.699242
25.127354 63.73077 34.69425
26.405355 63.13977 33.39925
28.615355 60.76677 28.43824
28.689354 62.98877 28.329239
41.234352 49.86277 19.822243
42.35335 48.34877 18.291245
41.515354 41.42577 17.223244
39.768353 40.04977 18.905243
30.462355 45.19677 58.666245
30.398355 47.420773 59.470245
32.715355 48.955772 66.220245
31.988356 47.01677 67.02425
36.127354 41.282772 52.236244
34.04035 40.191772 51.885242
32.898354 38.98277 44.806244
32.316353 40.657772 43.747242
24.794353 48.39077 30.136246
23.538355 47.85477 31.405243
18.538355 44.941772 32.46524
17.623354 43.629772 33.981243
27.687355 28.86477 60.435246
29.138355 30.405771 59.949245
32.500355 32.953773 53.278244
33.309353 31.06677 52.399242
18.856354 50.97277 32.59324
18.730354 48.545773 32.448242
19.445354 44.84577 26.310242
17.873354 44.664772 24.628242
0.2583542 9.96277 70.638245
0.26535416 8.287771 69.05024
3.1253548 4.063771 2.9202423
4.774353 4.673771 1.7472458
29.777355 0.7627716 27.574242
29.277355 68.630775 26.71724
31.273355 62.77477 26.835243
31.903355 61.70677 25.215248
26.692354 0.3197708 30.822243
26.678354 2.593773 31.627243
32.967354 5.9357758 32.51824
34.613354 4.027771 32.499245
40.91535 13.098771 30.317245
39.985355 11.570771 28.788246
35.581352 6.072771 31.072243
35.624355 4.7157707 29.943245
15.055354 42.990772 22.510246
16.024353 42.670773 24.417244
15.392354 38.92677 30.81324
16.870354 37.878773 29.43924
17.626354 40.56877 25.478241
19.446354 41.93877 24.880241
24.962355 44.82077 27.28724
26.495356 46.05077 25.80024
34.974354 27.95877 70.81424
35.042355 29.19677 69.06124
32.739353 23.45977 64.01025
30.951355 22.526772 63.118244
31.959354 26.40677 59.653244
31.716354 29.29877 59.242245
37.04735 30.610771 53.583244
35.869354 32.12677 52.857243
12.986356 68.86177 35.065243
12.141355 1.077774 35.971245
6.1603546 5.303772 36.752243
6.5673523 6.659771 38.365242
13.814354 17.287771 4.351242
15.531354 17.23677 3.0482483
10.1693535 13.944771 70.49625
7.767354 14.088771 71.76524
25.832355 18.718771 6.7222443
27.336355 18.88577 8.643242
26.489355 14.939771 14.686241
24.734354 13.355771 14.897247
18.230354 68.78777 24.549248
20.527353 68.577774 24.030243
21.606354 5.5217743 27.144241
21.074354 7.303768 25.975243
23.475355 33.872772 4.891243
22.304354 35.780773 4.2272415
26.241354 38.782772 11.064247
27.545355 37.600773 9.950241
34.233353 15.67477 7.1502457
35.678352 16.41677 9.037247
32.704353 23.30077 12.127243
34.214355 22.49477 13.497246
27.515354 49.56977 22.289246
29.466354 50.59877 22.650246
28.906355 54.82277 16.854248
29.169355 56.87577 16.177246
38.320354 62.36077 7.768242
38.001354 61.86477 5.948242
41.265354 58.83377 1.7622452
41.911354 58.80877 71.52924
10.440354 42.53877 8.485245
8.826355 42.03177 9.493248
9.373352 37.878773 14.844246
7.460354 37.879772 16.385246
14.7283535 0.31076813 39.594242
13.581354 0.8287735 38.017242
17.444353 8.333767 38.052242
15.795354 9.514767 36.871243
26.068356 42.84177 50.803246
27.688354 43.98477 50.517242
31.452354 46.35277 44.919243
31.587355 44.24177 44.283245
9.276354 11.677771 24.629242
10.018353 9.750771 25.291245
13.414354 7.1837707 18.041245
14.591354 6.079771 19.399246
22.436354 58.00277 28.42424
21.453354 56.14777 29.012245
20.356354 56.43677 21.419243
20.552355 54.68977 20.550247
25.319355 25.92577 69.653244
25.891356 27.67577 67.72624
30.338354 27.335772 0.8832474
31.804356 28.24777 2.4302444
16.291353 27.48777 23.706245
15.130354 26.32377 22.089241
8.299354 25.55277 22.620247
7.454354 26.787771 24.361244
25.374353 5.952774 62.912243
27.411354 6.164772 64.24425
33.125355 5.8407745 60.568245
33.469353 6.9057655 58.690243
31.899355 51.302773 13.984245
32.215355 50.31977 12.005241
38.618355 52.29477 9.023247
40.511353 51.02877 9.340248
16.955355 46.57977 34.15024
15.715354 47.78377 34.92124
15.897354 48.046772 42.492245
14.179354 49.16277 42.891243
11.019353 16.537771 34.725243
9.567353 15.055771 33.521244
2.828354 17.756771 36.405243
2.1553535 15.498771 37.502243
47.594353 2.9817734 67.56024
46.585354 1.5817719 66.75124
50.880352 0.63277435 61.063244
1.1213531 0.7827759 61.505245
9.381355 4.3997707 19.308243
8.286354 3.120771 16.90924
4.213352 10.079771 17.459244
3.2143517 10.3967705 15.438248
38.79735 48.59777 5.8412476
37.964355 50.68377 4.653244
32.433353 56.087772 6.354248
31.582355 55.56477 4.5112457
11.681354 68.979774 68.78224
10.141354 67.44077 68.72424
15.503354 65.73977 1.2342453
16.989353 64.19777 0.23524475
13.125354 63.476772 14.167244
15.049354 61.33377 14.239243
14.107354 63.45477 6.825241
14.321354 62.12177 5.410248
47.212353 17.26777 60.076244
49.309353 17.060772 59.649242
0.22135162 24.45277 57.063244
1.8373528 23.69177 58.686245
11.767354 46.608772 24.957245
10.589354 46.92377 27.072243
13.949354 45.95077 33.724247
14.743354 44.13877 32.61824
42.807354 37.657772 35.24825
41.556355 35.84177 33.558247
35.764355 36.01577 31.52324
34.819355 37.91077 29.871246
1.8783531 66.94777 14.975243
0.26135254 68.02877 16.185242
49.53335 68.686775 22.792244
50.98635 67.87577 24.768242
47.683353 48.93277 39.788242
46.27035 49.97077 40.951244
46.077354 41.72977 43.001244
44.34735 40.85677 41.606243
40.830353 42.795773 9.278244
38.934353 42.414772 9.236244
33.185352 46.60277 10.912247
32.598354 48.79777 9.499245
7.3893538 51.29877 14.751244
9.422354 51.09777 13.428246
12.602354 47.48177 8.721245
14.652354 48.809772 10.164246
30.498354 11.218771 21.914246
30.494354 11.824771 23.858246
23.134354 11.689771 24.221245
21.601355 11.250771 25.28524
40.965355 5.530771 57.867245
42.773354 4.691771 57.193245
44.896355 8.184771 61.348244
46.280354 8.80477 62.551243
10.460354 16.26877 68.969246
11.617353 15.3967705 67.23824
12.099354 19.770771 60.777245
9.834353 20.10877 60.332245
5.147354 47.81577 16.093246
3.394352 48.75277 15.866241
50.72135 47.03677 11.1662445
0.20035172 45.28377 9.969246
2.793354 59.15377 56.540245
2.8953552 60.19777 58.474243
1.7153549 54.01277 62.468243
0.039352417 52.754772 62.007244
43.928352 53.51377 4.535248
45.505352 51.64477 4.250244
49.05435 46.15477 7.6262436
51.12435 46.76577 7.7492447
47.09735 59.32477 32.746246
46.619354 61.38977 33.024246
44.285355 66.41377 27.95224
43.00735 67.88677 28.447243
44.31835 19.894772 11.983246
42.386353 19.322771 11.824242
43.11035 17.689772 3.238243
40.853355 18.516771 2.792244
49.49235 1.6427765 70.95224
47.313354 1.4067764 70.09124
47.392353 9.132771 69.610245
46.862354 8.685772 67.289246
3.458355 32.20677 1.3922424
4.243355 34.01477 1.2722473
50.573353 36.49977 6.3762436
50.314354 36.191772 8.401245
43.10335 11.908771 18.750244
44.734352 10.5737705 18.497246
46.559353 4.883771 19.623245
49.177353 4.443771 19.112244
1.932354 16.103771 66.110245
2.9573517 15.941771 64.22324
50.97935 22.974771 63.558243
49.358353 24.075771 62.512245
4.562355 49.36077 50.457245
6.359352 50.66977 50.208244
11.002355 45.65477 47.618244
9.686353 44.039772 48.758244
16.833353 65.55677 47.263245
15.260354 63.59377 47.76824
19.372355 59.60277 52.695244
17.720354 58.20077 53.107243
33.537354 69.02477 18.146248
33.822353 67.95577 20.368248
33.596355 61.00677 20.195244
35.578354 59.63977 21.130241
5.7873535 28.117771 17.934242
7.531353 29.14677 18.191246
5.805355 31.50577 11.581245
5.0743523 29.93977 10.133247
0.89035416 46.310772 4.687248
2.5093536 44.60777 4.486244
5.7923546 44.56177 70.413246
5.6973534 42.66577 69.22824
42.73635 46.64277 70.511246
42.126354 45.29877 69.26824
44.628353 38.58377 0.5482483
42.271355 38.94677 1.7832413
42.834354 37.731773 18.914246
42.93735 36.86077 20.888245
48.878353 37.836773 24.445244
49.489353 37.59677 26.47924
43.55535 25.33477 70.345245
44.92235 25.78577 68.413246
0.11135483 25.53577 1.9872437
0.33135223 27.23777 0.8882446
42.379353 25.66777 3.5442429
40.42235 24.915771 3.877243
36.001354 28.947771 1.0112457
33.957355 29.57677 1.7912445
0.0023536682 23.97077 5.483246
0.17835236 21.508772 5.0742416
45.37435 20.216772 0.64424133
46.58335 19.43177 70.43724
26.449354 33.61877 17.591248
28.516356 33.73677 16.253242
33.839355 39.72477 14.913246
33.604355 41.23277 17.153244
14.311354 9.433771 9.156242
16.220354 10.312771 10.771248
18.986355 17.38577 10.519241
21.210354 17.867771 10.422241
44.912354 48.40377 19.062248
45.204353 49.664772 17.552246
45.253353 46.69677 11.390244
46.607353 45.21177 11.071243
41.863354 4.3857727 54.362244
41.719353 2.190773 55.562244
34.689354 69.646774 58.134243
34.053352 1.9307709 57.349243
41.761353 52.68077 13.3552475
41.530354 54.330772 11.969246
38.925354 59.28077 10.558243
39.660355 61.75377 9.989243
34.392353 19.946772 63.095245
32.349354 20.33377 64.50624
26.156355 17.696772 67.41924
24.974354 16.40677 66.11724
18.906355 43.23077 12.560242
17.856354 43.63477 14.886246
16.936354 42.08477 21.029243
18.653355 40.61677 22.490242
4.130352 12.544771 18.592247
1.7303543 12.565771 19.452248
0.73135376 9.750771 13.985245
1.5683517 10.308771 12.143242
1.833355 25.53577 33.139244
0.3383522 23.71577 34.002243
6.7643547 22.016771 37.090244
7.661354 21.443771 39.256245
43.786354 17.099771 35.031246
45.376354 18.662771 33.87125
44.184353 21.91377 27.262245
42.160355 22.21277 27.54924
35.206352 8.584771 13.092247
36.870354 7.997771 14.485245
38.752354 16.598772 15.2272415
40.674355 15.642771 14.094246
35.385353 0.43476868 5.896248
37.279354 0.8547745 3.969246
38.800354 68.56577 69.38124
40.030354 0.0057678223 68.00624
39.062355 57.78177 70.622246
39.532352 57.33977 0.44024658
36.488354 52.407772 71.93524
38.358353 51.934772 1.3002472
36.215355 60.38777 10.420242
35.780354 60.79477 12.412247
28.050354 62.36177 9.707245
27.260355 60.80777 8.405243
42.309353 0.92277527 8.212242
43.067352 68.771774 7.2202454
41.976353 64.102776 12.950241
43.55435 62.817772 13.251244
44.983353 25.24677 15.898247
46.258354 24.85577 13.976242
0.74635315 29.092772 17.430244
51.45035 31.30377 16.739243
1.7393532 21.040771 23.578247
2.8553543 19.06977 24.639244
4.9763527 12.921771 23.082245
3.1933517 12.582771 24.369247
26.665354 21.48677 18.351242
26.578354 21.835772 16.134247
21.007355 16.534771 14.905243
21.347355 15.808771 17.205246
42.241352 43.31577 31.50624
41.114353 41.90277 30.723244
38.994354 41.23277 25.555244
38.439354 38.914772 24.424248
25.216354 1.3197708 3.6452408
25.931355 0.7477722 1.7192459
25.163355 4.15477 67.34924
24.122355 2.3967743 66.44724
43.553352 50.29477 21.564247
43.83235 51.09577 19.619247
45.260353 57.49877 24.961243
44.745354 59.27977 24.178246
16.287354 2.254776 29.853241
15.156354 0.5147705 29.447243
14.580354 68.53977 22.196243
14.475354 0.43977356 20.752243
9.798356 36.98477 3.2882462
7.4053535 36.37677 3.339241
0.7963524 40.62377 5.2342453
51.067352 40.46377 3.4462433
25.216354 63.43177 6.6582413
24.126354 65.65177 6.554245
21.430355 64.13777 13.054245
23.259354 62.803772 14.402245
30.170355 55.400772 50.572243
30.660355 57.26777 52.402245
21.876354 58.47077 53.345245
22.083355 59.68077 51.688244
41.630352 26.329771 66.18924
42.046352 25.846771 68.136246
35.541355 21.74777 64.695244
34.216354 22.637772 66.15424
47.151352 21.82077 68.400246
47.90935 20.919771 66.820244
3.078354 20.54577 67.04924
4.941353 21.161772 67.998245
45.314354 20.591772 66.874245
44.399353 19.044771 67.25724
36.223354 19.38977 68.60624
35.940353 17.21277 69.50624
40.643353 34.40377 62.788242
41.914352 32.81377 62.308243
40.463352 37.018772 55.109245
41.932354 35.969772 53.773243
21.106354 62.101772 11.630241
21.469355 63.09877 10.005241
20.987354 65.55777 4.0432434
23.238354 65.01777 4.056244
6.326355 68.838776 28.726242
5.8913536 68.004776 26.570244
10.234353 64.465775 22.460243
8.786354 63.06477 24.015244
20.225355 34.78677 27.866241
19.598354 36.89777 27.75824
16.900354 39.97377 32.72824
17.035355 37.47777 33.764248
12.1363535 6.9227715 13.281242
13.485354 6.0837708 14.405243
9.828354 69.10877 12.098244
7.5603538 69.298775 11.836243
47.577354 3.8757706 4.2982483
48.376354 1.1677704 4.1622467
1.4173546 68.880775 70.01624
1.3493538 66.72077 70.333244
4.717354 31.190771 27.57724
4.5943527 32.059772 25.70124
0.47035217 38.60577 25.818245
51.13935 39.066772 23.441246
30.602354 43.48877 60.944244
32.191353 43.07077 59.310246
29.236355 35.75877 59.717243
28.037355 35.35477 58.210243
17.378353 35.114773 28.852242
15.315354 35.47377 29.670242
18.899355 29.18277 30.309242
19.184355 27.14377 31.880241
33.511353 1.1107712 61.829243
32.325356 1.9337692 59.815243
27.178354 0.86376953 62.413242
26.287355 1.0257721 64.39624
10.576354 20.693771 13.188248
11.350354 22.45877 12.257248
9.928353 23.561771 4.7932434
8.824354 22.54877 3.1802444
5.956352 9.178771 9.583244
5.4493523 10.032771 7.7982483
1.1023521 13.223771 5.252243
51.483353 11.5147705 3.9362411
19.411354 28.53177 60.873245
18.400354 26.92477 62.590244
20.436354 19.803772 60.839245
18.965355 19.07777 62.530243
23.260355 9.380771 8.636246
23.173355 8.445771 10.469246
17.987354 5.497771 13.732246
15.538354 5.1577706 12.506241
15.471354 9.057771 6.719246
14.725354 11.383771 5.9422455
17.741354 17.057772 4.6002426
16.383354 18.766771 5.165245
11.0443535 53.00377 61.576244
10.343354 52.05877 59.566242
11.375354 54.72477 52.688244
12.741354 56.70277 51.695244
27.394354 55.71877 65.17024
29.659355 55.37577 64.97424
36.217354 57.740772 64.56525
36.985355 59.19577 66.07724
20.522354 23.87377 31.718243
19.299355 22.53977 32.59524
20.930355 23.74677 39.39424
21.949354 25.00777 40.629242
41.827354 40.740772 57.317245
42.48535 42.18377 58.504246
49.470352 43.98577 55.918243
49.678352 43.76377 53.753242
9.982354 22.752771 57.799244
8.327354 24.00377 57.469242
4.149353 28.75077 53.021244
3.4423523 26.63677 52.551243
22.080355 10.352771 4.710243
22.098354 9.932771 2.5612411
22.012354 16.074772 0.48724365
22.391354 18.25777 0.766243
5.077354 8.270771 71.46324
6.868354 6.6897707 70.84325
13.198354 8.973771 2.5212479
12.721354 10.68677 4.1902466
46.581352 46.77977 38.656242
47.18735 44.77877 39.431244
47.892353 37.32177 36.899242
46.261353 37.52177 34.655243
1.6223526 56.46777 8.281242
3.8133545 56.43777 6.9892426
7.6013527 53.00777 4.314247
7.526352 52.240772 6.554245
13.660356 63.90377 62.161243
11.9053545 64.50877 62.269245
7.4643517 64.59377 66.47524
6.012352 63.11277 67.53424
11.551353 48.38177 18.115242
12.620354 48.15877 16.170242
17.080355 46.32777 14.671242
17.585354 45.955772 12.594246
9.152353 56.41677 14.020241
10.856354 57.442772 13.933243
16.672354 56.12477 10.001244
18.441355 57.27477 9.440247
32.008354 1.091774 67.20124
34.266354 0.4517746 67.68524
35.420353 68.82277 60.918243
34.098354 67.73677 59.687244
28.571354 36.023773 12.246246
25.689354 36.428772 12.201248
21.420355 34.82677 17.234245
19.788355 33.997772 16.199242
34.555355 24.77877 10.064247
36.621353 23.592772 10.111244
41.366352 30.089771 10.888245
41.171352 30.93077 13.024246
1.708355 14.076771 60.939243
3.7293549 14.08777 62.361244
3.1323547 9.572771 67.87924
2.4453545 7.119771 67.831245
18.341354 28.57477 8.366241
19.227354 26.81077 8.157242
19.654354 20.32677 3.7182465
17.572353 19.985771 2.7592468
19.230354 28.87977 45.26824
21.232355 28.89377 46.640244
25.525354 25.19877 51.627243
23.876354 24.59777 53.220245
38.214355 5.159771 17.431244
40.509354 5.447771 18.222244
44.48635 9.826771 15.843246
44.136353 12.040771 16.052246
3.0403519 29.89377 71.568245
2.9163551 29.388771 1.6282425
8.255352 31.481771 4.276245
8.8133545 33.657772 3.6482468
3.2043533 20.86177 7.967247
4.554352 22.76477 7.056244
8.210354 16.918772 4.8482437
10.285356 16.29277 4.625244
34.345352 1.9017715 70.03624
32.365353 2.2007751 69.74024
29.908354 0.8897705 4.835243
31.590355 1.8117752 6.312248
17.035355 22.749771 11.145241
15.331354 23.94877 10.115242
12.356354 22.523771 3.5582428
11.211354 20.57677 2.6332474
46.192352 8.863766 12.535248
46.82535 8.57877 14.870247
48.049355 1.1567764 14.978241
49.542355 0.19477081 13.913246
21.568354 27.36577 9.389244
22.681355 27.07677 10.997246
24.500355 29.48277 18.323242
24.209354 31.276772 18.551247
11.085355 9.914771 31.075241
10.812356 8.781771 28.86824
7.474354 4.543771 24.424248
7.6103516 2.916771 25.251244
46.148354 13.683771 3.0452423
45.912354 13.1397705 1.1602478
37.871353 14.897771 4.3472443
36.850353 15.966771 2.5532455
49.886353 13.732771 10.568245
49.383354 15.520771 8.573242
46.661354 21.471771 12.420242
48.067352 23.50577 12.000244
49.984352 38.77477 68.983246
50.758354 36.316772 70.19025
45.45735 33.36177 65.21624
43.34635 33.36877 64.97624
9.443352 50.95877 62.062244
7.472355 51.48777 62.984245
5.9263535 49.88277 70.51824
6.085354 47.48577 70.512245
22.877354 51.64277 15.542244
21.457354 52.47877 14.755241
16.436354 52.594772 21.103241
14.628354 51.41177 20.378242
23.768354 43.52377 17.568245
24.101355 41.71177 16.355247
19.293354 36.08277 18.229248
17.848354 35.815773 20.152245
9.292354 29.290771 71.76025
11.264354 28.96977 71.42524
17.066355 32.058773 67.60524
16.448355 29.94677 66.288246
12.530354 42.83677 69.47824
13.922354 41.62877 70.677246
9.659354 41.316772 6.3072433
10.649354 39.28377 7.052246
21.951355 31.82377 7.9262466
22.302355 31.55577 5.384247
19.875355 26.152771 2.7852478
19.611355 25.169771 0.9502411
9.045354 33.79777 15.324242
7.5023537 33.085773 16.341248
12.795354 31.80677 23.038246
12.175354 29.745771 23.355247
30.011354 26.41377 70.25124
28.046354 25.05677 70.32524
33.176353 21.329771 68.28024
34.057354 19.76777 66.61924
12.774354 56.91277 5.2512436
14.267354 58.52777 5.453247
19.718353 55.03477 8.507248
20.076355 52.79877 8.830246
5.902355 64.771774 69.65524
4.288353 66.42977 70.192245
6.8013535 2.62677 0.7602463
8.682354 3.9637756 0.62724304
12.744355 47.879772 22.843246
12.159356 49.67377 24.179245
6.1033516 50.69977 22.489243
5.2213516 50.78777 24.343246
14.852354 39.52377 3.1542435
16.990355 38.75877 3.4992447
19.119354 33.384773 7.768242
19.485353 31.09777 7.530243
15.857354 47.35277 51.690243
16.920355 48.91277 52.880245
18.931355 45.34677 57.448242
18.924355 43.03877 59.235245
8.3133545 43.275772 68.792244
7.5533524 43.85477 66.62724
6.437355 48.86277 63.590244
4.784355 50.39077 63.823242
50.65235 26.58177 33.889244
0.87335205 27.49877 35.153244
1.4043541 31.03677 41.027245
0.057353973 32.393772 42.333244
40.212353 19.29577 16.155243
38.397354 19.537771 17.438248
36.918354 25.65377 21.859245
36.709354 27.71377 21.148247
46.265354 12.544771 59.090244
43.898354 12.42977 58.408245
44.773354 7.487771 53.280243
46.218353 6.542771 51.364243
3.0893517 47.09077 47.636242
2.0793533 49.00577 46.873245
47.640354 46.969772 51.912243
46.83335 48.85077 52.197243
6.941353 20.704771 46.630245
7.0043526 21.638771 48.733242
4.300354 18.55677 54.739243
5.081352 16.172771 55.688244
48.424355 53.02977 10.781242
48.376354 53.38377 12.789246
0.7453537 48.74177 16.201248
1.130352 49.88877 18.015244
50.815353 21.82677 48.938244
49.323353 20.75077 48.679245
2.0133553 14.104771 52.537243
2.293354 14.89377 54.650246
17.136354 68.130775 44.210243
18.732355 68.935776 43.084244
18.160355 6.7377663 40.17124
15.994354 6.8307686 40.300243
46.035355 61.56277 0.52524567
46.07535 61.97477 70.443245
45.56835 68.49877 66.79824
43.403355 69.45977 66.570244
36.342354 50.067772 21.388245
36.642353 51.33377 19.567245
34.367355 57.54877 18.155243
32.272354 57.32977 17.923248
45.182354 15.399771 58.880245
47.31135 15.397771 58.023243
0.3703537 14.126771 56.382244
51.407352 12.158771 57.247246
2.819355 4.936775 60.415245
2.0013542 3.124771 61.680244
50.309353 2.8317719 68.58924
50.03435 4.7337723 68.386246
48.438354 50.49377 1.3522415
50.390354 50.50577 0.3742447
3.503353 48.64977 70.10624
3.701355 50.27377 68.58624
46.128353 33.06477 62.473244
46.892353 35.004772 62.342243
43.08335 40.32677 60.923244
40.855354 40.09277 59.823242
44.931355 59.66977 13.779243
46.72835 59.36077 12.534241
48.869354 63.34377 6.4402466
47.68635 65.26077 7.226242
9.433353 57.386772 1.0302429
7.111355 58.13977 1.7982483
1.637352 53.25677 70.874245
1.6773529 50.942772 0.1092453
32.989353 8.690769 2.075241
35.251354 8.514767 1.9302444
34.597355 2.0557709 7.8132477
36.339355 1.940773 9.252243
4.9683533 36.36877 71.903244
6.715355 35.530773 0.8592453
10.389356 39.94977 69.875244
10.447354 41.58977 68.35024
28.201355 34.942772 9.677246
26.949354 35.50877 8.249245
32.197353 40.26377 4.695244
31.173355 40.379772 2.950241
44.987354 1.3207703 17.709244
43.341354 0.57077026 16.072243
43.837353 7.3667717 11.525246
44.530354 8.114765 9.239243
36.405354 20.796772 13.646248
38.752354 21.21977 13.557243
38.402355 21.79977 5.064247
40.815353 22.54377 4.868248
15.512354 28.74077 59.499245
15.819354 30.151772 58.181244
11.359354 29.443771 52.073242
10.482354 28.363771 50.586243
6.010353 33.20977 9.278244
3.3453522 32.61177 9.016243
0.80335236 28.703772 3.3642426
50.713352 27.31377 4.2482452
39.555355 3.850769 11.528244
38.990353 1.8407745 11.389244
43.099354 66.257774 13.905243
44.08935 66.29177 15.796242
26.136354 4.214775 41.579243
27.761354 5.5127716 41.33824
29.012354 3.0597763 47.675243
29.378355 4.836769 49.021244
43.155354 30.26077 62.104244
44.11135 31.39077 63.462242
46.524353 24.00577 63.622246
47.17335 22.888771 64.96324
20.472355 62.24577 53.983246
19.988354 63.77277 54.818245
13.322354 66.535774 51.680244
13.531354 67.53177 49.694244
32.486355 39.82477 22.976242
32.358353 42.02277 22.799248
28.668354 47.34077 24.685242
28.989355 49.65377 25.041245
42.434353 31.93077 8.294243
41.037354 30.16777 8.383247
35.308353 33.474773 8.619247
34.125355 35.08877 7.7182465
0.14335251 58.88377 43.552242
50.744354 61.26777 42.83124
46.509354 64.089775 37.100243
46.83935 63.13777 35.483242
44.885353 25.37977 58.252243
45.841354 23.697771 59.496243
41.807354 18.126772 54.698242
40.080353 18.58477 56.216244
40.626354 26.78577 5.8272476
42.50035 25.634771 7.028244
44.453354 22.950771 13.247246
43.713352 21.16777 14.210243
42.38935 28.35177 3.6632462
43.82535 30.315771 4.1882477
39.758354 37.025772 1.8282471
38.974354 37.585773 71.55824
38.606354 46.09377 66.04524
40.997353 45.49177 66.552246
45.271355 42.469772 69.081245
47.348354 43.55877 67.89424
22.137354 18.612772 62.583244
23.453354 17.922771 64.00925
26.043354 26.14777 65.721245
28.040354 24.97977 65.805244
45.113354 50.87777 12.221245
42.989353 51.64077 11.270241
48.404354 55.75177 10.999245
50.012352 57.20477 10.430244
44.345352 53.02977 51.040245
45.12435 50.89477 52.517242
42.54035 54.79977 58.399242
42.84635 54.03177 60.154243
32.127354 49.13377 22.250244
32.178352 51.14477 21.266243
34.823353 51.51377 14.700241
37.163353 52.39077 14.599243
39.426353 63.22477 12.8782425
37.856354 62.386772 11.642242
38.000355 0.20677185 8.027245
37.808353 69.03077 6.0862427
32.351353 10.474771 15.811241
31.995356 10.623771 17.875244
33.112354 11.759771 23.638245
34.190353 10.833771 25.571243
25.916355 24.624771 56.859245
26.379354 23.76877 54.497246
26.556355 15.08277 54.849243
28.516356 15.79277 56.638245
31.107355 32.38777 5.0742416
32.001354 33.32577 6.8832474
31.105354 34.26477 11.004242
31.117355 35.482773 12.923248
44.67235 13.96977 46.294243
45.259354 15.847771 45.82424
41.779354 17.869772 51.881245
40.699352 19.161772 52.504246
0.701355 0.6277695 58.398243
1.1103516 68.09577 57.958244
3.8413544 63.705772 60.307243
6.133354 63.17277 59.277245
50.345352 19.346771 19.273247
50.671352 18.766771 17.024246
47.022354 11.898771 15.705246
47.69335 11.280771 14.101242
18.094355 19.08777 47.202244
18.714354 21.074772 47.842243
24.873354 24.59077 44.497242
25.966354 22.84077 43.827244
11.165354 32.96477 2.8782425
10.293354 33.62677 1.2102432
14.642354 39.32877 69.748245
14.058354 40.448772 68.09325
36.231354 49.22077 23.904243
33.940353 48.68177 24.771248
35.762352 42.25877 28.501244
37.328354 41.03877 29.654243
40.476353 54.92477 9.185242
39.41535 57.080772 9.223244
44.337353 60.68977 4.1122437
46.58235 60.310772 3.1502457
48.648354 32.586773 22.292244
49.240353 31.75177 20.097244
44.647354 30.75577 18.860245
44.268353 29.47777 17.346245
49.489353 48.95977 67.68324
48.307354 49.68377 65.830246
48.614353 42.76277 62.836243
47.64535 41.21777 61.591244
9.358354 30.39277 6.639244
11.098353 29.72777 7.1592407
10.833354 35.51477 13.825241
8.918354 36.06377 12.808243
33.378353 11.406771 3.8142471
32.949352 12.458771 5.9912415
28.634356 18.04877 5.599243
29.304356 17.443771 7.3132477
41.469353 13.873771 49.000244
39.416355 12.954771 47.342243
39.403355 18.09077 41.248245
36.791355 18.56377 41.342243
38.742355 8.607771 0.12224579
40.659355 10.20777 0.26924133
42.808353 8.110771 64.777245
43.448353 6.2097707 63.921246
42.227352 64.65577 62.415245
40.941353 63.254772 60.974243
34.331352 64.23877 58.130245
34.026352 62.91977 56.623245
19.577354 57.72877 70.111244
20.406355 59.99377 69.72524
23.560354 63.75977 69.819244
24.839354 65.575775 70.457245
16.556355 68.34477 1.1322479
18.744354 68.61077 0.9312439
18.267355 6.4747696 2.0312424
16.243355 6.410774 3.1472473
16.076353 55.89677 30.38224
16.657354 53.79377 29.927246
15.020354 48.560772 24.484245
16.002354 50.09877 22.675247
8.167354 56.94677 8.570244
7.656354 54.386772 7.929245
16.100353 53.80777 9.058243
16.299355 52.22277 7.1882477
19.205355 36.82777 61.724243
18.695354 35.781773 63.627243
24.259354 36.92477 67.288246
26.266356 38.316772 67.45324
33.220352 36.697773 11.571243
32.271355 36.323772 9.264244
32.188354 44.89577 8.981247
33.451355 44.74677 7.1922455
17.513353 20.374771 28.365242
16.182354 20.373772 30.074242
13.464354 13.353771 32.09224
12.306354 14.85177 32.879242
12.481354 17.77877 13.353241
14.500354 17.985771 12.737244
11.408354 13.444771 8.572243
10.633354 14.1397705 6.3292465
30.827354 50.71177 66.36424
30.707355 50.67377 68.69624
26.812355 50.72577 3.0202408
25.146355 51.35977 2.226242
42.759354 66.48977 59.925243
44.459354 64.92577 59.791245
45.106354 0.24276733 53.179245
43.004353 0.82577515 53.671246
25.662355 34.45177 58.687244
25.963354 34.092773 56.387245
19.437355 28.87877 56.737244
18.156355 31.203772 57.099243
37.697353 38.023773 4.960243
39.293354 38.84177 6.5792465
44.412354 35.18777 9.042244
46.643353 36.17577 9.393242
48.72935 42.233772 42.57424
49.918354 40.94777 43.979244
0.75435257 34.11877 44.06024
2.901352 33.782772 43.732243
27.724354 26.387772 54.530243
26.653355 27.610771 52.367245
19.657354 28.961771 53.929245
18.415354 27.29277 52.839245
14.250354 38.05577 10.545242
13.453354 38.65877 8.298248
9.441354 36.79177 6.1332474
7.769354 35.114773 5.518242
25.390354 33.45277 2.556244
26.302355 34.087772 4.1542435
28.656355 42.41077 3.592247
29.731354 41.962772 5.2832413
25.306355 26.020771 40.745243
24.602354 24.711771 39.132244
20.324354 28.280771 34.245243
21.180355 29.290771 32.618244
30.245356 15.456771 8.795242
28.832355 14.053771 10.315247
30.800354 20.286772 15.946243
28.606354 20.17377 16.945244
28.054356 64.25077 7.856247
28.211355 63.88977 5.9232483
30.077354 61.66177 1.0112457
27.938354 62.34877 0.13924408
15.643354 13.556771 53.969242
17.075354 15.1137705 55.658245
21.103354 9.618771 53.434242
20.139355 7.4137707 52.676243
46.807354 15.685771 0.6002426
47.20835 15.39877 70.50824
1.6673546 12.574771 70.53224
1.7723541 11.5477705 68.819244
33.980354 60.17577 56.500244
34.538353 59.98877 54.569244
40.968353 54.79177 55.877243
41.329353 54.77677 53.871243
15.270354 34.88077 20.328247
13.863354 36.30677 20.141243
12.745354 36.68277 27.835243
11.155354 38.093773 28.210243
1.0563545 23.66177 65.972244
50.532352 24.68177 65.57124
50.058353 29.29377 71.92324
0.47335434 30.03977 0.6492462
8.789352 21.17377 65.472244
7.5253525 22.58377 66.45024
2.076355 25.10477 64.055244
0.5013542 25.068771 61.798244
18.674355 4.699771 26.794243
17.144354 6.330771 26.874245
17.785355 9.532771 33.973248
16.449354 11.640771 33.807247
34.041355 23.58477 7.203247
33.433353 23.70577 5.349243
35.628353 16.95977 4.8152466
37.027355 16.599771 6.314247
9.027355 25.40377 2.5462418
11.302354 25.408772 2.252243
7.0823517 19.849771 69.693245
7.8653526 20.10477 67.886246
14.303354 18.62177 59.557243
16.270353 18.87977 61.006245
15.204354 12.431771 65.90924
13.897354 10.998771 65.86224
15.772354 2.202774 54.501244
15.879354 4.48777 54.217243
20.298355 7.4907722 60.767242
19.225355 9.737766 60.997246
40.061356 59.73977 59.348244
40.793354 57.88577 60.388245
38.732353 57.95677 67.91124
38.963352 55.96877 68.206245
16.387354 37.84777 53.660244
15.051354 38.42577 51.889244
17.271355 34.34877 47.019245
17.161354 35.046772 45.031242
28.113356 12.713771 54.459244
27.274355 12.867771 52.764244
33.311356 9.744771 49.771244
35.102352 8.029771 50.617245
44.739353 47.32677 52.583244
42.785355 46.93777 52.452244
40.134354 47.59577 60.326244
39.818356 49.72577 60.396244
49.705353 14.279771 4.2582474
50.40235 14.970771 5.905243
0.3853531 21.31977 7.773247
0.30135345 21.435772 9.765244
11.050355 58.03777 67.11524
9.141354 56.20677 67.24424
9.714353 50.82777 0.7832413
7.8173523 51.43977 2.278244
4.2493553 63.55677 71.51924
3.3343544 61.85977 69.831245
4.152355 66.78177 67.153244
3.0493546 68.20477 68.02325
42.182354 15.289771 53.129246
42.963352 15.435771 51.332245
47.211353 20.099771 50.349243
45.440353 21.637772 49.879246
9.273354 56.66377 52.822243
10.360353 56.88877 50.727245
8.993354 63.93377 49.429245
10.518353 65.23577 49.05324
8.289352 66.49877 10.2272415
9.273354 64.63977 10.432243
3.694355 59.68277 7.087242
2.7923546 58.94577 8.802246
25.675354 67.79578 5.542244
26.756355 65.55177 4.578247
28.551355 66.80477 68.43324
30.810354 67.51577 68.30824
43.633354 28.23977 70.89925
43.182354 28.49177 68.45024
41.124355 36.926773 69.72524
42.469353 37.232773 71.21424
24.011354 54.178772 68.54324
25.139355 52.94677 69.96524
29.379354 58.91877 0.304245
27.546354 59.76577 0.9522476
46.876354 53.17377 49.433243
47.730354 54.90177 50.589245
2.3863525 51.65477 54.245243
3.5993538 50.442772 52.736244
43.586353 49.27677 50.757244
44.591354 50.60477 49.379246
37.398354 51.43877 48.092243
37.125355 51.77977 50.205242
13.527354 8.270771 29.832243
12.9193535 6.063771 31.208242
9.824354 8.085771 36.33124
7.657354 7.337771 35.524242
43.82535 1.0477753 68.82824
41.766354 1.2977753 69.82724
36.925354 4.0927734 69.50924
35.78335 4.263771 71.74324
43.862354 32.712772 31.112244
43.18735 35.03477 31.18924
47.813354 39.34377 27.821243
46.33935 41.16377 26.525246
47.344353 67.32077 62.254246
48.914352 66.42777 61.209244
1.7513542 61.10577 61.962242
0.36435318 59.10677 62.537243
1.163353 5.898773 7.993248
2.5883522 4.183769 7.4912415
8.638355 7.024769 10.312248
8.666355 5.700775 12.359245
48.071354 50.89877 58.681244
48.205353 49.49277 60.539246
50.24335 42.57077 60.126244
48.156353 42.89677 59.020245
33.441353 32.09577 38.321243
33.034355 34.613773 39.182243
32.737354 35.90877 30.400244
30.699354 36.74977 30.005243
10.0493555 53.85077 31.55024
9.508355 53.88377 29.519241
5.378353 50.61877 27.309242
4.9943542 50.295773 29.763245
5.043354 43.03477 66.39324
6.4353523 41.44577 66.86824
1.4403534 38.85777 69.34325
0.819355 39.35077 71.292244
3.3153534 29.56977 36.600243
3.1663551 29.412771 34.471245
4.451355 36.24277 34.63024
4.6393547 38.52677 35.101242
11.313355 37.363773 53.699245
10.196355 38.73277 54.543243
4.564354 35.615772 55.893246
2.6783524 35.79777 57.276245
25.568356 5.652771 13.046242
25.435354 6.842771 11.614243
26.380354 10.744771 13.755241
27.323355 12.426771 15.562248
39.894352 14.458771 51.331245
39.541355 12.721771 50.504246
41.766354 11.151771 47.780243
43.560352 10.463771 46.499245
0.33035278 53.303772 1.4712448
49.753353 53.07177 1.0592422
48.682354 60.03377 68.71024
48.92235 62.39677 69.98225
27.530355 29.24077 33.420246
28.495356 29.57477 31.36924
27.715355 22.62877 27.915245
29.311356 22.43177 26.56224
30.345354 57.670773 60.931244
29.175354 56.51277 62.174244
31.762354 52.12377 56.126244
32.414352 49.96777 55.627243
3.8703537 14.285771 58.693245
2.427353 12.694771 58.549244
4.986355 5.734771 61.494244
5.7003517 4.898771 59.634243
37.417355 49.25677 1.7102432
40.086353 49.38177 1.6592407
44.602352 47.92277 1.3272476
45.75635 49.93077 2.516243
48.348354 52.650772 62.533245
47.92935 50.44477 63.107243
41.326355 47.05177 64.11624
40.093353 49.358772 63.253242
42.959354 28.370771 12.337242
44.370354 27.54377 13.769241
49.81235 33.97277 12.4542465
48.357353 34.88077 11.191246
32.631355 11.615771 28.763245
32.068356 12.242771 26.440239
30.331354 18.95577 27.373245
31.320354 20.665771 27.957245
40.757355 68.367775 29.892242
41.63935 0.26976776 30.31224
37.758354 4.5367737 35.472248
39.395355 5.442772 36.328243
44.885353 67.90577 48.06724
45.530354 69.33577 50.370243
50.40235 5.3997726 48.31724
50.755352 4.410774 46.266243
30.253355 2.6707764 9.427246
29.865355 3.617775 7.4522476
35.519352 8.998768 10.482246
36.519352 7.3947716 10.532242
37.423355 60.171772 15.843246
35.91535 58.72577 14.518242
38.324352 54.657772 10.459244
37.005352 55.75377 8.185242
39.060352 67.93077 66.01025
38.438354 66.29077 67.66824
45.279354 61.962772 64.35625
43.417355 62.23477 62.625244
32.752354 48.64977 45.291245
31.127356 50.15677 45.122242
29.795355 53.226772 52.076244
31.618355 54.28077 52.802242
20.867353 56.61977 12.841248
22.023354 57.60777 11.278244
27.881355 54.33877 6.1762466
26.792355 53.13177 4.318245
39.262352 54.91077 70.903244
39.216354 53.448772 69.31124
37.043354 47.26077 67.93924
35.882355 48.93377 66.89624
9.486354 39.17277 63.255245
10.927354 37.56477 62.987244
17.722355 39.05477 60.508244
18.875355 40.73577 61.143246
22.716354 67.51377 5.257248
23.563354 69.32378 4.867241
23.479355 5.1397705 8.780243
25.412354 7.201771 8.884247
22.296354 25.75077 68.638245
20.783354 24.00177 68.49324
15.341354 24.398771 64.333244
15.140354 24.94677 66.180244
32.991352 4.200775 50.757244
33.170353 2.8497696 52.248245
32.834354 65.49677 49.587242
33.159355 64.19077 51.112244
25.345354 26.65777 10.797241
25.654354 29.02277 10.462242
28.480354 32.553772 4.9342422
27.534355 31.856771 3.0932465
35.037354 54.795773 27.783241
37.334354 55.27677 27.77224
36.814354 58.27677 33.17624
36.827354 59.02677 34.965244
42.976353 9.5807705 34.598244
42.11035 9.208771 36.494244
36.140354 7.943771 33.231243
34.389355 8.3307705 32.041245
27.967354 62.85477 59.369244
29.585354 64.08477 59.390244
29.178354 67.11377 65.58524
30.880354 68.90177 65.87624
22.296354 49.60977 62.419243
22.099354 50.96377 61.406242
29.371355 48.61477 57.201244
28.200356 46.435772 57.236244
47.640354 50.55777 68.99324
47.54035 52.18677 67.46124
45.61135 59.09277 69.47524
46.00035 60.35477 67.86424
33.106354 31.690771 0.47024536
35.003353 32.76277 0.15824127
32.534355 38.78877 68.983246
32.853355 41.06277 69.941246
27.319355 12.016771 68.86724
28.544355 14.263771 68.17224
35.081352 14.159771 0.06724548
35.828354 16.582771 0.13824463
26.431355 35.287773 70.37724
26.258354 35.22177 67.95024
23.111355 28.74677 67.48225
23.783354 27.839771 65.97724
15.981354 19.418772 41.056244
16.280354 21.612772 41.496243
14.595354 25.25877 33.76224
12.531354 24.75777 33.454243
28.960354 23.113771 16.498245
27.904354 24.24677 15.155243
27.583355 23.669771 7.4472427
29.414354 21.99677 6.788246
32.257355 0.9387741 8.718246
30.934355 69.52677 7.7962418
36.03335 63.74977 6.532242
34.552353 62.05577 5.604248
21.549355 56.95077 61.339245
20.293354 55.823772 62.477245
13.051353 57.23077 65.58824
14.203354 57.70777 67.54724
23.538355 6.36277 60.759243
23.403355 4.1967697 60.926243
20.129354 1.5767746 55.716244
19.730354 1.6957703 53.547245
22.992353 48.47477 3.2812424
23.367353 50.567772 4.344246
21.327354 51.98977 11.190247
21.411354 50.49177 12.936241
15.777354 53.25877 53.024242
18.006353 52.15177 53.969242
20.918354 48.55677 60.090244
18.923355 48.17277 61.376244
24.344355 53.08577 65.83524
25.226355 51.58577 67.414246
24.275354 44.48477 65.06525
25.181355 42.87677 66.041245
15.984354 16.196772 50.976242
16.611355 14.091771 51.236244
24.497355 14.466771 52.447243
24.966354 12.624771 51.331245
27.335354 20.42477 5.3902435
26.778355 22.69577 5.076248
23.696354 25.54577 8.824242
25.672354 25.61677 8.344246
1.3353539 14.3967705 10.701248
2.557354 15.842771 11.181244
7.7073517 13.348771 6.219246
8.410355 14.060771 4.3382416
28.695354 56.22877 4.629242
28.980354 54.462772 3.4512482
33.878353 52.98777 69.68424
32.769352 52.44477 67.802246
36.144352 8.783771 71.13224
33.92235 9.011771 71.37724
31.748354 9.84477 64.95425
31.610355 8.100771 63.726242
11.237355 64.44677 6.976242
12.229356 64.020775 4.853241
5.3483543 60.20377 1.3702469
6.126354 61.55577 71.10124
25.598354 48.90677 32.797245
25.278355 47.31577 34.288242
30.462355 48.38177 39.281242
31.331354 45.78177 38.709244
43.435352 56.65377 40.90024
42.988354 55.79177 38.458244
37.746353 49.80577 40.120243
38.775352 48.24477 41.424244
10.013353 63.46177 67.09824
11.432354 61.60777 66.941246
12.776354 60.84977 3.6942444
14.767354 59.92677 3.3902435
9.693354 53.941772 14.906242
11.633354 55.63477 15.8172455
17.686354 52.86677 10.807243
18.554354 51.18377 12.019241
17.284353 32.155773 17.451248
19.560354 32.13377 18.204247
15.063354 30.11177 23.126244
14.366354 28.766771 21.612244
5.9263535 24.87377 26.042244
5.536354 22.88977 24.575241
50.995354 28.79277 22.349243
0.11035156 28.94277 20.178246
15.794354 64.24577 4.5572433
13.988354 65.980774 3.927246
16.061354 3.1727753 5.5192413
14.499354 4.214775 7.2082443
11.056355 4.174774 31.101242
9.953355 3.3117752 33.34425
2.7303543 4.9257736 31.65924
1.519352 5.6257706 30.335243
30.819355 14.9887705 57.677242
32.440353 15.63477 56.665245
37.679356 19.901772 57.249245
38.455353 18.31677 58.421246
16.801353 67.118774 64.01924
16.078354 69.15577 63.561245
16.701353 3.3697739 67.332245
15.601354 2.225769 69.36924
22.864355 36.65177 71.874245
21.392355 38.162773 71.942245
23.852354 43.85477 4.228241
22.192354 45.23977 4.9022446
4.3863525 27.908772 67.06525
4.7253532 29.67377 67.86924
2.432354 35.86277 69.85124
2.0283546 34.58877 71.679245
37.562355 49.63577 17.769241
35.476353 48.407772 18.871246
34.859352 41.05777 21.021248
36.562355 39.83377 22.192245
37.883354 10.572771 68.42124
37.244354 12.104771 66.44025
43.863354 10.173771 63.785244
45.691353 9.862771 64.82424
11.607354 7.8257713 52.339245
10.779354 6.1897736 53.699245
15.030354 1.0997696 51.877243
14.641354 68.67677 52.562244
9.9853525 23.50077 19.339241
7.453354 24.026772 20.019241
2.1033516 21.480772 16.781242
1.8223534 21.52177 19.146248
51.27735 63.57777 7.717247
1.7393532 63.14677 8.953247
6.555355 69.25977 7.976242
5.5283546 1.0007706 7.2952423
6.0633545 65.004776 49.057243
6.913353 62.96477 48.087242
4.7593536 55.14477 48.281242
6.7283516 54.39177 48.974243
10.461354 55.20177 65.14324
11.263356 57.18777 63.851242
5.283352 60.76977 60.115246
4.501354 61.53377 61.989243
50.420353 41.94577 65.14424
0.6123543 41.337772 66.60324
50.233353 40.40377 0.7512436
49.058353 39.32077 1.9512482
19.230354 63.54077 39.004242
20.548355 65.82877 39.200245
20.798355 69.23877 34.582245
19.512354 67.65577 33.854244
16.946354 34.86077 17.002243
18.038355 35.190773 14.775246
16.622355 39.45177 10.074242
16.273354 41.72077 9.468246
50.537354 24.27277 8.064247
50.108353 25.65477 6.8502426
44.026352 30.54677 6.771248
42.521355 28.61877 6.7792435
6.847355 33.40977 13.443245
6.7313538 34.650772 11.621246
6.133354 40.50777 9.295242
7.3883553 40.46477 7.6472473
4.847355 5.911771 67.540245
5.670353 7.951771 68.331245
11.677354 6.9597707 64.20924
12.823354 6.944771 62.032246
49.751354 17.171772 33.693245
50.255352 16.218771 35.751244
45.771355 19.99377 37.804245
48.010353 20.69477 37.365242
1.2473526 47.05477 44.819244
3.1433525 46.11877 45.016243
5.1503525 54.04277 44.881245
7.236355 53.810772 46.117245
38.523354 61.969772 18.709244
39.683353 63.802773 17.307243
36.382355 0.073768616 18.422241
37.484352 1.7867737 17.504242
17.714354 4.235771 69.85024
19.335354 2.968773 67.93224
23.272354 67.532776 71.583244
23.361355 66.45577 1.540245
8.431354 41.573772 62.351242
10.891354 42.08577 62.334244
13.259354 48.46577 63.720245
13.867354 48.59177 65.96624
31.484354 42.35377 67.85024
31.809355 43.69077 66.540245
38.399353 44.85577 63.236244
38.846355 46.61077 63.197243
48.327354 47.70177 54.887245
48.973354 46.705772 56.709244
5.5283546 46.55177 55.791245
7.213352 48.03777 55.187244
8.960354 35.101772 52.030243
9.2753525 37.232773 51.950245
8.941353 41.96477 47.336243
10.832353 40.47777 46.729244
39.516354 44.81177 35.29024
37.848354 45.92377 35.614243
31.784355 43.24277 36.939243
32.472355 42.91977 35.368244
47.789352 37.36677 52.421246
47.780354 35.210773 53.044243
2.9483528 33.77077 52.506245
4.7303543 34.086773 51.717243
13.693354 28.74477 42.062244
12.050354 27.909771 43.745243
8.600354 25.33077 39.193245
8.129354 25.32677 36.765244
4.892353 28.04877 63.422245
5.3823547 29.294771 61.520245
11.505353 23.86977 60.805244
13.185353 25.22277 60.380245
6.1923537 69.23177 67.151245
8.068354 67.687775 66.927246
12.955354 0.053771973 60.764244
14.132354 68.11477 60.102245
12.712354 21.800772 26.643242
10.742353 21.706772 26.046242
10.285354 14.4487705 24.657242
10.870354 15.17677 22.618248
2.3393517 27.72677 63.288242
0.13035202 27.273771 63.569244
48.90935 33.454773 62.957245
49.56235 35.15177 63.075245
20.067354 56.03577 39.846245
18.816355 57.13077 38.770245
20.753355 54.57077 31.253242
18.817354 55.07977 30.751244
11.438355 68.992775 48.327244
9.484353 68.810776 47.497242
6.797352 4.5447693 52.302242
5.3363533 4.178772 50.617245
7.4053535 32.358772 63.207245
5.517353 31.308771 63.503242
1.5723534 38.93677 65.485245
51.01335 38.02277 66.525246
8.910355 31.474771 25.873245
7.649353 31.46977 27.338242
7.7123528 24.56777 28.084244
8.749355 22.98677 27.734245
38.828354 35.93977 64.080246
40.155354 35.27877 65.207245
36.753353 30.93477 70.70425
37.936356 31.474771 0.34324646
11.967354 21.766771 50.451244
10.901354 23.242771 52.086243
18.527353 26.35077 55.460243
19.221354 24.311771 55.806244
11.861356 35.120773 63.853245
10.090356 35.48077 65.00624
5.8013535 30.749771 70.01524
4.7353516 31.901772 71.11824
15.595354 16.126772 40.826244
13.856354 17.216772 41.515244
14.212354 17.43177 49.097244
14.039354 19.37177 50.151245
35.696354 3.0957718 48.998245
35.307354 5.0387726 49.093243
40.78335 4.7717743 44.059242
41.010353 4.962776 41.890244
26.790354 68.52977 68.08624
25.581354 66.77577 67.93324
19.577354 67.55677 64.302246
18.424355 0.29077148 63.613243
32.417355 60.70277 58.587242
34.182354 61.66177 59.245243
36.634354 61.92277 65.74625
37.010353 63.84177 66.99024
45.363354 69.479774 5.967247
44.642353 1.5597763 7.028244
43.654354 9.45277 5.5862427
45.651352 9.560772 6.8032455
16.892353 35.73077 42.542244
15.735354 34.04877 42.540245
10.056354 37.79377 38.971245
9.480353 39.98477 37.855244
40.689354 38.434772 23.180244
39.522354 38.73177 21.297241
37.828354 30.15477 20.483246
35.677353 30.38977 19.493248
27.162355 62.73977 68.56124
24.798355 62.43877 67.75424
24.307354 56.879772 64.11824
22.775354 55.559772 63.523243
11.497354 15.894771 40.12324
9.480355 17.39977 41.086243
8.452354 11.405771 37.804245
8.234352 8.9487705 39.273243
2.6413536 51.32777 61.845245
4.3583527 50.21677 61.296246
5.0163536 44.59577 57.648243
7.4953537 44.045773 57.982243
18.647354 6.046771 67.06424
20.582354 5.507771 67.94724
25.647354 8.552771 71.66824
25.639355 8.748771 69.28024
12.514354 59.26377 47.047245
12.851354 60.844772 48.45624
14.279354 61.27477 55.642242
11.928354 60.719772 55.837242
46.315353 34.92477 35.902245
46.087353 35.76577 37.791245
47.587353 29.662771 41.797245
46.615353 30.099771 44.058243
44.36735 47.32577 68.332245
45.026352 49.372772 69.26524
42.578354 55.34877 63.201244
44.433353 54.18077 62.491245
49.529354 39.30477 53.184242
49.675354 37.752773 54.883244
50.373352 36.031773 60.564243
0.3833542 36.259773 62.163242
41.532352 42.33877 62.106243
41.720352 43.97177 60.565243
47.460354 48.07877 58.297245
47.253353 49.30177 56.727245
37.657352 41.22977 32.120243
39.976353 40.96377 33.162243
36.617355 36.891773 40.10924
37.816353 37.447773 41.565243
45.121353 15.112771 32.30124
44.268353 14.99777 30.581245
41.119354 14.1987705 27.643242
39.988354 13.458771 26.05024
45.95035 15.716771 62.107243
44.927353 17.54877 62.442245
41.720352 15.814771 56.484245
39.808353 14.218771 56.046246
35.476353 13.631771 52.110245
34.681355 12.597771 49.943245
37.343353 20.05677 47.68524
36.025352 20.797771 46.464245
43.539352 58.24477 61.255245
44.31135 56.63777 59.560246
43.253353 56.23677 52.216244
45.140354 55.733772 51.444244
33.460354 8.196771 61.648243
33.992355 9.761771 60.333244
42.525352 12.055771 61.224243
42.588352 9.71477 61.159245
0.3893547 16.01777 59.708244
1.6643524 15.998771 57.625244
7.0493546 20.66677 58.565243
8.246353 22.33477 59.836243
16.031355 24.83177 71.21124
17.082354 26.026772 0.75424194
11.777354 27.04177 6.9212418
11.364354 25.93977 8.520241
43.63135 60.24677 49.727245
41.927353 62.004772 50.850243
41.062355 61.99477 58.344242
42.697353 63.39477 58.573242
38.409355 47.01577 48.253242
39.724354 46.21677 49.906242
39.305355 52.47177 54.074245
39.762352 52.553772 56.790245
45.601353 12.548771 31.927242
44.204353 12.038771 33.700245
49.938354 9.767771 39.981243
49.428352 7.207771 39.826244
31.728355 11.249771 61.201244
32.815353 11.879771 63.443245
35.392353 15.54977 66.945244
36.126354 13.865771 67.999245
15.588354 39.50077 22.265244
16.093353 37.69377 20.552246
12.264354 37.45977 15.311241
13.140354 37.684772 13.100243
34.651352 13.008771 8.091248
35.649353 12.909771 10.169243
41.517353 8.744771 10.975243
41.183353 7.060771 11.6052475
17.327354 9.062771 63.290245
19.416355 8.566771 63.238243
22.431355 7.339771 66.069244
24.463354 6.118771 65.387245
46.046352 65.23877 5.2392426
45.00735 63.31277 4.012245
40.874355 69.26577 5.5972443
39.957355 0.9747696 4.368248
29.352354 5.476771 54.554245
27.519354 4.918771 55.620243
29.069355 9.722771 62.589245
27.068356 8.921771 63.831245
46.34035 54.88977 43.151245
44.865353 56.11977 43.138245
42.626354 60.73077 47.433243
41.975353 62.80877 47.422245
42.140354 6.9407706 61.780243
40.397354 8.489771 63.239243
36.714355 8.16077 68.64925
35.577354 6.652771 69.03725
16.998354 47.52677 69.40624
18.981354 46.73277 70.680244
21.944355 52.82477 0.45824432
22.378355 54.032772 71.00924
35.767353 34.009773 39.788242
35.716354 31.523771 39.839245
42.768353 30.971771 44.644245
41.231354 31.56977 46.42124
32.006355 20.51777 48.045242
30.637354 20.158772 49.601242
33.394352 15.092771 53.304245
33.142353 12.963771 53.619244
20.905354 26.87177 63.929245
22.250355 28.56477 62.093243
23.208355 24.30577 56.363243
21.764355 25.25777 54.787243
31.175354 13.458771 37.183243
33.155354 13.162771 36.77624
36.451355 7.006771 35.659245
35.284355 5.777771 34.464245
40.271355 38.74277 67.88324
38.288353 38.12377 69.04724
34.943356 45.65877 68.35324
33.001354 45.11877 68.79524
22.986355 35.91877 58.368244
25.042355 36.620773 57.538242
27.727354 42.01577 53.166245
29.728355 40.63377 52.544243
8.641354 44.43077 38.851242
6.871353 45.00377 37.865242
0.7033539 43.11877 41.188244
50.163353 44.42677 41.714245
16.240355 66.63877 61.170242
15.920354 65.07977 62.556244
20.349354 60.559772 66.888245
21.384354 61.82977 68.10124
26.577354 38.016773 24.152245
25.980354 35.960773 24.433243
27.046354 30.70277 26.345245
26.518354 28.84177 26.21724
9.133354 34.48077 61.144245
11.414353 34.24977 61.284245
17.149353 36.06877 56.680244
19.321354 35.22077 57.276245
9.297352 59.69777 55.566242
7.630352 59.14877 56.790245
6.953354 52.81477 60.879246
4.6223526 52.88277 61.024242
42.248352 3.6027756 61.088245
42.697353 2.865776 58.902245
48.58335 69.08377 60.585243
50.004353 68.43277 59.345245
45.642353 42.81577 29.593239
47.537354 43.240772 28.02024
48.477352 49.54077 32.40824
48.809353 49.657772 34.463245
20.173355 21.96977 0.5392456
21.023354 23.203772 71.109245
27.748354 25.42377 1.1462479
27.973354 26.804771 3.0482483
27.138355 64.657776 57.530243
24.971354 64.44878 58.572243
25.081354 64.57277 66.316246
27.598354 64.62477 66.75624
30.608355 59.38377 6.070244
31.329355 58.25777 4.4462433
33.631355 62.44777 70.50224
34.04735 60.74377 68.860245
24.401354 53.858772 1.0102463
24.111355 56.07077 71.89825
