90.590126 18.253824 7.8456345
88.83112 19.095825 7.1526337
20.308119 40.070827 1.0376358
18.114119 41.08983 0.39463043
7.4801254 32.75683 0.995636
6.8931274 31.070824 101.80563
30.199118 45.09483 44.242634
27.586119 45.245827 43.238632
34.782116 3.0648255 32.89263
33.446117 4.400828 31.267633
24.532118 23.407824 96.91863
26.603117 22.448824 97.54963
35.768116 32.39483 95.28363
37.003117 31.073824 97.12663
46.249123 17.027824 18.86563
48.443123 16.593824 19.96163
56.241123 24.474825 13.148636
58.544125 23.802824 12.530632
25.284117 3.7848248 89.29763
27.229124 5.175825 89.07063
27.545118 18.547825 84.84863
26.005117 20.177824 84.622635
90.57013 10.053825 19.931631
88.702126 10.990826 20.366629
79.899124 21.053823 14.392632
79.510124 20.280825 11.92263
6.132126 11.906826 62.926632
8.100121 13.572825 62.277634
15.2531185 11.656826 53.861633
15.534117 11.3418255 56.335632
3.191124 36.854828 95.43063
4.0061264 37.34483 97.164635
15.818121 42.801826 102.35364
17.340124 42.66583 100.88863
46.671124 20.002825 94.024635
47.944122 19.515825 92.00063
61.936123 21.738825 92.86863
61.414124 22.504824 94.58863
80.13113 14.293825 37.63363
79.07113 14.026825 35.74163
70.82213 25.480824 34.85163
70.591125 26.231825 37.04563
83.13013 45.043827 62.766632
84.22413 46.77783 63.028633
79.90112 4.542826 67.707634
77.896126 4.0838265 67.89263
77.746124 29.918825 62.991634
78.62513 28.230824 61.812634
79.35113 30.757824 49.565636
77.357124 28.877825 48.298634
86.33112 7.645825 56.009632
88.28912 8.144826 57.397633
78.16412 10.265825 57.097633
79.67113 11.511826 56.774635
14.394117 8.793825 50.156635
13.989119 9.418825 52.724636
13.353127 12.364825 60.287632
13.771124 13.827826 62.116634
6.576126 14.983826 96.859634
8.946121 15.677825 96.565636
2.2721252 12.173825 89.052635
2.8761215 11.380826 90.92363
65.15212 48.67083 93.97963
66.75313 47.085827 93.80963
75.08313 6.869824 85.59963
76.75413 7.298825 83.86563
47.300125 8.8748255 53.978634
47.079124 6.742825 54.217632
39.657124 3.245825 42.957634
41.244125 4.533825 41.479633
40.754124 47.551826 71.44663
41.871124 48.69183 73.16063
46.637123 3.355826 85.25163
48.859123 2.228827 84.30663
69.49213 25.075825 32.598633
67.30612 25.759825 32.405632
57.279125 33.196827 28.052633
55.567123 34.043827 27.064627
53.080124 36.155827 42.851635
55.334126 37.35883 42.120632
62.644123 30.721825 49.353634
62.878124 29.034824 50.403633
41.800125 24.771824 32.53563
42.389126 22.882824 33.987633
46.316124 24.403824 41.552635
47.144123 24.802824 43.887634
88.688126 0.84982544 101.665634
87.58112 0.62082535 0.9186325
2.5081253 36.729828 6.804634
1.0381241 36.08883 8.674629
54.241123 29.994823 41.854633
54.439125 29.190825 44.153633
57.192123 21.140825 46.539635
55.607124 21.844824 45.403633
89.02813 1.8208249 19.639631
89.855125 3.943825 20.732634
7.854126 7.159825 25.288633
7.838127 7.717825 27.729628
8.978127 23.718824 68.90363
10.976128 25.023825 67.94563
13.643118 34.573826 73.31063
15.913122 34.536827 72.788635
29.774122 -1.6361752 5.558632
30.810118 0.44382483 6.2886353
31.86112 13.880825 4.4406357
32.58312 13.113826 3.0026321
68.802124 28.050825 27.826628
67.70612 28.221825 25.495634
61.512123 35.739826 27.07363
61.986122 37.65683 28.520628
71.49013 2.8778253 36.443634
70.841125 4.178828 38.347633
61.518124 41.47783 40.194633
61.020123 41.447826 42.617634
62.144123 5.228825 80.73963
64.219124 5.9918256 81.856636
69.996124 44.23483 74.26463
69.99712 45.15983 71.93263
51.695126 22.354824 6.0056305
49.963123 21.740824 4.3216324
42.108124 20.001825 17.038633
42.929127 17.980825 17.79463
1.6871262 36.460827 98.64163
3.3151245 36.384827 99.68463
13.076126 43.38883 2.3946304
11.493126 42.882828 4.47863
50.838123 40.13783 22.15563
51.579124 41.681828 23.095633
63.264122 46.014828 24.909628
63.758125 47.87483 23.773634
64.09913 44.829826 31.749632
62.847122 44.63783 30.04363
56.896122 6.2648244 33.388634
57.061123 8.354825 32.833633
71.758125 27.216824 80.81263
72.549126 24.583824 81.32163
62.004124 18.716825 86.71563
62.335125 20.899824 87.289635
76.62913 13.266826 55.81563
75.27712 12.110826 56.748634
74.09913 1.9728248 47.994633
73.18513 -0.0071749073 49.031635
74.96113 14.904825 57.434635
72.90913 14.178825 56.790634
78.83613 10.892825 53.849632
80.45813 8.977825 53.144634
82.25413 8.185826 56.116634
80.26312 8.672826 56.006634
70.90112 0.28982788 52.386635
69.61513 47.356827 52.635635
58.413124 8.086825 35.177635
57.163124 10.132826 35.896633
57.616123 17.551825 46.369633
56.689125 18.359825 48.230633
12.481125 29.155825 1.6716309
12.877121 29.783825 3.5596313
16.193121 42.22583 7.2776337
16.758123 42.454826 9.957634
53.368122 22.688824 75.870636
54.963123 22.459824 76.94563
46.659122 17.916824 84.85463
48.208122 16.879826 83.01663
79.717125 21.886824 57.658634
79.424126 20.376825 55.834633
84.71113 30.964825 47.89963
82.03413 31.595825 49.018635
9.018127 2.1558251 8.06263
10.696121 2.695826 9.618629
18.798117 43.07383 7.058632
19.648123 43.522827 9.599632
20.52912 1.6948249 91.956635
21.55512 3.325825 93.11964
10.936127 12.428825 92.803635
10.0011215 11.376825 93.75463
11.443123 26.783825 8.803635
10.719124 27.441824 6.605629
0.4681244 33.58283 6.508629
89.97413 32.704826 8.2936325
19.36312 9.248826 45.408634
21.118124 10.524826 46.088634
14.498121 17.709826 36.271633
13.323128 18.982824 37.680634
75.786125 36.001827 102.09064
76.90313 36.904827 100.47263
88.78413 33.445827 95.245636
89.966125 32.386826 93.87663
23.74912 42.25383 9.197632
24.30512 40.94383 10.9826355
13.860121 32.60383 15.735634
13.397125 31.394825 17.931631
83.969124 3.986825 101.14163
81.61213 4.185825 101.56164
79.774124 10.846826 0.027633667
81.90012 12.247826 0.5846329
42.038124 26.197824 57.595634
40.100117 25.982824 56.880634
35.22112 15.625825 53.419632
34.087116 17.331825 54.560635
84.969124 45.17783 44.456635
85.37713 46.38183 43.025635
72.69212 0.13382584 46.41363
73.63712 46.585827 47.580635
76.507126 1.536825 39.928635
78.12913 -0.37917513 39.28663
81.590126 12.953825 33.762634
82.55713 12.931826 36.17363
7.7001266 2.733828 79.17263
5.4471207 1.459826 80.10263
3.8051224 45.93583 78.066635
3.3081207 47.76883 78.734634
17.25012 46.259827 63.467632
16.893118 48.48283 62.717632
3.4801254 43.72183 60.905632
1.9231262 42.98583 62.087635
59.335125 4.256827 81.78563
59.102123 2.1828256 81.67063
48.083122 46.92283 83.759636
46.975124 45.432827 84.94963
90.94713 47.333828 31.228628
1.6621246 46.821827 29.972631
6.903122 4.5818276 27.436628
7.328125 4.615828 24.76763
54.919125 20.333824 0.9276352
53.151123 20.703825 2.481636
52.069122 7.972825 5.995636
49.933125 6.528825 5.3576355
64.49113 13.440825 51.276634
62.34812 13.790825 51.382633
52.489124 14.982825 54.186634
50.246124 14.853826 54.289635
22.975119 35.812828 35.538635
21.544119 33.86683 35.07863
17.287123 31.227825 36.585632
15.4681225 30.482824 37.04563
18.96012 29.455824 93.97263
18.729124 30.288824 92.10363
24.11312 19.220825 91.48963
25.477118 17.582825 90.66164
63.486122 13.744825 9.771629
62.927124 14.304826 11.947632
62.409122 20.959824 6.068634
63.824123 22.258825 4.5976334
13.133125 17.321825 9.928635
11.301125 17.873825 10.952629
10.958122 13.721826 24.47663
11.908127 13.849825 26.52963
13.70812 39.47583 51.813633
15.490118 38.126827 51.518635
18.854124 25.516825 57.597633
20.892118 25.543825 56.238632
6.7181244 38.042828 41.394634
8.455124 36.761826 42.865635
12.594124 26.478825 39.452633
11.258125 25.101824 38.595634
5.7301254 39.85283 69.08863
6.0291214 41.237827 67.44663
12.549126 38.99983 58.437634
14.543119 39.472828 58.570633
89.02913 13.997826 62.283634
90.01813 12.566826 63.083633
86.18413 0.21682508 64.95163
85.85812 -2.0831752 65.47463
78.74912 1.0538278 98.69663
78.74213 48.258827 100.943634
75.258125 42.59683 2.3976288
73.91512 40.884827 3.1366348
33.495125 43.11783 50.536633
34.834126 44.743828 50.109634
47.765125 45.68583 54.082634
46.217125 46.257828 55.956635
33.725117 11.671825 46.301632
32.55512 12.292826 44.430634
38.87212 4.150825 39.605633
40.26312 5.520825 38.55863
75.33212 16.697824 17.89063
76.604126 18.607824 19.380629
79.39113 13.647825 32.18463
79.023125 15.923825 32.42163
0.82212067 5.8058248 79.95263
3.2741241 5.506825 80.33363
11.325127 4.7468247 70.13863
9.675125 4.192825 68.997635
18.719122 28.156824 96.95163
19.231123 27.151825 98.93763
25.586119 33.358826 6.3006287
23.84612 35.191826 6.971634
39.865116 11.168825 76.22863
40.48212 12.993825 76.610634
28.789122 10.798825 67.95163
28.59912 12.785826 67.776634
75.10912 38.85083 4.393631
76.31913 41.01983 5.322632
72.97513 46.23583 12.759636
72.33613 45.79183 10.317635
4.9971237 10.998826 31.66863
3.9601212 12.877826 31.889631
12.786125 16.821825 28.921629
12.882126 18.537825 29.938627
86.260124 19.366825 61.089634
88.04713 18.417826 61.848633
4.097122 29.178823 67.219635
3.3471222 29.205824 64.899635
52.042126 40.40683 39.277634
52.873123 38.495827 40.24363
60.420124 41.376827 30.96263
58.498123 42.65983 31.26663
73.23913 29.524824 44.882633
72.85213 29.010824 42.798634
75.326126 41.800827 37.667633
74.98613 43.418827 39.161633
38.171116 22.864824 34.157635
36.437122 24.850824 33.532635
34.98012 21.457825 38.798634
34.48412 19.457825 38.410633
26.88812 15.968825 23.999632
25.088118 15.759826 25.760633
34.06412 10.171825 28.65463
36.254116 9.059826 29.69763
23.665121 13.288825 13.348633
22.70912 13.743825 11.140633
18.755117 7.982825 11.40963
17.170118 8.730825 10.440636
74.704124 10.391826 68.27063
73.438126 10.5258255 70.65963
68.72813 22.543825 70.63364
67.16813 22.881824 69.28263
54.425125 13.840825 83.21463
56.592125 13.727825 84.260635
49.869125 5.412825 83.926636
47.896126 6.0828247 84.74163
76.480125 36.453827 24.285627
78.285126 35.543827 23.060629
75.146126 29.486824 12.872635
73.078125 28.625824 13.681633
63.065125 18.132824 35.063633
65.23913 19.376825 35.018635
67.70912 28.032824 39.031635
69.952126 28.422825 38.96863
49.101124 40.40683 39.02063
50.147125 39.79783 37.21463
41.945126 43.16683 27.97663
41.215126 45.765827 27.47363
85.76413 2.493825 10.968636
85.41613 2.3638248 13.621635
7.986122 7.134825 10.925629
8.405121 6.356825 8.985634
22.996122 11.318826 100.52863
21.891119 9.350825 101.57664
31.40412 7.784825 93.745636
32.035122 6.454825 92.45263
0.3111267 47.40083 96.86863
89.357124 48.147827 97.69463
84.023125 35.314827 2.8006287
82.66412 37.11683 4.070633
80.30613 23.295824 90.25563
81.563126 22.303823 92.52264
0.37112427 13.986825 92.74263
1.5061264 14.987825 93.67163
13.543121 46.766827 13.591629
15.652121 45.599827 13.118629
17.581121 48.43483 12.427635
16.155119 47.472828 11.291634
8.427124 45.29883 23.380629
10.1291275 43.81883 24.71063
88.20612 42.70083 33.681633
89.564125 42.230827 35.86563
32.293118 37.550827 93.22763
30.27712 37.67283 93.97363
27.373121 1.6358285 93.22863
26.635122 2.544825 91.86163
78.12713 12.552826 71.95163
76.81113 11.307826 71.86964
76.02913 -1.3331752 74.177635
74.72012 -0.611175 75.481636
10.683121 26.333824 52.860634
12.325127 24.314825 51.778633
10.929123 36.648827 44.273632
10.428123 37.389828 46.15663
48.473125 21.316824 27.407629
49.180122 24.122824 27.202627
56.701122 27.382824 17.57363
55.789124 26.321825 15.385635
19.822119 1.1388268 86.622635
19.345121 1.0258279 84.428635
15.342123 4.1948266 90.79363
14.634123 6.4728246 91.082634
45.621124 0.8408266 57.303635
47.316124 0.30582672 56.926632
46.855125 41.204826 65.21463
48.790123 40.09583 65.927635
56.786125 20.157825 69.665634
57.643124 22.134825 70.93863
57.769123 33.723827 67.40663
58.846123 35.272827 68.526634
51.045124 36.078827 64.63163
52.205124 33.754826 65.359634
40.715126 27.933825 59.270634
38.613125 27.871824 58.862633
24.211119 38.32583 10.193634
25.192122 36.97683 8.968636
33.52612 27.867825 12.385635
33.00012 27.672825 14.822632
32.642117 15.174826 67.010635
34.142117 16.844826 67.235634
42.092125 16.603825 79.24063
40.154118 16.300825 80.86863
74.217125 35.89583 66.329636
73.54513 37.92383 66.00763
71.785126 48.24283 62.680634
73.74213 47.33083 63.297634
48.782124 34.37383 89.56464
50.720123 32.945827 89.85463
53.991123 39.280827 93.28163
55.930122 40.37483 94.47563
54.180122 20.063826 43.865635
56.517124 18.887825 44.10763
61.264122 15.911825 35.054634
61.283123 16.275826 32.415634
82.562126 3.117825 70.524635
82.47313 4.630825 68.330635
1.7051239 12.313826 66.79963
1.3831253 13.722825 65.28463
39.033127 34.49883 95.524635
39.160126 36.355827 94.72363
44.342125 41.586826 80.68663
45.850124 43.33983 81.26663
4.6521225 32.293827 52.674633
5.2701263 31.060825 54.246635
16.07012 25.389824 59.437634
16.010122 23.224825 60.135635
89.94913 47.83783 26.61463
88.95813 47.04683 28.50363
81.90813 35.910828 32.723633
80.12713 36.578827 33.30963
7.417122 3.4248261 10.257629
6.8811264 1.1068254 10.198631
86.96113 45.432827 6.86763
85.57013 46.925827 8.773636
30.02812 48.42183 100.69763
31.290121 46.674828 101.63863
26.434118 37.51783 92.62863
28.11312 35.941826 94.06363
13.354126 39.162827 93.706635
12.154121 38.83883 91.860634
4.894127 47.90983 91.038635
2.7851257 48.251827 91.301636
19.731123 10.1178255 6.40963
20.27912 12.503825 5.205635
8.835121 18.719826 101.11463
8.645126 18.857824 99.20063
35.13712 45.411827 79.762634
35.21812 43.84383 78.301636
44.70912 39.308826 72.91863
44.76912 39.79083 75.01763
61.807125 23.549824 97.29463
61.676125 25.394825 95.967636
57.640125 36.67283 96.24363
56.122124 37.446827 98.303635
13.920118 9.897825 74.90563
13.117126 9.895825 76.84763
11.531128 16.820826 81.42263
11.804123 18.659824 80.370636
60.625122 2.7198281 85.151634
60.029125 0.7408281 86.55064
52.475124 5.3358235 81.637634
50.631123 6.596825 81.453636
71.76813 9.812825 62.814632
72.31113 9.973825 60.860634
80.495125 19.238825 58.996635
78.621124 20.720825 59.785633
62.472122 43.86783 13.315636
65.14013 44.181828 12.570633
63.375122 8.796826 12.67263
63.07712 10.734826 11.634636
18.83312 43.73583 53.336636
19.651121 41.85183 52.151634
21.858122 40.07583 38.398632
20.544119 40.47183 36.972633
2.5771255 1.7458253 55.258633
4.4281235 0.4608255 55.432632
4.0671234 10.527825 61.859634
5.7121277 10.326825 60.428635
43.616123 7.572825 57.967632
45.406124 8.881825 57.044632
38.142124 4.800825 44.500633
38.528126 7.220825 43.227634
45.398125 46.70783 82.99363
44.26812 45.460827 84.581635
34.132122 5.1378255 90.26863
33.56812 7.1208234 89.84163
82.12212 48.05383 8.174629
83.316124 0.70582825 9.879631
88.05913 3.6548257 102.72663
86.855125 5.459824 101.89163
78.451126 2.638825 28.235632
78.091125 0.27382475 29.427633
77.69713 12.842826 37.89763
76.01813 11.945826 39.429634
1.1571274 39.119827 94.303635
2.0251236 39.118828 96.94463
14.44412 45.80283 92.88364
15.436117 44.08983 91.76463
80.25113 33.68683 67.90263
78.774124 32.738827 68.496635
79.26713 31.369823 80.95963
77.371124 29.995825 81.27963
42.773125 5.129826 35.556633
42.361126 5.7398267 33.52063
49.139122 46.139828 25.202627
50.332123 44.111828 26.130629
79.01112 31.987823 88.12963
79.85213 32.924828 90.38364
77.54012 20.509825 93.71263
76.344124 18.739824 95.04263
55.016125 39.72183 42.71863
53.423122 38.92383 44.366634
58.415123 42.294827 54.992634
59.140125 40.405827 55.853634
61.389122 27.966824 81.53363
59.921124 26.665825 80.303635
54.660126 34.340828 69.26663
54.799126 33.10283 67.734634
7.405121 9.372827 30.82163
8.871124 8.363824 32.404633
15.951124 2.8998284 37.843636
17.060118 1.3998284 39.665634
71.92013 16.999825 13.986633
72.00213 18.777824 13.954636
70.74812 12.015825 8.08963
70.42113 10.009826 6.9516296
41.391125 38.694828 42.342632
39.920124 40.201828 43.340633
39.982124 44.47783 55.870632
37.901127 43.67383 54.739635
34.396122 22.447824 30.48863
35.78612 23.970825 31.037634
32.05012 31.402824 42.067635
30.373121 31.472824 41.483635
60.239124 23.541824 0.48963165
61.261124 26.020824 1.6666336
55.025124 37.26783 4.874634
55.297123 38.97883 4.3116302
57.607124 2.003825 52.399635
56.805122 3.8408248 52.836636
57.830124 7.785825 65.721634
55.361122 8.696825 65.829636
6.9001236 37.53983 52.662636
7.451126 39.88883 52.335632
84.76413 44.389828 47.74663
83.93513 44.81183 50.031635
50.294125 36.003826 70.00864
49.923122 34.136826 68.52163
51.834126 28.831825 60.883633
51.183125 31.149824 61.759632
39.251118 45.99183 16.860634
37.128117 45.419827 18.104628
42.883125 43.245827 6.3736343
45.00212 44.084827 7.5176315
9.942123 21.816824 40.147633
9.667122 19.705826 39.245632
0.4491272 15.088825 43.824635
89.80613 15.355825 42.828632
29.064123 35.517826 11.551636
28.57012 34.36083 9.29863
22.66612 39.05483 4.8426285
21.115118 41.12383 4.8146286
16.22412 31.203825 91.34163
15.457121 30.136824 89.775635
7.675125 29.434824 83.13963
6.274124 31.155825 84.14764
20.378119 1.4188256 95.09063
18.810118 2.7778268 95.818634
17.838118 7.959824 5.8436356
18.907118 8.301824 4.334633
3.7631226 2.2178254 49.115635
3.4081268 2.2978272 51.462635
90.69212 45.903828 61.167633
1.3381271 45.750828 62.671635
73.82413 7.467825 44.46163
74.26713 9.527825 44.025635
67.87613 13.259826 35.412632
68.17213 15.471826 33.946632
3.6291275 47.94883 21.911627
2.151123 47.169827 23.748632
7.3081207 38.910828 30.324629
6.1921234 37.27483 32.482635
75.06712 42.397827 20.013632
77.04113 42.954826 19.207632
83.76413 32.25683 16.482635
83.41512 32.309826 18.896627
63.602123 22.258825 65.442635
62.811123 19.960825 65.50863
64.61513 26.826824 52.655636
62.489124 28.051825 53.295635
52.208122 35.661827 68.14463
53.810123 35.51983 66.596634
62.941124 47.89283 69.39263
64.79513 46.701828 67.859634
70.355125 7.024825 73.801636
68.65913 8.688826 73.90863
65.61513 12.724826 81.68363
64.18112 13.585825 83.35463
47.941124 19.204824 87.94763
47.263123 18.122826 90.137634
42.188126 6.047825 94.79663
43.358124 5.238825 92.92363
69.467125 41.32583 40.666634
69.90713 42.201828 42.920635
66.43112 38.29883 50.888634
66.759125 39.52083 52.683636
76.354126 18.442825 92.43663
76.57113 16.441824 91.760635
76.01813 21.131824 88.275635
77.88712 22.262825 89.360634
53.718124 47.51183 25.996634
52.460125 1.0178285 27.144629
48.107124 4.398825 34.109634
49.850124 5.6118245 33.302635
10.468124 8.816826 24.01563
9.832123 8.340825 21.968634
14.484121 13.093825 28.22563
15.010122 15.469826 28.637632
25.744123 41.56083 68.18563
26.094122 43.94383 67.63163
30.18012 1.820826 60.867634
30.02912 1.9398255 63.063633
38.80412 35.79183 9.901634
36.83112 34.55583 10.175629
27.101118 40.08883 11.611633
26.687124 41.98583 12.899635
9.415123 29.355824 8.34063
8.808121 30.533825 9.882629
14.490118 42.771828 11.208633
14.438124 44.89483 9.79763
46.737125 24.147825 2.141632
48.034122 24.020824 3.7576294
47.914124 37.26983 102.41064
49.811123 37.79583 102.74063
68.052124 28.416824 102.511635
67.465126 26.743824 102.901634
63.162125 23.904825 2.4686356
65.15212 23.439825 2.469635
36.309116 9.951825 43.38163
34.44412 11.977825 42.399635
32.25812 13.822825 29.37763
33.195118 14.802825 27.713629
60.294125 5.2668247 101.120636
57.91712 6.526825 100.10363
64.76212 17.477825 92.485634
66.53213 17.931826 91.470634
40.070118 36.285828 39.876633
42.76712 36.44383 38.958633
34.41512 30.551825 29.175627
33.766117 30.699825 27.007627
82.27013 28.990824 8.209633
80.65813 27.490824 8.132629
70.35013 30.465824 102.540634
70.51412 28.013824 101.56963
72.79012 6.548825 67.36763
70.785126 5.4988256 67.64763
76.01312 44.63783 62.874634
78.44312 44.376827 62.423634
24.87412 35.077827 82.91164
23.425123 34.733826 81.235634
35.11112 31.840824 73.44763
37.266117 30.661825 73.69863
18.484121 8.180825 14.046631
19.339117 8.013825 16.15763
16.797117 48.578827 28.44763
16.267118 46.69283 27.333632
44.820126 14.385825 18.428633
44.494125 15.598825 16.780632
51.444122 21.380825 14.330635
52.646126 22.738825 13.571632
45.885124 19.889826 59.326633
46.965126 21.792824 59.602634
38.339127 27.282824 70.34763
36.065125 28.203825 71.164635
59.154125 35.06883 28.902632
58.47312 35.64483 27.123632
62.638123 42.88583 18.360632
62.677124 43.14283 16.184631
28.61312 26.822824 63.494633
28.770117 25.940825 61.588634
19.090124 35.962826 55.718636
20.744123 36.97083 57.415634
6.618126 34.740826 32.029633
5.8981247 34.444828 29.981634
13.793119 28.640825 23.353628
14.1541195 29.956825 21.402632
87.494125 39.19183 31.239634
88.094124 39.33983 33.70463
84.28313 37.03883 46.17763
85.18013 34.972828 47.419632
14.6541195 32.788826 20.825628
14.702124 31.978825 23.02963
17.686117 28.809824 22.790632
17.604124 27.357824 24.44663
31.01512 10.702826 87.759636
32.491116 9.710826 86.57463
46.44712 7.764825 82.87863
47.639122 6.3788247 81.289635
31.47112 39.30983 96.053635
31.58512 39.001827 98.164635
26.84612 41.21983 9.165634
26.603117 39.25383 8.705635
24.204123 45.90183 52.493633
23.66812 44.22183 53.078632
26.064123 35.052826 40.342632
24.896124 36.119827 38.984634
47.925125 22.151825 29.72463
49.351124 20.813826 30.133627
44.000126 18.979824 41.609634
43.540127 21.374825 42.747635
4.894127 43.27783 38.890633
7.0181274 43.89483 38.377632
12.7391205 39.438828 45.047634
13.120125 38.036827 43.23963
41.76712 24.245825 98.40563
40.24812 22.725824 98.732635
28.650122 29.134825 0.40563202
27.65312 27.187824 2.134636
28.901121 4.369825 64.13863
30.935118 4.908825 65.09163
26.507124 9.934826 61.463634
25.868124 10.278826 59.089634
61.640125 37.67383 73.60063
61.36912 38.61783 75.860634
74.04813 41.069828 79.399635
74.06913 38.97583 79.606636
34.907116 43.45783 52.659634
36.295116 44.92083 52.845634
40.29912 46.93683 56.927635
41.84912 46.356827 55.781635
64.54212 8.679826 81.844635
64.42113 8.769826 79.81063
61.023125 15.247826 69.00963
60.196125 12.760825 68.40963
19.871122 22.702824 56.195633
19.746122 21.249825 58.182632
12.521126 15.134826 67.66963
10.796127 16.584826 68.64163
82.46113 34.25583 49.343636
82.774124 35.92283 48.236633
85.69513 41.264828 43.244633
84.161125 42.736828 44.640633
71.36613 9.112825 12.58963
72.758125 9.313826 14.716629
65.21213 10.715826 22.61463
62.835125 10.918825 23.339628
31.512121 32.69383 51.861633
30.438124 34.319828 52.352634
21.536123 40.426826 54.297634
22.105124 42.446827 54.566635
82.71213 41.69983 80.86463
84.09713 41.04183 79.899635
2.179123 41.00583 72.92363
2.9831238 42.341827 74.401634
38.496124 1.4448249 29.678633
37.961124 0.0048251767 28.269629
43.040127 10.381825 21.785627
41.945126 11.257826 19.369627
32.57912 12.207826 48.728634
31.072119 10.396825 47.858635
28.591124 46.134827 52.967636
30.352118 44.54583 51.705635
36.156116 15.824825 47.932632
36.187122 15.451825 50.473633
34.15012 2.6148248 43.560635
36.20512 3.780825 42.96163
71.10213 27.786825 8.837631
69.60213 27.162825 7.671631
57.867123 26.747824 12.972633
56.79212 28.778824 13.90963
52.625122 30.800825 28.33763
53.662125 29.289824 29.596632
66.22713 24.848824 29.882627
66.76613 23.017824 30.926634
87.37312 21.966824 43.390633
87.24013 19.873825 44.608635
84.43013 19.299826 57.803635
84.25413 17.479824 58.784634
0.0031280518 18.118824 73.43263
89.816124 19.963825 73.720634
87.82113 24.782824 75.706635
87.97613 22.688824 76.30663
16.450117 17.366825 85.54263
17.743124 16.097824 86.955635
22.433119 20.632824 95.081635
23.450117 19.290825 94.095634
45.412125 8.425825 10.9186325
44.47512 10.248826 10.8196335
37.73112 1.1248248 15.902634
36.48212 0.21782501 14.343636
29.63812 1.1548257 9.980629
27.568121 2.254828 10.431633
21.18012 8.542825 1.8036346
19.188124 7.7438245 1.608635
7.7181244 5.5178266 45.272633
8.464127 6.091824 43.253635
91.090126 45.542828 36.044632
0.07212067 45.452827 34.006634
37.12412 19.357824 100.457634
36.270115 18.736824 98.39063
31.772123 30.810825 100.89463
29.719122 31.167824 101.98663
80.357124 20.849825 81.32163
79.104126 19.337826 79.832634
79.26212 17.233826 92.46563
79.78113 18.792826 93.830635
61.963123 3.525825 96.29463
62.31312 3.273825 94.11964
73.01913 7.090825 87.94863
73.59612 9.236826 88.41963
19.641119 31.670824 37.613632
19.61012 31.224825 35.50763
30.093122 23.685825 32.49063
29.963118 22.110825 33.74163
31.09612 48.10783 43.286633
31.158117 47.556828 45.576633
40.60712 0.4208284 54.832634
42.40412 48.335827 53.939632
34.574116 46.315826 83.55863
36.184116 44.70583 82.89463
33.70512 37.759827 89.75263
34.446117 35.97083 91.108635
83.68213 1.0178285 102.18864
85.85213 1.2258286 101.28263
78.202126 42.60083 1.8356323
77.61313 45.334827 1.8156357
52.592125 30.701824 22.52963
50.278126 31.769825 22.180632
45.001125 23.977825 28.161627
43.148125 23.574825 30.111631
0.6461258 10.771826 28.938627
2.191124 12.329825 29.734632
0.41412354 25.613825 30.074629
2.3741226 25.331825 32.000633
81.99113 12.506825 42.820633
80.57213 13.764826 41.60063
81.86513 27.607824 42.825634
83.24712 28.019825 45.016632
20.842123 21.688824 30.024633
20.475119 24.072824 29.455633
28.18012 34.13183 28.662634
30.301123 33.372826 29.55763
59.395123 39.069828 89.676636
59.652122 38.29583 87.470634
61.852123 36.69383 80.00864
61.787125 36.856827 77.943634
19.94412 10.392825 13.778633
20.091124 11.330826 16.240631
16.962118 22.051825 21.72563
16.93212 23.999825 22.425627
40.993126 23.195824 79.18163
38.75912 23.498825 79.109634
36.099117 12.817825 76.163635
37.89912 12.936826 77.22963
37.16612 29.383825 24.109632
35.19212 29.205824 25.370634
27.438124 18.927824 22.04363
28.495123 19.811825 19.86563
74.676125 15.661825 95.82763
72.856125 15.570826 94.830635
66.898125 8.8348255 84.32163
64.648125 8.144826 84.54263
48.585125 5.873825 10.57663
49.071125 8.040825 9.494629
53.964123 19.014826 8.025635
56.479122 18.964825 9.50663
90.731125 7.247826 82.64764
88.898125 6.287823 83.42063
0.7561264 3.1238275 95.04463
0.86912537 1.197825 96.04663
27.794119 47.99783 68.386635
27.120123 47.25583 65.97263
14.171118 3.4938264 70.04563
12.939125 2.6518273 71.43163
78.23312 6.948825 19.097631
76.701126 5.655825 19.592627
71.89213 14.429826 27.00363
70.94512 13.675825 29.386633
9.726128 15.681826 9.386635
8.048126 15.415825 7.7016296
9.934128 28.171824 1.0576324
10.946121 28.892824 102.38963
44.181126 31.901825 73.99963
46.467125 31.247824 72.731636
46.607124 37.509827 61.038635
47.563126 39.070827 61.199635
22.183119 32.750828 82.691635
21.026121 31.532824 83.91063
20.206121 17.878824 83.54163
19.80712 17.893826 81.19763
54.930122 1.6408257 56.103634
55.308125 1.0808282 58.313633
50.964123 39.175827 64.579636
50.777122 38.986828 62.272633
19.315123 39.738827 3.4186325
20.510122 38.111828 3.0666351
17.771124 30.701824 11.833633
16.914122 30.769825 13.54763
59.580124 0.8378282 22.12963
58.340122 2.1338258 23.263632
60.948124 46.81083 16.916634
62.890125 45.50583 18.54363
10.979126 13.863826 59.495632
13.600119 15.019825 59.480633
4.512123 23.824825 62.046635
2.0131226 22.919825 62.275635
72.660126 39.183826 18.065634
70.565125 38.751827 18.637632
69.27712 42.987827 31.616629
67.245125 43.787827 31.233633
62.842125 44.67983 59.754635
62.461124 46.40883 58.099632
72.42113 7.5878263 54.93363
71.981125 9.2428255 56.206635
0.98612213 35.758827 17.078627
2.017128 35.279827 18.804632
9.921127 35.677826 29.255629
8.397125 34.295826 28.385633
67.85213 33.397827 51.661633
69.38812 32.343826 50.548634
74.47213 22.847824 48.820633
76.45013 22.299824 49.070633
67.96113 28.139824 64.35363
69.036125 27.039824 63.268635
76.774124 20.561825 55.530632
75.72613 18.752825 56.541634
5.540123 19.084826 78.23963
6.377121 20.264826 80.162636
0.93712616 25.196825 85.98863
90.857124 26.816824 86.07763
79.50013 34.448826 86.40763
80.051125 35.252827 83.93463
83.204124 31.654825 72.61663
81.89013 29.676825 73.58863
88.424126 33.883827 5.181633
89.78912 32.848827 3.9826355
86.30513 27.047825 95.16863
84.508125 27.732824 95.400635
34.67812 38.926826 93.32063
33.14812 40.51883 93.455635
36.22012 2.7888284 99.30763
35.854122 1.3198266 100.94863
42.773125 46.285828 73.621635
44.093124 45.896828 71.78163
46.795124 41.77683 59.144634
47.346123 42.68483 57.195633
85.68413 7.052825 80.470634
86.79713 8.762825 79.46363
85.148125 7.521825 83.00463
83.07313 6.9768248 83.49163
70.648125 28.844824 63.238632
72.579124 29.510824 63.157635
76.49812 34.625828 53.231632
76.49712 32.687828 52.645634
68.009125 10.837826 8.473633
67.00513 10.644826 10.725632
64.40012 20.933825 17.776632
65.09712 22.903824 16.805634
66.12913 8.6178255 102.36263
67.952126 7.755825 102.720634
69.36713 8.832826 10.925629
71.25413 9.498826 9.426636
33.10712 12.760825 56.009632
33.43812 12.626825 58.670635
45.89012 14.544826 59.219635
47.176125 14.050825 57.220634
34.28812 21.866825 15.142632
33.562122 23.185825 13.457634
43.33812 30.948824 10.843636
45.260124 29.969824 10.538635
12.356125 41.01783 88.29863
11.728127 41.05483 86.04363
16.552122 31.676825 77.75563
18.331121 32.90283 77.734634
17.641119 40.605827 60.706635
17.157118 38.53483 60.022633
14.203123 25.839825 62.703632
16.647123 25.507824 62.218636
4.568123 29.456825 80.68663
6.824127 28.972824 80.66063
5.734123 42.583828 74.912636
5.4101257 42.954826 77.09863
62.864124 18.837826 89.86163
62.692123 16.587826 90.44563
53.955124 9.704825 97.48064
54.422123 7.809825 99.02763
54.077126 24.993824 74.72663
54.707123 24.219824 72.40663
68.342125 26.805824 70.48963
67.188126 25.620825 68.804634
6.4001236 30.467825 34.012634
5.306122 29.385824 32.262634
16.378119 25.152824 24.870634
14.565123 25.480824 23.326628
12.035126 21.484825 37.607635
11.112122 19.908825 36.67563
4.665123 25.239824 26.986631
3.4091263 24.639824 25.231634
75.467125 28.130825 45.238632
76.91913 26.630825 46.985634
75.133125 20.321825 47.562634
73.06113 20.286825 47.755634
37.050125 21.436825 31.675627
38.639126 23.154825 31.259634
46.455124 15.370826 22.174627
44.406124 14.415825 21.185629
27.675123 2.7328248 17.58563
26.952124 4.994825 18.690634
34.947117 14.514826 14.022629
37.14912 15.172826 14.6946335
4.9991226 34.52683 102.77164
6.4101257 35.24283 101.707634
17.683119 41.717827 4.2976303
18.410124 42.38183 2.6636353
58.212124 22.048824 39.877632
56.365124 21.612823 41.202633
49.429123 17.349825 42.070633
48.093124 19.345825 41.963634
34.781116 12.281826 53.184635
34.42912 10.570826 55.204636
32.279118 1.9798248 47.688633
30.40212 3.431825 48.210632
70.12613 46.54083 95.287636
68.65112 48.20083 95.64163
70.80813 5.848824 96.179634
69.15813 6.9898267 96.662636
36.975117 27.940825 12.397629
36.19312 29.299824 14.494629
35.405117 31.998825 15.105629
34.13612 30.638824 13.618629
23.30612 9.110826 46.96163
24.434118 10.327825 48.20463
31.022123 45.750828 48.876633
32.435116 46.097828 50.493633
49.275124 16.081825 23.228628
51.157124 16.513824 23.985632
61.066124 15.428825 13.664635
60.770123 16.495825 12.223633
59.548122 38.098827 80.07663
57.73012 38.33883 80.47963
54.193123 41.01883 91.25463
53.965122 42.952827 93.081635
12.0651245 31.830824 25.817633
12.808121 33.56883 24.025633
3.4971237 25.954824 20.091627
3.326126 24.786825 22.39363
12.298126 13.689825 29.64063
13.974119 13.536825 31.282629
17.295118 7.719825 40.790634
18.468122 6.005825 40.03363
55.157124 20.599825 4.9236298
53.689125 18.835825 5.0486298
53.653126 6.447825 7.844635
54.376125 5.831825 9.705635
79.65413 6.697823 84.53664
79.30513 4.7158265 84.289635
76.437126 48.571827 96.81963
75.316124 46.71483 96.996635
15.994123 1.2368264 35.792633
17.98712 0.5248285 34.69963
22.078123 5.098824 23.68463
20.484121 5.657826 22.450628
67.788124 43.445827 38.962635
67.119125 45.591827 39.837635
63.786125 42.140827 51.381634
65.46113 42.10183 52.615635
36.93012 40.10083 69.78363
36.257122 38.52783 68.554634
30.83212 29.872824 60.844635
31.604124 32.319828 59.869633
29.68212 29.551825 51.210632
30.94612 28.460825 49.594635
33.282116 15.336825 49.240635
33.51012 14.672826 47.397633
63.719124 17.510824 39.501633
64.01613 18.066824 41.723633
66.69512 13.232825 52.892635
68.19312 12.980825 54.702633
27.177122 42.196827 21.388632
26.676123 42.46483 23.445631
29.135122 2.6778283 29.14163
31.105124 3.412825 29.14263
82.12412 18.160826 101.67364
83.88712 16.412825 100.747635
78.076126 12.052826 90.87863
77.731125 14.008825 90.21363
4.1191254 13.165825 67.69463
5.9381256 14.013825 68.24363
6.3711243 28.077824 65.54463
6.630127 28.860825 67.84963
2.778122 41.10383 18.163633
1.9711227 39.598827 16.954636
9.454124 0.5458284 10.709633
11.369125 48.40083 11.428635
25.496122 28.875824 70.18363
24.517118 27.471825 71.38263
13.84712 24.928823 65.40463
12.141121 26.721825 66.10363
88.371124 13.987825 33.67363
89.31913 15.635825 34.389633
12.764122 16.047825 38.245636
13.985121 14.496825 37.20363
70.22312 39.14983 89.58363
70.03113 36.855827 88.607635
63.585125 37.40283 99.22363
61.849125 38.50383 99.83363
87.08613 48.306828 27.04563
85.455124 0.9968286 27.313627
78.42213 43.42783 21.549627
76.42113 42.884827 22.232634
54.921124 34.778828 12.28363
53.837124 35.057827 14.295631
55.775124 21.423824 7.7956314
57.713123 21.414824 8.870636
74.635124 0.9188257 99.00063
75.80312 0.58682877 101.30963
71.64013 37.16583 99.58363
73.65813 36.96983 100.57563
53.381123 34.38083 55.696632
55.428123 35.143826 56.063633
50.993122 47.717827 54.922634
49.120125 47.15883 55.742634
21.247122 1.2318254 48.067635
20.687124 48.07383 48.867634
23.645117 8.458825 58.624634
24.13812 8.599824 61.032635
65.11212 27.077824 25.110632
62.828125 25.632824 25.093634
65.90513 15.765825 32.54663
65.72312 18.160826 32.68363
88.995125 14.039825 24.316633
89.16613 15.825826 22.535627
88.995125 18.035826 33.33663
86.78013 17.870825 34.016632
79.58313 46.168827 91.426636
80.369125 45.61683 93.44863
90.44713 1.9188256 98.31163
91.00513 2.0998254 100.498634
70.61413 31.514824 64.25863
69.397125 32.928825 62.847633
65.52512 36.841827 53.003635
65.66813 34.660828 52.449635
51.469124 9.195826 83.05064
50.438126 10.614825 81.97263
52.580124 11.625826 67.51963
52.986122 9.965826 67.08863
34.30312 8.042826 76.832634
33.906116 10.330826 77.60363
40.929123 15.001825 84.442635
42.12612 16.808825 82.83663
7.014122 23.691824 49.491634
7.286125 21.523825 49.718636
13.799124 9.548825 47.582634
12.326126 8.101826 47.573635
39.154125 41.43583 102.54563
41.059124 41.93583 0.5106354
51.504124 41.418827 93.318634
51.211124 39.55383 94.05663
58.865124 37.50483 75.33763
58.458122 38.083828 77.69463
57.689125 36.086826 86.29763
58.613125 34.47783 87.38963
20.33412 24.407824 59.449635
18.616117 22.972824 59.880634
26.581121 24.429825 61.599632
26.017118 25.327824 63.929634
0.81212616 32.733826 13.5436325
0.36712646 32.407825 11.119629
81.97112 25.973824 12.225632
80.26713 27.568825 12.426636
36.035122 30.828825 70.91063
38.365116 30.106825 71.35063
33.42612 29.891825 60.406635
33.57912 28.635824 58.749634
17.68012 5.5578237 44.453632
19.326124 4.8578286 45.880634
30.69612 3.2888284 45.191635
29.901121 1.4038262 46.337635
83.67812 6.431825 102.233635
82.87312 8.391826 102.971634
82.813126 8.180825 13.820633
82.69413 6.607825 15.545631
69.745125 44.272827 46.210632
67.493126 44.10883 47.779633
69.29212 40.911827 37.907635
67.842125 41.98483 36.681633
16.802122 1.9318249 76.76963
16.143118 3.413825 75.37763
26.43212 8.539825 69.53063
26.345121 11.327826 69.04363
45.770123 41.841827 78.07163
47.760124 42.40783 79.56963
50.353123 39.90983 91.06263
51.430122 37.759827 91.30763
89.95712 11.246825 12.900635
88.99712 11.594826 15.343636
88.312126 25.327824 20.21163
90.219124 24.343824 21.50363
83.52612 34.261826 65.25063
84.95013 33.350826 63.358635
83.18013 36.82583 53.564632
81.691124 38.806828 52.810635
51.359123 10.913826 49.597633
49.314125 9.766826 49.345634
41.799126 18.037825 43.389633
43.417126 18.900826 44.438633
72.897125 45.44383 78.33663
75.01913 45.25383 79.31363
65.29613 2.841826 84.80563
66.27913 5.1878247 85.77063
85.536125 19.288824 3.5366287
85.53013 21.176825 2.5736313
3.6751251 20.967825 12.072632
4.877121 19.928825 10.468636
62.390125 21.534824 67.970634
62.961124 23.634825 67.79363
69.300125 24.307825 72.54863
70.74812 24.765825 71.00363
30.52812 19.290825 17.152632
29.719122 20.973824 15.662636
30.038122 33.524826 24.344633
30.484121 35.273827 22.632627
2.9861221 6.4748235 83.08763
1.4061279 6.2458234 84.14363
85.49912 45.411827 82.19463
84.79813 43.64983 81.329636
27.787123 3.3898249 22.636633
28.435118 4.830825 24.093634
35.86012 12.508825 26.026632
36.09712 13.924826 27.951628
20.37512 42.565826 99.71063
18.734121 42.76883 98.29763
25.925123 36.79183 89.663635
25.797117 36.816826 87.928635
1.2201233 30.897825 64.50463
0.70012665 30.507824 67.23763
0.42012787 38.056828 78.870636
1.9331207 39.549828 78.52063
79.01312 19.877825 77.068634
76.64413 21.032824 77.90563
77.329124 29.959824 67.74363
75.88812 32.013824 68.27963
9.485123 32.514828 29.97663
11.758125 32.556828 30.700628
17.01512 22.076824 33.400635
17.426123 20.591825 35.12863
57.380123 34.785828 53.636635
54.961124 33.681828 53.457634
46.825123 27.570824 44.963634
46.658123 29.492825 44.067635
75.55913 31.234825 65.79963
74.951126 33.465828 65.74463
77.63812 37.45583 53.191635
78.662125 38.56883 51.041634
3.3651276 9.009826 31.36563
1.340126 10.4008255 32.05863
90.98512 3.617825 41.134636
0.68512726 2.2188249 42.24263
64.260124 10.953826 20.261633
62.73712 12.131825 20.981634
58.264122 24.494823 17.383627
58.437122 25.193825 19.994627
51.180122 26.957825 56.765633
52.889122 27.022825 55.824635
53.627125 26.100824 43.337635
54.458122 24.657824 42.103634
16.144117 10.953826 11.900635
16.12612 8.806826 13.08963
8.357124 17.812824 10.22863
5.8741226 17.602825 9.827629
74.72012 28.370825 65.399635
74.855125 28.088825 63.019634
77.05813 23.539824 51.860634
78.580124 23.472824 50.446632
87.29813 17.240826 43.217632
87.938126 16.217825 44.889633
77.938126 21.147825 52.902634
75.73813 19.793825 52.412636
63.603123 14.599825 48.810635
62.954124 16.114824 50.634636
58.116123 18.062824 51.877636
57.623123 16.424826 50.351635
74.23312 16.845825 74.33363
72.31013 16.357824 76.41663
61.074123 22.514824 79.77863
61.85512 24.624825 80.65863
20.518118 5.0308247 97.75263
19.454123 7.200825 96.967636
20.276121 16.602825 89.22563
21.850119 17.558825 87.89263
75.25513 3.1338248 37.958633
75.927124 1.6028249 35.83663
68.688126 11.622826 33.344635
69.40413 13.721826 31.98963
60.337124 12.357825 13.649635
60.831123 10.386826 13.160629
60.638123 -1.8061752 13.996635
62.819122 -1.5771751 15.008629
76.120125 48.75383 23.241629
75.79012 48.40983 25.604628
63.366123 48.18583 20.867628
63.635124 48.67383 18.523634
81.27712 44.11783 80.735634
83.18313 45.549828 80.64063
87.93413 43.27783 69.40463
85.995125 43.97883 68.79763
85.772125 32.441826 30.824629
83.91713 34.04183 31.316633
77.69312 37.454826 32.402634
77.59713 35.566826 32.833633
13.659117 29.167824 100.09863
11.798126 30.203825 100.079636
15.383123 41.28383 94.19863
16.048117 41.43583 92.06963
18.45912 47.590828 85.440636
17.218122 48.71983 87.15363
10.210121 42.60183 88.02264
11.412125 43.243828 89.606636
60.017124 25.622824 83.96063
58.629124 27.015825 82.64663
47.530125 29.728825 88.50663
49.146126 31.153824 88.17263
36.449116 34.243828 92.80763
38.032116 32.278828 93.97763
38.017117 25.377825 92.29963
37.41612 27.099825 93.193634
7.1121216 33.856827 67.98763
4.9941254 34.299828 67.42163
9.072121 23.528824 74.74464
10.455124 23.244823 72.93463
0.66412354 40.606827 80.56963
89.47313 39.96283 79.56063
84.61012 4.591826 80.41863
83.33313 5.469826 79.09863
12.107124 23.153824 76.26963
11.154121 24.245825 78.02264
10.853127 33.611828 71.75463
12.766121 33.655827 71.08363
81.81913 32.754826 34.138634
82.482124 35.046825 35.19763
84.90313 32.60983 34.052635
84.785126 34.675827 33.932632
1.1501236 12.166825 75.19863
0.38012695 14.039825 74.18863
11.048126 22.157824 69.43563
12.458122 22.434824 67.413635
50.428123 34.58283 18.02963
51.019123 32.837826 19.533628
48.917126 22.623825 15.851631
49.183125 20.575825 15.600632
77.12412 4.535825 14.64563
75.90413 6.160825 14.92363
76.93613 12.739825 5.9226303
75.71413 11.353826 7.056633
66.357124 24.785824 96.23064
67.426125 24.372824 94.38963
62.714123 24.371824 84.46263
62.352123 25.979824 82.98663
37.627117 25.028824 81.26763
36.04112 26.623825 81.40663
31.761122 36.13083 89.05064
30.187124 35.226826 89.82463
13.885122 5.231825 74.69863
14.627119 5.038825 72.512634
9.8791275 9.921825 64.12663
7.824127 10.849826 64.567635
35.24512 31.761824 11.109634
36.325115 29.833824 10.40963
36.05012 17.642824 6.8356323
37.279118 17.841825 8.71563
63.762123 0.8988252 96.540634
62.948124 2.329825 98.30563
59.128124 38.967827 99.21063
59.378124 38.69183 97.17263
44.051125 8.489827 98.51363
42.919125 6.8168263 100.25163
46.343124 44.79183 3.0146332
46.212124 45.404827 5.6616287
88.17812 11.729826 57.930634
89.77813 13.513825 58.129635
88.69713 13.130825 43.720634
88.22613 11.092826 43.09363
7.3391266 0.2538286 6.4446335
7.1521225 46.33183 6.030632
91.052124 36.29783 14.434631
0.1331253 37.868828 15.614632
43.346127 27.336824 6.133629
44.586124 26.683825 3.869629
46.223125 41.620827 1.5926285
47.409122 42.25583 3.8756332
50.108124 40.53983 19.533628
50.701122 38.18483 19.482634
45.560123 31.929825 12.50663
47.262123 30.001825 12.305634
57.717125 6.709824 77.04863
57.357124 4.134825 77.90763
45.337124 45.98383 80.28163
45.458126 44.611828 78.842636
62.502125 6.225825 83.74063
63.379124 5.755825 85.55563
61.617123 13.783825 85.43363
61.126125 12.510825 83.17463
74.12312 32.622826 26.50263
72.024124 32.600826 27.506628
65.33412 43.20783 29.486631
64.17313 44.45683 27.44863
50.401123 14.380825 30.53063
50.673122 13.718825 28.58763
36.286125 17.304825 27.036627
34.662125 18.826824 27.57363
49.861122 12.323826 63.906635
50.087124 13.310825 66.70263
51.435123 23.979824 74.63963
49.583122 24.914824 73.61363
46.078125 17.771826 43.035633
47.571125 16.552824 43.762634
36.734123 13.365826 43.702633
35.799126 12.101826 44.832634
75.25413 29.935825 32.569633
75.86713 31.803823 33.571632
82.69312 30.782824 45.310635
82.93613 32.695827 46.471634
32.047115 4.274825 59.630634
33.40312 2.868825 61.757633
45.745125 8.963825 65.45963
46.666122 9.747826 63.613632
86.48412 13.357825 41.915634
87.64413 14.395825 39.900635
84.190125 2.6858249 29.25263
86.094124 3.362825 28.611631
89.35812 14.138825 65.25163
89.65813 14.964826 67.41763
87.36113 19.373825 74.90863
88.314125 17.259825 75.87863
40.640118 21.130825 40.367634
40.48212 20.421825 42.23263
42.827126 23.664824 45.523632
44.884125 22.941824 44.376633
88.50213 27.188824 66.65263
89.66713 28.511824 67.38863
85.368126 24.898825 78.02163
83.635124 24.439825 79.664635
21.341124 41.69383 58.285633
20.935118 39.688828 59.109634
30.815123 32.17983 54.548634
32.84612 32.72083 55.512634
51.162125 10.652825 98.650635
50.402122 12.488826 98.84163
53.331123 7.710825 1.5026321
51.733124 7.652825 102.53063
72.59812 21.633825 19.66963
73.773125 20.322824 21.29463
72.703125 26.750824 31.467627
74.454124 27.939825 30.978628
27.989119 3.733825 60.485634
29.143118 3.628825 58.679634
16.995123 9.787826 54.420635
16.656118 8.927826 52.398636
48.908123 17.193825 25.89363
48.266125 18.305824 27.366629
39.286125 21.334824 36.24363
37.274124 20.843824 37.35363
44.489124 24.090824 0.48062897
44.845123 25.898825 1.2046356
39.850124 37.05983 97.29963
37.422127 37.119827 97.512634
71.924126 19.191824 95.13364
69.383125 18.439825 95.301636
65.40813 8.089826 99.759636
64.62613 6.247825 100.759636
20.482122 44.30283 55.677635
21.18112 45.301826 54.033634
18.05612 7.699826 61.458633
19.591124 9.044824 61.727634
72.33412 34.88083 101.69663
70.39113 34.803825 102.50764
72.009125 43.042828 9.53363
70.21013 44.097828 10.591629
33.77612 34.29183 74.386635
35.931118 34.333828 74.330635
42.499123 44.104828 80.428635
41.94512 44.18083 82.578636
26.078123 47.42183 53.376633
25.58412 45.625828 54.665634
27.411123 1.459826 66.00963
26.783117 1.9848275 67.97463
80.743126 38.182827 84.134636
82.967125 38.391827 83.164635
86.65012 39.12283 79.58663
85.29012 38.723827 81.09163
46.632126 30.292824 91.485634
46.610123 32.201828 90.498634
46.187122 39.35383 100.87463
45.228127 38.04683 0.0046310425
18.373121 5.012825 94.73963
17.037123 5.410825 96.596634
8.554123 9.516826 91.177635
7.070122 9.112825 89.61964
19.289122 27.483824 11.070633
19.815123 29.203825 9.983635
21.733122 23.747824 99.04863
21.567122 21.630825 97.73763
40.873123 27.449825 77.96563
39.10512 28.134825 76.92263
32.02612 38.10083 80.85063
31.175123 38.412827 78.75663
90.70712 2.7748284 48.79563
89.03113 2.726828 47.537632
75.60812 5.235825 44.80863
74.302124 4.4448266 43.459633
3.0811234 10.645825 43.137634
3.252121 9.384826 41.676632
89.815125 3.9828248 43.507633
90.51813 3.246825 45.161633
58.884125 42.842827 37.347633
58.367123 42.437828 35.33663
51.534122 0.3548265 29.567633
50.304123 2.3928285 29.972631
84.61213 34.861828 72.651634
82.43513 34.300827 73.106636
76.300125 39.95583 83.79363
74.094124 38.60383 83.46663
14.078123 38.11583 49.256634
14.19512 38.54883 47.289635
24.297117 28.335825 47.283634
26.188124 29.185825 48.061634
86.399124 13.813826 27.091627
87.31113 15.458825 25.895628
89.22513 26.928823 28.120634
89.15313 27.958824 26.09963
24.87512 34.233826 86.997635
26.37712 34.427826 85.11463
32.06712 22.612823 86.24063
31.035124 21.954824 83.66164
59.617123 17.244825 48.39963
60.773125 17.727825 50.196632
53.521126 19.382824 51.135635
54.033123 17.912825 53.206635
22.728117 23.110825 59.488632
22.850119 25.288824 57.988632
32.086117 13.371825 53.665634
32.92512 14.990826 52.006634
41.61612 13.330826 68.84963
42.361122 12.127826 66.872635
29.470121 6.725825 69.343636
30.157118 7.945825 71.26963
31.545118 29.979824 53.225636
32.322117 30.139824 51.210632
43.99012 25.955824 46.176632
45.638123 27.784824 47.287632
1.3201218 31.031824 58.196632
2.9991226 32.12483 57.712635
6.7581253 39.99783 56.726635
5.705124 41.062828 58.292633
65.58713 41.507828 12.074631
64.95912 40.85983 13.985634
70.14213 28.396824 13.035629
69.90413 28.573824 15.207634
37.25912 40.336826 41.853634
37.62012 37.979828 42.378635
33.590122 34.54183 53.070633
35.07912 34.796825 54.553635
15.414122 6.742825 9.696632
17.331121 5.7248235 10.741631
25.228117 2.3478265 18.442633
24.47112 3.5168252 20.43263
75.493126 13.143826 1.5696335
77.04313 12.180825 3.0516357
68.58112 5.341825 98.86964
68.22312 7.4768248 100.03063
61.005123 36.22783 67.04563
62.826122 37.812828 66.110634
56.261124 1.7338281 63.284634
57.770123 2.6338258 65.15963
77.05412 38.25483 35.158634
79.01613 37.58983 36.195633
77.882126 31.956825 47.83663
77.12312 32.40283 49.811634
52.560123 5.3168263 31.996634
50.716125 4.966824 30.801634
49.254124 47.272827 22.64163
50.619125 45.38883 22.74063
58.273125 42.397827 8.32663
59.932125 43.15983 7.3196335
70.45912 41.94283 102.467636
70.646126 40.01183 1.108635
38.944126 33.121826 22.624632
39.405125 31.261824 24.701628
50.686123 32.16683 31.58763
52.422123 32.802826 30.566633
41.734123 40.26283 24.62963
39.967125 40.10983 25.649633
41.286125 38.876827 39.070633
39.260124 38.84583 39.582634
72.26212 30.207825 78.89063
71.715126 32.361828 77.64764
67.48612 33.455826 65.122635
67.57113 31.329824 64.59063
60.658123 7.053825 18.053633
62.49412 8.697825 17.352629
73.15212 4.928825 13.876633
73.70013 7.092825 13.205635
5.267128 7.331825 44.512634
5.0571213 6.459825 46.363632
84.25013 8.129826 54.329636
82.924126 6.600825 53.122635
47.028126 40.80283 54.953632
47.824123 42.56083 53.354633
43.152126 40.98383 40.751633
44.172127 39.813828 39.110634
14.451124 1.2318254 75.512634
13.278122 2.360827 74.10163
3.3481216 44.47083 69.498634
2.5501251 42.320827 70.36163
26.58412 5.014825 82.85564
28.952124 5.212825 83.53363
23.031118 16.990826 83.19963
23.323118 18.773825 81.426636
68.120125 5.931824 71.77863
65.36713 4.7418275 72.24363
63.194122 40.17183 70.80064
63.519123 41.211826 68.96063
47.262123 21.605824 1.2976303
45.037125 21.121824 1.7026291
47.145123 10.377826 10.488632
47.160126 9.488826 8.2556305
71.34812 43.30983 70.426636
70.590126 42.06883 72.078636
68.15813 35.912827 81.74963
69.35812 34.320827 81.05863
69.84812 22.648825 31.000631
70.46313 23.938824 28.855627
69.95712 24.926825 17.216627
70.77913 25.449825 15.245636
51.031124 22.776825 29.048628
51.359123 24.306824 30.194632
52.221123 28.365824 42.708633
51.625122 31.046824 42.168633
21.091124 28.010824 95.82563
20.90212 30.079824 96.11863
34.848118 36.01983 97.30663
35.476116 35.126827 95.53063
78.26913 42.81783 5.832634
79.56712 43.868828 7.6406326
84.07313 1.4288278 16.03263
83.72112 48.39383 16.316635
16.517118 9.221826 42.927635
15.302122 9.868826 45.209633
18.165121 23.612823 48.368633
