62.060986 42.744793 98.993355
81.69098 28.413795 59.665356
81.83598 26.797796 57.675354
2.2229767 26.960796 60.271355
2.5759811 29.228796 61.393356
46.345985 1.0307922 101.92136
46.980984 0.43479156 103.713356
41.915985 11.835793 4.352356
43.337982 13.161793 6.29335
47.844982 35.645794 89.15736
45.828983 34.266796 89.34936
33.435986 37.327793 91.67036
32.019985 36.984795 93.37535
47.268986 4.6137943 66.99635
49.009983 5.445794 66.019356
51.397984 10.747794 53.952354
49.418983 10.278794 53.608353
83.99798 5.0187964 64.77435
85.416985 4.9857955 66.314354
84.59298 48.408794 77.57135
82.15598 0.5697937 77.61035
50.539986 17.172794 23.576355
50.613983 15.263794 23.22335
55.726986 17.198793 30.136353
55.171986 19.424795 29.08635
41.343983 24.608795 4.284355
39.383984 25.744795 3.2093506
28.432985 25.019796 102.896355
26.976984 23.479795 102.64935
51.650986 4.524793 37.300354
50.550983 3.9367957 39.630356
40.044983 46.682793 32.230362
40.355984 45.737793 30.243362
84.56798 26.833796 34.20836
82.290985 26.661797 34.740356
72.292984 21.645796 35.23236
70.17298 20.739796 35.69835
54.122986 31.492796 18.592354
55.579983 30.371796 20.07035
56.295986 18.503794 26.699356
56.518986 16.609795 25.171356
87.528984 2.447792 78.520355
86.39398 0.893795 79.50135
79.41998 2.6667938 90.43336
78.01898 4.1557937 89.78735
26.630985 11.642794 7.810356
27.008984 13.299794 9.897354
33.894985 7.595794 17.995354
34.69798 9.660794 19.093353
2.263977 9.212794 2.1673508
1.0239792 10.855794 2.1943512
6.1449814 23.199797 4.8623505
5.6239777 25.310795 4.383354
48.785984 19.785795 72.714355
47.740986 18.210794 71.72035
58.412983 13.5717945 66.95535
58.596985 11.895794 66.118355
58.035984 19.055794 31.063354
60.362984 19.069794 29.317352
62.051983 30.730795 23.205353
60.630985 31.403795 21.885353
5.079979 23.550797 63.897354
4.3549805 21.772795 65.45535
87.859985 12.317794 61.423355
86.78398 10.833794 62.356354
36.316986 0.7287941 99.842354
36.703983 47.041794 99.730354
49.187984 41.616795 99.36135
50.892986 42.074795 100.91836
63.172985 10.608794 86.19635
61.220985 9.835794 85.604355
51.266983 6.951794 76.75135
52.234985 8.462794 75.33335
26.062984 46.472794 58.466354
24.341984 46.168793 57.371353
13.094978 2.3987923 63.329353
12.289978 3.920793 64.14136
50.259983 4.298795 63.997353
52.053986 4.547796 65.203354
60.295986 42.988792 63.727356
62.227985 41.911793 64.27835
29.023985 31.974796 99.30235
30.468985 32.280796 101.074356
38.801983 21.696795 100.28835
40.152985 21.833796 98.936356
24.684978 16.924795 34.897354
27.067982 16.534794 34.534348
34.19798 11.540794 34.41536
32.90698 9.556794 33.923355
25.186985 30.507795 100.14336
23.408985 32.295795 99.51235
17.378975 42.700794 99.37836
15.748978 43.233795 97.866356
0.57198334 36.57379 23.712357
89.66298 36.692795 21.601349
85.24098 28.296795 13.983353
85.39898 26.801796 15.546356
18.761978 10.915794 28.203354
19.671974 9.033794 27.11435
19.544975 43.930794 30.48735
21.19698 42.719795 29.68335
47.215984 26.066795 86.810356
46.607983 27.050797 88.549355
45.553986 17.830793 97.326355
46.396984 16.442795 96.54636
0.22498322 18.743793 78.867355
89.92098 20.834795 79.10635
7.1439743 26.957796 80.35935
5.877983 28.275795 81.87135
85.67498 15.663794 14.859352
86.31498 14.123795 16.39035
5.061981 4.0557942 13.801353
6.971977 4.1707945 13.143356
33.870983 47.124794 99.55936
32.816982 44.970795 99.90235
24.255985 1.2367935 99.11135
24.880985 0.5297928 96.936356
72.56798 8.609795 74.99036
72.10298 9.472795 76.68336
81.60198 13.292794 85.354355
79.97098 12.409794 85.689354
38.470985 32.727795 0.023353577
37.710983 34.759796 103.63935
36.452984 41.004795 10.492355
34.394985 40.850796 11.344353
16.477982 40.102795 71.438354
14.697975 39.452793 69.699356
13.6019745 26.094795 67.45735
13.54998 25.380796 65.021355
55.495983 18.868793 61.668354
54.336983 20.403795 62.127354
61.141983 17.619795 72.699356
62.886986 17.157795 71.41735
89.07698 44.415794 73.34935
88.26998 46.133793 74.69035
8.983978 3.211792 68.46835
9.740974 2.150795 66.57236
33.517986 33.779797 21.48835
33.747986 35.65779 21.617348
45.289986 36.009792 15.926353
46.094982 34.029797 16.899353
13.70298 14.828794 19.590347
14.728981 16.690794 18.896355
5.5129776 27.841795 26.708359
3.7979813 26.747795 25.342361
43.458984 47.236794 47.767353
44.647984 45.417793 46.291355
41.903984 37.015793 38.09836
43.553986 37.083794 37.026352
20.89898 33.077793 35.16336
20.478981 35.274796 35.27736
31.14098 30.565796 31.263351
30.59998 30.146795 28.973358
43.134983 8.923794 37.74536
43.896984 8.082794 35.23935
42.705982 5.623796 23.303352
43.733982 7.696793 22.062347
62.830986 26.483795 16.13935
64.88098 26.725796 16.521355
75.584984 21.655796 11.382355
77.21498 22.801796 10.508354
82.79698 24.294796 41.602352
84.55098 24.521795 43.505352
4.9439774 25.318796 41.71535
6.600975 26.499796 43.084354
27.781979 29.488796 59.596355
29.064983 28.011795 61.251354
22.104984 14.547794 61.726353
20.886978 15.661794 62.847355
81.805984 35.53179 36.093353
81.49798 37.704792 35.562347
89.23398 37.05279 27.108353
0.57798004 35.567795 28.23935
76.36398 35.411793 1.5433502
74.402985 36.334793 0.65735626
76.97998 34.394794 12.344353
75.71198 32.844795 13.41835
68.56598 40.651794 38.923355
70.55898 41.243793 38.539352
74.50598 43.934795 30.01236
74.57898 42.231792 31.244354
79.735985 27.422796 23.757355
77.78198 26.758797 23.48935
73.18798 16.555794 27.564362
75.09098 15.6117935 28.551361
3.1569824 26.506796 7.052353
2.6119766 28.249796 6.2283554
7.85598 39.448795 13.44635
6.5189743 41.289795 13.506355
29.215984 3.9497962 52.069355
29.247982 3.6347938 49.373356
31.03098 46.900795 40.927357
33.01298 47.791794 40.477356
26.996983 40.949795 10.847351
26.536983 38.858795 10.644356
15.710976 36.85879 7.083351
15.810982 34.487793 7.250351
48.786983 26.779797 40.001358
48.057983 25.433796 38.04135
39.729984 24.859797 46.636356
39.142982 26.092796 48.513355
24.661983 13.092794 6.2473526
25.606983 11.068794 5.201355
32.29298 17.264793 9.721352
33.97498 18.491795 10.47435
77.777985 13.510794 47.630352
76.13498 12.614794 46.50635
64.95398 9.667794 44.968357
62.637985 10.521794 45.29936
1.0469818 44.632793 78.37535
2.714981 46.395794 79.16535
12.509979 1.3577919 76.216354
11.274979 2.447792 74.60036
73.92498 42.166794 13.201355
75.66398 40.850796 14.078354
85.721985 43.530792 21.54535
87.027985 41.092793 20.458351
40.488983 20.737795 7.4503555
39.824986 21.326796 5.161354
43.741985 16.171795 99.50236
44.918983 15.164794 98.58235
79.03698 26.197796 58.567356
78.887985 24.357796 57.027355
65.87898 20.464796 59.183353
63.627983 20.816795 57.968353
74.85598 4.817796 86.29335
74.56498 4.241796 84.438354
68.805984 4.507795 80.30535
67.91898 4.0397964 78.56735
65.042984 37.12879 86.89935
65.30198 34.531796 86.77835
66.02198 32.151794 72.478355
67.81398 33.088795 71.810356
71.93298 13.961794 74.27835
69.92898 13.468794 74.15435
64.36498 20.259796 63.400356
62.314983 21.348795 62.222355
21.071976 10.757793 54.24235
21.058975 9.053795 52.248356
16.445976 46.287792 56.635357
18.658981 45.541794 57.707355
81.60098 23.185795 11.934357
81.693985 21.493795 10.33535
78.03598 10.981794 11.118355
76.84398 9.106794 10.04335
68.47398 5.8367944 1.71035
66.541985 6.8347945 1.7533493
72.45698 11.908794 9.583351
73.77498 11.793794 11.027351
43.139984 6.3877945 63.539356
41.317986 7.6307945 64.61035
51.620983 7.121794 73.18035
50.270985 6.044794 74.20835
38.233986 1.5757942 90.02335
39.495983 1.0217934 91.80836
43.175983 5.201795 103.105354
41.457985 3.9817939 104.50335
51.267986 27.640797 47.190357
49.586983 28.870796 46.82635
40.613983 33.021793 47.40835
38.641983 34.557796 48.22935
51.631985 41.700794 58.882355
51.111984 39.744793 59.660355
51.032986 34.547794 70.84936
50.854984 33.051796 69.548355
36.805984 28.112795 50.893353
39.023983 27.794796 50.681355
44.604984 26.818796 62.088356
45.249985 27.871796 64.24735
66.95198 0.6627922 21.870354
68.72398 1.961792 22.007355
78.21098 44.184795 24.516357
78.83998 44.922794 26.504349
51.090984 19.334795 80.590355
49.410984 20.628796 81.39236
40.521984 16.931795 76.769356
40.220985 17.191793 74.58335
80.43498 8.335793 30.802353
79.89998 6.2567954 31.130356
66.71098 2.7057953 36.12735
65.46198 2.6117935 33.729355
79.166985 26.655796 100.02635
79.95598 28.609797 99.547356
89.72698 25.545795 90.42935
0.38098145 24.510796 88.30135
21.769985 2.117794 26.397354
23.118984 1.8727951 27.791351
16.027977 9.832794 33.18535
13.278976 10.197792 33.412354
67.111984 34.258797 50.084354
66.52398 32.539795 49.399357
68.91298 37.45579 42.887356
68.24098 38.879795 43.977352
58.045986 6.7587943 61.218353
56.034985 5.109796 61.468353
47.386986 46.820793 54.465355
45.352985 48.106792 54.888355
58.918983 6.1837935 6.250351
59.161983 8.143795 4.5723495
59.495983 3.334793 96.104355
60.857983 4.863794 95.76135
47.296986 23.556795 42.251354
44.743984 22.659796 42.293354
35.925983 22.201796 32.19336
37.460983 24.256796 30.703354
78.12698 38.01179 14.132355
78.65098 36.123795 15.469353
1.6079788 38.24079 20.19535
1.7559814 40.501793 20.885353
50.858986 34.434795 35.19136
50.599983 36.87279 34.130356
52.358986 0.7707939 32.42035
51.067986 2.485794 31.263351
51.324986 40.090794 56.82635
53.179985 41.108795 55.546352
61.797985 41.910793 47.294353
62.719986 40.114796 45.712353
58.438984 18.497795 101.31835
57.629986 17.911795 103.11135
49.789986 20.674795 3.9443512
48.244984 20.869795 5.361351
70.25698 0.025794983 76.465355
71.46198 0.45879364 74.422356
63.361984 47.170795 64.286354
61.036983 48.188793 64.80135
72.971985 5.0647945 72.716354
73.53598 7.0357943 71.369354
61.937984 15.662794 69.314354
60.658985 15.560794 70.92036
74.945984 7.3297944 66.925354
73.40898 8.248795 68.12435
60.450985 12.586794 64.27335
59.884983 15.073793 64.72335
57.116985 10.541794 51.553352
58.648983 11.200794 52.767353
51.661983 19.486795 62.746353
50.100983 21.140795 62.312355
4.5889816 37.744793 15.907349
3.7929764 35.843792 16.547348
84.69798 44.261795 10.320351
83.35298 43.173794 11.19735
36.584984 32.021793 102.452354
35.784985 30.265797 101.86336
41.298985 20.047794 100.99036
41.986984 19.547794 98.47336
79.21198 33.637794 76.411354
80.32898 35.470795 77.73936
71.76598 36.717793 69.033356
70.16098 36.030792 70.727356
88.71098 42.580795 22.207352
87.70698 44.331795 23.380348
6.419983 46.967793 33.44835
5.2799835 46.733795 35.76236
7.6519775 5.3587966 11.02935
7.933975 5.370794 8.89135
19.956978 3.2627945 7.0443497
19.445976 5.0847945 6.1623535
1.4859772 18.519794 25.210358
1.1919785 20.690796 25.593353
79.00998 26.218796 26.604355
79.10098 28.169796 27.68335
21.879978 11.878794 62.379353
20.043976 12.534794 62.325356
8.179977 8.687794 71.05335
9.003975 6.5127945 70.31535
67.84398 41.018795 15.989349
65.86298 41.821793 14.96035
72.83798 38.644794 12.048355
75.22498 39.437794 11.8363495
17.608978 42.805794 28.868362
16.178978 44.528793 29.121353
3.7069778 37.381794 25.212357
2.2339783 35.589794 25.916351
64.708984 3.9157944 19.42035
66.68598 4.4947944 20.587349
63.877983 18.176794 23.485352
63.586983 17.007793 25.113358
11.468979 27.506796 72.74935
13.997978 26.975796 72.65035
17.986977 37.63679 71.06535
17.753975 38.23979 73.11035
75.56298 3.958795 65.341354
73.63298 5.359796 64.713356
80.749985 1.3047943 62.604355
81.83898 2.2977943 64.51736
58.881985 11.070794 49.54735
60.942986 10.585794 50.623356
73.61998 9.435794 43.177357
75.53598 8.907794 43.625355
88.53698 35.011795 103.133354
87.04598 36.216793 102.68236
86.14098 37.373795 0.41435242
86.95398 35.610794 1.5053558
4.1679764 43.129795 93.33135
2.6459808 41.901794 94.61536
89.92498 40.929794 92.24535
87.65598 42.295795 92.14236
43.312984 37.085793 13.6503525
44.594982 37.456795 11.700356
48.013985 39.026794 0.838356
50.129986 38.284794 104.44435
85.20598 46.691795 52.251354
83.50698 47.306793 53.376354
85.48798 10.469795 45.877354
84.319984 10.692795 43.706356
44.952984 21.012794 28.897354
46.065983 20.517796 27.40535
50.998985 25.097795 36.841354
52.494984 23.323795 35.88936
51.397984 23.255796 63.771355
50.299984 25.129795 64.11536
46.401985 19.781796 70.118355
44.715984 19.207794 69.04636
22.922985 32.625793 49.189358
22.093983 34.675797 49.081356
21.656979 43.146793 57.155354
20.107979 44.103794 56.139355
2.763977 23.980795 8.309357
4.3999786 23.607796 7.241356
5.921982 9.566794 5.0303497
8.196976 8.119794 5.901352
35.360985 31.991796 20.472351
37.108986 33.500793 20.143349
47.141983 34.736794 26.814362
47.346985 32.845795 26.80835
10.805977 10.132794 38.626358
8.848976 9.259794 38.603348
87.43298 8.992794 44.594357
87.486984 6.766794 44.510357
2.0609818 36.450794 76.005356
1.5329819 35.67079 73.52635
89.37698 25.369795 67.97636
0.23797607 26.636795 66.04235
2.18898 38.42779 55.040356
1.5889816 38.618793 56.977356
87.85398 31.691795 67.118355
87.78498 29.646795 67.81935
87.03498 40.780792 85.382355
87.48898 39.783794 87.50035
3.9949799 29.197796 88.08535
2.9339828 28.731796 90.17136
75.59298 24.780796 73.550354
78.03698 25.703796 74.22335
85.58698 15.720794 74.02935
87.40498 15.3687935 72.76035
59.285984 3.762796 8.814354
60.119984 2.7867928 6.635353
70.50398 1.0037918 4.0873566
71.67498 0.9527931 2.203354
27.350979 1.5027924 72.85635
28.645985 3.6297965 72.42935
36.566982 6.505796 68.133354
38.68298 5.922796 68.84435
17.429977 15.088794 52.209354
18.486977 13.480794 53.052357
31.562984 16.347794 55.467358
32.648983 15.146794 57.14535
57.464985 31.778795 38.393356
58.543983 29.944796 38.93335
66.195984 22.532795 44.330357
66.28698 20.592794 45.56336
5.1049805 1.9297943 3.9163513
4.166977 2.362793 2.2663498
2.3349762 44.634792 94.43336
0.3099823 45.283794 94.48836
5.157982 0.56879425 15.54335
7.180977 48.000793 15.08535
4.058983 39.486794 19.441353
3.8069763 37.308792 18.991348
27.540981 17.119795 100.703354
26.782978 18.883795 99.09635
22.15398 24.982796 90.07236
20.96698 27.090796 90.45735
64.62698 19.165794 26.305359
63.047985 20.161795 27.873352
76.45298 26.707796 27.328354
76.53798 27.865795 28.869354
80.44298 19.322794 54.616352
80.056984 21.037796 53.677357
83.49698 13.2627945 43.306355
84.888985 13.440794 45.25736
76.75998 21.825796 81.201355
77.47498 23.732796 80.72335
76.208984 31.565796 93.16736
76.35698 33.563793 91.660355
49.710983 28.159796 65.07035
47.327984 29.075796 65.51035
38.013985 35.814793 65.258354
36.155983 36.805794 65.62035
65.01698 38.53879 64.21935
62.937984 37.815792 63.747353
61.612984 44.527794 54.921352
62.286983 45.626793 52.585354
35.217983 40.294792 47.085354
35.307983 37.91479 46.801357
36.552986 26.755796 46.644352
37.174984 27.810795 48.108356
23.037983 26.188795 45.676357
24.927982 25.128796 46.207355
18.992981 13.770794 49.990353
19.738976 11.859794 51.335354
87.65098 14.629794 25.968353
87.55898 16.473795 27.62535
5.0009766 19.179794 27.88736
2.9319763 18.828794 27.85936
63.645985 25.002796 78.43035
62.193985 23.783796 79.24735
62.337986 14.073794 87.923355
61.278984 12.000794 88.286354
39.032986 10.242794 19.518349
37.165985 9.930794 18.04435
31.394985 1.3897934 9.148354
32.138985 48.170795 10.267349
73.722984 29.719795 52.488354
75.041985 30.014795 51.072353
66.69898 27.447796 39.798355
64.777985 26.434795 39.02336
66.20198 28.323795 57.498356
68.01998 28.930796 56.777355
70.59598 39.522793 63.758354
69.21198 41.463795 64.616356
51.041985 32.833794 54.419353
50.748985 32.508797 52.029354
49.072983 40.090794 42.363354
50.837986 39.222794 41.10435
84.14298 43.446793 38.33835
85.40498 44.515793 37.340347
89.86898 3.277794 35.091354
1.4079819 3.1877937 35.850357
23.564983 5.6337943 25.660355
22.21098 7.2967954 26.10936
27.30598 5.6407943 16.46135
29.143978 5.748796 17.326347
64.29398 29.067797 17.985352
66.35498 28.601795 17.869354
75.99798 37.099792 16.44535
76.28398 39.172794 15.953354
79.31498 9.465795 5.6603546
78.22898 11.490794 4.5153503
64.16998 5.0577946 6.59935
63.562984 3.3257942 8.659355
4.829979 0.7947922 31.705353
6.6559753 1.1087952 33.442352
3.676979 3.6797957 43.358356
2.190979 2.527794 42.54835
6.6559753 39.731792 36.952362
8.760979 40.094795 36.572357
3.9919815 0.99079514 45.599354
1.329979 1.7697945 45.087353
37.002983 38.408794 101.83736
35.247986 37.467793 101.675354
31.428984 45.439793 6.7513504
33.731983 45.546795 7.845352
66.05398 26.555796 88.04636
66.29698 24.375795 89.035355
75.52198 16.453794 85.72536
77.568985 15.762794 85.26535
14.776978 34.704796 72.092354
13.098976 33.370796 73.756355
4.124977 27.724796 62.526356
2.777977 26.284796 62.863354
43.434982 15.747794 51.305355
43.072983 16.392794 49.592358
48.560986 19.484795 42.066357
49.073986 21.117796 41.116352
79.748985 6.9547944 10.861351
79.75298 9.008794 12.589355
89.87898 10.356794 5.6763535
88.318985 7.8747945 5.36335
50.421986 7.9297943 97.479355
49.834984 9.619794 95.463356
42.516983 7.050794 85.01836
42.982983 5.056794 84.574356
48.331985 6.2587943 75.908356
47.695984 4.342794 74.924355
41.607983 2.4087944 84.84635
41.586983 1.8177948 86.98735
41.120983 40.924793 73.45735
39.873985 42.300793 73.67935
34.901985 43.175793 84.37135
33.552986 41.725796 85.19535
8.968979 45.615795 34.307358
8.970978 43.364796 34.76036
17.705978 39.316795 31.646362
19.304977 40.640793 30.26735
22.852985 11.634794 87.25035
23.924984 13.682794 87.255356
30.683979 16.610794 98.62035
30.007984 18.627794 100.23936
70.09098 34.714794 87.117355
70.653984 32.529797 87.868355
68.21798 28.067797 77.78236
68.97898 29.359797 79.54235
47.117985 26.782795 5.4383545
45.155983 26.073795 5.816353
53.595985 26.749796 7.792351
52.756985 25.047796 9.40535
46.346985 19.870796 64.29536
46.718983 22.099794 64.188354
58.837986 15.624794 68.65235
59.628983 16.991795 67.37435
84.92098 5.3667946 90.45535
84.62898 7.9097943 90.20936
86.71998 12.641794 77.08135
88.53898 13.392794 77.12836
37.23498 4.9057937 6.4693527
35.58198 6.4177947 5.6193542
29.637981 1.7477951 11.480354
28.483982 0.15479279 12.375351
9.168976 27.958796 81.79536
8.423981 29.937796 82.46935
9.612976 35.866795 91.199356
9.194977 33.641796 90.24036
82.00998 43.525795 55.11836
79.623985 43.632793 54.822353
69.763985 38.446793 47.935352
67.80798 39.190792 46.739353
84.04398 4.2447944 21.784348
82.00798 3.336792 20.996353
70.29798 4.637796 21.150352
70.52498 6.201795 23.188354
21.104984 33.345795 17.325348
19.963982 32.740795 15.756348
6.5329742 36.116795 15.284355
7.0129776 34.744793 16.73935
0.2759781 25.275795 8.14035
0.17398071 27.128796 6.7283554
4.2369766 39.286793 6.514351
3.3739777 40.984795 7.911354
19.212975 41.992794 34.36435
17.482979 41.593792 33.299362
15.60598 46.214794 24.996353
15.517975 46.803795 22.555351
30.817986 7.036794 100.145355
30.528984 8.219794 98.65235
40.180984 9.645794 87.57236
40.016983 7.7367945 85.82336
41.590984 30.013796 15.467354
42.318985 27.364796 15.1013565
41.272984 23.461796 6.9973526
39.498985 24.288795 8.483353
6.138977 40.286793 80.186356
8.72998 39.634792 79.467354
8.058975 44.727795 91.91235
8.071976 45.968792 90.15636
41.245983 43.618793 7.496353
41.886986 45.305794 5.812355
35.543983 44.242794 100.25035
34.832985 42.885796 99.146355
85.96398 11.527794 73.826355
84.373985 12.765794 75.07935
73.19198 16.224794 72.98335
71.53898 17.515795 73.63535
39.743984 15.016794 38.39235
38.802982 13.589794 37.06035
39.335983 12.649794 22.73835
41.635983 12.520794 21.978348
25.728985 4.8437934 58.52136
25.629978 6.1297965 56.74336
19.902977 45.483795 49.093357
18.95398 44.035793 47.850353
88.820984 7.2437944 87.854355
0.115982056 5.3007946 88.24036
88.292984 10.679794 75.80535
89.84298 11.4467945 74.64835
23.54398 12.032794 66.020355
24.892979 11.059794 67.992355
36.314983 10.735794 58.341354
36.909985 12.877794 59.145355
35.261982 2.888794 7.0293503
35.16498 3.7407966 4.6323547
24.981983 8.542793 9.646355
26.65598 8.125793 11.260353
76.07598 12.219795 30.503357
74.31198 10.926792 30.133362
78.21698 47.360794 32.66336
77.88298 44.999794 33.56436
63.330986 16.466795 46.72835
65.02098 14.653794 46.456356
72.53598 13.680794 56.63236
72.21198 11.736794 57.308353
79.15698 31.998796 13.940353
79.584984 34.058796 13.709351
87.71998 28.362795 12.1623535
85.84598 27.895796 11.574356
69.167984 27.346796 102.800354
68.48398 28.040796 100.56735
65.24698 29.048796 90.69536
67.10798 28.699797 89.47235
34.888985 19.498795 54.865353
34.028984 17.435795 54.122356
31.849985 7.0477943 52.698353
31.619984 5.1097946 52.001354
73.51798 44.837795 98.60935
73.20298 43.398792 100.17835
74.19898 42.662792 9.872353
72.97898 41.333794 11.009354
43.646984 38.265793 73.07935
43.992985 40.792793 72.99935
49.113983 41.701794 59.441353
50.256985 43.737793 60.454353
45.593983 37.978794 91.24535
45.248985 37.383793 88.89036
35.885986 47.738792 90.80135
36.526985 46.977795 92.92735
89.46198 17.959795 57.920353
87.89698 16.778795 58.315353
79.04498 17.119795 53.900352
79.43998 15.718794 52.341354
66.77498 12.682794 26.388351
67.12798 13.249794 28.685349
67.65998 20.008795 39.742355
69.27498 19.749796 38.075348
34.730984 42.201794 57.454353
36.128986 42.990795 56.495354
36.981983 3.880796 67.91235
38.720985 3.2127953 68.46835
22.810986 33.756794 56.808353
23.839985 31.723795 57.072353
32.51498 40.156796 55.039356
33.547985 41.779793 53.46636
45.841984 13.464794 15.013351
46.095985 16.178795 16.36435
47.091984 22.520796 21.35035
45.657986 22.231794 22.75235
50.509983 36.56679 87.73635
50.524986 39.189793 86.33636
54.559986 0.7517929 84.67635
53.147984 1.6747932 85.96935
87.39998 35.136795 72.327354
86.76698 37.19879 71.743355
85.15798 46.076794 75.299355
86.56298 45.500793 76.979355
43.979984 44.701794 90.19135
44.723984 43.812794 87.48535
42.750984 42.517796 76.24935
44.535984 41.931793 75.10136
33.486984 3.3197937 39.93936
34.471985 1.1987953 38.98735
47.670982 6.3627944 40.803356
48.425983 3.9147964 41.625355
0.9139786 23.549795 64.647354
1.6769791 21.672794 65.48135
84.64398 11.471794 66.744354
84.958984 9.436794 67.14236
1.867981 30.591795 27.817352
3.053978 32.325794 27.783356
14.377975 32.980793 22.860352
13.210976 31.516796 21.319351
84.47598 14.651794 0.25535583
82.57398 13.491794 103.74036
82.83098 11.320794 92.382355
81.722984 9.084794 92.76736
6.8519745 0.3687935 12.149353
5.237976 1.4467926 13.12735
82.623985 1.1887932 17.845352
84.17098 1.8247948 19.285355
80.40998 0.30179214 66.22636
81.57298 2.0027924 67.03036
74.45598 6.585794 74.174355
73.360985 5.3557944 75.35036
77.42898 10.607794 48.22835
76.40598 8.622794 47.635357
63.057983 6.7367945 53.508358
61.935986 8.434794 54.22935
83.49098 31.808796 37.81636
84.07698 32.749794 36.23935
7.293976 34.310795 40.860355
8.91198 32.792793 39.98735
70.443985 36.123795 40.808353
70.04498 34.619793 39.353348
78.41498 39.361794 38.52736
76.72598 40.775795 39.09735
51.714985 30.057796 85.839355
51.088985 32.622795 85.019356
43.846985 31.013796 76.04636
41.704983 31.155796 75.33535
45.569984 41.831795 89.08235
46.649982 44.061794 89.36436
51.607983 33.096794 96.98235
50.752983 32.355793 99.52535
59.278984 35.086796 102.37435
58.645985 33.190796 103.40736
55.404984 26.053795 5.871353
54.003983 24.163795 5.4893494
41.903984 3.807794 21.29335
41.177982 1.7837944 20.231354
31.129984 9.478794 22.575348
29.451984 11.220795 22.189354
62.198986 40.954792 61.59035
60.421986 39.785793 60.124355
65.846985 33.050797 51.95135
65.64498 31.094795 52.844357
73.81198 26.293797 4.5793533
75.35398 24.941795 5.3693542
66.66398 17.778795 0.8173523
66.902985 15.222794 0.5433502
31.114985 6.2657943 43.515354
32.661983 5.2327933 41.626354
40.680984 7.5327954 55.148357
38.559982 8.942795 55.481358
77.00398 43.007793 32.270355
76.762985 41.977795 34.57936
72.568985 41.002792 36.90335
70.306984 40.454792 35.49536
21.285984 43.642796 1.4803543
18.852982 43.358795 2.2853546
13.877975 38.743793 98.62836
13.214981 37.01179 97.26836
40.536983 0.72979355 23.41336
41.600983 2.6067924 24.36435
34.426983 5.540796 35.19536
32.695984 4.970796 35.95636
79.721985 46.912792 30.60936
79.88498 44.549793 30.841354
88.28698 38.26879 23.203354
88.37198 35.845795 24.814362
35.481983 25.850796 18.490349
34.051983 25.883797 16.662354
26.982983 36.266792 10.456352
29.018978 37.80979 10.422356
59.283985 35.660793 2.1103516
60.390984 36.64279 3.7843552
54.622986 33.461796 16.71035
53.210983 32.358795 15.869354
28.490978 21.474794 49.65935
28.077984 23.948795 50.431355
20.142975 16.446795 57.807354
19.96698 15.748794 59.788357
44.582985 12.346794 9.360352
43.640984 12.792794 11.55735
35.002983 21.957796 10.285355
33.190983 21.362795 11.145355
36.988983 40.557793 57.487354
39.018986 39.983795 56.184353
37.842983 31.911797 49.223354
39.969986 30.349796 49.227352
60.275986 30.285795 16.896355
58.500984 30.167795 18.29235
61.168983 18.175795 24.398361
60.063984 17.420794 25.800354
57.701984 37.113792 86.76035
58.426983 38.640793 85.67835
60.085983 42.067795 82.57336
58.170986 41.375793 81.78136
23.693981 32.971794 103.950356
23.702984 33.877796 101.80636
17.47998 40.103794 91.799355
18.85598 40.053795 93.84836
13.231979 8.477795 48.795353
12.587975 7.389794 51.168354
16.029976 43.873795 49.122356
16.325981 43.053795 46.89636
36.333984 10.534794 37.89235
37.246983 12.339794 38.914352
28.613985 19.011795 35.41736
28.683985 17.191793 36.71135
16.978981 32.051796 78.44535
18.850975 33.440796 78.758354
30.20898 35.220795 86.38935
31.368984 36.098793 84.824356
56.525986 46.638794 43.453358
56.438984 44.374794 43.269352
53.594986 36.402794 38.54036
54.703983 35.639793 36.365356
15.357979 32.683796 80.59635
15.901978 35.089794 81.98635
18.17498 36.676792 78.062355
17.00698 35.915794 79.83335
10.39698 19.103794 37.96736
8.717979 20.198795 38.988358
1.4019775 24.308796 45.317356
89.73798 26.413795 45.375355
85.792984 38.237793 52.772354
84.50798 39.248795 51.465355
76.708984 40.071793 64.12035
78.50998 42.231792 64.05936
10.529976 22.059795 38.287354
11.31398 23.469795 36.746353
24.08398 29.566795 41.11735
25.156979 29.079796 39.812347
30.336985 11.095794 96.897354
30.187984 13.090795 96.34435
39.709984 14.255795 84.44635
40.501984 16.071795 84.47235
31.901981 36.373795 24.893356
31.62598 35.305794 23.204353
21.726978 28.984797 14.424355
22.131985 26.566795 15.04335
11.349976 9.321793 52.724354
9.455978 8.826794 53.601353
15.417976 44.364796 53.167355
14.739975 42.326794 52.570354
47.019985 28.608795 62.418354
48.580982 27.696796 61.311356
45.826984 17.015795 55.957355
47.404984 16.700794 54.327354
2.1639786 44.447792 62.815353
2.7579803 45.182793 61.001354
5.5609818 3.8417945 52.626354
6.5709763 3.946794 50.641354
16.764977 29.567797 24.447357
18.649979 31.286797 24.213348
20.874977 44.578793 24.582352
23.051983 45.362793 22.972351
14.870979 15.639793 74.383354
17.41198 15.853794 74.341354
21.83498 13.873795 84.824356
24.093983 13.724794 83.98835
61.378983 40.415794 84.40736
63.674984 41.588795 83.869354
71.320984 41.930794 95.94035
70.28998 40.184795 97.534355
27.36398 38.876793 71.812355
29.52898 38.26179 72.022354
29.617985 44.496796 65.92635
29.937984 44.282795 68.66235
48.270985 17.752794 98.28036
49.028984 16.776794 96.227356
62.827984 20.880795 95.09735
61.260986 20.196795 92.896355
78.91398 18.990795 97.85635
80.43798 18.697794 96.310356
81.87998 15.013794 88.548355
79.721985 15.065794 86.993355
71.96198 5.1297965 66.923355
73.98798 4.043794 67.437355
69.44898 40.778793 68.48335
70.37798 42.137794 67.00436
62.596985 7.8907943 39.703354
60.794983 8.882794 39.11435
59.562984 16.437794 28.949356
57.980984 16.901794 27.963348
25.786983 44.019794 68.84936
26.286983 42.434795 70.97436
26.314983 1.1557922 81.47636
24.311985 1.7657928 82.950356
77.52498 42.518795 5.185356
79.74598 42.757793 4.534355
77.54798 47.073795 96.145355
79.17098 47.446793 95.199356
30.284985 14.579794 40.408356
29.34898 15.087794 38.270355
21.948978 13.179794 29.95935
21.448978 14.357794 31.601349
25.756985 6.913792 77.091354
23.68198 6.884793 78.92036
23.698978 8.729794 68.381355
24.759983 7.465794 66.33435
13.739975 22.396795 64.69736
15.598976 23.353796 66.592354
21.943981 14.743794 73.632355
23.485981 14.580794 75.200356
52.659985 32.671795 20.567352
53.191986 33.638794 22.592354
55.855984 21.442795 30.884354
55.057983 23.216795 32.604355
46.119984 31.431795 52.830357
45.428986 29.267796 52.831356
53.786983 20.538795 48.489353
54.776985 20.667795 50.460354
85.51898 27.924795 66.688354
87.014984 26.763796 67.645355
2.8549805 15.121794 75.561356
1.5499802 13.217794 74.52935
79.96498 9.718794 2.8303528
79.55198 11.580794 1.8913498
83.846985 6.0217943 92.88635
81.87298 6.3607945 91.59836
1.9129791 16.771795 14.267349
4.402977 16.762794 15.565353
15.699982 19.253794 8.9763565
17.36898 20.913795 10.37735
18.25798 25.730795 20.596352
18.277977 23.358795 19.249352
26.618984 14.457794 23.412354
27.58398 13.053794 23.288353
10.7419815 2.2487946 35.80536
10.2419815 2.4637947 33.86035
9.700981 3.1997948 22.090347
11.00798 3.4357963 20.129349
85.30198 43.802795 52.684353
87.46898 42.699795 52.698353
81.59098 47.719795 60.643356
79.92198 46.062794 61.057354
27.551983 28.647797 30.59935
30.04398 28.144796 30.954361
23.16998 20.104795 31.73935
21.14198 20.014795 30.440353
73.72398 11.541794 101.55736
75.70398 12.989794 101.62435
76.556984 26.940796 100.88535
76.67498 28.367796 102.867355
63.892986 17.699795 104.174355
64.16298 15.281794 0.07035065
62.350983 5.860794 9.769356
61.687984 5.2977943 7.847351
26.829983 45.891792 55.671352
26.40598 45.161793 54.073353
22.052982 33.662796 53.954357
21.336979 32.875793 51.428356
41.140984 9.813793 83.92735
39.955986 7.901795 82.99036
28.999985 2.5437927 78.297356
28.481985 0.8447952 79.35835
19.00798 12.406795 2.82135
20.315979 10.769794 3.038353
32.171978 5.4747944 101.94035
32.676983 3.5387943 103.797356
69.69798 41.262794 27.935349
68.195984 43.081795 27.139359
72.666985 39.937794 14.233353
71.806984 38.317795 15.452354
50.740986 35.555794 37.99936
51.451984 34.281796 39.397354
43.713985 29.541796 50.449352
43.487984 31.518795 51.73036
89.111984 16.258795 54.678356
87.250984 16.325794 55.64636
86.930984 19.302794 44.704357
85.03498 19.386795 43.495358
73.805984 31.383797 67.77435
71.89198 31.310795 67.86536
59.786983 30.149796 67.76836
58.491985 31.180796 66.62435
9.1779785 26.966795 43.522358
10.207977 28.956797 43.558353
24.247982 30.507795 44.127354
25.049984 28.377796 46.113354
47.808983 44.925793 9.706352
47.201984 42.545795 9.981354
54.649986 34.884796 3.2893524
56.717983 36.320793 3.010353
7.31398 26.808796 60.429356
6.136978 26.072796 58.773357
13.731979 20.854795 46.516354
15.451981 21.084795 47.759357
33.702984 33.633797 99.19636
32.342983 31.666796 98.69435
28.04498 21.326796 99.61536
26.019985 21.525795 100.675354
20.73098 25.860796 44.740353
19.584976 23.464796 44.35435
21.083977 23.180796 34.48935
19.762978 23.964796 32.74536
50.347984 10.8287945 13.480354
49.718983 12.735794 14.263351
55.296986 6.7247944 7.2513504
54.037983 5.5157943 8.285355
47.701984 35.582794 34.312347
46.248985 34.588795 32.891357
48.517982 20.197796 36.881348
50.258984 21.430796 36.85936
89.71698 8.769794 3.0403519
89.18898 6.3517966 3.3183517
83.902985 45.370792 5.6343536
84.665985 46.145794 7.982353
6.1619797 37.56079 79.97435
7.912979 37.019794 78.19135
87.81498 27.759796 84.424355
88.38598 25.990795 84.492355
54.182983 21.354795 37.54236
52.426983 21.254795 38.47136
56.735985 13.903794 48.721355
57.318985 16.488794 48.946354
10.581978 10.809794 19.094353
11.21698 11.0457945 21.505348
5.851982 23.225796 26.495361
4.322983 22.458796 24.521362
39.850983 4.720796 83.85935
38.637985 3.0637932 84.34735
38.564983 1.605793 70.49735
40.238983 1.2227936 69.911354
3.454979 28.760796 2.2443542
4.862976 28.904797 0.57234955
18.36998 30.130796 2.7963562
19.863976 28.431795 2.6743546
57.409985 8.211794 87.76135
57.797985 9.606794 89.19335
54.151985 6.5847945 92.71935
53.921986 5.4167943 94.60635
8.842979 35.75479 21.14135
10.42598 34.882793 22.365349
16.042976 44.308792 23.08635
17.916977 43.598793 22.275352
44.316982 3.7547944 20.145348
44.294983 6.1537943 19.72335
46.527985 9.989794 29.44635
44.353985 8.510794 29.908356
85.07598 22.546795 81.28735
86.75998 21.498795 80.27735
83.00398 33.441795 74.08435
80.527985 33.247795 72.77535
69.222984 23.621796 35.14035
71.85398 24.288795 34.67035
68.66198 38.17779 35.227356
68.60098 38.932793 36.962357
57.448986 3.2147944 71.98435
57.442986 2.2137942 74.03036
63.163986 14.406795 74.87535
64.445984 16.587795 73.76135
6.3079834 36.51779 39.76935
6.5839767 37.05979 37.659348
88.89298 34.628796 31.460358
0.020980835 33.104794 32.289352
48.296986 24.540796 82.271355
49.968983 25.682796 82.925354
53.786983 38.37879 78.20735
53.670986 39.964794 79.80535
53.063984 34.134796 83.90435
54.149986 33.267796 85.659355
62.995983 28.264795 77.381355
65.109985 27.610796 77.24835
84.87698 19.647795 99.838356
86.17898 19.687796 101.65336
89.40098 22.864796 8.713356
1.1769791 22.641796 9.985352
68.23398 31.730795 3.477356
68.888985 32.087795 0.9403534
76.76198 41.506794 100.47436
76.31198 40.937794 102.85036
82.707985 26.810795 14.017349
81.31198 26.030796 12.924355
73.901985 26.502796 23.98735
75.35098 27.893795 23.798355
39.917984 10.357792 5.6103516
41.326984 10.650795 6.8723526
42.255985 45.858795 8.441353
43.038982 44.104794 9.174355
39.215984 15.160794 72.79235
40.497986 13.884794 70.98435
34.479984 2.0067945 71.95935
35.874985 2.3557944 70.15636
87.46898 45.918793 98.727356
86.44198 47.746796 98.550354
83.48998 1.3847923 98.30235
82.73098 0.49479294 96.241356
56.425983 41.044792 79.533356
57.227985 40.567795 77.08335
57.712986 27.258797 73.10635
56.680984 27.608795 71.53935
52.363983 19.489796 46.29936
54.424984 19.413795 45.698353
59.132984 26.703796 37.92836
59.939983 28.275795 36.98636
44.972984 9.675795 17.578354
43.251984 9.767795 18.394348
40.921986 20.386795 27.340347
42.535984 19.772795 28.072357
5.240982 16.526794 74.63635
5.4279785 14.815794 75.674355
13.471977 9.192794 82.70635
12.496979 11.245794 83.536354
20.240974 32.426796 31.63536
19.02098 33.385796 33.44835
18.38298 22.520796 26.608353
19.64598 21.479795 28.48436
11.728981 35.870792 93.07236
11.796974 33.790794 91.964355
22.72298 29.398796 100.98736
21.63998 30.789795 102.82136
90.21598 44.856792 84.15536
0.7459793 44.021793 86.12535
6.1069794 30.940796 87.42735
7.9259796 30.174795 85.561356
0.09297943 30.201796 103.19235
1.0349808 29.189796 101.30836
5.5159836 17.510794 97.674355
4.421982 15.806794 97.17935
49.968983 24.005796 8.012352
52.114983 22.921795 7.6363525
51.209984 15.321794 18.968353
49.443985 14.640794 19.687347
48.803986 48.307793 101.91635
49.232983 1.6207924 99.88635
50.622986 47.418793 88.65135
51.699986 45.303795 88.30535
81.000984 32.314796 49.49336
82.998985 33.090794 48.350353
1.6959763 22.689795 53.925358
0.11997986 21.375795 54.544353
90.167984 5.6857944 45.420353
90.01198 7.740794 44.77035
10.306976 5.0207944 38.84735
11.071976 7.3837943 38.589355
59.701984 25.578796 75.078354
60.387985 28.032795 75.146355
73.209984 23.478796 73.630356
73.82698 24.346796 75.467354
27.071985 26.051796 47.588352
29.571985 25.909796 48.151356
38.213985 32.513794 38.978348
37.163982 33.309795 37.01335
24.477985 10.389794 25.883362
22.221981 9.990794 26.212357
21.47498 22.202795 26.30635
20.52398 23.454796 24.854355
89.70698 40.436794 24.166351
1.4479828 39.562794 23.344353
13.598976 45.818794 21.03135
15.02198 44.142796 20.644348
53.735985 31.525795 67.55135
53.488983 29.350796 68.70735
63.648983 23.472795 58.859356
64.485985 25.168797 57.471355
31.443981 18.294794 78.23235
33.21198 16.964794 78.50436
25.55698 5.8417945 80.67635
25.962978 3.7567942 80.352356
56.486984 9.048794 13.472351
57.804985 10.761794 14.638351
55.108986 22.123795 7.6933517
55.706985 24.703796 8.177353
32.978985 36.600792 28.391357
31.87598 38.411793 28.33136
20.734978 39.871796 32.604355
21.16698 41.876793 32.42935
25.651981 12.042794 77.341354
24.423985 11.415794 75.30635
35.844982 12.586794 66.28236
34.913982 12.555794 64.39136
46.567986 20.950796 43.641354
46.618984 18.730795 45.022358
56.050983 17.938795 51.362354
56.575985 19.306795 53.223354
41.909985 37.73279 102.28935
39.924984 38.484795 102.05135
43.623985 39.092793 9.717354
41.522984 38.00379 9.553352
8.515976 25.744795 38.175354
8.892975 24.356796 36.46335
86.88398 25.209795 36.684357
85.23998 26.497795 36.83435
0.9539795 2.6947937 47.788357
2.9469833 1.650795 48.502354
9.150978 39.319794 49.635357
11.371979 38.895794 49.82635
35.943985 10.518794 21.703354
34.219986 12.350794 22.288353
30.780985 17.825794 12.064354
30.798985 19.621796 10.68335
70.96098 14.501794 12.176353
71.46198 11.817794 12.397354
63.954983 1.0937943 13.578354
62.240986 1.0447946 11.18235
13.259979 13.018794 41.413357
13.625977 13.351794 43.376354
13.448975 3.8767943 37.606354
11.583977 2.5847945 38.355362
56.385986 16.287794 81.005356
58.247986 17.031794 81.02835
57.841984 6.083794 72.58135
55.725983 5.1407943 73.14136
19.42498 35.103794 80.91435
20.664978 35.568794 78.94435
31.227985 40.411793 86.338356
30.161983 41.764793 87.85835
22.871983 36.88679 73.047356
23.713985 37.565792 71.022354
18.546974 26.507795 66.92735
16.973976 25.654797 68.449356
65.79698 29.720797 50.602352
63.507984 29.329796 51.252354
65.53998 24.531796 55.20236
67.92798 24.992796 55.516354
30.080982 7.0897946 41.227352
28.350979 7.3057942 39.845352
17.611977 1.506794 38.087357
17.226974 2.0757942 40.42636
77.916985 20.388796 12.693352
79.80998 19.943796 11.605354
75.58898 11.971794 104.09735
75.29398 11.0457945 1.5803528
73.21698 15.266794 87.19836
74.61798 16.094795 88.369354
74.98398 10.148794 99.70635
77.33598 10.936794 100.700356
2.0429764 36.28279 32.21135
3.4949799 37.963795 31.18335
0.026977539 0.6357918 38.669357
89.48098 2.638794 39.130356
5.657982 48.070793 7.71035
6.8129807 47.552795 5.581352
14.542976 46.446793 100.217354
16.044975 44.797794 101.813354
0.8609772 19.842794 56.745358
2.0289764 18.752794 55.611355
15.14698 15.646794 51.375355
13.166977 13.7957945 52.331356
46.793983 35.181793 102.451355
45.242985 33.574795 101.91435
48.846985 23.643795 4.2673492
49.295986 25.201796 5.5653534
70.51598 9.269794 58.824352
70.639984 9.438793 56.53536
79.96998 46.231792 54.13135
81.06198 46.307793 52.191357
55.211983 32.684795 35.67636
56.343983 33.723793 33.949356
59.624985 33.894794 19.72435
58.174984 32.367794 20.885353
52.014984 35.870792 20.880348
54.333984 34.942795 19.021355
65.52498 39.136795 16.234352
64.75998 36.800793 16.58535
45.113983 8.807795 84.08335
43.307983 9.0787945 82.535355
42.757984 2.3687944 69.798355
41.445984 3.2527943 68.368355
11.205978 6.807794 67.311356
10.816978 6.0397944 64.96835
16.318977 18.299795 62.817356
17.861977 19.163794 63.555355
53.355984 7.6737943 52.378353
54.842983 9.186794 50.850353
48.912983 8.588794 39.44536
49.671986 6.6267943 38.574356
74.74798 17.624794 53.108356
76.72698 17.369795 52.045353
80.73098 24.739796 39.906357
79.35298 25.498796 38.630356
72.71298 1.136795 103.71935
74.26898 1.8567924 1.4503555
85.51598 10.263794 2.1403503
84.01898 11.348793 2.0453491
61.301983 47.124794 78.810356
61.045986 46.549793 76.840355
59.949986 41.770794 77.298355
60.068985 41.241795 79.757355
41.464985 19.117794 95.78935
40.912983 16.837795 94.83035
39.736984 20.658794 90.55535
39.907986 20.740795 88.15636
20.039978 24.543797 102.46835
21.746983 23.147797 102.172356
18.52198 19.474794 6.5213547
18.109978 18.358795 8.536354
90.02598 13.983794 70.24036
1.266983 13.111794 70.83435
8.571976 6.248794 67.717354
8.347977 4.6627946 65.95735
24.383984 29.471796 9.466354
24.466984 29.488796 7.340355
11.970978 24.109797 2.4023514
9.474976 24.991796 2.776352
56.911983 35.416794 88.99935
56.293983 37.49079 90.286354
50.324986 37.66479 101.71036
48.269985 37.209793 100.910355
11.510979 16.007793 86.088356
10.681976 16.611794 84.074356
7.8659744 9.004794 74.11235
6.6469803 7.0857944 74.83535
68.31698 35.036797 46.291355
69.85698 36.979794 45.765354
81.111984 33.627796 40.707355
81.78798 33.742794 38.404358
28.566984 43.488792 89.71935
28.075985 43.718792 91.923355
39.284985 40.009792 99.68436
41.140984 41.118793 99.98235
16.153976 26.470797 63.559353
17.502975 25.805796 61.607353
21.860981 14.040794 68.64236
20.540977 12.614794 66.97436
82.903984 4.4127946 18.615349
83.65798 6.4697943 19.68435
75.12098 13.939795 25.031357
73.013985 14.0457945 24.335358
63.217983 1.4217949 58.723354
65.86298 1.5897942 58.204353
66.846985 43.833794 64.37435
66.248985 45.674793 64.04235
6.200981 3.5217943 93.67635
4.5719833 3.6037943 92.269356
12.17498 6.1247945 95.827354
11.685982 7.2227945 97.90536
37.705986 45.993793 95.15135
39.164986 46.708794 93.87135
42.684982 38.798794 99.63835
44.781982 38.770794 100.28136
0.99497986 8.519794 29.722351
89.528984 6.4687934 30.258362
88.42198 2.461792 41.58935
89.16998 2.7387924 43.407352
75.11398 39.829792 78.33235
74.24798 37.425793 78.87836
75.92698 27.328796 73.29135
77.500984 28.552795 73.65135
31.56998 17.353794 67.01035
29.477985 17.471794 67.81535
32.59698 30.613796 65.01135
34.00298 31.750795 67.05135
59.476986 42.557793 100.963356
60.490986 44.618793 101.41936
53.881985 3.0087929 4.4263535
54.103985 3.5877967 6.512352
69.915985 19.062794 19.215347
69.48798 19.358795 21.786354
65.09098 31.561796 22.438354
63.926983 32.009796 24.661362
59.768986 25.481796 92.31735
59.455986 23.919796 93.54436
65.11698 31.292795 103.40336
63.309986 29.973795 103.991356
26.047985 34.385796 40.999355
25.894985 31.766796 40.52136
34.59698 34.044796 32.046356
36.59598 35.011795 32.66536
89.80398 30.991796 99.57036
0.37898254 31.623796 97.424355
82.09998 39.727795 89.102356
80.74498 40.049793 90.75336
7.9769745 21.113796 31.41536
7.645981 19.794796 29.078354
17.795975 13.562794 28.465347
19.30098 14.773794 29.601349
24.115978 5.682794 100.08035
26.345982 4.387796 99.77936
33.13798 47.571793 5.401352
35.185986 0.12679291 6.1603546
74.16198 42.597794 96.55135
76.41198 43.396793 95.99735
83.707985 45.549793 94.83636
82.85798 45.366795 97.13435
72.71398 22.227795 78.54436
72.846985 24.812796 79.42835
74.04398 19.357794 90.29436
75.44698 17.171795 90.98736
86.67398 32.211796 44.654354
86.137985 34.284794 45.70135
86.62198 33.276794 40.96636
87.76798 31.118795 41.399357
48.695984 3.100792 70.91235
47.337982 2.770794 69.13635
50.005985 40.535793 73.810356
51.901985 38.543793 73.592354
67.874985 43.778793 80.58035
65.70098 43.132793 80.283356
67.75798 37.230793 70.366356
66.263985 38.895794 68.98435
83.45298 45.813793 56.488354
81.50298 47.244793 56.275352
74.76598 11.211792 56.351353
75.15498 12.670792 58.359356
58.821983 16.079794 32.031357
56.544983 15.751794 32.45935
62.934986 19.094795 44.453358
62.363983 21.681795 45.067356
48.997986 21.593796 76.29436
48.927986 23.193796 78.06635
45.822983 27.195795 66.83235
45.894985 25.523796 65.451355
7.5829773 17.916794 32.212357
5.93898 19.544796 31.74736
83.902985 14.047794 29.842361
81.722984 13.707794 31.04036
71.931984 39.978794 82.34835
72.94798 38.098793 82.185356
75.08198 26.341795 77.89136
75.86298 25.551796 79.452354
79.931984 20.345795 79.51235
79.61498 22.797796 79.76035
78.67598 34.031796 79.71236
76.50598 35.52479 78.49036
60.512985 21.322796 77.38435
58.068985 20.860796 77.44836
50.305984 31.636795 71.78036
52.748985 32.587795 71.93236
63.860985 14.828794 101.57935
65.722984 15.462794 101.05335
66.042984 8.107794 89.28835
64.18898 6.813794 89.48135
2.1119766 15.072794 103.50336
4.117981 14.955793 101.85735
15.996979 19.069794 4.8983536
17.722977 17.679794 4.6623535
63.308983 44.942795 45.648357
60.842983 46.019794 46.068356
52.312984 47.481792 41.947353
51.464985 46.178795 40.34236
35.260986 8.359795 35.37735
36.589985 10.404794 35.16835
45.266983 10.820794 24.81636
43.626984 10.450794 23.083351
60.770985 1.282795 34.658356
59.007984 1.3857918 36.309357
51.957985 38.416794 38.57036
49.841984 38.218792 37.67836
79.71698 38.630795 88.50336
79.46498 39.589794 86.172356
87.984985 46.975796 91.311356
89.20198 47.846794 93.119354
84.193985 33.045795 43.690357
83.20498 33.702793 45.860355
69.833984 34.425797 48.468357
69.31698 36.301792 49.18836
9.811981 22.497795 16.773354
9.920975 21.231794 14.832352
6.4489746 32.963795 15.017349
4.8109818 34.667793 14.000351
4.8429794 43.477795 0.81635284
5.843979 42.158794 2.0953522
6.656975 35.397793 97.63835
7.1779785 33.207794 97.05936
45.489983 38.328793 102.909355
44.223984 36.383793 102.924355
41.092983 28.557796 6.859352
40.064983 26.478796 7.026352
40.20898 29.306795 2.6013565
39.606983 28.673796 0.66135406
27.471981 31.452795 104.01736
26.34898 29.712795 102.62035
77.22698 29.628796 99.991356
78.28798 30.527796 98.73435
80.41898 27.024796 104.13935
79.16098 27.969795 102.80135
3.7889786 1.0767937 92.08035
2.6809769 2.527794 90.85935
6.636978 0.7037926 93.088356
5.680977 47.379795 92.51536
88.139984 32.202793 102.729355
86.25798 33.468796 103.286354
79.584984 36.661793 90.49635
77.68398 35.654793 90.44536
81.09998 34.193794 51.641354
80.97698 32.303795 52.462353
83.57298 30.090796 65.77335
85.23398 30.797796 66.61035
3.1079788 17.623795 77.99535
4.8969803 15.662794 78.15135
8.14798 22.151794 73.19635
9.016975 22.068796 71.17935
41.764984 19.027794 53.088352
40.897984 21.582796 53.448353
48.966984 27.452795 44.878353
51.179985 26.296795 44.897358
65.60898 5.2367945 36.164352
64.18498 4.4497943 35.393356
62.261986 13.494794 25.832352
61.253983 15.176794 25.244354
63.715984 23.489796 10.694351
63.134983 25.586796 10.100349
71.42398 24.977797 8.940353
71.88098 22.485796 9.059357
17.251976 19.507795 104.26435
16.553978 19.127794 2.2403564
21.466984 30.270796 4.3323517
22.25098 32.600796 4.248352
6.8639755 0.5437941 90.24935
5.848976 2.6047945 89.96935
12.684975 14.174794 88.93035
14.069977 13.933794 90.79636
35.02898 27.309795 22.64035
34.38798 29.124796 23.902359
24.420979 29.307796 31.699356
22.698978 30.600796 33.34935
47.463985 11.895794 17.144348
49.657986 12.675794 17.075348
49.542984 7.1477942 9.61335
49.036983 5.5867944 8.248352
34.079983 9.272794 99.04336
33.049984 8.233794 100.99935
38.471985 12.610794 6.4923553
39.066986 14.803794 6.5683517
75.53998 19.818796 72.18436
77.139984 19.022795 70.185356
79.99798 28.301796 68.66936
78.56698 29.884796 69.81635
80.19998 2.3917923 16.740349
80.69198 0.04679489 16.122353
75.23898 44.729794 24.644348
74.96198 43.769794 26.60936
23.633984 29.352797 12.14135
22.98798 30.900795 13.039352
23.234982 42.038795 18.43335
21.242985 42.165794 18.939354
47.326984 37.681793 38.83635
47.806984 39.301792 39.69435
40.985985 40.668793 30.741348
40.594986 37.749794 30.494354
54.682983 5.9557943 4.4613495
52.693985 5.3137946 3.0193558
49.597984 9.177794 99.645355
48.811985 9.930794 97.97436
55.593983 12.2037945 6.3093567
56.443985 9.881794 5.052353
51.372986 15.160794 97.86135
49.602985 15.472794 99.13835
66.25198 36.563793 46.071354
64.85898 37.87279 46.802357
54.233986 38.687794 55.834354
54.770985 40.144794 57.619358
25.11198 19.721796 36.16136
26.350979 18.576794 37.001358
27.15298 25.634796 42.124355
24.481983 25.077795 43.259357
25.547985 26.609797 86.04436
25.165981 24.508797 86.48535
30.006985 26.970797 74.368355
31.936985 26.397797 72.94836
44.227985 23.917795 66.62235
44.555984 23.545795 64.34635
43.556984 15.496794 54.928352
42.036983 16.428795 53.974354
78.73998 27.661797 60.844353
79.09098 28.913795 59.142353
69.86998 37.713795 67.230354
68.03598 38.450794 66.911354
23.704983 9.573794 79.09835
26.091984 10.144794 79.28236
27.942982 8.973794 92.09635
28.020985 11.192794 91.05135
76.068985 12.982794 54.722355
74.332985 14.688794 53.79735
68.707985 21.045795 44.636356
67.90498 19.486795 42.852352
81.26598 20.990795 82.34335
81.82798 19.194794 80.936356
70.79698 14.308794 77.04636
68.97698 15.754794 77.27735
31.574986 13.950794 63.483353
33.902985 15.055794 63.589355
31.176985 28.425797 62.711353
32.140984 30.261795 61.339355
77.40598 30.130796 95.91435
75.73898 29.886795 97.480354
73.39798 18.993793 92.80235
72.763985 16.518795 91.60635
31.226984 46.180794 84.11436
32.185986 44.251793 84.36335
33.540985 46.195793 73.62736
35.764984 46.811794 72.75135
41.468983 16.185795 7.014351
43.530983 17.316793 7.3253555
54.888985 16.776794 1.2253494
56.270985 14.815794 1.1963501
56.305984 20.236795 47.636356
58.056984 19.207794 49.300358
72.21198 20.281796 53.28335
72.403984 18.327795 55.02136
22.341984 10.487794 76.72035
21.245983 12.225794 77.883354
11.697975 6.2437944 75.79436
