64.66072 23.702238 87.216965
63.412724 23.065239 85.45497
59.076725 22.53324 79.05697
60.895725 22.538239 78.564964
70.62073 45.56924 91.437965
70.651726 43.32624 92.08597
64.56072 43.63124 100.42997
63.024723 44.97524 100.854965
49.101723 40.60724 55.06197
50.643723 39.02924 53.92997
53.282726 36.62124 43.06697
55.475723 35.893238 42.30197
80.81673 16.26224 105.29997
82.960724 16.906239 105.12497
83.59072 16.63424 97.381966
85.72872 16.027239 97.230965
58.450726 19.142239 0.7459717
56.881725 19.550238 112.26497
46.009724 25.275238 111.63097
45.500725 22.994238 112.35497
87.432724 33.331238 39.72097
85.43772 34.09924 39.83997
84.97872 37.63524 47.92997
86.44772 35.87024 48.17097
18.294724 0.62023926 40.76497
17.68872 45.894238 38.57296
19.344719 9.315239 28.663963
17.131721 10.804241 29.130959
18.251724 23.160238 79.45597
20.861725 23.066238 80.34897
28.056725 22.08924 76.27897
29.544724 23.972239 75.714966
2.5307236 37.84124 27.047966
0.43172455 38.45324 26.203972
84.18973 3.46624 18.82296
85.33872 5.905239 19.704964
48.475723 9.02924 99.27597
47.149723 9.981239 97.61097
50.856724 16.81224 107.34097
51.177723 14.50724 107.32997
44.27572 27.263239 93.32297
44.876724 29.215239 92.326965
36.84172 36.018238 88.94897
35.00872 36.887238 89.41897
78.220726 19.525238 51.20797
76.529724 20.052238 50.51897
82.12173 14.9462385 39.35497
84.10573 15.142239 37.90197
81.43973 45.428238 29.320961
79.18873 45.27724 29.52996
81.85072 3.9622383 17.821968
82.21773 2.9132385 15.799965
58.370724 19.20024 93.80797
57.096725 17.434238 93.48897
49.945724 11.792238 98.90797
50.818726 9.877238 97.55497
37.683723 32.41824 109.02897
36.324722 31.795238 110.53697
22.580719 31.265238 105.74497
22.502724 32.80524 104.05797
54.945724 41.78124 84.47397
54.057724 43.11324 83.44697
51.312725 4.9012413 81.37897
52.967724 4.197239 80.91997
2.4747238 44.248238 68.97297
1.1957245 0.12723923 70.17097
4.904724 9.430241 76.86597
4.413727 10.912239 75.23497
75.66473 2.7482376 4.6819687
73.53472 3.8212395 5.274971
67.513725 6.82024 105.21597
65.887726 8.143238 104.71197
66.89873 21.81824 60.80397
68.72972 19.986238 60.59197
81.49473 26.736238 61.18997
82.93973 25.261238 60.01397
4.3637238 22.414238 28.599968
4.5777206 20.074238 28.704964
11.976723 12.135239 29.242958
12.485725 10.720239 27.700966
6.904724 6.655239 10.8109665
7.1227264 5.006241 10.580971
2.4927216 9.29224 109.68097
1.3937225 10.409241 111.26697
33.635723 6.1582413 42.367966
35.568726 5.860241 40.30597
44.986725 3.0292397 36.38497
45.040726 4.4892387 34.045967
78.318726 5.891239 28.996971
80.32973 5.7452393 29.66996
3.5687256 11.13924 30.67797
5.4647217 10.367241 32.200966
33.864723 44.45324 88.99797
32.263718 0.19023895 90.12297
29.864723 8.45224 80.798965
28.469719 10.492241 79.79297
19.694725 10.525238 85.340965
17.456718 10.52824 86.51597
9.271721 7.4132385 90.96797
9.128723 6.41724 88.881966
85.543724 30.02624 103.97297
85.59473 31.443237 101.88797
8.693726 25.048239 94.37097
7.8107224 22.767239 93.73297
6.2447205 3.822239 97.408966
5.736725 3.801239 99.69897
83.89272 0.057239532 107.74097
82.53573 0.19623947 109.40497
5.783722 0.70923996 95.92697
3.4217224 0.65623856 97.327965
77.85673 3.2582397 96.94897
76.42573 4.1942406 95.26897
46.18672 44.12124 54.95497
44.682724 44.56224 53.38597
33.54772 37.46124 57.30997
32.23372 38.762238 55.87997
14.380722 37.22124 40.55197
14.625725 37.00424 42.72797
22.520721 30.767239 48.02297
20.611725 29.830238 48.31197
72.639725 6.5312386 37.57296
71.32272 7.96624 36.35697
72.51672 13.298241 24.48896
74.834724 12.71624 23.810966
14.88472 15.390239 106.70697
16.794724 14.852239 106.13497
17.070724 17.673239 105.69197
16.121727 18.833239 104.10297
76.66473 14.589241 108.72897
75.58073 12.617241 109.46897
77.65672 5.581238 97.84697
76.91473 6.6232376 96.41297
45.764725 31.697239 90.66597
47.733723 32.42624 89.83097
55.273724 40.65924 87.16997
57.416725 42.11824 87.80297
55.040726 29.062239 103.729965
53.923725 29.78724 105.53097
54.780724 16.514238 109.35597
57.076725 15.570239 109.45997
40.759724 27.138239 20.05497
39.935722 29.279238 20.997963
42.666725 42.67624 19.461967
42.165726 43.64624 17.33097
8.743721 39.90624 54.82997
10.306725 40.35424 52.88797
86.87772 36.59024 50.96297
84.73073 37.06424 51.558968
65.49372 33.22924 41.64197
66.89372 30.805239 42.20197
68.623726 29.58524 40.56497
66.65073 29.643238 39.73697
12.261726 14.739239 54.34097
13.246727 16.442238 53.54197
18.011719 11.1892395 41.64097
15.834724 11.731239 41.55197
52.088726 44.151237 14.728966
51.022724 45.08524 16.215965
49.808723 45.92724 20.621971
51.303726 45.52924 19.160957
7.6197205 10.546238 70.78097
7.137726 8.460239 71.37997
86.60072 3.287239 73.86297
85.96372 1.1942406 72.62597
34.74872 3.4492378 19.484962
33.310722 2.8712387 18.61596
23.365723 8.331238 9.503967
24.17772 9.878239 7.996971
49.396725 39.84324 80.145966
48.063725 39.866238 78.01697
54.074726 37.11724 68.019966
54.722725 38.25924 66.55297
51.313725 38.936237 95.062965
51.447723 41.20524 95.94897
54.601723 44.98624 85.57397
56.614723 44.37724 83.72197
86.76772 32.91324 51.95097
85.35573 34.44124 51.96997
74.068726 32.290237 49.16697
72.56072 33.658237 50.77797
1.3647232 24.78324 45.89197
2.7547226 22.847239 46.25897
3.1757202 28.416239 48.19897
1.4547195 29.29024 49.01497
29.905724 42.51424 20.171959
29.09272 42.99224 22.327965
23.296722 40.44024 29.185966
23.17472 42.70824 29.116966
77.28172 0.60723877 97.36197
78.78272 1.6892395 98.97197
81.86672 42.98624 108.01797
81.040726 41.69524 106.93297
18.141724 13.159239 21.061958
19.263718 10.971238 21.021965
23.479721 18.121239 30.881966
21.602722 18.378239 30.889961
87.624725 10.2152405 108.73297
85.554726 10.11924 110.46397
74.724724 9.615238 112.85297
72.57472 9.90324 112.30697
47.242725 0.70124054 100.728966
47.357723 0.98023987 102.70897
57.871723 8.350239 107.21497
59.613724 7.754238 108.56097
17.419724 11.828239 17.438957
17.708725 14.121239 18.627968
22.235718 12.009239 11.305969
22.085724 10.79224 9.502968
2.293724 27.350239 0.065971375
1.3367233 26.546238 111.18797
77.109726 28.56124 3.2429657
76.04772 29.389238 4.7919693
38.57772 28.840239 91.92197
37.78572 26.87024 91.59697
37.361725 28.233238 77.82897
39.31572 28.431238 77.270966
65.08073 22.288239 95.95797
65.90572 24.15524 96.45897
69.779724 29.990238 92.71997
72.139725 30.091238 93.94697
56.527725 0.47924042 79.686966
56.694725 3.0122375 79.74697
54.391724 12.178238 83.53797
52.793724 13.233238 82.05997
32.62372 39.69524 1.099968
33.49472 41.33924 113.05297
39.156723 33.276237 106.96897
38.54972 32.741238 104.60397
3.6377258 43.30124 109.28797
1.5427246 43.679237 110.48797
85.93672 39.51724 11.619972
86.89673 37.93324 10.906967
53.735725 43.07224 20.51397
51.691723 44.09424 21.653969
55.940723 46.02024 30.70597
53.885723 44.74324 31.77996
77.418724 27.607239 71.825966
77.250725 28.636238 69.95597
65.944725 34.87224 70.85297
68.152725 35.96724 70.65197
6.696724 29.35924 55.80297
4.819725 27.92524 56.071968
2.5497208 40.07624 59.065968
2.0047226 41.921238 57.84197
21.520721 42.41724 10.369972
23.36972 41.90924 8.587967
20.446724 29.726238 2.1559677
18.280724 30.149239 1.5139694
40.72972 31.001238 103.61497
38.56772 29.848238 103.49997
33.168724 18.056238 100.41797
30.88272 17.704239 100.173965
45.001724 41.33624 34.09597
42.990723 41.081238 34.38497
51.413723 37.98024 41.352966
51.976723 35.83924 40.87197
47.544724 9.985241 74.21097
45.892723 7.956238 75.048965
42.011723 19.46524 79.75497
44.116726 19.80724 79.87597
29.421722 33.71124 40.82997
30.19172 33.61124 43.24997
29.684723 39.87424 47.07597
28.764725 38.24924 48.39797
21.91372 15.70224 95.18497
23.516724 15.39024 93.910965
26.955719 9.701241 97.770966
25.11972 9.782238 99.22397
66.389725 36.64224 75.38497
68.70473 36.25924 74.76897
77.445724 32.16224 85.36597
77.72872 33.72124 83.840965
4.057724 20.389238 89.40597
5.59272 21.817238 88.980965
18.140724 16.688238 94.82897
18.252724 15.542238 97.339966
73.89973 38.12224 33.452965
76.01672 38.11124 32.688957
74.55173 36.20924 19.399971
72.471725 36.14224 19.75396
55.058723 18.881239 37.62197
54.778725 20.83224 37.353966
59.753723 31.671238 41.615967
62.107723 31.217237 40.655968
82.89973 8.429241 6.839966
80.751724 7.6942406 4.9759674
0.5237198 11.701241 0.75897217
86.736725 11.66024 112.22597
28.904724 40.47224 73.202965
29.59372 42.52024 72.604965
25.150719 41.62024 59.69897
24.32872 39.13124 59.113968
31.70372 31.093239 7.4319687
29.046722 31.163239 7.757965
29.844719 25.778238 107.73597
28.859718 23.848238 107.47997
53.787724 1.5202408 94.436966
54.499725 2.2532387 96.494965
63.769726 11.950241 95.355965
65.19872 11.436241 94.381966
34.85472 30.160238 1.899971
36.46772 30.468239 0.861969
26.893723 21.852238 112.39597
26.909721 19.624239 112.04897
71.35072 6.7392387 49.52597
69.666725 5.50124 49.01997
60.806725 4.782238 55.76197
59.249725 5.586239 57.210968
49.794724 8.13224 78.70497
49.588726 7.3422394 80.64197
38.740723 11.707241 84.783966
38.012726 11.23624 83.10197
14.726723 23.29324 57.156967
15.636726 21.566238 55.88397
25.014725 15.555239 63.18897
24.312721 14.517239 65.26097
61.626724 25.559238 11.0119705
61.486725 26.322239 12.70697
50.465725 25.264238 23.423958
51.694725 23.511238 24.40197
15.094727 39.31224 38.29197
13.113724 38.82924 37.357964
2.4927216 39.22124 29.392967
0.8887253 38.56424 31.200966
18.77372 20.190239 4.264969
17.445724 20.798239 6.036972
4.3797226 17.963238 5.422966
2.6757202 18.21024 4.2709656
52.732723 18.779238 10.371971
54.172726 17.712238 8.959969
51.792725 18.716238 109.25497
50.094723 19.678238 108.05997
12.158722 20.013239 101.730965
11.966721 21.890238 102.61697
24.114723 21.129238 111.63397
22.920723 22.954239 113.10297
85.73173 12.787239 44.15597
84.138725 13.844238 45.36697
1.8847198 26.10924 49.40997
3.984726 25.97824 48.82297
53.000725 35.70224 59.36597
54.465725 35.15224 61.24497
60.502724 1.1772385 58.89497
58.725723 0.60324097 57.94597
62.267723 31.379238 76.395966
62.829723 33.56424 76.16797
51.306725 38.58724 81.411964
50.114723 37.17324 80.01697
75.00672 11.217239 72.47497
75.99072 9.548241 71.756966
84.11772 8.530239 79.604965
81.848724 8.187241 79.84497
78.47772 1.3192406 65.13297
77.92172 3.572239 64.83097
65.557724 3.7732391 60.38797
63.828724 2.9982376 60.55297
9.288727 29.522238 112.27197
9.400726 31.467237 111.52597
18.497719 34.518238 106.34597
18.951721 37.14024 107.13797
52.945724 4.350239 76.08697
51.498726 6.42424 76.37497
56.559723 7.89624 66.72097
54.122723 7.678238 67.11697
70.25772 31.554237 97.76597
71.138725 32.707237 99.536964
79.47572 39.34924 92.24997
80.085724 41.49724 91.313965
69.859726 44.34824 12.551971
71.51073 42.963238 12.316971
70.26772 35.96524 21.41996
70.96272 36.18424 23.42797
60.279724 23.424238 3.6909714
59.563725 21.838238 2.2269669
64.33772 13.107239 12.657967
65.19972 11.379238 11.67897
55.296726 39.51024 9.197968
54.733723 41.33024 8.216972
53.981724 3.0082397 2.5159683
54.987724 4.8752403 3.3709717
73.08073 25.14124 50.90197
74.62173 23.360239 50.196968
75.75272 19.296238 37.37597
76.03072 16.57124 37.69897
37.34372 30.090239 20.492958
36.836723 31.505238 22.755959
41.809723 38.685238 12.490967
42.610718 40.68924 11.021965
56.772724 3.95924 37.09397
58.917725 3.7452393 37.40697
67.49272 3.5212402 49.05397
68.56172 2.9832382 46.96297
17.625725 1.7382393 43.37197
15.859726 1.4422379 42.203968
10.847725 12.821239 50.259968
8.75872 12.663239 49.02797
43.568726 10.900239 29.894966
43.532722 12.666239 28.29496
54.454723 18.038239 35.021965
54.970726 16.055239 35.109962
56.922726 11.058239 18.570961
54.905724 11.146238 19.62696
54.057724 20.631239 27.933968
53.966724 22.399239 29.46096
45.152725 12.810239 50.66797
45.976723 12.025239 52.96397
38.559723 13.845239 45.68397
39.629723 15.067239 44.22897
61.295723 11.467239 6.9959717
59.407722 10.148239 7.1859665
56.855724 10.97224 109.78497
58.590725 9.766239 110.27497
1.6997223 37.98724 97.12497
87.22672 38.34124 98.55797
75.00572 44.95124 93.74597
76.03072 0.9752388 93.03797
0.8557205 24.218239 112.10497
1.5027237 22.83224 110.74997
78.34072 16.718239 106.07397
77.36873 18.656239 105.01897
30.57772 21.021238 86.35097
31.325722 21.814238 88.07397
42.89672 14.626239 90.37597
44.96672 14.579239 89.44897
56.425724 3.8262405 72.97597
58.490723 3.06324 71.91797
57.094723 40.26324 64.87297
58.907722 41.06324 66.783966
87.279724 18.584238 36.85497
86.53973 20.563238 38.04697
8.07872 16.003239 46.41597
9.538727 15.308239 48.05797
66.87173 29.29324 21.430962
68.32672 30.568237 19.53196
67.942726 26.605238 10.672966
67.66172 24.786238 11.902969
57.414722 7.1322403 64.45797
55.361725 6.68824 64.53897
50.252724 40.804237 59.32397
50.544724 41.24524 61.65297
58.368725 3.2492409 58.08397
56.615723 3.81324 56.752968
49.895725 9.56324 64.96097
50.357723 11.621239 65.04297
47.226723 43.283237 0.10296631
46.593723 45.290237 0.8849716
50.656723 10.30024 110.28697
51.314724 11.031239 108.19197
37.525723 8.23024 112.42097
39.562725 8.18824 111.83697
46.215725 45.08424 103.95097
46.216724 44.44824 102.04597
84.98972 2.0052376 85.83897
84.27473 3.68124 84.41397
84.41473 10.926239 80.383965
82.138725 11.148239 79.439964
58.402725 40.21224 93.46397
57.215725 38.43724 94.244965
55.235725 26.194239 96.11597
53.519726 25.917238 94.83297
83.03673 25.788239 5.625969
83.77072 26.62324 7.6179657
73.751724 29.50524 6.000969
71.26772 30.372238 5.418968
1.8797226 43.47524 38.48597
2.6507263 44.79924 36.24497
85.624725 3.2912407 45.65997
84.68572 1.5902405 46.90497
16.706726 36.318237 71.71097
18.365723 35.93924 70.30197
27.479721 38.25924 72.75197
29.17472 37.40924 71.964966
21.347725 7.5342407 109.85697
21.88572 7.037239 112.20097
30.581718 0.08623886 102.603966
28.91072 44.77424 102.57497
71.417725 9.6962385 8.341972
69.972725 10.178239 9.33297
63.810722 17.608238 112.02197
61.990723 18.64824 111.21097
15.89772 12.467238 22.36596
14.686722 14.338239 22.40696
25.46872 22.989239 18.971962
24.93872 24.400238 20.42997
13.64872 38.28624 14.946968
12.52372 35.94024 16.122963
13.072723 35.46824 28.639961
13.059723 35.325237 31.079964
31.71772 32.380238 36.90997
31.590721 34.241238 38.87697
42.725723 34.63924 47.01397
42.59072 36.30624 49.13097
27.414719 18.77824 18.744972
25.529724 17.804241 19.652962
27.183723 7.98024 23.83097
25.653725 8.22224 25.48597
38.41272 39.56924 30.57296
38.44172 41.98624 30.78997
32.07972 0.83023834 23.991966
31.63472 0.06624222 21.921959
79.417725 1.0992393 104.48297
78.15872 0.07723999 105.87397
81.08772 35.97324 95.84897
80.750725 36.338238 93.89397
48.149723 33.943237 85.27397
49.691723 35.581238 85.11397
56.491722 30.820238 77.51797
57.953724 32.943237 78.06597
43.45572 45.039238 69.145966
43.224724 42.67024 68.12097
31.319725 36.88524 63.03297
28.956718 36.51124 62.870968
37.69272 14.114239 31.28997
36.45372 12.254238 31.445961
36.503723 44.22224 33.242958
38.726723 45.09724 32.52796
45.375725 25.35324 16.853966
43.457726 26.58224 16.497963
44.431725 15.063239 13.838966
43.627724 15.121239 11.855972
48.786724 18.293238 67.22197
49.777725 19.993238 66.701965
61.554726 19.168238 67.84997
63.397724 18.19324 66.63897
64.74172 42.17624 9.940971
66.56372 42.00324 11.1249695
60.786724 29.569239 13.057968
61.702724 28.188238 14.60997
18.889725 42.77424 30.928963
19.099724 40.78824 30.856972
30.75772 40.44624 38.357964
32.697723 39.553238 37.98896
16.861725 33.89224 12.799965
16.266724 34.96524 14.712967
12.698723 26.858238 17.94796
11.067726 26.470238 19.305962
63.846725 8.683239 41.161972
62.234722 7.71624 39.989967
70.74172 4.89624 36.178963
70.001724 5.942238 34.400963
67.89472 8.4652405 26.945961
70.02272 9.9582405 25.98397
75.18472 15.009239 35.466972
74.722725 13.331238 37.19097
31.955719 15.392239 100.63897
33.724724 15.261238 99.383965
42.308723 12.64024 93.43397
44.005722 12.38324 91.70797
38.125725 23.775238 26.19796
36.098724 23.190239 27.033958
24.55072 25.17224 23.30297
24.664719 27.548239 23.407967
47.401726 37.03024 34.147972
49.749725 37.08724 34.217964
59.756725 45.081238 36.855965
59.703724 1.3632393 35.67997
11.338722 41.26424 46.092968
9.889725 41.73724 47.46397
5.007721 45.95824 39.75097
4.8447266 0.1532402 37.68997
32.45372 26.124239 66.95397
33.80272 27.855238 67.033966
28.853722 36.36024 69.30097
27.254723 37.62024 69.27497
10.742722 8.00124 13.35997
9.92572 6.436241 11.835968
10.353722 2.185238 0.32296753
8.32872 1.2062378 112.35497
58.399723 32.41924 60.90297
59.550724 34.04524 59.81297
66.85673 31.585238 63.01297
67.222725 29.14824 62.11897
56.081726 21.173239 93.60797
56.397724 23.226238 94.63597
53.426723 13.730239 106.17897
53.570724 16.26624 107.07697
69.45573 7.002239 42.32397
68.39272 5.2452393 41.48097
58.465725 43.116238 44.24697
58.860725 44.957237 42.40397
7.3657227 12.466239 72.897964
6.6017227 13.218239 70.81597
4.6087265 26.160238 68.83597
4.1127243 25.76624 66.69197
70.806725 27.86324 86.07997
71.84473 29.461239 84.396965
68.67673 41.43024 89.47397
66.571724 41.762238 88.367966
59.226723 20.587238 48.37397
58.851723 19.619238 46.05497
65.90872 24.29324 35.27497
64.471725 22.656239 34.59197
69.67673 21.06824 36.49096
71.359726 22.286238 35.801964
72.38372 36.907238 38.99096
70.50672 37.408237 39.55596
27.916725 30.507238 38.01497
28.54972 28.42924 37.19097
41.572723 25.05424 41.53397
43.13572 26.539238 42.05997
64.43572 25.583239 84.53297
61.802723 25.567238 85.770966
59.864723 39.568237 88.89097
59.798725 39.37224 91.411964
36.50672 42.85324 9.67997
38.82772 43.304237 8.90197
32.65972 2.1652412 0.34597015
31.506721 0.47924042 113.01397
60.280724 18.37024 49.363968
59.575726 16.769238 48.016968
49.055725 8.352238 50.83197
46.588726 8.67424 50.856968
11.735725 6.57724 73.80197
14.214722 6.634239 74.33797
18.24672 7.240238 87.34597
20.922722 6.5172386 86.76797
9.755722 43.12124 110.29297
11.833725 42.005238 109.37597
21.52472 45.81524 104.25497
23.002724 44.532238 104.53797
74.77373 10.773239 45.05197
76.026726 10.7692375 43.25797
76.651726 10.662239 53.51897
76.387726 11.680241 55.59697
19.433723 4.707241 43.56997
20.622719 4.2342377 45.39497
11.50972 1.9652405 55.00597
12.860725 1.8892403 56.981968
5.696724 9.823238 52.662968
6.479721 9.712238 50.65697
20.57972 9.5902405 50.78397
21.096718 8.663239 52.384968
29.215721 45.15524 94.47297
30.92572 45.99224 95.30297
28.740723 11.3142395 96.89997
29.157722 13.877239 96.25597
68.74573 34.10124 4.6229706
71.18472 32.89224 5.252968
77.70172 40.96224 12.45797
79.09373 40.07224 14.546967
1.4417267 29.53024 14.241966
87.443726 29.78724 15.895958
5.57872 25.13724 28.12696
6.0757217 26.876238 29.713966
22.594719 1.2882385 34.40696
21.630722 2.1452408 32.452965
31.976723 5.6232376 39.770958
33.766724 7.072239 38.90496
32.749718 38.02424 16.72097
31.89672 39.186237 14.791969
43.211723 3.0262413 16.586967
40.847725 2.8912392 17.87397
79.140724 33.463238 97.58897
76.92072 33.03124 98.25097
73.54472 41.54424 91.16397
72.692726 42.55924 89.603966
3.9627228 39.269238 96.43197
5.9497223 40.45924 96.23197
19.597725 40.55124 99.24197
19.891724 40.59824 101.58697
21.894722 42.49524 57.468967
20.309723 42.69824 55.460968
15.956726 42.80624 48.49697
15.891724 44.54324 46.73097
45.405724 32.02924 47.29197
45.051723 32.64724 49.38197
43.149723 20.058239 55.68997
45.338726 19.597239 55.65497
33.976723 10.88324 83.69597
35.79972 9.413239 84.26097
27.797722 7.8892403 78.353966
26.182724 9.02924 79.27997
0.6597214 16.573238 6.8389664
86.67272 16.656239 6.3489685
85.38673 29.20024 11.431969
86.224724 29.389238 13.494972
53.285725 1.2352409 4.4979706
53.942726 2.6042404 6.757965
53.492725 10.658241 16.77996
54.653725 8.686241 17.436958
10.516724 20.080238 54.47797
12.781723 21.139238 54.70897
15.680725 16.423239 55.11597
14.34272 16.629238 56.95797
75.96572 35.55224 71.08697
75.721725 35.28524 73.64897
72.986725 23.843239 70.08297
71.709724 22.396238 68.73197
76.13072 43.48724 56.42997
73.39773 41.95524 56.47697
65.82772 2.353241 62.80697
64.527725 3.2932396 64.98497
61.586723 38.84224 41.66397
62.076725 40.84424 42.77597
67.96272 38.89224 52.48697
66.24773 40.21924 51.446968
9.216721 3.3122406 14.577965
10.080727 5.310238 14.510971
85.206726 5.3922386 17.005959
85.57873 3.560238 16.436958
38.999718 29.921238 106.99897
37.23372 28.993238 108.64197
37.56772 17.406239 100.79197
37.29872 15.381239 101.464966
42.460724 9.916239 15.638969
44.752724 10.572239 15.92997
48.647724 22.89824 23.35096
47.523724 24.538239 23.565971
34.69272 7.11924 112.31597
34.349724 8.659241 110.94197
22.631721 12.901241 112.74797
21.627724 14.14024 110.60497
65.099724 24.834238 12.960968
63.150723 24.88724 14.434967
54.661724 14.944239 14.815971
53.228725 15.687239 13.8109665
17.49572 30.840239 66.42497
18.616722 30.525238 68.08497
28.793724 24.57824 64.46797
30.183723 23.03324 65.99397
20.914719 9.342239 6.217972
20.042725 8.067238 4.906967
11.313721 1.6542397 15.658958
13.45472 0.124240875 16.033958
79.02173 10.186241 22.786964
77.861725 12.004238 22.769966
81.32873 14.5452385 36.299965
80.74373 16.629238 38.10296
11.987724 10.076239 16.196968
10.091721 10.488238 15.030968
87.248726 19.893238 17.202965
1.10672 21.643238 17.53997
23.901718 11.338238 57.20897
23.963722 10.895241 55.07097
29.724724 16.69524 48.89597
27.026718 16.75624 49.22897
6.524727 30.247238 73.464966
6.678726 29.055239 75.769966
7.55072 34.019238 83.99597
5.7687225 32.23824 84.44797
66.69772 15.503239 50.037968
66.46973 15.64724 52.294968
61.866722 11.89024 61.474968
59.928722 12.912239 60.003967
21.345718 30.654238 111.72897
21.614723 28.705238 112.65697
16.340721 15.559238 109.46097
18.283722 14.516238 108.56497
59.086723 4.0552406 5.516968
57.065723 5.235241 5.0349655
59.586723 7.086239 18.718971
61.450726 8.121239 18.727959
23.350723 4.365238 44.752968
24.32972 6.162239 45.43197
16.291725 14.471241 41.76597
14.63372 15.422241 42.57397
86.43472 22.702238 34.338966
0.5327225 22.407238 32.51496
78.29472 30.403238 34.26197
75.736725 30.53724 33.31797
57.628723 8.8402405 39.92297
59.479725 7.82024 40.06797
64.10472 15.621239 48.81597
62.553722 16.44424 49.18997
15.0937195 31.056238 48.65197
13.57972 33.00924 48.15197
1.9097214 33.44424 51.56097
1.9537201 35.36524 52.23597
48.43872 39.644238 110.06897
47.124718 38.93824 111.18897
33.014725 43.55724 109.20097
32.685722 43.88624 111.07097
81.167725 40.15224 82.979965
79.542725 41.241238 81.536964
74.57472 3.8452377 75.28997
72.64773 5.148239 75.911964
83.73972 43.393238 74.881966
85.029724 42.95524 73.31997
81.89472 41.16224 80.01097
80.39673 39.90424 79.269966
8.976723 23.528238 102.313965
9.909721 24.659239 104.38197
18.379723 30.945238 111.92797
19.115723 32.18424 113.16297
80.305725 31.487238 98.94797
79.097725 30.610239 100.95497
72.31673 38.457237 108.95397
71.30173 36.55924 109.46497
24.78672 44.421238 6.4079666
25.88572 0.108242035 5.9579697
27.379723 40.76524 15.505959
26.525719 42.57624 17.118965
58.264725 35.26524 112.93197
58.843723 33.25424 111.09297
47.926723 27.258238 107.11497
45.681725 26.230238 107.21597
79.512726 13.482239 103.89997
80.597725 13.18124 101.522964
2.6857224 4.922241 106.74197
2.571724 7.0192375 108.20497
62.105724 42.93124 40.783966
64.01872 43.14024 41.643967
64.71873 40.22524 29.94796
64.22672 37.97524 30.159966
53.407726 12.260239 109.14897
52.623726 11.901241 111.38197
43.372723 6.3642387 4.38797
42.300724 7.0072403 2.4649658
30.852722 33.73224 91.314964
31.92672 35.41324 92.939964
26.429718 27.705238 99.46797
26.878723 27.875238 101.605965
32.64572 4.27124 23.043968
32.23472 3.553238 24.793968
32.77072 8.704239 35.558968
33.08972 10.638241 34.44796
0.9647217 35.60024 27.62696
86.555725 35.96824 28.239967
78.180725 32.34924 22.796959
79.748726 30.595238 22.200966
30.266724 40.39824 61.36597
32.071724 38.81524 61.43697
34.38572 0.81324005 55.24097
34.320724 2.0782394 53.59597
42.94072 27.785238 44.69297
41.05172 27.30424 45.81197
35.084724 34.35024 56.35497
37.12072 33.45524 58.24497
40.684723 14.496239 62.63097
40.539722 12.19524 63.33997
46.083725 9.184238 53.33497
48.191723 9.135239 53.33797
60.131725 25.921238 2.5239716
61.088722 27.249239 4.141968
63.204723 21.517239 0.07296753
63.148724 23.20324 111.18697
65.53372 10.00024 82.69697
64.541725 10.948238 84.76197
62.352722 18.290241 94.26197
63.534725 16.52024 95.28797
77.96773 43.66324 51.68497
79.44972 44.68724 53.27897
79.64372 42.92324 66.45997
78.41473 42.18924 68.03297
81.76672 14.537239 98.256966
82.498726 14.3942375 96.08797
5.413727 8.89624 103.271965
5.2027206 11.405239 103.58797
48.046722 3.546238 52.044968
50.134724 3.058239 53.32797
51.595726 7.388241 65.89797
50.114723 7.66024 66.951965
16.64672 38.85724 29.219963
17.017723 40.16124 26.787971
10.822723 44.32324 19.268959
12.552727 45.012238 18.478966
11.428726 25.794239 40.30397
13.322723 27.080238 38.38597
14.121727 26.767239 44.16697
13.450722 28.553238 43.05697
27.900719 41.082237 49.648968
28.864723 42.317238 48.00797
20.775719 45.62524 37.73597
21.645721 44.48524 35.56497
62.502724 5.2432404 64.65397
61.986725 6.046238 62.59597
74.779724 4.891239 57.134968
74.80373 2.650238 58.55597
29.336723 3.0152397 46.210968
27.433723 3.4812393 48.051968
26.30072 45.30624 56.62597
25.684723 45.53724 58.70697
46.226723 44.37124 92.82097
45.78772 41.99524 92.15597
34.74372 43.89724 95.56097
33.74572 45.51724 96.73297
28.07872 24.455238 19.605965
29.280724 24.74524 21.436958
30.198723 37.311237 17.841972
30.85672 39.46424 18.224968
21.573723 21.050238 1.1219711
21.589722 20.878239 3.3959656
16.752724 13.151238 11.893967
17.442719 11.269238 10.849968
54.553726 5.7432404 38.07397
55.446724 6.808239 40.70997
56.740723 1.94524 52.83397
58.729725 0.85123825 53.81397
45.785725 22.473238 65.617966
47.201725 21.40524 66.41097
57.428722 24.399239 73.79697
59.354725 23.521238 73.46297
71.00472 27.83224 102.492966
71.48173 29.36624 103.95297
77.65772 39.77924 108.69797
78.446724 40.63124 107.08697
21.59172 0.83823776 72.29697
23.63472 0.13824081 72.673965
19.39672 41.39724 83.71197
19.145721 42.50224 85.49697
27.650719 20.624239 86.050964
28.320724 22.380238 84.96097
31.23272 33.86824 80.82297
29.81472 34.04824 78.87097
65.06673 22.459238 19.701958
65.24773 19.872238 19.696968
58.303722 10.405238 20.78196
60.455723 10.756239 19.823967
85.26772 19.274239 20.78997
87.33872 17.76224 20.839958
9.18972 24.14824 19.563957
9.43972 25.202238 21.149971
55.466724 32.79324 46.196968
56.956722 33.57824 45.41097
57.075726 33.83624 58.55797
54.609726 33.22624 58.97797
12.552727 24.197239 55.974968
13.182724 26.511238 56.83997
20.282722 29.867239 57.808968
18.443718 28.494238 58.718967
31.154724 7.52124 41.63497
31.921722 9.832241 41.68997
35.961723 16.795238 42.58297
37.866722 17.357239 43.53697
81.374725 44.37524 46.95497
81.65872 42.41924 48.49397
2.3307266 45.88924 40.56397
0.8777237 1.5742378 40.13997
41.457726 42.859238 31.905968
42.981724 41.03024 31.699959
37.649723 36.03524 27.124962
37.040726 33.62924 27.704964
51.007725 28.538239 99.93197
50.215725 29.299238 101.81997
63.164722 34.817238 99.53097
63.054726 32.873238 97.95997
67.027725 24.743238 86.77697
67.52373 23.19324 87.76497
70.223724 13.502238 92.18297
72.39472 12.070238 93.465965
77.92673 11.287238 4.2139664
76.68472 10.046239 5.7709656
74.222725 22.855238 10.010971
76.36973 24.122238 9.924965
61.471725 39.803238 98.56797
61.471725 39.89024 96.439964
66.08872 8.245239 94.896965
64.793724 9.94524 96.77897
25.462723 23.381239 32.16996
24.93872 21.024239 32.637962
37.541725 17.852238 39.00097
38.185722 18.142239 41.002968
52.134724 41.08524 11.465965
51.840725 42.16124 8.964966
43.585724 1.440239 5.65197
41.139725 1.7182388 6.4739685
11.636726 28.95024 38.57597
11.846725 28.343239 40.62697
87.26972 29.044239 40.06097
85.95473 30.902239 39.61197
79.957726 7.567238 21.731972
80.30173 7.4552383 23.96096
1.0847244 43.769238 27.838966
2.319725 44.79224 26.24096
63.071724 45.498238 4.3769684
64.25572 44.68324 5.689972
70.124725 33.98824 0.07396698
71.21172 35.57924 112.68597
63.168724 27.324238 62.92097
64.36772 29.220238 63.08397
57.648724 37.71524 66.95397
58.123722 37.57324 64.936966
54.540726 40.62924 42.18797
55.427723 38.685238 42.40997
63.540726 42.42724 53.01897
63.184723 44.51124 52.99297
54.481724 39.30124 13.076965
54.654724 40.73824 11.635971
50.537724 5.82024 17.874962
51.950726 6.0952377 19.745964
77.887726 31.049238 67.95697
77.71272 33.06924 66.603966
70.071724 37.02924 56.16097
71.279724 36.005238 54.97397
57.129723 26.039238 102.85897
58.072723 25.969238 104.97597
58.804726 12.636239 108.66097
56.372723 13.208239 108.48597
77.55373 11.586239 93.13997
77.82973 12.167238 91.215965
75.679726 23.830238 83.74097
76.27273 23.763239 81.089966
38.168724 9.180241 109.44197
39.865723 7.6202393 109.06197
49.413723 11.693241 106.40797
48.503723 12.95924 108.62597
27.445724 7.2552376 99.55597
26.207718 5.4322395 98.97397
23.16272 3.9892387 87.519966
22.501724 2.0282402 87.02697
16.838722 18.864239 76.85097
15.866722 16.82824 77.80497
20.901718 7.664238 69.42797
19.70272 6.3992386 67.701965
11.677727 28.79024 27.959969
9.503723 28.952238 26.778969
4.4097214 43.338238 28.424965
3.045723 41.79224 28.974968
48.882725 31.928238 41.99397
48.610725 32.282238 43.76097
52.338726 28.399239 55.51897
51.577724 29.34624 57.85497
31.310722 42.026237 84.909966
31.490723 44.18324 86.33497
22.666725 4.9152412 83.85097
23.863724 5.9062386 85.55297
59.098724 41.067238 42.70797
59.348724 42.50324 40.645966
69.04972 37.400238 33.02897
71.01073 38.08024 32.525963
39.448723 15.968239 39.16397
40.391724 16.361238 41.45097
52.633724 19.848238 49.78697
54.087723 17.639238 49.49197
46.91272 18.41224 58.82597
44.543724 19.610239 58.399967
38.66372 20.261238 55.49897
36.835724 21.54024 55.989967
84.28072 0.46623993 12.631966
84.360725 2.8432388 12.792969
73.582726 3.037239 7.703972
73.59173 4.4842377 10.092972
68.10172 17.31824 53.55997
66.27373 18.906239 53.696968
72.665726 29.61324 51.29097
71.60873 30.45724 49.67297
44.544724 6.1352386 50.11797
42.492725 7.9512405 51.092968
47.155724 13.789238 62.343967
45.761723 15.152241 63.17397
70.182724 32.55824 18.644966
70.31072 34.64924 18.549965
69.23972 0.04624176 16.635963
68.541725 1.9992409 16.770958
2.1197205 13.673239 2.6559677
0.6087265 14.333239 1.3919678
77.07372 23.80424 0.5139694
75.87073 23.83924 2.5769653
65.44073 17.71724 60.61597
67.446724 17.190239 61.06097
73.51772 14.156239 69.28197
73.21472 12.272239 70.395966
44.751724 42.400238 85.62397
43.440723 43.650238 84.47097
41.358723 6.065239 82.39897
40.223724 5.414238 80.38497
55.885723 3.34124 77.01397
57.316723 2.1842384 75.382965
62.756725 39.95124 78.65097
62.764725 39.518238 80.73797
20.937721 40.35124 27.678963
19.38572 39.26324 28.30996
17.988724 38.44624 15.448967
16.13272 38.37924 15.846962
52.323723 28.13424 91.674965
51.345726 28.75924 89.78097
49.509724 22.654238 78.686966
49.131725 24.39424 77.269966
70.80972 28.045238 97.244965
72.92873 26.72424 97.47397
77.78873 15.225239 101.924965
77.124725 16.178238 103.89997
19.498718 22.895239 82.71397
21.386719 23.95724 82.90097
19.254723 19.962238 95.99197
20.477722 17.926239 95.91297
86.06272 36.50124 25.52697
85.432724 35.82324 23.671959
84.78773 34.98224 11.80397
84.25973 37.41724 11.122971
24.139725 15.757238 96.86297
25.98272 13.747239 96.32297
30.014725 26.028238 101.04397
28.965721 26.917238 103.089966
22.49672 13.672238 58.66697
24.186722 14.103239 57.50197
32.91072 12.404239 60.31697
33.20072 12.084239 62.46597
67.748726 0.56124115 67.33697
68.610725 44.72824 66.68297
76.28973 38.102238 71.57297
78.48273 37.707237 72.47297
62.500725 7.1282387 25.329964
60.850723 8.753239 25.01197
63.268723 12.92524 15.338966
63.432724 10.55024 16.28196
36.403725 1.9792404 47.39097
39.143723 2.4292412 47.835968
46.755726 0.9582405 37.03197
47.929726 45.39724 37.39797
62.417725 21.06124 69.66397
63.838722 19.399239 69.39097
72.45573 28.562239 64.70597
74.49072 28.129238 64.38397
3.1817245 44.109238 55.33397
1.868721 41.97524 55.155968
79.09173 3.0662384 60.18797
78.99673 2.6792412 62.59197
46.490723 41.23124 51.29397
44.777725 40.70124 50.48397
48.390724 42.922237 37.48997
47.777725 40.32224 37.35697
84.599724 0.56723785 68.67897
86.52072 0.12023926 68.71297
8.2307205 45.98724 72.521965
7.996727 0.5602379 75.15197
61.118725 30.972239 0.9649658
61.601723 31.565239 112.44197
74.17673 26.386238 1.7219696
75.57873 28.209238 0.92697144
38.75672 3.5482407 50.877968
36.948723 3.1672401 49.70697
42.37172 2.714241 39.33697
40.42272 3.3872375 38.35997
14.309723 13.107239 35.50397
14.405724 12.510239 37.67797
6.8607254 3.1492386 42.40097
5.6107254 2.846241 44.54097
46.019726 24.959238 76.37397
47.658726 24.202238 75.10997
42.971725 32.23624 65.23897
43.641724 32.91224 62.99097
2.5067215 14.887238 110.00097
3.2307205 15.443241 112.04497
16.794724 14.220238 111.80597
17.776718 12.75024 110.57797
31.766724 29.013239 93.72097
30.78672 31.618238 93.19697
16.82772 28.493238 91.133965
15.924721 29.16524 92.69897
74.88172 35.84724 16.76696
76.140724 37.10824 16.840965
81.16073 26.301239 12.712967
82.71673 26.015238 14.574966
65.166725 21.689238 92.23297
64.46873 20.081238 94.06697
73.776726 12.145239 95.64897
74.42272 9.982239 96.450966
50.155724 34.86824 31.984962
51.366726 34.80924 34.01696
58.792725 38.894238 26.162971
57.515724 39.179237 24.351967
24.527718 3.6722412 100.658966
25.247719 2.1122398 100.68497
20.642723 7.763241 90.063965
21.570724 8.67524 88.242966
29.376724 1.3512383 23.522972
28.78772 1.6672401 25.695961
33.934723 39.643238 35.594963
35.64572 39.66324 34.12397
31.116722 45.65524 109.13797
31.10672 44.80924 107.49697
18.959724 37.352238 109.68997
18.06572 39.52924 108.98397
16.42672 21.748238 77.01897
14.706726 20.87724 76.716965
13.81472 21.244238 83.66297
15.67572 20.819239 82.339966
48.931725 33.66224 50.95097
46.718723 32.838238 51.44997
41.209724 22.06824 56.10897
41.402725 21.188238 58.17297
9.378723 13.118238 97.131966
10.424721 11.631239 96.32097
12.818726 18.765238 84.33697
13.813721 16.94324 83.02497
82.666725 42.477238 91.47097
83.62872 41.06924 89.81897
87.18672 30.590239 83.60897
84.97572 30.13024 82.99597
14.825722 33.51324 90.547966
16.917725 33.422237 88.797966
17.963722 39.26624 88.05897
19.761719 40.21024 86.646965
11.405724 16.89124 102.36397
12.117722 15.525239 104.53797
3.8987198 18.169239 112.99797
3.7757263 20.462238 112.39397
78.22672 26.136238 48.64297
76.194725 25.74824 47.60797
82.24673 21.87724 36.66197
83.90572 20.814238 37.42397
46.696724 21.590239 77.51397
46.834724 21.663239 75.09997
49.540726 10.859239 67.44297
48.960724 10.095239 68.95897
51.111725 42.19524 17.984962
49.232723 43.67524 18.699959
48.778725 37.23024 31.630959
49.764725 39.533237 32.129967
3.0987244 42.150238 71.66797
5.4057236 41.27924 71.27197
3.4497223 33.61324 83.80697
3.8847198 32.36524 82.30997
74.015724 38.68424 16.086967
74.26972 39.32024 14.036972
72.73173 26.360239 8.625969
72.376724 24.687239 10.02597
26.73072 41.012238 88.37397
28.74472 41.17724 86.22697
27.170723 0.32024002 73.784966
27.570724 44.47624 72.51697
40.180725 35.60824 68.07497
39.60572 33.66624 66.72597
34.84572 28.500238 76.37497
34.73272 30.850239 76.47697
14.352722 34.16324 11.898972
13.589722 35.61024 10.649971
18.668724 36.45124 112.77597
19.778725 37.970238 1.0639648
67.58972 3.2152405 21.21096
67.77473 2.1252403 23.553963
69.78072 39.59924 30.57296
69.278725 37.45524 29.002968
41.491722 42.60824 85.923965
41.94072 41.068237 83.549965
31.942719 43.51524 75.08697
30.75972 41.602238 75.21897
78.845726 7.31324 64.74497
78.69173 8.506241 66.29597
82.43372 15.470238 75.493965
82.720726 14.267239 77.47797
5.637726 46.026237 99.51397
6.7757263 45.311237 101.271965
19.00772 41.71224 107.76797
20.400719 41.713238 106.48197
15.986725 19.14824 68.10897
15.524727 17.799238 69.77697
26.723724 23.65824 74.47497
27.570724 25.649239 75.02497
40.281723 26.99124 110.79897
39.194725 26.73824 109.18597
34.34372 17.40124 3.5579681
32.89572 16.650238 5.1059723
48.292725 28.09924 89.71997
45.654724 28.34624 89.90197
37.701725 19.355238 89.769966
37.298725 21.777239 88.937965
45.426723 21.564238 107.40297
46.887726 20.423239 106.29997
45.175724 11.863238 95.44597
46.241726 12.475239 93.39097
69.929726 8.238239 38.94897
68.72672 9.003239 40.77997
74.443726 9.026241 50.412968
76.373726 10.332241 50.77497
25.41372 27.704239 40.864967
25.88472 28.838238 39.29197
17.03872 39.526237 36.35096
16.947723 41.79424 35.80497
39.412724 26.65824 95.314964
40.251724 28.20324 93.91397
48.695724 39.63324 93.547966
48.795723 40.70124 95.533966
54.041725 39.825237 19.91697
53.633724 40.65224 22.382957
57.507725 42.10624 30.83097
59.408726 42.05624 31.546959
17.865723 43.57324 58.30597
20.42672 45.05624 58.148968
24.307724 6.50124 49.24797
22.867722 6.64624 47.57497
32.25772 1.2692375 106.26297
32.79972 0.08824158 104.28197
40.919724 44.22224 99.24597
42.97872 43.92624 98.97597
74.18372 7.942238 2.12397
72.81373 10.07724 1.7259674
67.720726 11.70224 106.29197
65.96172 13.64024 107.21897
1.1717224 40.94624 69.62497
0.8097229 38.98624 68.17197
5.4037247 36.32924 63.669968
6.7187195 35.25724 62.357967
38.18972 18.830238 27.611961
38.02472 21.10324 27.521965
37.657722 30.327238 37.44297
35.95672 31.658237 35.89097
32.37172 23.329239 64.07797
32.27072 24.080238 62.22197
28.128723 19.735239 50.29897
26.127724 18.642239 50.97097
39.93872 45.58324 19.984962
39.22972 44.93724 17.746971
34.878723 36.37924 26.25396
35.09572 33.94624 25.86596
11.533722 27.992239 25.190971
12.185722 26.43624 24.45797
22.459724 24.312239 24.76397
22.872719 23.813238 27.021965
60.048725 33.22524 57.335968
61.048725 32.25024 55.61897
66.72872 36.50024 43.578968
65.277725 35.72624 42.35797
39.842724 23.838238 43.30997
41.834724 22.889238 44.66297
49.191723 17.014238 53.47297
49.888725 15.297238 51.63697
41.293724 30.170238 11.312965
41.588722 28.294239 12.640968
31.115723 20.503239 12.955971
31.500725 18.271238 13.524971
45.264725 24.754238 10.822968
43.32572 25.41824 11.244972
36.018723 15.767239 16.77697
34.27672 14.308239 15.964958
40.696724 13.830238 97.09597
39.625725 16.23824 97.32897
29.846718 19.841238 89.07297
27.694725 19.973238 88.76897
20.228722 5.0192375 40.93097
21.937721 6.69524 40.02997
31.527718 12.464241 37.812965
31.654724 10.14024 38.61196
18.67572 18.10624 34.12496
19.033722 17.493238 31.308968
10.486725 26.03324 26.704964
8.45372 26.587238 27.068962
29.486725 8.607239 75.93397
30.263718 7.79924 74.13897
38.193718 4.4272385 81.94397
38.559723 2.8882408 83.409966
22.417725 12.787239 27.446968
24.664719 11.204239 27.72596
21.306725 0.6022377 27.521965
19.902718 0.50624084 29.231972
77.610725 16.87624 70.12497
77.85172 14.49324 70.61897
1.1147232 12.155239 62.634968
2.5367203 11.971241 60.47097
35.92772 29.383238 64.534966
35.917725 30.756239 66.33797
41.17272 17.345238 67.66097
40.448723 16.785238 65.70697
73.96773 41.84724 12.634972
73.56272 40.79424 10.130966
70.83672 37.671238 1.8929672
71.72572 38.15224 113.06997
38.722725 30.634237 75.89097
36.952724 30.841238 78.10697
47.167725 35.11324 82.91397
49.328724 35.71524 82.36497
34.537724 34.27824 93.92997
34.993725 31.972239 93.55697
47.429726 33.81624 87.81097
47.929726 36.17424 87.21097
21.55272 8.48024 59.74097
21.25972 9.629238 61.79597
8.029724 12.018238 57.55697
7.896721 13.037239 55.51597
26.255722 2.5192375 71.951965
25.872719 0.2762413 71.354965
19.503723 0.28623962 60.56097
18.728722 1.2132378 61.919968
75.347725 16.861238 68.728966
73.487724 16.75224 68.08397
70.31272 17.052238 55.65897
68.60172 16.789238 56.09897
17.909721 39.02724 77.99897
16.82972 40.21524 79.07297
18.407722 28.66224 86.51297
19.965721 26.765238 85.81997
50.014725 8.38324 18.456963
52.069725 8.614239 18.689964
45.785725 17.093239 25.606972
46.323723 17.74324 27.91697
81.25472 39.82624 111.97497
83.03573 41.275238 112.94197
75.98972 7.79224 4.5139694
75.623726 6.2982407 6.035965
58.187725 32.97424 8.997971
57.466724 32.91124 6.9659653
60.375725 0.10324097 4.305969
59.877724 2.0052376 3.6369705
36.885723 34.901237 66.14897
36.547726 36.22124 64.24097
46.315723 38.47624 61.06797
46.234726 38.91624 63.239967
40.934723 11.176239 97.57997
42.590725 10.9392395 95.30797
39.441723 5.317238 84.32097
38.787724 7.18124 83.45697
23.041725 26.19624 19.941963
24.902718 27.671238 20.77996
28.641724 36.54924 12.828972
29.49472 38.560238 14.278969
16.113724 36.08324 29.546959
15.944725 35.06324 31.573967
29.682724 33.87924 35.558968
29.211723 33.665237 37.700966
60.178722 45.01024 52.71897
59.150723 43.45824 54.481968
51.756725 34.832237 57.00897
51.731724 37.19124 57.50697
28.140724 26.605238 79.61497
30.575722 26.350239 79.19397
31.503723 35.15324 87.40597
29.333725 34.81924 85.94697
75.30972 24.117239 68.61497
74.07472 21.965239 67.51797
74.77173 17.829239 54.02697
75.43973 19.26624 52.79897
82.751724 8.26424 22.208961
84.47672 8.00824 21.538963
2.4737244 16.365238 28.495964
3.295723 16.144238 30.821968
67.764725 8.312239 102.82497
66.679726 10.171239 103.049965
74.43873 22.257238 106.04597
72.71172 23.013239 106.48597
54.476723 43.575237 96.15597
55.632725 45.52024 96.10697
55.413723 7.074238 85.34397
52.918724 7.79924 84.83397
78.805725 35.450237 67.79397
80.99573 35.56424 66.06997
81.124725 39.11824 51.73297
81.88172 40.96724 50.69797
44.816723 44.84124 111.96297
44.457726 1.4352379 111.93097
47.293724 3.6002388 99.05197
49.296726 2.9182396 97.78097
68.986725 28.786238 2.7139664
68.762726 31.050238 3.4669724
61.963722 25.954239 6.1839676
59.780724 24.79724 6.172966
30.791725 42.52924 50.18797
29.48072 44.65224 49.86497
22.81472 6.1302376 57.892967
23.04972 6.4112396 60.33797
67.651726 24.706238 22.262962
66.03773 24.837238 20.884972
53.921726 23.489239 26.867958
55.610725 24.261238 28.119972
2.0297241 31.271238 84.29297
2.6457214 29.187239 83.73297
15.076721 30.903238 90.81597
13.861725 31.753239 92.38597
39.783726 10.087238 15.368965
38.651726 8.586239 14.0989685
42.676723 43.936237 7.819969
44.762726 45.07324 6.6349716
16.50872 26.715239 86.300964
15.16172 25.25224 86.63497
15.099724 29.37024 73.58497
12.936722 29.426239 72.82297
12.466721 42.07724 18.08097
14.0067215 43.44724 19.94796
23.917725 42.52424 17.453972
24.655724 40.57224 15.769966
7.5137253 37.34924 89.08797
8.188721 37.33524 91.10697
10.05072 0.08024216 96.646965
8.3557205 1.1842384 94.825966
25.48272 2.3702393 74.93497
23.80272 3.0732384 73.46897
18.943718 3.1632385 85.64397
17.944725 0.7742386 86.69297
60.180725 45.44524 55.81197
60.584724 1.6312408 56.01297
72.81473 41.033237 54.058968
71.99272 39.09624 55.238968
85.94173 38.200237 30.081963
84.23373 39.86524 30.861961
5.1737213 0.8502388 34.715965
5.6367264 2.4602394 36.525963
49.426723 39.56224 68.36597
48.048725 41.89924 68.40297
39.227726 45.47124 71.86897
37.425724 45.276237 70.03597
67.317726 22.159239 33.979958
68.596725 20.308239 34.202965
67.27573 11.317239 26.752968
65.637726 10.217238 27.673958
73.486725 32.12524 52.67797
72.80373 30.513239 54.18997
75.151726 39.92424 57.010967
76.94972 40.77024 55.95597
46.140724 17.032238 90.256966
44.617725 17.183239 91.439964
47.035725 26.810238 100.881966
48.728725 26.834238 99.57097
12.8587265 38.62224 112.35397
11.672722 40.87624 112.89397
16.752724 37.26324 13.325966
14.712723 37.03624 12.794968
6.545723 41.324238 63.14797
6.361725 39.18324 62.48697
15.002724 31.262238 67.92197
15.110725 31.756239 70.048965
42.624725 22.143238 76.89897
44.287724 20.81124 75.96097
49.576725 19.210238 79.228966
51.798725 19.44324 80.13797
86.99773 20.577238 87.547966
85.12273 20.46724 86.48397
81.099724 18.709238 79.08697
81.90872 17.164238 77.82997
8.50972 10.988239 11.826965
6.4667206 10.948238 11.169968
84.42573 16.66024 20.063957
83.53372 17.810238 18.66497
21.75872 23.177238 34.992958
22.32972 24.62024 33.54496
15.738724 37.033237 36.926964
16.003723 37.04924 34.24096
62.795723 10.408241 106.72297
60.488724 9.874241 107.25997
51.328724 6.6282387 103.01497
50.412724 8.099239 100.96197
35.752724 31.356237 59.45797
34.457718 29.838238 58.69997
28.604721 35.52424 47.54797
30.151718 35.10424 46.09797
69.430725 5.2902412 14.626968
70.05972 6.7652397 16.691963
77.180725 5.6682396 26.35897
78.151726 7.400238 26.035957
6.37072 37.811237 13.405968
7.354721 35.39924 13.630966
1.8867264 34.553238 25.058968
0.40472412 33.08724 25.928963
78.874725 21.868238 52.43097
79.944725 24.152239 51.21597
86.89773 12.663239 48.10797
85.460724 11.613238 46.78997
10.420723 15.748238 72.89397
10.107727 13.442238 72.58797
8.274727 6.608238 85.26097
8.1317215 9.051239 85.48797
49.498726 37.96824 58.696968
49.154724 38.94524 57.12397
35.458725 36.13124 58.78497
33.969723 36.526237 59.870968
32.15072 27.069239 75.60197
31.253723 28.580238 76.74997
27.753723 35.34224 83.19697
28.27172 37.08624 84.05397
5.8017197 44.435238 12.684967
7.172722 42.87424 11.966972
11.001724 43.46924 113.11797
10.767723 45.23924 112.05997
21.380722 13.971239 56.031967
23.210724 15.820239 55.33697
25.21672 27.337238 49.071968
23.339722 28.218239 48.54197
85.901726 32.88624 49.51397
83.43372 33.22924 50.03597
83.540726 27.500238 39.62697
84.083725 29.618238 38.25697
24.298721 0.19824219 28.255959
23.27372 44.97224 26.907967
22.595718 32.39724 24.87397
23.853722 31.03024 23.54496
52.934723 22.60324 52.995968
51.135723 20.776237 53.169968
44.506725 23.77324 42.27997
43.982723 21.85624 43.25097
85.29472 36.11224 112.38497
83.222725 35.48724 0.19596863
1.0147247 31.887238 12.918968
85.973724 31.981237 12.593971
79.904724 5.43124 62.196968
80.39973 5.325241 59.76997
3.991722 11.12524 54.68697
2.7597198 10.781239 52.86997
1.7377243 31.547237 79.91497
1.1137238 33.17424 78.63497
79.82272 39.34424 86.82997
79.887726 38.04124 88.65097
1.4547195 1.6092377 25.48597
0.8207245 1.1492386 27.695961
77.21472 1.1652412 34.674965
75.85472 2.2762413 33.51197
43.055725 44.193237 72.20897
41.865723 45.78124 71.63597
47.138725 8.794239 67.59997
45.576725 10.881241 67.881966
2.0877228 15.465239 56.27697
87.48872 16.167238 56.94497
1.194725 26.059238 65.28297
0.9057236 25.97124 67.519966
15.973724 44.07724 37.063957
14.769722 44.64124 38.69796
8.14772 7.117241 30.451958
6.9667206 8.504238 31.060966
54.015724 39.13224 111.57497
54.400723 40.21824 0.6629715
49.443726 43.38224 106.12897
48.821724 43.533237 108.00797
43.378723 9.852238 48.91797
43.047726 10.093239 46.45597
48.794724 17.664238 40.05997
50.676723 18.64124 39.54497
36.126724 9.26424 63.690968
37.587723 9.02824 65.39697
46.559723 10.408241 70.60297
48.197723 10.73724 71.575966
4.7147217 41.95224 55.32097
4.404724 40.66024 57.14497
17.153725 36.25924 60.21597
18.50872 37.36524 59.544968
12.103722 25.25224 48.78397
12.32972 23.614239 50.48097
24.25872 24.795238 44.26197
24.194725 26.513239 45.86497
61.783726 19.51624 64.98397
59.210724 19.253239 65.39797
47.022724 17.088238 61.81197
46.482723 18.360239 63.49397
26.960724 22.955238 82.47297
24.793724 22.566238 82.94797
28.477722 12.737239 75.75097
27.255722 10.4792385 75.34397
59.927723 38.09024 95.201965
59.960724 36.568237 96.575966
64.75973 25.84924 88.63697
66.75572 25.35924 89.631966
61.043724 18.188238 46.46497
62.224724 16.125238 45.82797
73.21873 19.011238 38.25897
73.53372 16.84624 39.18897
63.344723 24.098238 7.8389664
61.459724 23.32824 9.239967
73.49773 22.52324 14.557968
75.206726 21.506239 12.465965
52.169724 19.725239 37.523964
50.371723 20.989239 38.239967
42.006725 19.760239 26.339958
43.629723 19.668238 24.653969
6.7897263 24.673239 90.85997
4.965721 23.94324 90.83197
81.91073 31.026237 84.536964
80.32672 32.30524 85.90197
55.846725 18.62024 32.79197
57.324722 17.639238 34.90197
65.762726 18.079239 22.244972
66.22572 20.184238 22.200966
87.38072 28.17924 45.50097
0.493721 27.35324 47.49897
85.62073 26.595238 41.03897
87.01772 26.358238 39.39297
54.948723 34.08724 7.4099655
54.802723 34.10024 9.792969
47.310722 21.983238 11.211967
49.212723 19.876238 11.19397
67.89372 22.018238 21.071968
68.487724 22.255238 23.349968
71.845726 14.689239 19.518959
72.57472 13.937239 21.701958
14.337723 27.874239 58.982967
16.724724 26.78024 59.385967
8.379723 26.608238 68.979965
7.913727 25.81124 70.73097
74.653725 13.241238 54.27597
73.06673 14.516239 54.34197
62.607723 6.516239 59.745968
61.067722 5.346241 59.04097
80.27072 44.64124 109.44797
79.59173 0.51223755 109.14197
69.29972 2.29924 6.5429688
70.96572 0.7652397 7.828972
48.932724 22.479239 20.706963
