24.845009 11.631279 0.12967682
24.27501 9.328281 0.45367432
14.605011 14.551281 4.9196777
16.596008 15.679279 4.7726746
40.89701 24.150282 85.35768
41.658012 22.928282 87.16568
44.445007 29.191282 99.28868
43.31701 27.363281 100.24968
25.394005 28.570282 67.10967
25.64901 29.73228 68.81767
16.878014 27.734282 78.479675
18.832008 28.825281 79.550674
6.827011 6.9872823 107.00868
5.3470078 5.14428 107.81868
10.386009 1.4372787 9.071678
9.228012 0.19227982 10.550674
3.9750137 6.125279 105.67068
2.7240143 7.114281 107.16768
9.526009 12.84528 0.6536789
7.964012 10.93528 1.0506821
85.00801 29.516281 49.032677
83.36101 28.573282 49.954674
0.43601227 36.95528 59.95168
87.33001 38.096283 58.683674
75.36001 14.454281 47.249672
77.476006 13.229279 46.872673
83.86501 1.8922806 46.143684
86.03902 1.8392792 47.68168
32.79001 16.70428 21.676674
34.603004 17.36028 19.868675
41.068016 27.01228 18.474678
43.24501 28.74028 18.973679
13.888008 5.8482823 35.27468
12.131012 6.654282 35.870674
6.6860123 43.797283 38.09568
4.317009 43.366283 37.551674
38.277008 45.67128 63.07468
37.877007 45.82928 61.100674
38.200005 34.514282 62.593678
36.812004 32.756283 61.668674
38.069008 4.9302793 94.71268
36.62401 6.625279 93.38268
25.796005 46.36928 95.72368
25.393005 45.056282 93.90768
72.548004 45.47628 24.730675
74.434006 45.77428 23.800682
78.850006 47.05228 12.49968
81.045006 46.491283 11.97068
80.343 17.08128 47.381676
78.23401 18.17728 47.833687
78.58401 23.896278 37.581673
78.092 25.731277 35.58068
44.113007 20.51328 59.238674
44.03901 22.466282 58.36568
40.023018 31.615282 64.58667
40.462013 32.672283 62.64368
60.583008 28.156282 76.104675
59.946007 29.516281 74.84567
71.406006 35.05728 70.089676
72.97401 34.983284 71.82568
44.986008 38.229282 80.912674
43.73301 36.452282 80.10268
49.23201 40.03728 83.315674
49.395004 41.048283 85.70668
67.547005 13.59428 88.04068
67.76001 12.890278 90.42068
67.600006 4.663281 100.73568
68.451004 5.2772794 102.22968
57.607002 21.995277 71.43367
58.639008 23.79628 70.28967
69.161 24.564278 64.119675
68.16301 22.937279 63.016674
84.69001 22.49228 76.92268
82.155014 21.926285 76.157684
76.687004 8.849281 74.69267
77.24701 8.043282 76.80368
37.60701 47.10128 47.16668
37.52301 45.28228 46.19268
22.818008 47.48228 49.365685
22.80001 46.56028 47.099678
13.73201 37.56828 33.20568
12.588013 36.98428 31.512672
12.546013 0.049282074 28.093681
12.920013 1.6132812 26.805672
76.22401 19.216278 23.167686
77.33001 20.776283 22.719673
81.932014 11.936279 13.684677
82.12901 9.22028 14.277679
75.843 27.987278 88.11368
73.69401 27.959278 87.356674
77.462006 21.347282 99.10668
76.535 19.20528 100.00868
86.43101 35.367283 72.42767
86.98101 35.660282 70.65367
75.44101 28.185282 71.83368
73.80601 26.69428 71.24768
12.369011 13.25528 0.7896805
12.437012 14.3942795 3.153679
18.936012 21.770279 106.62468
18.19101 24.298279 107.09668
26.14901 7.4242826 71.83168
24.824005 7.774281 70.285675
13.421013 47.26728 68.73367
12.945007 47.21328 66.43468
65.51601 46.34828 96.63368
67.046005 0.46527863 96.90968
65.354004 11.87328 90.18168
65.91501 10.08828 88.32468
45.39801 34.034283 72.73767
46.38501 34.71228 74.63867
57.10901 41.395283 74.897675
56.56501 43.082283 72.509674
19.55101 44.047283 95.282684
19.125008 46.13328 95.62768
12.858009 7.37328 90.56668
12.114014 7.7522817 88.34868
25.559006 19.75428 77.63968
25.252007 19.896278 79.869675
33.658005 26.931278 88.79968
34.28501 26.884281 91.241684
84.25501 38.326283 45.292686
84.16101 35.437283 44.897682
1.3740082 27.11428 55.388676
3.305008 27.719282 56.04568
73.713005 30.19428 81.787674
74.450005 31.026281 83.53868
78.83101 42.722282 75.69667
78.144005 44.165283 77.64967
3.9200134 3.9502797 82.59868
5.638008 3.049282 83.851685
7.32901 9.621281 94.95868
9.067009 9.674278 94.17568
33.81701 47.08528 82.58568
34.515007 47.14928 84.95967
34.402008 2.572281 88.13368
34.42401 3.3472786 90.435684
61.121002 10.071278 9.991676
59.63801 12.0122795 9.397675
45.26201 10.896278 13.757675
43.416008 11.861279 13.101677
59.281006 7.314282 60.918674
60.741005 8.917282 61.678677
51.29001 20.942284 59.00768
49.311005 21.96428 59.346676
2.9630127 44.29428 14.218674
4.70401 43.69128 13.330673
15.053009 1.7772789 8.6996765
14.905014 3.8972821 9.851677
8.158012 34.46128 37.053673
8.556015 33.818283 39.39968
10.020012 26.251282 45.111687
8.078011 26.945282 44.146675
11.017014 41.957283 96.77768
11.965012 42.71028 98.04468
10.918015 37.86328 1.226677
10.507011 36.13428 2.4426804
45.515007 32.240284 20.406685
44.21901 31.396282 18.704674
46.22901 39.48028 7.516678
47.92401 41.271282 7.289673
17.590012 36.26728 34.932686
17.567009 37.12028 36.55567
23.31401 2.6682816 39.299675
25.130005 2.7402802 39.344673
4.2120132 37.056282 95.61768
2.652008 35.39928 96.28768
12.904007 27.995281 98.18368
11.907013 27.715282 95.95468
22.347008 30.04128 84.57768
21.604012 29.605282 86.76367
20.713005 38.52228 92.06967
19.534012 39.81428 94.31168
83.31601 41.61328 96.50168
83.08401 40.06628 98.10968
83.85501 36.00128 93.77168
85.74501 36.138283 95.46268
18.02201 44.694283 25.665672
18.113007 43.06528 24.172676
26.833008 2.9642792 16.886673
26.644005 3.1722794 14.460678
74.16301 8.9132805 74.01367
72.491005 10.216278 73.67767
75.37601 14.943279 59.834675
75.15101 13.772278 57.91068
10.457008 29.57628 105.29668
9.789009 28.49928 103.21968
1.9130096 22.15228 102.10668
3.8280106 22.089281 101.01768
58.198006 3.433281 20.000679
56.920006 5.2962804 20.236687
54.42501 17.821278 25.923683
52.67701 17.480278 27.51168
59.16501 6.647282 55.637676
59.980003 8.499279 55.25468
58.17701 20.93528 58.50468
59.52601 22.096283 57.679676
21.600006 29.40028 103.46168
23.240005 27.96128 102.37268
24.841011 13.75528 102.02468
24.502007 12.385281 103.64068
65.94501 6.1642804 102.96168
63.838005 7.3052793 103.51768
59.533005 42.797283 95.38268
57.326004 42.735283 95.53768
49.547005 29.780281 97.74768
51.00801 31.94428 97.70168
58.88801 28.198282 0.613678
57.989006 28.269281 3.038681
82.08601 9.794281 38.236687
80.476006 10.070278 39.695686
76.17701 1.3212814 39.336678
76.19 0.9742813 40.99668
26.935005 33.505283 56.82568
24.394012 34.73928 57.625675
29.973007 39.41528 55.43868
29.407005 37.04428 55.681675
59.571007 19.002281 76.69768
59.507004 17.28928 78.05267
46.819008 12.158279 75.26468
44.600006 12.735279 74.97868
52.18801 10.751278 84.42468
53.92901 9.242279 85.754684
66.56901 11.5382805 86.170685
67.34601 10.10228 84.91467
74.772 47.07128 65.95767
75.49901 47.555283 63.877674
78.98601 8.181282 73.576675
80.369 6.779282 74.63368
26.159004 35.317284 39.827675
25.66401 36.42028 37.977684
21.118011 0.87128067 44.72268
20.99501 2.5092812 42.967674
50.558006 15.453278 33.877678
51.353004 17.36028 33.256676
56.23301 19.44128 44.13868
56.654007 19.10828 46.24668
43.86001 45.67828 93.54568
44.41501 44.69728 94.94168
56.45501 40.51228 98.98368
56.084007 38.20628 99.62068
7.641014 38.25928 4.5586777
7.879013 39.59528 2.6196747
8.34301 2.0052795 105.99968
6.5000076 3.8392797 105.41068
63.571007 24.063282 27.181679
64.912 24.82228 29.267677
72.83501 34.67728 24.66668
73.421005 33.665283 22.447685
31.723007 38.42928 53.495678
32.51201 37.02328 54.807674
45.88701 35.99628 55.08868
46.685005 34.942284 56.78668
7.0070114 10.258278 58.697674
6.409012 9.458279 60.734676
11.45401 19.196278 69.56667
12.92701 18.23328 70.95567
44.972008 30.754282 102.73868
45.73501 32.360283 103.48468
58.148003 37.131283 106.09168
60.187004 36.83528 105.70568
23.158012 29.866282 26.954674
23.901009 30.497282 25.083687
30.307007 21.466282 26.146675
31.92501 19.816282 24.937675
43.36901 17.35728 94.85068
42.95201 16.74128 97.81168
35.458008 18.091278 107.12868
33.919006 16.515278 108.23868
16.193008 43.11928 0.89868164
16.131012 43.68328 2.8586807
11.081009 40.590282 2.5846786
9.741013 40.62928 4.542679
62.104004 14.239281 73.561676
60.333008 14.863277 75.01868
56.143005 22.232285 68.77467
56.39601 23.327278 66.94868
82.40801 32.19228 40.779686
80.29401 31.952278 41.441673
86.267006 18.506279 38.05268
84.57001 18.92828 36.44268
78.94701 23.151281 79.23967
79.268005 23.175282 81.77667
86.67501 33.199284 75.29167
0.34901428 32.32828 74.28168
67.26601 26.879282 55.24368
68.286 28.94428 55.724674
76.04301 32.922283 48.93267
76.147 32.409283 51.282677
10.681007 34.785282 74.80467
7.7900085 35.12728 74.80968
17.38301 33.74528 66.01868
17.437012 35.581284 67.26667
67.894005 38.319283 11.163673
66.89001 36.582283 13.23568
54.70301 36.99628 12.894676
52.739006 36.06128 11.534676
69.824005 11.99828 85.45468
70.65401 11.586281 83.26668
66.336006 12.183281 72.57268
64.711006 10.41428 73.81468
30.77201 19.04728 71.39067
32.153008 20.647278 71.71268
39.504005 24.424278 81.52867
41.398018 24.648285 82.74068
55.223007 29.563282 69.97067
54.65001 28.075281 68.522675
46.89801 30.643282 65.29467
48.93901 30.779282 66.52667
76.74701 20.715279 5.4006805
75.225006 22.32428 4.2936783
71.26301 28.452278 107.57268
69.59401 27.411278 108.40568
42.21501 44.58628 33.105675
44.06801 45.87728 31.953682
56.283005 43.56028 29.141685
57.195007 41.970284 29.106682
18.18901 12.492279 95.17268
16.256012 11.870277 95.84568
16.547012 13.007278 108.88668
15.078011 12.96328 1.4826813
51.80001 39.96628 45.831673
53.85401 39.312283 46.980675
55.58201 1.3962784 42.67968
53.91301 2.9222794 43.63868
19.763008 34.061283 67.98867
18.91101 32.05728 67.30968
12.553009 19.794281 73.30368
14.388008 18.034283 73.15468
52.96801 27.500278 1.0426788
54.23301 26.063278 1.7916794
52.69301 22.61428 97.96068
52.237007 21.554283 95.85568
43.27401 16.037281 77.117676
42.504005 15.56628 74.67868
27.88401 18.50528 76.52467
26.785011 17.070278 76.89368
2.7570114 32.588284 92.42468
3.1440125 33.03028 94.87968
86.62001 20.957281 101.30468
0.054008484 20.27728 100.78268
47.627007 41.818283 96.39468
48.36001 39.985283 97.43468
38.014008 33.10628 103.53968
35.726006 32.809284 104.12068
80.58201 3.7212796 39.461678
82.38801 5.163281 40.380684
85.09301 4.717282 27.629677
86.628006 5.1502805 25.686684
34.032005 16.17728 32.312675
32.20501 14.891281 33.19068
28.702011 3.4562798 31.189674
27.605011 1.8722801 29.996681
46.778008 44.56728 19.953682
45.961006 46.36528 20.128685
42.67801 0.874279 20.055672
40.78901 1.9282799 19.764687
46.754005 44.152283 49.688683
48.142006 45.153282 48.50068
56.35901 43.798283 59.862675
55.26201 41.51628 59.788677
27.126007 3.1412811 43.32168
25.629005 3.4322815 45.323677
27.351006 2.5502815 58.206676
25.480011 1.65728 58.941677
71.69 0.6332817 63.89368
69.481 0.37327957 62.82468
65.19101 6.076279 65.54367
65.41501 7.38728 67.69868
88.11801 28.99628 45.667686
1.780014 28.18728 46.41668
7.8980103 36.94728 38.148674
8.143013 38.73028 37.238686
52.45601 20.027279 44.49668
50.631004 19.395279 45.876686
38.406006 20.952278 45.923683
37.33201 21.733284 48.12168
13.747009 42.91828 96.18268
14.962013 42.839283 94.25968
12.236008 5.5272794 84.282684
11.415009 4.9422803 82.41968
7.859009 28.27028 58.626675
8.98101 26.252281 58.02068
11.392014 26.274282 59.586674
9.909012 28.153282 60.762676
68.19 42.602283 29.88668
68.90001 44.27928 27.981682
70.38501 10.83828 28.940681
71.175 10.124279 27.339684
59.379005 23.585281 87.21268
58.267006 25.35728 88.16568
61.404007 15.738277 92.26668
62.480003 13.766281 92.30768
37.059006 44.87628 82.42767
35.210007 45.313282 80.879684
27.674011 37.69828 72.96167
27.060005 39.985283 73.00168
53.847008 17.474277 96.29568
54.585007 15.401279 95.84168
63.579002 12.174278 104.95368
64.521 11.398281 107.01468
75.323006 31.356281 104.37068
72.67801 30.23228 103.76368
78.879005 36.56528 3.9206772
79.58401 34.25928 5.3556747
78.688 12.228279 16.987679
76.80301 11.619278 17.960678
82.60101 19.702278 13.306679
84.76701 18.881279 12.87368
15.521011 39.839283 63.586674
16.443008 38.61428 61.457676
15.200012 32.056282 50.99868
13.646011 32.01628 49.44268
9.084007 13.667278 22.920677
10.150009 12.995277 21.12368
5.004013 6.6592793 16.884674
3.5460129 5.3562818 17.759674
39.55301 5.278279 97.10968
38.531006 6.920281 96.22368
32.20401 7.4312825 108.53068
29.933006 7.3242803 107.84468
51.00801 7.668282 58.764675
49.65001 8.47728 56.70168
50.38701 21.192284 56.247677
51.045006 23.362282 55.68868
8.864014 14.149281 3.672676
7.5740128 14.871281 4.98468
84.22801 8.940281 1.5916748
82.63401 10.399281 2.462677
49.40001 41.875282 79.686676
49.144005 40.10728 80.53967
56.877007 42.658283 90.20268
58.201004 41.54428 91.73468
56.546005 35.563282 83.19968
54.306007 34.365284 83.629684
45.099007 41.117283 91.30968
44.86801 42.465282 92.37167
72.64901 17.26228 95.79668
71.592 15.176281 96.08168
62.866005 22.472282 102.49368
62.017006 24.038284 103.85768
25.977005 22.123283 8.08268
27.569008 21.971283 6.141678
19.417007 13.822281 1.1146774
19.470009 11.287281 0.89367676
78.57201 13.33028 2.7796783
78.283005 15.43428 3.7696762
65.45701 20.107285 107.79768
64.05801 19.426281 1.0026779
83.76401 19.97628 24.418678
84.67801 21.67228 25.085686
1.0770111 29.758278 28.94268
2.1940079 27.72628 29.321678
81.06201 41.799282 77.97568
81.49401 42.930283 76.283676
0.47000885 5.0302815 81.64967
88.13801 4.50528 83.84868
60.49801 17.995277 69.97267
60.737007 20.280281 69.81967
61.890007 18.215279 72.77768
59.849007 18.96128 72.89067
10.1300125 0.53927994 101.85568
8.409012 0.39228058 103.85368
6.0740128 36.35728 2.6786804
8.042007 36.91228 1.7696762
3.5170135 27.844282 0.57367706
5.659012 27.462282 1.9096756
9.38501 29.90628 14.115677
12.354012 30.60728 13.72168
25.42501 35.463284 53.24068
26.876007 35.972282 55.305676
19.460007 36.42228 64.620674
17.31501 37.49028 64.32468
63.383003 6.135281 18.45868
63.112007 8.419281 18.303673
58.81701 16.633278 28.398674
57.305008 17.537281 26.508675
74.02801 43.012283 24.257683
76.07701 42.39828 24.864677
85.65201 4.701279 23.224678
87.15401 5.333279 21.738686
88.03601 28.081282 73.545685
0.6280136 29.81228 75.20967
11.698013 24.89528 64.86668
10.956009 26.613281 63.17468
49.434006 13.850281 70.64067
52.04001 13.83728 70.86467
62.300003 7.882279 78.90468
63.41301 8.915279 80.71268
2.0030136 38.402283 7.4996796
2.7590103 36.625282 6.754677
10.310013 32.302284 2.717682
8.955009 31.373281 1.0606766
52.67401 39.207283 7.5186768
50.70601 37.646282 6.752678
55.975006 41.10628 105.17868
57.19301 39.444283 104.64268
67.856 29.95128 101.10968
67.44701 27.59328 101.38868
78.19 30.747282 104.93968
80.035 31.368282 103.69868
32.80101 2.433281 106.31268
33.088005 0.33628082 105.76768
39.723015 47.30828 96.65668
42.02001 1.1452789 96.49468
71.420006 45.55028 93.60768
71.55601 0.74227905 94.52568
73.657005 11.648281 85.52867
74.829 13.409279 85.67868
17.13501 5.368279 33.338676
15.355011 6.8392797 32.581673
6.294014 14.204281 26.418678
4.782013 15.06028 27.522682
9.378014 21.428284 28.661674
11.381012 22.71228 28.078682
12.140007 19.72028 39.19268
13.549011 18.180279 37.906685
36.390007 28.44728 60.93668
35.27301 30.382282 60.88068
22.069008 29.28428 61.460674
21.890007 31.023281 62.362675
18.918007 4.34528 46.749672
19.206009 5.5062795 44.045677
25.928009 15.7622795 46.91668
27.600006 14.565281 49.214684
56.101006 43.42628 103.84968
58.33101 43.19228 103.77768
70.119 41.57328 98.67168
70.478004 40.46028 100.14368
2.591011 20.923279 68.702675
88.379005 21.164284 68.800674
2.555008 20.39228 55.00468
0.9400101 20.87828 53.691677
37.588005 42.73028 88.54968
36.403008 41.43528 90.089676
35.474007 30.85728 90.82968
33.491005 29.320282 90.50868
36.38301 1.4532814 82.36168
38.963005 2.1872787 82.27168
50.49601 2.6222801 78.90968
50.95501 0.58327866 78.26468
5.016014 6.13728 60.263676
6.5610123 7.1552815 58.856678
16.503014 0.11027908 53.42268
18.584007 47.03728 54.61668
12.881012 43.19228 4.535675
11.378014 44.41428 5.0586777
7.5290146 37.728283 15.377678
5.6060104 38.360283 16.894676
85.518005 6.0342793 106.76268
87.713005 5.793282 106.73568
3.8750076 1.2852821 11.886673
2.8680115 46.998283 11.961678
2.0860138 14.875278 75.32968
3.9110107 13.752281 76.15068
4.4910126 19.22128 71.354675
6.145012 20.716278 70.714676
35.88701 44.783283 108.28268
35.61901 42.40628 108.91368
43.58201 46.64728 102.43468
43.103004 1.1372795 101.89668
11.532013 40.73128 58.232677
10.645012 42.35628 56.553677
17.285011 34.27428 49.374672
15.895012 33.485283 47.816673
37.43901 31.044281 26.833687
35.936005 31.323282 27.890678
40.874016 30.158281 36.23168
41.38401 30.060282 38.44468
83.47801 14.55928 38.588676
84.57701 16.16528 38.223686
81.14401 21.720284 50.311684
81.906006 21.900284 52.738674
61.209007 24.219284 45.70968
63.170006 24.356277 45.542686
63.170006 12.27528 37.55468
63.049004 11.253281 39.297676
55.114006 35.507282 18.381676
55.09001 35.722282 16.504677
49.75701 27.978281 6.306679
49.86801 29.935282 6.1766815
41.70101 35.306282 81.59468
42.723007 37.37628 82.59567
46.437004 40.78928 83.494675
47.502007 41.957283 82.091675
87.115005 1.3702812 101.76168
86.91901 1.5832787 104.23268
1.3260117 40.43528 5.813675
1.1610107 41.222282 7.841675
82.37901 7.9092793 26.808678
83.335014 5.7472806 25.743675
80.185005 8.252281 16.031677
80.48301 9.952278 17.06968
11.686012 40.99828 94.36268
10.265007 38.72528 93.32068
17.361008 43.339283 83.091675
17.251007 45.014282 81.43468
81.72301 19.46928 105.41368
81.98001 19.564278 107.71968
4.9930115 21.00328 103.77568
3.0950089 22.530281 104.92268
67.48701 23.95028 1.1026764
68.27601 21.237282 1.0956802
67.301 25.869278 13.780678
69.27601 26.81628 14.090675
28.306007 6.4692807 58.288677
27.479012 7.375279 59.747677
31.21801 3.2172813 60.288677
29.41401 3.313282 61.029675
21.56401 30.209282 106.53268
23.859009 29.70828 107.16168
20.480011 39.76028 4.476677
22.437012 39.44228 5.394676
79.39501 19.721281 4.307678
79.42601 21.69728 4.172676
78.52601 30.587282 5.4066772
79.37201 31.79828 7.0226746
15.724014 43.09928 63.856678
17.42601 42.234283 64.81068
24.866005 46.992283 75.14668
26.687004 0.20228195 74.92967
49.962006 26.99928 56.108677
48.450005 25.935282 57.68668
43.59301 37.11628 63.27168
42.94001 39.49728 63.529675
18.391006 17.55928 11.9496765
17.854012 19.898281 10.458679
28.019005 26.52628 10.063675
27.98101 28.51228 10.336678
1.1020126 23.746284 16.536674
1.5050125 21.680283 16.023674
4.2360077 12.339279 16.24868
5.416008 13.99828 15.948677
15.623009 43.32428 23.224678
13.930008 42.264282 22.812675
26.753006 39.21928 22.544685
26.513008 39.195282 24.691673
47.27101 10.01828 73.34567
48.01201 8.528278 72.54768
57.533005 6.02628 62.863674
59.074005 6.2442822 63.68668
6.520012 36.313282 33.13468
9.025009 37.09828 32.999672
14.373009 25.434282 28.087685
16.421013 25.832281 27.877678
18.17601 32.623283 51.398674
19.84301 32.193283 52.441677
21.157005 20.69028 49.34368
21.41401 19.669281 47.229683
71.48601 25.745277 39.07168
69.200005 24.995277 39.198677
65.91701 12.797279 36.896675
65.354004 11.940281 34.756676
29.694008 3.9962811 76.24667
30.202011 1.8482819 77.12068
35.239006 45.019283 69.909676
34.836006 43.021282 71.62767
82.333015 5.08828 43.103676
80.687004 6.7592816 43.420677
66.992004 8.537281 41.885674
66.352005 8.410282 44.04168
56.925003 38.16228 108.28868
58.799004 36.959282 0.24668121
68.128006 40.757282 7.155678
70.20601 41.549282 5.9896774
38.60701 40.26928 3.0016785
37.170006 41.874283 1.9406815
35.208008 3.5082817 10.941673
33.70201 4.9952817 9.592674
22.313011 27.431278 63.21468
21.529007 25.550278 63.62868
23.290009 15.909279 72.420685
24.781006 17.222279 72.99568
83.614006 4.5372815 103.89068
82.93701 2.8582802 102.366684
83.850006 11.675278 91.91768
81.80001 12.105278 91.08568
24.044006 33.388283 22.490685
24.605011 31.716282 20.977684
24.070007 37.87128 7.7276764
24.528008 40.028282 7.339676
38.934006 8.480282 2.8016815
37.56401 7.029282 3.3526764
39.406006 47.319283 0.8946762
37.308006 0.9532814 108.56268
4.9670105 42.54428 93.87668
3.3920135 44.222282 94.17968
7.466011 7.0742803 84.50568
8.80201 8.808281 85.214676
35.643005 15.723278 14.959679
36.20101 16.044281 17.798676
44.167007 23.924278 11.420677
45.520004 25.758278 11.371674
37.098007 29.227282 64.76667
37.49901 30.935282 63.74068
32.876007 44.520283 68.827675
33.711006 44.54628 66.01267
76.64001 0.14627838 103.02468
75.523 46.076283 101.05468
79.448006 6.543282 88.36268
77.993004 7.2312818 86.21668
50.92701 6.56128 83.24368
50.045006 7.175282 84.604675
35.38601 5.2982793 86.66768
35.38801 2.9442787 85.15367
4.022011 30.707281 17.170677
2.1860123 29.617281 16.876678
83.65501 40.36228 9.329674
85.84301 40.242283 8.314674
43.85501 39.04528 51.42768
43.12401 36.639282 51.352684
39.671013 27.358282 43.16268
41.37101 28.06528 41.63468
60.723007 9.94928 34.897682
62.258003 9.885281 36.530678
61.856003 1.7082787 31.746681
63.033005 0.30028152 29.870674
23.845009 13.21928 71.701675
25.555008 13.673279 70.07468
27.073006 4.521279 62.583675
26.694008 3.2322807 60.932674
18.629005 21.245281 47.165672
17.264008 22.494282 46.58268
18.405006 32.507282 39.741676
17.812012 33.451283 38.230675
5.4650116 34.07928 93.26868
5.5210114 32.344284 91.82268
7.728012 43.44928 82.51268
10.020012 43.771282 82.963684
69.341 26.516281 43.881676
67.23601 26.472279 42.63468
62.895004 15.686279 32.792686
62.91401 17.76928 32.27468
78.32201 14.1182785 94.34168
79.509 16.11728 95.98068
76.523 17.19128 85.34367
77.257 15.540279 85.71968
57.027008 8.669281 54.27068
55.402008 9.44828 53.343678
47.99601 9.645279 45.553673
48.264008 11.307278 43.88668
48.075005 23.39328 21.175682
49.936005 23.458282 20.992683
47.041008 25.33728 35.797676
48.321007 26.96928 36.921684
76.04701 33.700283 8.323677
76.49601 35.497284 9.231674
86.073006 28.238281 16.701675
88.059006 28.781282 16.732674
66.54201 23.941282 34.101677
65.68201 25.898281 35.094673
58.919006 31.36128 43.51368
58.100006 33.172283 44.16468
45.364006 2.3232803 30.132683
47.684006 3.4952812 30.803673
42.05001 45.985283 25.633675
39.992012 45.035282 23.617683
55.267006 2.6842804 40.217674
54.765007 4.7992826 41.514687
59.90101 15.237278 35.94668
57.996002 15.576279 33.943672
49.585007 40.48128 48.699684
48.01101 40.271282 50.25968
51.14701 34.160282 58.427677
49.10401 34.82928 58.097675
28.804008 38.44728 99.90368
30.228004 36.770283 100.02368
32.88201 39.83828 88.060684
33.812004 40.35728 90.06868
84.15301 28.178282 21.244682
84.28701 25.965282 19.746681
79.24401 25.57228 5.411682
78.88001 23.337282 5.9636765
2.2010117 0.4762802 69.54668
1.7020111 46.63328 70.565674
9.159012 36.791283 76.46068
8.030014 36.14128 77.951675
30.34301 1.4802818 23.788673
32.529007 0.5652809 23.953682
37.143005 14.10928 28.797676
35.27501 14.612278 30.368675
10.645012 3.0412788 68.509674
11.52301 2.1562805 66.96368
15.917007 44.979282 61.265675
17.42501 43.53028 60.01868
67.517006 15.590279 27.03968
67.590004 13.554279 27.833687
63.134003 1.0472794 27.173683
64.82201 46.80128 26.510674
65.216 1.7182808 6.085678
67.425 2.6302795 4.7276764
68.315 46.68228 14.803673
67.69201 45.431282 13.301674
58.16301 44.19228 74.61568
59.08101 45.15028 72.698685
62.652008 9.75428 70.19267
64.31801 10.50428 71.16568
29.224007 19.175278 86.45468
27.658005 18.33628 87.78967
18.708008 9.172279 82.68268
20.465012 8.007278 82.78168
65.96001 9.315281 18.450676
67.689 10.959278 18.739677
64.925 21.192284 14.643677
64.549 23.36428 14.043678
30.41301 9.2812805 1.2926788
27.90001 9.29628 1.3616791
24.784004 5.1812825 14.132675
23.81401 3.875279 12.906677
41.353004 12.369278 56.31468
40.922005 14.03228 54.669674
51.41301 16.52528 45.658684
52.20201 14.51828 46.297676
67.463005 41.30828 33.066673
69.06901 41.17528 34.934685
75.812004 44.374283 26.658684
74.355 46.20428 26.691673
87.225006 33.02328 61.972675
86.67401 31.25628 62.99168
78.89101 32.680283 51.15467
80.80501 32.42528 50.252678
15.98201 27.347282 25.13668
15.07901 25.279282 25.215675
2.5620117 31.653282 29.892677
4.1990128 30.533281 31.475685
88.17401 29.445278 30.958687
0.34700775 28.23328 32.78968
4.8560104 18.89928 33.127678
4.60701 19.091278 30.576683
23.949005 6.573281 103.78968
22.491013 6.6002812 102.40368
16.711014 4.8342824 91.47268
18.699005 3.8452802 90.11168
60.460007 26.24928 87.05267
58.45501 27.941282 86.35268
68.09501 29.877281 91.34068
67.229004 31.934282 90.70468
3.0660095 40.874283 37.405678
1.018013 41.465282 36.786674
80.23201 1.0612793 31.033684
78.66201 0.31227875 30.175682
11.110008 40.041283 76.20767
11.09301 42.00128 77.050674
8.059013 4.29028 83.10968
8.937012 5.9802823 82.07768
48.197006 15.141281 106.75168
47.96601 16.307278 108.61968
59.835007 25.786278 108.67268
61.352005 25.951279 107.08868
85.51301 1.7892799 42.530678
86.406006 4.1342816 41.61068
81.628006 8.905281 41.682686
82.24701 10.297279 43.52468
23.889008 21.681282 60.081676
22.30001 21.49028 60.249676
15.839012 16.94728 70.396675
16.725014 16.65128 72.367676
43.47901 45.92128 20.614677
41.747017 45.652283 18.825676
43.66501 37.63528 6.1926804
42.423004 35.75428 6.702675
68.48401 9.864281 87.43968
70.813 9.496281 86.45668
80.89001 1.9342804 87.69168
80.925 0.6482811 85.420685
56.03701 46.64228 0.9076767
56.13801 1.412281 0.3186798
55.056007 47.353283 96.05568
53.30301 1.4102821 96.74768
85.41301 11.648281 75.11067
86.92201 10.285278 75.70668
85.17801 13.354279 88.29167
86.05101 12.639278 90.59068
70.77801 29.405281 83.39868
71.30601 28.976282 85.68968
58.80301 29.328281 80.98767
57.112007 31.125282 80.64868
17.99701 41.47628 3.1526794
20.291008 42.53928 3.6546783
32.711006 42.222282 105.08868
33.24901 42.257282 107.06468
78.58301 21.993282 107.09068
80.30201 21.70428 105.82468
86.26101 35.48228 1.3166809
87.30601 34.331284 2.785675
64.547005 43.110283 76.38068
65.41901 41.512283 77.48468
72.10801 39.13328 70.68768
70.633 41.159283 70.15467
73.621 45.540283 68.19868
75.10801 43.91428 67.646675
74.633 29.980282 62.35568
72.479004 30.09728 61.64668
79.451004 32.164284 46.531685
79.88501 32.18328 44.204674
71.600006 36.97628 33.44668
68.911 36.50928 32.974678
66.11101 24.455284 107.30868
66.996 22.39428 108.09568
67.06801 25.41428 96.94768
68.43301 26.696278 96.45568
55.28801 25.216282 87.42668
56.158005 27.106281 86.94368
45.89801 28.688282 77.83467
46.488007 29.86128 75.95567
62.064003 27.158281 2.1036758
59.979004 26.62128 3.2796783
59.989006 23.715282 15.843674
62.341003 23.679281 15.61068
53.18901 5.264279 81.51868
53.084007 3.558281 82.88368
52.464005 45.222282 76.44968
51.394005 45.23328 78.46867
27.192009 22.091278 10.580673
28.938011 20.17128 11.41568
42.044014 23.218285 9.478676
42.051018 25.527279 10.974678
65.272 1.6922798 0.24467468
65.83001 4.024281 0.7786789
75.38701 1.6492805 7.4856796
76.605 0.21228027 8.239677
25.30101 43.87928 74.72368
23.798012 43.59128 72.94368
30.299011 0.7792816 60.84168
32.187004 0.7652817 61.405674
65.13501 14.690281 6.493675
64.842 13.44228 8.323677
72.189 10.922279 19.156685
70.19 11.236279 19.772682
86.34301 32.85028 23.049675
86.81201 34.185284 24.904686
86.254005 38.15428 36.549675
86.41701 38.097282 38.599678
52.71501 27.01928 3.7216797
50.67501 27.638279 3.63768
49.242004 22.554283 100.55268
48.434006 20.300278 99.97668
48.279007 23.576279 5.1486816
50.222008 23.58928 6.196678
62.418007 17.147278 1.7956772
63.66301 16.06128 3.4046783
28.50901 20.73928 14.045677
26.31401 21.47728 13.058678
18.250008 14.4932785 13.378677
16.748009 12.87328 13.3506775
55.54001 4.7562795 25.521675
55.684006 5.5492826 22.83268
48.392006 13.142281 31.336678
46.131004 13.989281 30.560677
78.517006 31.459282 100.83868
78.08201 31.48628 98.63268
70.47101 32.180283 90.98968
70.327 31.442282 88.53668
36.02201 30.098278 55.667675
34.653008 30.16428 54.47868
28.839005 18.792278 50.798683
28.561005 18.73928 48.738686
3.919014 8.855282 60.029675
3.5050125 9.76128 57.57668
83.37101 15.097279 52.058674
84.476006 16.495277 50.739677
6.95401 1.0482788 12.214676
6.3280106 47.48928 13.6616745
10.229012 39.69128 18.368675
9.864014 38.64428 16.323677
85.40801 36.97028 42.79368
86.04901 34.36928 42.48568
3.0380096 27.848282 33.428673
2.766014 29.720282 33.710686
63.064003 1.4492798 81.16768
64.018005 1.4902802 79.13368
75.713005 0.19927979 74.925674
76.565 45.41128 75.51468
71.851006 1.063282 83.65167
71.73501 1.1362801 81.33067
69.22301 9.479279 82.11368
67.284004 9.957279 81.90567
18.013008 5.5182805 102.72868
18.688011 6.9972806 104.81068
15.378014 2.912281 6.236679
14.362007 0.82728195 6.2066803
71.243004 30.436281 32.327675
73.412 30.27728 33.113686
76.66501 36.66228 25.128685
78.254005 38.46028 24.284676
27.81601 31.102282 10.2256775
28.277008 33.44828 8.841675
19.313011 22.901281 2.738678
21.070007 23.590282 2.0136795
31.90001 12.273281 84.33467
33.795006 13.38628 83.58267
47.240005 11.29628 82.93768
47.55301 13.481277 83.55467
29.656006 33.278282 42.879677
28.256004 34.31628 43.91268
31.069008 31.926281 52.622677
31.306007 33.584282 54.39668
13.783012 44.847282 27.925682
12.488014 44.38328 25.956673
15.419014 10.558281 21.275673
17.438011 10.034279 20.896675
32.76201 33.695282 10.686676
34.958008 33.55028 10.394676
34.41201 30.633282 105.88968
35.239006 32.289284 106.77068
81.77201 14.8682785 47.43168
81.38001 12.46228 47.236687
87.92301 14.875278 37.61068
0.480011 15.062279 35.434685
19.220009 30.76028 55.001675
17.645012 32.702282 54.719677
8.081009 38.94228 57.53268
5.7830124 38.618282 57.955677
64.505005 8.051281 108.69168
66.272 9.08728 107.380684
64.896 14.826279 1.302681
64.466 13.043278 0.2066803
6.4320145 33.521282 77.504684
6.5940094 34.396282 79.80568
87.116005 25.869282 75.10268
86.518005 23.882282 74.62868
51.27201 41.50328 20.933678
49.01101 41.78128 20.187675
42.42601 35.67728 33.172676
40.232018 35.011284 32.648674
86.628006 15.450279 72.37668
84.82801 15.396278 71.01468
82.07101 14.276279 58.77068
79.89501 15.077278 58.42068
70.62701 36.77928 10.973679
69.604004 35.834282 13.034676
61.479004 34.30128 16.385674
59.757004 34.011284 17.864677
64.269005 9.79528 78.216675
63.31801 8.814281 76.453674
62.840004 46.299282 74.80267
64.337006 44.970284 74.43167
60.450005 1.3562813 29.438683
59.72101 2.5942802 30.702675
50.48001 12.438278 33.31968
50.266006 11.979279 35.385674
63.602005 6.974282 10.87368
62.60801 8.25528 12.361679
68.16601 7.81128 18.499672
69.449005 8.46228 20.055672
13.739014 42.992283 108.90568
14.851013 43.943283 107.21968
15.559013 31.11128 2.427681
13.581009 30.22228 1.7076797
29.298004 4.0532804 80.675674
29.610008 3.7072797 82.759674
29.396011 0.02027893 79.07468
30.178009 1.6272812 80.77467
1.1290131 5.467282 20.078682
1.0730133 7.4382825 21.284676
81.87401 12.410278 25.023674
80.36201 11.825279 26.634682
0.71601105 29.476282 84.35768
1.6650085 28.559282 86.144684
11.420013 23.493282 82.51367
10.139008 21.807281 83.463684
13.097008 44.450283 102.10068
15.298012 44.395283 100.52068
25.946007 38.708282 102.08968
28.06401 39.66828 102.62068
75.365005 46.01728 40.81768
75.491005 45.477283 38.531685
80.63701 33.26728 39.135674
80.37201 32.166283 37.27868
54.95201 3.4042816 58.024677
54.474007 3.6472816 60.413677
49.128006 12.263279 68.26667
46.59201 12.33028 67.33267
47.032005 13.818279 0.19567871
46.060005 12.918278 2.0316772
46.71501 7.8652806 13.602676
47.17401 5.9382825 13.983673
3.8130112 23.56928 16.454674
5.5420074 23.531282 15.031677
17.220009 26.460281 19.342674
17.91401 27.774282 20.893684
47.972008 34.63528 32.05567
46.20501 35.395283 31.012672
47.06801 27.14528 20.61068
48.808006 25.969282 19.726677
51.77301 27.93028 53.06268
53.12401 25.792282 52.654675
60.061005 36.38528 60.081676
59.56801 36.94928 62.18768
64.97401 41.54428 81.07068
64.545006 42.160282 83.367676
60.723007 43.832283 76.64067
62.004005 41.741283 77.298676
1.5780106 22.930283 52.150677
88.34801 23.022278 50.40368
0.268013 17.412281 37.63468
2.1910095 17.055279 36.249672
66.614006 0.6782799 100.62068
68.18001 1.9432793 101.78468
59.862007 39.19828 106.741684
59.197006 40.979282 105.05168
22.401009 20.217278 79.68268
23.06601 19.911278 77.481674
19.518005 21.342278 80.16968
21.501007 22.501282 81.14368
43.722008 32.816284 78.71568
41.704018 33.21828 79.713684
45.80001 32.17628 67.353676
45.667007 34.67528 67.02567
19.700012 20.01828 1.6656799
20.326012 21.799278 0.14167786
34.61001 20.222282 104.87568
33.78801 21.10328 102.50368
45.26001 14.8872795 15.1996765
45.527008 15.085278 17.600677
43.791008 12.784279 27.641685
42.94201 15.124279 26.301674
81.41801 6.807282 13.604675
81.26601 6.0132794 11.678673
5.362015 5.48428 10.362679
6.4850082 4.052281 11.321678
65.34801 6.2592816 20.83268
65.273 4.40128 19.660683
74.76101 8.075279 28.446678
76.31901 7.7942815 29.431679
70.006004 13.167278 70.64168
68.008 12.051281 70.25568
67.37601 13.238277 67.908676
67.629005 15.527279 68.64167
65.884 31.309282 99.90168
64.76501 33.02228 98.75868
52.473007 34.970284 97.49768
53.09401 36.46228 96.52368
36.57901 26.979282 88.56568
37.74501 28.915281 89.01468
40.70301 31.813282 101.67668
42.533005 32.13428 102.56968
73.532005 16.419281 68.076675
73.857 16.68328 69.97668
75.787 13.94828 82.43367
76.671005 15.67728 83.06468
2.1300125 36.44628 3.8706818
1.0250092 35.958282 1.9406815
3.6790085 44.652283 100.89868
3.6230087 46.945282 101.33068
46.742004 1.3482819 70.96268
45.460007 47.45428 69.01667
41.669014 6.5862813 61.624676
43.284004 6.33128 59.961674
25.60701 19.993279 11.005676
26.75801 18.127281 11.730675
30.64701 5.3502812 10.778679
31.16401 5.640282 13.078674
42.977005 46.457283 28.111687
40.655006 47.54528 28.265678
38.99701 12.451279 33.424675
38.66001 13.59528 35.642677
21.575012 46.290283 85.22568
20.921005 0.7502785 85.59468
31.651009 42.48328 88.93068
30.935005 41.39728 86.75668
80.94701 14.93428 3.0596771
82.28801 16.388279 4.2376785
5.9910126 25.050278 0.2976761
4.0280075 25.54628 107.93568
25.766006 28.546282 102.06668
27.879005 27.12428 103.20968
28.728004 28.15928 7.672676
31.213005 28.19028 7.653679
51.67901 2.4302788 93.27467
53.380005 1.8542786 93.98268
52.49301 1.1112785 80.38368
51.032005 2.0662804 81.88568
82.08101 0.820282 56.67168
83.30001 0.09328079 55.192677
84.17501 8.96328 46.327675
82.70101 8.154282 44.816673
85.880005 16.883278 95.52368
84.76101 18.613277 94.94168
6.016014 29.37828 91.198685
5.006012 29.673279 89.04468
82.171005 16.51828 7.0246735
82.86601 18.548279 7.6386795
3.3780136 17.148281 10.105675
5.51001 17.397278 10.268677
57.79001 2.5142784 3.5536804
57.144005 4.9502797 3.691681
49.393005 45.80828 9.7866745
48.724007 44.248283 7.8206787
55.890007 26.782282 90.47467
54.645004 28.377281 89.02867
55.000008 40.53128 94.91068
55.49601 38.61428 96.79968
17.94101 28.473278 13.835678
17.20401 26.01128 13.701675
2.5020142 21.89328 12.22168
2.9530106 20.013279 12.836678
73.19 31.184282 20.307686
72.56901 30.94028 22.51168
65.684006 29.849281 14.344673
65.614006 28.054281 13.823677
21.599007 5.1482816 38.83268
21.053009 3.7472806 37.688683
13.811012 41.04728 37.380684
14.625008 39.22528 36.723686
14.888008 30.361279 94.06368
13.603012 28.148281 93.67268
24.336006 19.051281 95.73368
26.484009 18.805279 94.35568
18.097008 21.26728 62.568676
15.594009 20.861282 63.751675
27.21701 24.994278 71.58568
28.16401 25.20728 69.23367
85.90801 33.088284 85.39668
87.20201 31.70428 84.17268
85.296005 38.41128 74.04068
85.49201 37.66828 71.60568
42.159004 40.32928 32.059685
40.16102 41.69028 32.335686
32.55001 41.14228 40.096672
32.70601 38.861282 40.706673
8.960014 24.026283 88.04768
7.2190094 24.83828 89.18167
2.9220123 24.885284 74.43268
2.6890106 22.455284 73.578674
38.805008 25.69028 101.37668
37.142006 26.849281 101.69468
26.598007 27.421282 99.82868
28.53801 26.300282 100.83468
1.294014 38.50928 57.06368
0.1980133 40.01128 57.149677
81.99901 45.118282 55.485676
79.76301 46.39928 56.20368
25.44001 10.089279 71.85368
24.58001 10.937279 73.65167
32.95601 12.034279 70.481674
31.791008 10.447281 69.38967
59.240005 29.212282 16.80568
59.684006 31.352282 17.253677
53.37101 31.552282 5.40168
52.501007 30.054281 4.0446777
21.160011 8.766281 106.58868
21.503006 9.399281 108.59668
14.879013 46.02428 104.53868
13.094009 45.443283 105.39968
33.45201 14.725281 49.82168
32.32701 15.485279 51.90868
26.351006 8.24028 57.568676
24.678009 7.812279 56.124676
84.31801 40.88728 48.282677
84.254005 39.78828 50.034676
9.847008 43.500282 51.593678
10.5920105 45.74628 52.53168
1.9300079 24.991282 12.987679
2.5730133 27.491282 14.108673
88.00701 35.98428 4.65168
88.31701 38.264282 5.5796814
12.490013 14.10128 21.932686
13.997009 15.675278 20.771675
19.598007 26.36628 17.304672
19.727013 27.69728 18.830673
14.764008 22.169281 45.493675
15.400009 20.131279 46.333687
4.37101 18.294281 54.24368
2.8320084 16.292278 54.635677
78.23501 35.146282 51.850674
80.22301 35.55828 52.36968
81.73501 36.791283 50.30668
80.51401 35.068283 48.966682
66.781006 11.336281 42.255684
66.311005 12.960278 44.229683
71.003006 25.238277 41.975685
71.91701 26.217278 42.93067
78.84301 1.537281 39.570686
78.67201 1.7622795 36.939674
84.39701 37.37328 40.104683
83.53801 35.71928 41.077675
62.01201 43.984283 73.71968
64.19601 42.99728 72.27368
62.037003 37.89828 62.14268
63.741005 37.98228 61.084675
56.464005 32.805283 84.50568
58.144005 33.66228 85.26068
66.69501 42.50128 89.035675
65.742004 44.41328 89.787674
32.09601 35.359283 101.82068
32.534004 34.77328 99.35468
43.45501 45.08128 97.39668
41.73101 45.83028 95.50468
40.516014 8.554279 58.22768
41.221016 6.6882825 58.093678
29.880005 3.5882797 58.041676
30.14701 1.2842789 57.627674
66.200005 5.5132794 105.94368
64.590004 5.5742803 107.55068
67.271 45.67528 100.33668
69.493004 46.41128 100.95568
64.954 26.81228 103.73068
67.26201 27.695282 104.08168
69.06701 39.75328 104.70468
68.27401 42.31628 104.13468
11.347008 45.13428 99.37668
13.666008 45.541283 98.49268
17.213013 8.375278 91.80168
16.029007 10.097279 90.58968
8.907013 46.013283 83.82968
6.4830093 45.403282 83.98367
5.136009 39.56128 95.17368
6.6960144 41.36228 95.505684
56.173004 46.804283 41.434685
56.014008 47.45328 39.63868
64.80801 4.9492803 45.67768
62.812004 6.4352803 46.97268
50.35401 38.14128 95.03568
49.24901 39.92528 94.80468
48.908005 43.79528 83.02168
50.722008 44.528282 80.92868
16.52201 5.0722814 36.613686
15.811012 3.6042786 34.518684
17.500008 39.09428 30.31768
18.06501 38.070282 32.553673
53.809006 44.37728 3.8866806
54.38201 43.32128 2.1336746
51.210007 0.56628036 100.29368
49.583008 2.7402802 101.09668
88.364006 34.095284 21.543678
87.03801 35.602283 21.284676
81.80301 43.88428 11.1386795
79.84201 43.71928 9.31868
18.583008 34.97628 43.730675
17.60801 34.546284 41.738686
8.14801 29.297281 45.73568
6.7880096 28.054281 46.23368
0.8590088 47.27528 67.20667
0.5350113 47.42728 65.00267
78.45901 43.64328 72.85268
76.55201 44.769283 72.867676
66.52601 1.3712807 14.496674
65.69601 46.93428 13.399673
59.007004 2.4482803 22.566673
58.023003 4.104279 23.811684
22.392006 1.9202805 14.626678
20.268005 1.5872803 12.982674
8.965012 5.3242803 11.145676
9.78801 6.696282 9.755676
67.409004 1.506279 11.972679
65.908005 3.0752792 12.419678
77.634 3.1782799 8.871674
79.97001 3.520279 7.766678
42.10601 35.89028 64.938675
39.909004 35.71828 64.440674
30.70501 36.30728 73.21768
28.795006 35.166283 72.90468
55.59501 2.8872795 19.927681
53.503006 2.419281 18.839676
63.325005 1.7282791 10.793678
63.55201 4.1452794 11.63768
80.11201 5.514279 85.58667
81.295006 4.689282 87.59567
1.2640076 12.660278 93.44368
87.71401 13.319279 94.504684
25.669006 29.734282 74.157684
27.808006 29.412281 75.52768
33.09501 30.192282 87.892685
35.27301 30.490282 87.67168
78.990005 4.65128 11.239677
78.86201 6.36628 12.379677
66.978004 5.63028 17.651672
66.077 6.736279 15.907677
7.3760147 44.75128 99.17768
8.34301 43.075283 97.30268
8.965012 2.7052803 100.54668
7.280014 1.2722816 101.23668
29.847008 19.79528 30.462685
27.236008 20.132278 30.721672
21.458008 9.253281 24.335686
19.319008 9.204281 22.393684
16.488014 6.8672795 89.408676
17.30101 5.0512815 88.147675
29.94101 12.763279 87.79468
30.16101 14.90728 87.55867
76.85901 22.438278 7.330673
76.99701 24.012283 9.11068
75.08501 22.375282 21.788673
74.037 20.419281 22.781685
10.697014 4.0912824 102.31468
9.643013 3.9262815 104.35968
8.455009 3.9512792 7.9616776
6.183014 3.2072792 8.62368
35.222008 15.882278 26.794685
37.173004 15.31728 26.254677
37.503006 2.37928 19.936684
35.88301 0.77627945 20.092674
30.480011 46.81528 54.61868
32.338005 46.13528 53.77168
43.527008 6.071282 53.539677
42.685005 5.92928 55.78268
79.74201 28.52428 34.29168
80.49201 29.244278 36.10868
80.69301 18.104279 38.650673
81.59201 16.44028 38.573677
77.61201 7.10228 104.02768
77.60701 9.17828 104.769684
86.865005 16.578278 98.09568
0.9200134 16.460278 98.06168
16.105011 8.450279 38.21868
14.953011 9.086281 36.213676
8.515015 18.675278 28.420677
6.9040146 17.99728 27.659676
7.1220093 33.206284 95.16468
7.784012 31.493282 93.67168
8.247009 22.797281 91.04368
9.520012 21.125282 90.20368
58.268005 25.064278 67.66367
59.95701 23.585281 68.19367
66.61101 23.576279 57.239674
65.06901 24.256279 55.29668
33.42801 44.89828 104.30068
34.24401 44.58728 101.87068
40.102013 0.881279 92.17368
38.242004 1.5862808 90.97368
34.82901 28.880281 104.00968
34.16101 30.837282 102.75868
30.782005 32.931282 100.95268
29.420006 34.62728 101.85868
19.561012 34.98228 39.484673
20.57901 34.734283 41.589684
23.438011 21.657282 39.450676
22.41301 21.487282 37.156685
43.558006 26.147282 81.93068
43.407005 28.279282 83.61368
48.86001 28.140282 95.462685
48.15101 26.274282 96.56568
21.874008 12.19928 55.988674
20.173012 13.077278 53.99168
29.873009 10.20528 47.369682
30.207008 11.3682785 45.844673
74.32201 41.097282 53.441677
76.700005 39.37328 53.56068
72.048004 39.25428 57.135677
69.718 40.937283 56.275677
83.63301 27.11028 69.79467
81.433014 26.259281 69.55567
76.35801 17.80428 65.01768
75.578 15.632278 64.33167
75.656006 30.768282 101.01568
75.338005 33.00228 102.28868
69.77401 34.116283 92.70868
68.84501 35.98228 91.22368
88.17301 31.754282 32.197685
0.25601196 30.553282 34.378685
82.91601 28.771282 47.107674
81.670006 31.03828 47.611687
27.401009 3.9222798 38.877678
28.353004 3.5342789 40.851677
35.754005 14.249279 35.030678
35.11801 15.95528 36.90368
14.227013 25.21228 63.50468
12.017014 24.35328 61.96468
17.306007 18.541279 49.15467
19.248009 17.627281 48.326683
0.68000793 23.69428 71.96568
1.0770111 23.848282 69.90167
0.24700928 35.360283 62.398678
87.10601 36.87028 62.721676
49.673004 40.68528 17.028679
47.74601 41.638283 17.555672
37.890007 33.868282 12.057678
37.56801 31.63828 12.70768
79.107 11.79628 88.73968
79.047005 11.57428 91.11668
80.26301 2.688282 101.43068
79.365005 3.478279 103.35668
71.83401 2.6612816 102.96668
73.66401 1.6112785 103.75068
71.69501 43.49528 7.014679
69.745 43.92128 8.472679
63.070007 3.3842812 8.589676
62.045006 5.11628 9.569679
63.13501 3.5102806 17.521675
63.213005 2.3242798 19.677681
79.964005 46.36228 96.62468
81.145004 44.92528 95.49268
79.408005 35.70428 102.99068
79.090004 33.664284 103.62068
24.77201 2.5032806 34.202675
25.66301 1.8152809 32.387672
27.451012 36.86628 27.624672
26.083008 35.483284 27.771675
23.391006 32.89228 54.85268
24.562012 32.25228 56.64568
16.935013 28.316282 49.734673
14.944008 29.273281 50.44567
54.377007 2.9572792 79.25868
52.43801 4.2442822 78.31868
54.225006 44.51028 74.29768
52.048004 43.44228 74.25267
80.61301 6.5702825 9.12468
78.89001 8.216282 10.317673
87.87601 18.805279 9.928673
1.169014 19.131279 11.001678
37.501007 4.5442815 91.18367
36.849007 6.705281 89.884674
45.44001 16.203278 88.01567
44.52101 17.85128 86.231674
75.531006 25.661278 81.70767
74.76201 23.570282 83.09668
62.89901 16.501278 74.78468
61.559006 17.24628 76.12367
17.611008 16.196278 9.366676
16.713013 14.509281 10.317673
28.902008 11.507278 14.856674
29.236008 13.607281 14.365677
76.91601 24.37828 4.050682
76.146 26.250282 3.1066818
73.94701 27.852282 0.5516815
73.368004 26.608282 2.6026764
59.462006 23.278282 18.780678
57.625008 23.110283 17.408676
48.90101 23.334282 9.176674
50.29901 22.094284 8.627678
77.85901 24.56228 23.053673
78.021 26.274282 21.774681
68.023 24.884281 15.954674
66.662 23.817282 15.907677
74.97101 4.5302815 58.971676
75.80501 6.1782804 57.304676
63.250008 9.848278 55.67168
62.739006 8.8682785 53.81368
67.617004 24.298279 54.111675
69.27401 25.39928 53.912678
70.86201 15.923279 49.908684
69.26601 14.18528 50.453682
15.744011 12.62928 19.302681
13.244011 12.412281 19.713676
19.702011 6.432282 21.81968
21.98101 7.0982823 21.982674
40.143013 46.96128 44.794685
40.620018 45.54328 43.398674
48.417007 7.057282 35.02767
48.612007 8.75528 33.382683
14.362007 41.645283 2.0956802
13.71801 40.395283 3.5836792
20.429008 40.611282 9.496674
19.922012 39.28928 11.256676
41.95701 0.26927948 31.820686
39.879005 0.66627884 30.744682
28.363007 3.5752792 35.964684
29.448006 2.5962791 37.669685
67.448006 16.88628 91.129684
67.66401 16.02428 89.36067
62.967003 11.973278 77.56468
61.920006 13.35828 76.87367
85.43701 34.57128 92.16667
85.741005 33.32228 90.32167
84.41501 39.05028 76.58267
83.71401 41.01228 76.38168
62.239006 18.869278 54.07368
64.065 18.22028 53.98068
64.58301 11.436279 66.62868
62.26101 10.979279 67.44968
3.4240112 2.0592804 23.409676
1.7840118 3.8012815 22.396675
10.749008 5.0492826 29.262672
9.9060135 3.091282 30.947685
11.958008 27.891281 91.65567
10.720009 26.75628 89.88968
20.390007 31.153282 83.035675
19.950012 29.306282 82.79167
77.99601 21.46128 65.51667
77.838005 21.940285 63.474674
86.39101 16.53228 55.220676
85.81301 16.70628 53.08968
52.437004 42.528282 16.451675
52.908005 42.13328 18.880676
61.300003 46.57928 27.76168
60.556007 44.673283 29.116676
18.866013 33.073284 46.435677
20.173012 33.29428 45.14968
25.091011 20.008282 42.443672
27.53601 20.860281 41.43168
2.379013 42.820282 92.07968
2.9950104 40.69028 93.75168
1.9870148 45.57428 98.89868
3.4250107 43.99528 97.18568
41.879005 29.397282 75.76868
41.91102 28.567282 73.869675
54.672005 23.233282 72.89168
56.361008 24.34328 74.85268
66.81801 15.020279 52.14468
68.12501 16.499279 51.24668
77.65401 16.26828 57.598675
77.62601 14.239281 56.988674
48.83001 41.72328 45.65168
47.77401 43.32228 44.879677
43.252007 37.194283 35.762672
42.39801 38.590282 34.23368
11.456009 17.84328 89.40968
13.628014 17.715279 90.69168
11.601013 23.346283 88.129684
10.897011 23.804283 89.99768
54.140007 3.2072792 22.466682
53.295006 3.527279 24.27668
55.76301 2.0892792 36.585686
53.837006 2.563282 37.822685
63.88501 43.13428 45.553673
65.59401 44.096283 46.313683
66.10901 37.569283 59.32568
66.253006 39.13328 61.000675
9.187012 11.806278 45.03768
8.716011 11.2242775 47.423683
7.944008 46.445282 47.77468
9.986008 47.53928 47.350685
53.91001 16.411278 31.787682
54.50801 16.61428 29.731682
61.786003 5.703282 25.653679
61.073006 3.8932805 23.823677
76.397 21.622284 28.822685
77.462006 21.359283 26.486687
75.449005 11.700279 20.889687
72.963005 12.853279 21.779686
55.798004 19.94228 62.04668
57.924004 20.570282 61.37968
63.283005 12.72628 69.28867
65.44701 14.189278 69.87567
77.74701 26.645279 87.14368
75.91501 25.65728 86.29268
78.05201 14.56628 90.95668
76.772 13.193279 91.68468
26.334007 20.285278 97.48868
28.519005 19.737278 96.44168
27.03601 13.919281 104.20968
27.56401 14.541279 101.69468
66.103004 38.94328 30.646675
67.31801 39.749283 29.215675
65.47101 44.12128 22.148674
65.366005 45.32228 20.585686
74.87 37.90028 8.907677
74.26301 36.40628 8.050674
65.46901 31.875282 12.489677
65.285 32.67028 14.694679
41.92301 4.74828 16.971672
40.02102 5.781281 17.179672
40.23101 13.940281 27.111687
39.726006 14.084278 29.607674
73.032005 26.001282 68.45967
71.466 24.588282 67.99767
63.13801 28.81228 76.80867
65.18001 30.72928 76.020676
40.28501 24.812279 73.68468
41.86001 26.04728 73.52968
47.364006 17.905281 62.697674
47.42601 15.912281 64.895676
40.066017 43.243282 5.042679
40.990013 41.69728 5.786682
37.028008 2.2472801 15.622673
38.003006 3.3292809 16.984673
45.35701 44.18928 47.221672
45.87101 45.234283 45.257683
53.033005 5.515282 37.503685
53.84301 7.142281 39.45768
72.97401 23.956284 63.899677
71.411 22.31028 63.28268
80.355 19.057278 53.247677
81.68501 16.653278 53.926678
29.276009 46.86228 16.868675
29.781006 0.6162796 15.442673
35.24801 0.5422821 1.51268
36.56701 46.410282 1.2076797
9.822014 27.81928 0.2696762
10.675011 29.448282 1.5696793
19.387009 29.177282 10.365677
18.39701 30.625282 12.238678
22.740005 30.618282 22.655678
21.007011 32.193283 22.439674
23.429008 42.179283 13.765678
24.447006 41.18528 11.893677
13.714012 30.36728 107.74868
