16.561409 34.343204 70.76521
17.416409 35.970203 0.052215576
0.43040848 22.134205 1.9212112
0.83140564 23.396204 0.2952118
5.538407 26.830204 3.1112137
5.1534085 27.816204 4.8042145
39.69441 63.600204 38.47921
39.73441 62.399204 36.88321
40.36741 59.714203 30.712208
39.19241 61.798203 30.10921
48.13741 10.710198 3.3972168
49.87541 10.361199 4.5582123
3.214405 5.144204 5.2152176
2.7984085 5.209199 2.9902115
3.4674075 13.420205 57.36221
2.1944084 12.8052 58.72221
51.21541 14.7352 65.44721
50.480408 12.620202 65.88121
5.415408 68.7922 15.419209
5.4584084 66.7372 15.327213
11.271408 64.8252 11.285213
12.765408 65.448204 9.850208
5.937408 6.4772043 13.462208
7.033408 8.2212 13.1952095
12.574408 5.2212 10.40221
14.863408 5.865205 8.821209
30.527409 19.009203 67.554214
29.032408 16.920206 67.57121
29.184408 16.3622 59.66221
28.177408 14.232202 59.12521
22.919407 56.643204 12.001209
22.092407 54.8552 12.005215
16.448408 51.8842 14.824207
15.287408 51.102203 13.337208
30.155407 42.1132 8.891209
30.692408 42.7172 10.900211
35.20541 49.215202 11.102215
35.14241 50.018204 12.927212
49.69341 32.861202 61.830208
47.32641 32.277203 62.28021
47.418407 30.076204 69.40321
47.946407 27.808205 70.081215
12.360408 46.929203 3.6762161
9.849408 46.512203 3.8102112
13.794408 39.358204 2.6292114
11.895408 38.479202 2.343216
13.583407 48.104202 46.62721
13.0294075 46.8282 48.72521
18.841408 42.819202 49.526207
17.586409 42.3622 51.317207
31.781408 24.067205 16.561214
32.960407 25.974205 17.24821
38.88141 28.263205 16.20821
38.44241 29.851204 17.244213
49.22141 47.235203 70.90521
48.459408 47.757202 1.0772171
2.5204086 50.833202 5.6442184
2.4884071 52.9662 4.3202133
46.474407 41.764202 11.080212
48.452408 41.1692 9.600208
0.12440872 36.700203 7.8932114
49.557407 36.428204 7.470215
28.109407 19.087198 69.10721
26.000408 19.178202 68.58921
24.986408 20.257204 4.1672134
26.368408 20.225199 5.4192123
10.357409 42.4872 8.084213
8.105408 42.409203 7.575218
2.160408 38.3702 6.5212173
2.900408 37.045204 8.33321
39.550407 26.638205 12.348209
40.545406 27.545202 14.037212
42.02641 20.8902 16.530209
43.48441 18.7372 16.837208
15.590407 48.8082 8.976208
15.192408 46.8842 9.0092125
19.449408 45.6622 15.83321
18.25541 43.9892 16.216213
2.912407 29.654205 27.564213
1.5104065 29.623205 26.050213
50.37541 22.070206 25.705212
49.95141 20.616205 26.784206
40.587406 31.040205 4.7832184
38.55541 32.231205 3.918213
31.197409 32.103203 2.468216
30.427408 30.231205 2.8852158
42.879406 34.527203 8.767208
42.946407 33.6122 10.949207
41.15941 41.691204 13.12521
42.74341 42.4202 11.976208
44.975407 56.430202 68.609215
44.016407 54.7732 69.735214
40.79841 52.4672 63.64721
38.594406 53.109203 63.498207
5.149407 3.1072018 63.07821
5.3794065 3.2192013 65.04821
0.6754074 70.1582 69.678215
0.10940552 67.9852 69.57221
16.807407 2.0802014 15.418209
14.587408 1.275201 14.099209
8.781408 3.3242047 19.26521
8.982409 4.549203 21.163212
18.067408 61.042202 12.201214
19.401407 59.495205 13.261211
12.101408 56.7462 17.049213
12.392407 57.483204 18.788212
4.6764083 50.935204 0.29421234
3.6254082 50.097202 70.51021
8.168408 46.9872 66.553215
10.183408 47.9062 65.32021
7.416408 61.448204 69.84921
7.6864085 59.488205 70.93521
3.947408 61.138203 6.364212
5.2354083 59.375202 7.3422165
17.552408 49.3432 1.2292175
16.304409 48.8972 2.5582123
13.897408 42.984203 71.47821
15.016408 42.782204 69.71621
6.3004084 56.935204 17.175213
4.4194083 56.040203 16.770214
7.1754084 49.638203 20.600208
8.950408 49.701202 22.425213
20.290407 39.372204 67.36221
21.311407 41.3422 68.15621
27.888409 39.248203 68.33721
28.051409 36.9452 67.03321
9.131408 7.6452036 5.452217
9.533408 6.9012003 3.1972122
15.880408 3.355203 2.7462158
17.611408 4.0691996 1.579216
1.2344055 15.524201 67.873215
0.3044052 13.366204 68.68321
50.45041 18.229204 3.5942154
1.3594055 18.2492 4.426216
7.6014066 0.74819946 19.509212
5.845406 1.8092052 19.592213
50.99141 67.9372 22.467213
48.918407 68.8112 23.198208
10.809408 58.121204 3.640213
11.547408 56.8902 2.369217
13.383408 49.2382 2.3702164
14.410408 48.886204 4.3122177
8.842408 63.421204 50.81421
7.040408 65.0502 50.699207
11.058408 66.4212 58.379208
10.533408 64.890205 59.511208
1.9304085 63.021202 66.71021
3.5334055 64.3252 66.29721
0.090408325 0.17320251 62.691208
49.85341 0.66619873 61.11021
46.001408 45.576202 33.36721
47.363407 45.255203 34.91921
44.32441 50.526203 40.49321
44.202408 52.157204 39.18721
34.53841 39.185204 16.109211
32.07341 39.2802 16.302212
31.775408 45.576202 21.202213
32.74841 46.659203 19.446209
39.15941 32.632202 61.024208
39.49841 30.552204 61.34121
41.38141 28.519205 53.63921
39.327408 28.106205 54.49621
47.577408 66.8572 50.053207
46.28241 67.4872 48.795208
40.559406 69.253204 46.171207
41.885406 70.226204 44.103207
0.8964081 38.5362 51.52921
50.78941 36.825203 50.82721
48.86141 34.437202 57.387207
47.792408 32.366203 55.99521
44.524406 4.6801996 11.536213
44.55541 2.3051999 10.799213
45.480408 66.6322 14.762211
46.18641 67.7032 16.966213
44.431408 38.9402 47.35021
46.65841 38.444202 48.25721
46.51441 32.788204 53.38821
44.633408 31.375204 54.678207
9.639408 20.711199 40.95221
11.608408 20.7772 40.12121
13.887408 15.565202 45.443207
15.664408 15.519204 44.573208
39.44441 7.6172037 0.13121796
38.272408 7.8262033 69.77421
38.996407 16.271204 69.57821
40.593407 16.129206 68.18421
33.271408 69.3802 23.213215
32.634407 69.2572 20.898212
28.103407 5.6902018 19.953213
28.475409 6.3292017 17.571209
39.09641 35.352203 60.98721
40.90241 35.422203 61.42621
47.058407 32.661205 59.227207
46.79041 31.240206 58.247208
3.7614062 26.838205 62.04221
3.2674065 25.810205 64.29921
47.100407 25.314205 64.86821
46.042408 23.577206 63.43621
42.51341 69.4992 0.8272171
43.695408 67.9142 1.5502167
49.129406 69.711205 69.152214
49.69241 0.31620026 67.59721
41.82541 52.5792 60.60421
39.307407 52.589203 61.13921
35.82641 59.517204 59.58421
34.48241 58.431202 57.87021
40.043407 3.6391995 11.207211
41.26941 5.644204 10.548214
42.786407 11.3712015 8.900211
43.899406 10.261201 7.586212
3.028408 8.169198 1.7312164
1.2814064 7.1512003 1.4332123
48.788406 2.242204 69.54321
46.81141 3.1592038 70.07121
28.136408 28.285208 3.2472153
27.863407 26.426207 3.515213
28.402409 22.386202 6.1442184
29.249409 20.143198 6.216217
0.97340775 54.042202 0.6622162
3.035408 53.540203 0.0062179565
4.2254066 59.471203 66.41721
4.023407 61.388203 66.57321
21.595407 52.242203 4.223213
23.155407 53.1332 5.482216
25.762407 58.660202 2.541214
25.787407 58.755203 0.4902115
37.78341 19.609201 18.171207
37.919407 18.628206 16.127209
37.85241 24.4872 10.887211
37.876408 23.699198 8.706211
31.590408 39.704205 12.719212
31.098408 39.8832 10.52721
33.08041 42.950203 4.8042145
32.94341 42.5582 2.5842133
7.151408 41.3422 57.29421
7.7934084 42.886204 58.87421
6.7274084 48.823204 54.32721
8.366408 48.214203 53.08321
1.7334061 50.1902 8.272213
51.205406 48.705204 9.051212
45.049408 48.117203 4.039215
44.348408 49.8692 3.6792145
34.14341 21.318201 6.869217
35.300407 20.761202 8.603214
37.93741 15.014199 12.051212
38.372406 14.798203 14.475208
22.018408 22.3742 42.117207
22.176409 21.6242 44.09021
27.041409 23.329203 50.06321
26.717407 25.598204 49.87421
39.20041 49.9942 60.80521
37.510406 49.208202 62.12721
42.365406 46.2812 66.18421
41.396408 44.422203 67.74021
13.559408 11.903199 54.18821
11.522408 11.852204 55.07621
8.996408 14.4022 48.43021
9.948408 13.626199 46.58321
23.417408 56.6882 22.225208
22.084408 58.233204 22.633213
24.142408 65.6432 20.926212
24.295408 65.5952 23.019215
37.00541 50.610203 9.520214
35.24341 49.456203 8.427212
32.028408 53.124203 3.4612122
29.701408 53.7652 2.5002136
45.544407 10.441201 42.775208
43.913406 9.439202 43.526207
39.515408 12.8182 37.30821
37.08841 12.4612055 37.98121
43.59641 39.350204 55.06521
41.322407 40.402203 56.033207
37.052406 34.046204 56.94721
35.75741 33.893204 55.38421
36.043407 46.9192 7.2412186
36.427406 45.0172 6.0422134
38.75041 40.921204 12.087208
37.62541 41.2652 14.209209
38.474407 47.109203 5.7472153
39.247406 49.187202 5.1412125
35.88841 55.771202 2.442215
35.22941 55.7872 0.5432129
38.03441 65.8802 65.011215
37.313408 64.33021 65.608215
39.50041 57.516205 68.61921
40.646408 58.235203 70.11221
17.68941 36.1192 64.10921
18.214409 35.837204 62.07221
20.580408 42.7092 65.02021
22.560408 42.2592 65.95121
37.09741 69.6362 5.888214
35.997406 0.74220276 6.956215
43.92141 3.188203 8.554211
43.16641 5.077203 8.802212
41.59641 68.6622 55.17521
40.80441 68.5182 57.26021
34.30541 1.9171993 56.81421
33.22041 1.7472011 54.274208
22.802408 0.8171997 17.173214
24.206408 1.8122035 15.342213
31.421408 2.8962033 14.998211
32.668407 0.87319946 13.908215
33.05941 12.108201 12.796207
33.987408 12.113198 10.637211
33.88141 15.830201 4.3282166
33.21141 14.507203 2.8992157
25.036407 26.595205 17.344212
25.697409 28.358206 15.790211
26.099407 31.826204 20.426212
26.289408 31.733204 22.658215
20.640408 44.082203 53.76721
20.527409 42.7732 51.858208
22.163408 34.6342 55.36921
21.727407 33.5372 53.68621
26.099407 47.734203 0.9792175
24.735409 49.0372 2.291214
26.031408 48.784203 9.502209
26.943407 50.771202 10.438213
36.987408 36.468204 46.34321
37.99241 38.816204 46.08421
33.396408 38.8972 51.77821
32.924408 39.645203 53.65921
47.280407 20.093203 59.83421
45.697407 18.7232 59.48721
50.857407 12.911202 57.407207
1.2584076 12.478204 55.92621
40.684406 38.229202 18.41521
41.21341 38.4462 15.497211
41.07641 29.978205 15.856213
42.46341 29.776205 14.099209
11.190408 38.962204 47.060207
12.849408 37.8012 47.91021
19.356407 39.867203 43.991207
20.213408 40.7802 42.15921
4.805408 52.4192 2.9742126
4.711408 54.497204 2.2152176
8.8644085 57.698204 69.09921
8.347408 57.005203 66.90621
28.558409 65.7502 22.407207
29.399408 66.8592 23.960209
31.620407 60.991203 29.90321
32.68641 62.683205 31.234211
33.38141 6.519204 8.753208
35.418407 5.9292 9.455212
39.80541 6.900201 2.9912186
42.189407 6.896203 3.9792175
43.669407 51.137203 22.714214
42.869408 50.5012 20.79121
39.22941 48.844204 18.44521
38.64341 47.888203 16.745213
41.704407 67.1522 68.78821
40.88141 64.8102 69.47821
43.744408 59.499203 65.26421
45.716408 60.408203 63.91921
0.47840816 49.158203 11.86121
2.2204082 48.7522 10.837208
8.220408 52.8692 11.109211
7.039408 54.719204 12.00021
28.606407 31.191204 6.0072174
26.984407 32.696205 7.406212
21.662407 36.006203 3.2502136
20.048409 34.5712 3.5262146
36.09741 32.849205 52.58421
34.273407 33.7232 52.33421
31.337408 35.8132 46.573208
31.280407 37.1132 45.03421
33.22241 27.971205 70.60121
33.209408 25.357204 70.51021
35.26941 24.815205 62.67921
37.51341 24.472204 62.93921
38.37541 9.076203 61.25621
37.90941 9.240205 58.90921
29.481407 11.9022 58.657207
29.599407 11.788201 56.192207
15.377408 6.5082026 70.62721
15.107408 8.482202 69.39321
19.974407 14.167199 70.76421
17.907408 13.564202 71.93121
11.661407 23.581202 1.0602112
11.817408 21.656199 2.2682114
18.714409 22.2232 3.7362137
19.422407 22.1382 6.117218
8.850408 4.2422037 30.742207
9.934408 3.5932019 28.831211
7.4834085 70.170204 22.912212
8.759408 69.3682 21.213215
4.052408 4.031205 7.793213
5.5304084 3.2412045 6.3182144
12.988408 2.914201 8.24921
14.178408 3.7182019 6.8662186
16.093409 54.465202 56.184208
18.093409 54.948204 57.220207
18.535408 55.1122 64.67321
20.500408 55.056202 64.80921
24.861408 54.130203 11.5092125
24.003408 53.3992 8.86021
25.501408 60.125202 4.9272156
25.774408 62.4182 5.753212
13.757408 37.622204 25.697208
13.534408 36.9112 27.717213
7.481408 35.012203 32.494205
5.440408 35.3412 30.774212
9.793408 38.2582 11.127209
10.840408 37.066204 9.738209
4.2884083 32.232204 6.8682175
6.0184083 30.810205 5.303215
24.082407 1.4912044 66.72521
24.079409 0.84020233 68.97821
18.904408 0.16919708 2.5482178
17.96041 68.712204 2.7072144
35.099407 18.076204 58.47221
36.071407 16.785204 56.651207
38.06241 19.2662 52.177208
39.42141 21.1402 52.68221
22.360409 53.018204 57.96621
21.870407 50.8692 58.46721
15.577408 49.180202 59.16121
13.690408 47.693203 58.71121
32.19841 55.549202 4.699211
34.16441 56.367203 4.690216
41.365406 56.006203 6.827217
40.543407 57.382202 8.6082115
48.927406 57.573204 43.150208
46.34741 56.5222 43.573208
48.996407 56.7162 49.92221
49.77541 54.5172 50.17521
20.441408 45.720203 51.54021
18.509409 45.3202 50.31521
12.123407 47.3902 53.89121
10.370408 46.2032 53.31121
11.599408 53.0642 9.738209
9.550408 51.535202 8.9832115
3.911408 55.8782 6.475212
2.5434082 54.0092 6.8422165
20.108408 50.784203 0.18721771
20.145409 52.719204 1.9792175
23.483408 59.741203 1.5322113
22.583408 60.859203 71.71721
22.658407 44.706203 36.77821
21.117409 46.477203 36.36021
14.712408 46.956203 33.65121
15.141408 47.403202 31.585209
23.265408 31.384205 9.840214
24.247408 33.179203 8.459209
22.676409 38.531204 13.44421
22.624409 38.423203 15.504208
21.035408 14.6852045 6.8322144
20.242409 15.2722025 5.2642136
25.425407 11.691201 0.19521332
23.580408 10.9302 70.98821
11.679408 33.477203 52.90421
10.577408 31.264204 52.705208
11.637408 24.928205 51.95121
13.4044075 23.570206 51.13821
40.14341 32.093204 1.5372162
42.329407 31.936205 1.3002167
47.20641 33.928204 68.72721
45.719406 34.888203 67.20221
27.040407 8.473199 54.48921
27.918407 8.480203 52.68121
32.73341 2.8481991 51.76621
34.88641 3.7482007 52.35621
9.988408 54.7872 19.56821
8.392408 56.5922 19.072208
6.6894083 57.569202 27.062206
5.095408 56.4732 28.106213
44.175407 43.7722 67.07921
45.045406 45.9042 66.70421
42.66641 47.747204 71.719215
43.156406 48.6262 1.4202118
2.7794075 42.9042 66.47421
2.5034065 40.285202 66.34321
48.858406 41.589203 59.46021
47.87341 42.9192 60.35321
14.785408 24.026205 26.40221
12.447408 24.700205 27.410206
13.181408 29.181206 33.31121
11.175408 28.789206 34.598213
26.434408 41.017204 7.7832184
28.247408 42.132202 6.1272125
29.641407 34.0572 3.4622116
31.546408 34.671204 3.117218
0.853405 43.4202 2.3892136
1.049408 41.792202 3.331215
3.907406 37.191204 69.92521
2.023407 36.164204 69.43221
10.806408 34.110203 58.678207
8.962408 33.061203 59.78421
8.308408 30.988205 66.805214
9.258409 29.314205 66.193214
11.803408 21.261202 51.08621
10.421408 22.810198 52.310207
12.909408 25.797201 55.59721
13.784408 25.697203 57.455208
27.717407 5.5462046 58.35621
29.441408 5.0652018 59.455208
35.56941 7.3191996 63.768208
35.153408 8.531205 65.03721
9.369408 57.352203 53.42421
7.9794083 56.400204 51.664207
11.271408 51.533203 46.302208
9.6734085 51.492203 44.75721
21.508408 30.871204 52.491207
21.902409 31.276205 50.005207
27.178408 28.402205 45.87821
28.128408 29.585205 47.317207
36.13041 64.489204 50.63321
36.820408 66.8172 51.57221
32.54841 66.8142 57.94021
31.265408 68.6532 58.00921
44.02741 31.618204 3.4002151
42.57441 33.069202 4.386215
46.469406 39.706203 7.985214
44.91641 40.088203 9.692211
9.050408 3.2822049 67.33421
8.362408 0.9822006 68.22921
4.026408 69.2412 2.0862122
2.5404081 0.9512024 2.0642166
48.705406 14.520204 66.72621
47.17241 15.983201 67.89121
44.43641 23.1822 67.25121
46.60941 24.387201 67.541214
38.40841 32.720203 54.518208
38.744408 31.992205 52.80521
40.029408 38.264202 49.82921
39.55341 40.657204 50.921207
3.242408 7.587205 52.53621
4.515408 9.760201 52.57121
3.669408 15.821198 47.561207
5.437408 16.212206 46.54421
1.2794075 15.885201 5.8632126
2.8184052 14.007203 6.545212
2.2274055 7.891198 10.204212
0.026405334 7.4372034 10.574207
22.491407 21.157198 3.5442123
20.750408 20.643198 2.9572144
21.121408 16.2512 68.87021
22.928408 15.255204 68.25521
37.16441 47.054203 71.17021
37.122406 47.1352 68.955215
34.342407 55.471203 69.81221
36.365406 56.2952 69.969215
15.197408 69.5922 68.85221
17.15841 69.6712 68.57521
21.837408 4.245202 70.82721
21.789408 6.8712015 71.09921
40.358406 66.1572 52.143208
42.62341 66.8402 51.81521
47.34541 69.8722 49.90921
48.911407 0.59020233 50.99521
39.07441 62.736202 47.72921
37.61141 64.281204 47.94021
35.966408 1.6512004 48.63921
35.04141 1.612199 50.51421
5.6684084 26.722204 27.519207
5.310408 28.767204 28.385212
3.3224082 27.034204 35.807213
1.3064082 26.780205 35.166214
37.59741 18.2912 67.789215
36.613407 17.495203 69.78121
30.978407 22.758204 69.914215
29.138409 22.4452 70.43421
40.48541 56.948204 32.30821
38.392406 57.257202 31.537212
37.64541 56.421204 24.712208
35.455406 56.587204 24.051212
42.00741 15.225205 58.82021
44.266407 15.713204 59.69421
45.91641 10.851205 63.70421
47.80441 11.7722025 65.05721
47.622406 24.3342 8.25021
48.33141 23.095201 9.93021
3.9564059 26.054205 10.029209
2.9614067 27.580206 11.564213
43.96341 69.7712 59.07221
43.23641 67.9372 58.170208
43.22041 60.929203 57.394207
45.335407 61.829205 55.96621
24.309408 51.358204 38.927208
23.565409 52.513203 36.85321
26.168407 58.5702 32.98021
27.855408 58.3552 34.58321
4.446408 2.067201 29.87421
3.5994074 0.3092041 29.80421
50.140408 68.7682 26.983212
49.335407 67.8252 29.40321
51.253407 60.979202 66.12721
1.4704056 59.997204 67.09921
47.51341 56.361202 69.18721
46.54141 56.9872 71.08321
0.13440704 47.0862 35.16821
49.598408 47.7742 34.45621
47.886406 55.0102 33.03421
48.40041 56.532204 34.17921
4.1844063 55.059204 57.17321
2.7364082 56.6822 56.49921
46.254406 53.1282 57.86421
46.01341 51.830204 56.21721
17.905409 25.453205 8.520214
17.84241 27.300205 9.080212
24.170408 28.236204 13.600208
23.482409 29.653204 15.247211
36.806408 30.947205 56.991207
37.521408 30.072205 55.10621
39.503407 29.606205 52.087208
40.93541 28.491205 50.663208
46.81141 8.6472025 71.748215
48.780407 7.7962046 0.020217896
49.691406 9.448205 63.70021
50.126408 7.4942026 63.11221
20.311407 48.1892 32.17921
22.091408 47.4532 31.272213
22.914408 45.616203 29.36121
22.057407 43.818203 27.946209
25.263409 4.3242044 62.90921
26.382408 4.406205 60.60321
25.996408 68.1472 56.49321
25.088408 66.3892 58.13121
49.542408 31.409204 59.44521
51.09741 30.476204 60.649208
49.67841 22.096205 59.60621
0.5464058 21.589205 60.27321
30.632408 66.6022 3.0692139
30.753408 68.0092 0.83621216
36.59041 68.4822 3.5322113
38.780407 67.8042 4.508217
42.217407 69.7352 61.85721
41.16641 70.0462 60.11121
33.83641 67.363205 60.254208
33.82641 65.4402 59.83621
40.45741 44.4452 12.7822075
40.967407 46.4882 13.812214
43.279408 52.929203 11.386211
42.397408 53.4392 9.51421
24.861408 31.234205 30.073208
25.352407 33.1552 30.31821
25.902409 39.851204 28.77921
23.782408 40.040203 29.66521
33.48441 18.311205 29.143208
33.786407 20.5272 29.643208
32.043407 23.146204 36.58321
33.049408 24.8342 37.50021
40.516407 18.455202 50.962208
41.90241 20.298204 51.59621
41.121407 23.493204 44.41221
42.35241 23.8342 42.387207
27.717407 19.086199 9.62421
26.309408 20.2912 8.658215
26.025408 27.646208 11.665211
26.989408 28.576208 13.725208
33.071407 11.101205 17.092213
31.845407 11.642205 15.604214
32.397408 5.0952005 11.511211
31.126408 3.9962018 12.11021
34.570408 16.927202 66.82621
36.40841 16.649202 66.09321
39.63141 9.566201 63.69521
39.022408 7.9432 65.43721
24.195408 66.7212 42.51521
23.122408 68.1592 43.138206
22.143408 2.9301999 49.17321
24.309408 3.0862057 50.351208
14.200408 2.841203 10.968212
15.795408 3.0222027 12.68121
22.468409 3.5052044 6.9192123
23.153408 5.8812037 7.508217
36.211407 4.1212015 70.30821
34.78441 3.4191983 69.13521
33.890408 65.8252 66.89421
35.07241 65.7432 64.93821
7.8874083 58.267204 64.47721
10.079408 58.971203 63.47821
15.453408 58.736202 59.88821
14.938408 58.224205 57.79321
18.26941 14.523202 7.1012115
16.563408 15.9162 6.168213
16.115408 21.565203 11.466213
16.430408 23.326204 10.529209
18.757408 41.5362 66.97521
17.506409 42.844204 65.346214
10.327408 44.639202 62.748207
8.833408 44.9252 64.43521
26.306408 20.746202 50.428207
27.390408 18.4052 50.616207
27.309408 12.789201 51.24521
25.790407 13.422204 49.98521
18.941408 43.261204 8.812214
18.976408 45.5452 8.512211
20.089407 51.1632 6.200218
17.840408 51.0932 5.845215
31.486408 7.3142023 24.81921
29.437408 8.400201 25.618206
32.891407 6.0792017 32.496212
32.51441 7.2651987 34.169212
37.052406 28.075205 31.881208
37.197407 28.919205 33.990208
29.602407 26.664206 34.04321
28.190409 27.192205 32.88721
20.662407 11.453202 59.16921
22.571407 13.019204 59.65421
23.054407 15.968202 65.67121
24.859407 17.185205 66.54321
18.350409 68.766205 62.61221
18.59941 0.47319794 61.62421
23.157408 68.128204 55.37521
24.092407 66.4272 55.05521
43.45741 68.9432 67.080215
42.20841 0.52420044 65.88021
40.079407 6.9712 67.817215
41.598408 8.704202 67.64021
26.521408 50.616203 70.081215
28.391407 50.937202 69.31121
27.106407 57.9732 66.248215
28.539408 59.6882 66.89421
23.078407 26.338205 68.749214
22.612408 28.948204 68.42321
28.336409 31.948204 2.2142181
28.484407 33.635204 0.6732178
19.769407 53.137203 66.81021
20.869408 51.402203 67.97921
18.06441 45.1832 66.86121
16.388409 45.3012 65.11521
9.949409 37.962204 38.95921
10.894408 40.0302 38.66821
8.519408 45.417202 34.13221
7.0244083 44.4132 32.67621
25.473408 40.922203 11.540211
23.093409 41.0382 11.963215
22.156408 37.401203 5.8802185
23.118408 37.929203 4.1862183
29.455408 17.913202 7.8992157
29.608408 17.3742 6.1632156
29.635408 11.286202 4.7862167
29.000408 9.6212015 3.0502167
14.033408 7.358201 59.157207
14.836408 6.0792017 61.754208
8.308408 8.841203 65.13421
9.228408 7.955201 67.03621
20.817408 22.2092 64.78321
19.452408 21.201204 63.20021
16.975409 22.675203 56.594208
16.226408 20.9732 57.66821
16.110409 0.51820374 3.5612183
17.338408 1.912202 4.8852158
16.687408 67.8002 12.220211
17.502409 69.6762 13.590214
9.881408 1.2482005 53.14221
12.113408 0.2962036 53.64521
9.976408 69.170204 58.82921
8.824409 68.6322 60.823208
18.489408 70.2372 65.025215
17.785408 68.488205 66.21221
20.426409 63.818203 64.24021
20.812408 61.477203 64.79621
10.509408 35.554203 50.37521
11.374408 33.545204 50.158207
19.007408 32.892204 50.61821
19.349407 30.986204 49.727207
19.807407 38.6472 2.902214
20.673409 39.2662 4.985214
16.746408 44.2302 7.343216
15.969408 46.0842 6.6652145
45.52041 33.0092 11.076214
45.45141 34.885204 9.626209
0.64740753 34.360203 6.6602173
2.478405 34.3562 8.122215
19.306408 2.8092053 3.3892136
20.569408 4.2542048 1.9112167
24.279408 3.2032025 70.358215
26.007408 3.5551999 69.64121
30.393408 28.018206 70.36721
27.919407 27.983206 70.07821
27.508408 27.189205 63.46121
25.910408 27.938206 62.62021
6.911408 13.942201 6.2312164
5.029408 14.465203 5.277214
0.8214073 9.934205 2.6772156
50.02041 9.932199 1.6122131
22.520409 64.06521 33.323208
20.191408 63.873203 34.337208
24.444408 66.3712 39.68821
25.717407 65.1082 40.622208
33.47241 3.275201 35.72921
34.81541 4.2182016 37.79121
31.749409 1.5762035 42.56921
32.20741 69.9412 43.41721
2.796408 12.807199 67.762215
4.759408 12.576203 68.22321
9.304408 9.678201 1.9362183
7.7494082 9.572198 3.5962143
7.4664083 5.3611994 15.40221
7.467408 3.2062008 15.349209
13.711408 0.23719788 11.699207
13.009408 0.39320374 9.69421
14.9704075 49.361202 15.584209
16.44641 49.9662 17.088215
11.718408 46.2042 19.353214
10.597408 46.181202 20.988209
51.170406 43.588203 24.954212
49.608406 43.095203 26.969212
47.823406 46.1892 20.76221
46.79841 46.684204 19.159214
13.539408 13.755204 5.1252136
14.278408 15.997201 4.3342133
9.878408 21.604204 5.194214
8.4894085 21.9312 6.9692154
4.2374077 23.437204 30.044209
3.3514044 22.442202 32.170208
47.67241 25.351202 31.592213
46.481407 24.912203 29.72321
24.384407 33.352203 55.27121
24.401407 33.4042 57.56421
31.020409 38.748203 58.48921
32.398407 37.454205 57.22221
7.450408 17.8202 61.52721
7.5164084 16.146204 62.616207
8.588408 20.340204 69.914215
7.7154083 18.5852 71.33321
16.792408 55.2532 68.19921
15.618408 56.296204 69.62621
18.475409 61.861202 2.015213
19.395407 62.2932 3.9122162
50.745407 46.762203 66.07921
50.648407 48.2602 67.61221
46.45741 53.8352 69.19521
47.719406 52.874203 70.46521
29.204409 67.9522 20.27721
28.268408 67.5282 18.04121
30.992409 60.728203 20.797215
30.759407 59.312202 19.108212
30.961409 28.977205 66.25921
31.814407 31.202206 65.55721
37.56241 28.656204 63.57821
40.177406 28.845205 63.25621
5.1494083 24.729204 54.698208
6.890408 23.1962 53.86021
6.6154084 18.7352 48.25821
5.627408 16.786203 49.30421
3.6044085 37.7162 15.103214
3.553406 39.326202 13.670208
49.912407 43.610203 18.484211
0.7204056 44.463203 18.323208
48.292408 8.964204 12.59721
50.67841 9.313203 12.393208
0.6184082 15.975205 10.412212
50.557407 17.567202 11.285213
0.6774063 16.331202 48.62721
0.61040497 14.936204 46.86221
0.9704056 7.2842035 48.20221
51.03941 5.6712046 49.16721
5.463406 9.602204 65.692215
5.4434056 7.926202 64.45921
50.67941 8.8042 59.323208
49.315407 9.201203 60.76321
46.564407 59.038204 65.99121
46.988407 61.3142 66.56421
45.772408 59.132202 0.9502182
43.68541 58.0432 1.7602158
15.698408 13.334199 32.82821
13.421408 13.947198 33.20721
13.376408 19.8882 38.288208
14.118408 21.631197 36.80021
14.396408 53.6052 15.203213
13.042408 53.951202 13.079212
12.124408 58.156204 8.314213
11.012408 60.316204 8.170208
45.328407 43.4802 9.299213
44.813408 44.726204 7.4792175
38.64341 49.101204 8.261211
37.495407 47.6882 9.516209
45.737408 55.4732 14.081211
47.41641 56.532204 14.129208
51.11841 55.014202 6.480217
51.141407 57.256203 6.119217
50.653408 23.466206 69.42721
0.48340607 25.252205 70.33421
4.675408 28.311205 65.59321
5.769406 29.620205 66.13221
39.22041 36.185204 32.69321
38.896408 33.7242 33.93521
39.517406 37.838203 38.14121
40.585407 39.583202 39.455208
1.0314064 0.09919739 39.49321
51.169407 1.4132015 38.36921
49.633408 6.3952036 43.573208
50.447407 6.691201 45.540207
31.792408 13.885201 17.039211
33.05141 15.507203 15.803211
35.292408 19.5152 15.830212
35.396408 21.8892 15.943211
11.504408 21.586199 70.68721
12.734407 20.036203 0.3252182
18.555408 17.8622 4.200218
18.192408 15.952203 3.8142166
-0.1325919 61.284203 61.40921
1.0564082 62.998203 60.01421
6.315408 68.1712 59.983208
4.418408 69.0682 60.17421
25.329409 61.470203 64.332214
26.854408 62.889202 63.18021
34.77541 63.212204 63.95321
35.18741 63.122204 66.43921
42.08941 63.887203 51.72221
43.04041 62.659203 53.15521
50.13041 62.740204 54.150208
49.945408 65.1532 53.75121
48.653408 53.0082 52.59821
50.224407 52.1762 51.274208
3.4514067 57.0032 48.663208
5.5734067 57.531204 48.41021
33.57941 63.271202 38.42921
31.343409 64.39821 38.816208
25.606407 59.951202 38.90021
25.094408 58.468204 39.84921
39.690407 54.256203 49.60721
40.20841 53.1192 51.23021
47.83241 50.5372 50.44021
47.795406 48.8432 49.43321
8.222408 43.9272 42.74421
8.549408 42.5172 40.941208
2.143408 45.9822 40.59921
0.7194081 47.193203 39.32121
0.18740803 47.997204 63.22221
-0.44559187 45.5932 63.20221
7.9204082 43.1972 61.93221
7.021408 41.4952 61.567207
5.362408 15.880204 67.43821
4.5184083 14.247201 66.10621
2.942408 20.8202 61.29721
4.664408 21.3492 60.101208
7.206408 36.8982 26.397213
5.415408 37.2092 24.84621
3.6944082 34.5842 23.66821
2.575408 33.456203 22.50021
48.259407 45.590202 62.740208
46.48641 44.889202 62.29821
43.29841 51.185204 62.35421
43.761406 53.1352 63.29821
14.740408 3.3502057 38.35021
13.945408 4.726205 37.36321
10.721408 2.256204 31.606209
12.573408 1.037202 30.597208
3.836407 18.581202 46.76421
4.7714086 20.5292 47.693207
50.33341 18.879198 51.29821
49.25041 17.5282 49.36021
1.7204056 52.554203 62.86021
0.22340775 50.9452 62.90421
46.488407 56.943203 64.46221
45.64341 56.3982 66.02221
4.6604085 49.3782 21.33321
4.685406 50.7102 22.964214
3.3304062 45.429203 28.687206
1.615406 44.178204 29.163212
34.02541 54.881203 65.11421
32.93041 53.589203 64.41321
30.467407 48.463203 68.24221
31.708408 47.346203 69.71021
5.226408 39.047203 54.059208
4.713408 40.215202 52.13121
10.332408 44.2092 55.04821
12.997408 44.650204 54.97121
6.3634076 54.2592 63.84821
4.555409 55.6272 65.15921
1.4594078 51.561203 70.09021
50.947407 50.228203 70.762215
6.3214083 35.442204 40.21121
4.667408 35.006203 41.86221
7.5454082 39.5992 47.65921
9.494408 39.3552 49.13321
29.779408 19.2092 49.81921
31.255407 21.198198 49.31521
35.21341 24.219202 44.45421
35.20641 23.706202 42.63221
17.933409 16.108202 70.92221
18.239408 15.589204 68.76021
14.381408 21.651201 67.55121
12.517407 21.817202 66.26521
25.022408 9.212205 59.40321
25.548409 11.284204 60.67621
32.292408 11.6092005 64.805214
30.914408 13.042199 65.94821
39.19941 21.791204 6.9252167
40.79041 21.990206 5.3982162
37.59741 27.951204 7.2732162
38.13041 28.473206 9.225208
10.178408 53.0372 42.63421
7.9044085 53.755203 42.21821
3.9314082 56.226204 39.52321
3.3524082 58.1122 39.23721
32.37141 57.6472 20.871212
32.94741 56.4962 22.422215
31.185408 49.2952 22.829212
32.15141 48.5512 21.288212
18.713408 10.236199 63.76321
16.82841 9.1242 64.71221
18.701408 2.1951993 63.588207
18.984407 3.2912 61.66221
3.5904086 35.885204 39.22821
1.4724083 36.158203 39.56221
2.5754051 29.548204 38.11221
2.6904068 27.248205 38.56721
43.41641 66.669205 54.768208
44.74141 67.905205 55.816208
0.11640549 66.7142 60.004208
50.35241 64.64821 60.96721
12.372408 24.202206 67.79521
12.339408 26.132204 67.26821
18.906408 28.003204 67.83421
19.893408 29.632204 69.47821
6.395408 8.315202 45.35421
6.447408 7.0542 46.83621
7.6534085 7.108201 54.71821
9.348408 8.646203 54.616207
40.358406 52.978203 32.913208
40.85241 53.9592 35.16121
41.78241 49.9542 41.227207
39.752407 49.331203 42.63221
39.420406 67.6602 67.513214
40.504406 68.9462 66.73021
34.974407 5.476205 65.804214
35.445408 5.634202 67.78621
43.675407 55.520203 52.37721
44.778408 53.763203 53.394207
44.049408 57.144203 59.045208
45.202408 55.622204 60.56421
35.47941 61.367203 62.19421
35.731407 62.250202 59.81421
40.212406 66.392204 54.91921
41.497406 64.851204 54.18021
28.438408 60.905205 33.43221
29.979408 60.718204 32.17921
31.338408 54.3622 36.79721
29.228407 53.929203 37.57821
39.88941 32.668205 31.232212
38.031406 32.785202 29.815212
35.030407 33.892204 25.269207
33.043407 34.520203 24.928211
40.18741 32.689205 63.50921
39.80441 35.171204 63.96121
35.83341 35.493202 60.94621
36.835407 34.026203 59.566208
29.985409 30.641205 49.219208
28.795408 31.984205 48.422207
28.880407 37.312202 47.36221
28.486408 39.416203 47.046207
38.015408 6.598199 62.962208
36.781406 5.9572 61.498207
38.739407 8.324204 56.07921
38.57441 8.203202 53.99521
29.964407 28.126205 63.78521
29.832407 28.839205 61.88421
37.578407 28.482204 60.62821
38.106407 28.012205 58.261208
46.522408 36.284203 60.55521
48.245407 35.305202 61.52021
3.9364054 39.868202 59.00621
3.9984057 41.6892 60.46721
10.613408 42.8562 69.82821
11.146408 42.2162 0.15821838
6.7554083 45.624203 4.1482162
5.375408 44.715202 5.753212
36.452408 8.898202 50.622208
36.341408 7.641198 52.205208
31.572409 6.5912027 57.206207
32.22541 4.834199 58.58621
31.555408 2.067201 47.43221
32.02741 0.42220306 46.24621
30.567408 66.4382 50.20221
30.595407 64.08021 49.56321
39.46341 30.116205 32.05021
39.181408 30.976204 34.15321
43.535408 28.259205 39.58221
45.169407 30.036205 41.13921
24.248407 32.903202 61.101208
22.987408 32.535202 63.053207
30.002407 31.903204 67.32421
29.177408 30.105206 68.124214
9.162408 59.4532 19.016209
9.675408 58.079205 17.48621
9.062408 54.789204 13.807209
10.723408 54.249203 12.150211
28.562408 31.769205 10.274212
29.251408 30.368204 8.591213
35.68741 27.367205 8.993214
35.27441 26.001205 10.526211
12.874408 33.076202 61.93321
14.262408 31.408205 61.651207
14.364408 25.301205 65.19621
16.145409 23.593204 65.999214
40.16641 10.454202 5.1712112
40.356407 9.632203 2.7762146
38.82541 17.564203 2.9932175
40.362408 17.023203 4.7192154
21.638409 23.804205 54.52121
22.983408 23.920204 56.20321
24.666409 29.538204 60.48721
23.104408 30.209206 61.44421
41.225407 5.5962 42.406208
40.452408 4.964204 44.088207
35.25041 8.807199 48.15921
35.709408 10.642205 47.832207
31.418407 23.572199 59.20221
33.328407 24.325197 60.65221
29.788408 21.6252 67.707214
27.438408 21.6812 68.27921
9.354408 60.3902 65.64721
10.330408 59.1822 67.25921
12.891408 66.1522 69.58321
11.4044075 67.9112 69.22721
30.714407 51.9192 38.94921
32.10141 53.375202 39.184208
36.441406 49.291203 44.46521
34.723408 48.881203 45.721207
26.132408 38.3422 46.24521
24.458408 39.1692 47.62021
23.326408 32.908203 51.61021
24.124409 31.637205 53.060207
17.568409 46.056202 62.19021
18.379408 44.323204 62.455208
18.127409 42.5012 54.83621
16.200409 41.783203 53.59721
23.556408 30.538204 38.40421
24.525408 31.797205 40.27921
28.453407 27.535206 37.13621
28.937408 25.527205 36.94421
36.09641 58.020203 67.99321
33.84441 57.701202 67.47621
29.895409 64.225204 68.82221
29.361408 65.6772 69.76521
19.939407 55.3012 55.26321
20.476408 56.8552 54.16021
19.854408 61.3412 48.198208
19.611408 61.965202 50.73621
1.990406 63.332203 37.93521
0.9504051 61.747204 37.20021
47.688408 60.176205 42.93321
45.843407 59.002205 42.57721
10.059408 16.061205 61.65521
9.6404085 13.701203 61.79921
15.657408 11.350205 65.72421
15.337408 11.198205 67.82021
22.900408 56.186203 24.795208
21.977407 56.138203 26.70921
22.116407 50.0232 30.26521
20.460407 51.372204 31.176212
3.3094082 53.7722 60.894207
5.476408 55.181202 61.46721
11.384408 56.561203 56.72121
11.719408 54.525204 55.93821
3.1404076 10.364205 55.10621
2.1794052 8.561204 54.64821
50.38241 5.7771997 60.247208
50.74941 4.9112024 62.393208
34.849407 22.4172 59.76621
36.75541 23.510202 60.45921
42.97041 19.1112 59.38821
43.13141 17.643206 57.421207
40.321407 66.1322 26.961208
39.93541 65.3702 29.259212
43.13141 68.2602 34.944214
43.577408 69.5962 33.54921
15.101408 39.035202 0.23221588
15.151408 41.010204 0.83021545
22.094408 40.770203 3.2872162
23.842407 39.873203 2.2922134
20.703407 14.884202 58.61921
18.878408 13.542199 59.04121
20.602407 15.532205 64.32721
19.879408 15.8872 66.205215
26.335407 6.797204 6.1432114
24.678408 5.6111994 5.206215
24.342407 6.919198 70.07921
24.373407 8.898202 69.596214
18.178408 6.6131983 0.7342148
20.430408 6.7762003 1.2502136
20.458408 9.253205 8.787212
22.180408 10.928201 8.519215
42.67241 16.215204 70.36221
42.80541 14.267205 69.63421
42.97741 8.6662 2.0862122
43.278408 9.600205 3.7622147
15.912408 8.460198 62.060207
16.161407 8.852204 59.95321
14.459408 13.799203 55.67321
15.237408 15.510201 56.36021
44.475407 59.447205 55.449207
45.280407 58.847202 57.324207
0.6734085 61.242203 58.19621
2.8524055 60.673203 58.13221
15.193408 52.7252 71.345215
15.168407 50.674202 0.4882126
11.205408 46.123203 67.525215
9.777408 45.483204 68.900215
11.902408 7.292199 45.36421
10.240408 6.4892054 44.074207
10.878408 3.1142056 50.62621
10.560408 3.7672055 52.692207
17.959408 49.145203 63.23021
17.400408 48.429203 61.14521
23.530407 45.9042 57.59821
25.733408 46.776203 57.93121
28.489408 44.651203 59.045208
26.387407 45.2462 60.16721
27.769407 52.8432 61.977207
26.196407 52.9042 63.255207
34.64941 30.257204 22.844212
35.545406 29.497206 25.04221
40.133408 24.563206 23.432209
41.146408 22.929205 24.310207
14.164408 8.9612055 54.79321
15.085408 6.948205 53.948208
16.348408 4.120202 60.309208
16.265408 2.117204 60.86421
21.522408 15.391198 50.108208
23.420408 16.439203 50.39721
25.879408 14.584199 57.76721
24.717407 15.223199 59.46521
22.659409 0.7862015 13.148212
22.458408 69.170204 12.019215
20.197409 68.989204 4.664215
22.113407 69.350204 3.404213
15.583407 69.1722 53.18021
17.537409 69.3722 53.935207
14.676408 66.0962 61.262207
13.133408 65.642204 60.36421
12.883408 67.419205 53.42921
14.676408 66.6212 52.98121
10.670408 59.832203 53.50321
10.782408 59.040203 55.94721
14.036407 53.990204 45.41221
13.343408 51.833202 44.07821
14.786407 56.560204 37.26921
16.116407 54.923203 35.86021
5.3004084 24.5852 61.99421
3.5734081 23.228197 63.206207
4.782408 19.156199 69.24321
3.5104082 20.316202 70.30621
14.905408 34.5572 63.34121
13.035408 35.4732 62.97321
8.099408 36.053204 68.64321
9.842408 36.728203 70.43921
34.13941 58.201202 1.652214
32.02041 57.657204 2.5362167
29.395409 52.7172 71.69521
31.241407 52.193203 0.49921417
6.2744083 5.945199 62.84921
8.729408 4.6801996 62.574207
11.037408 6.8452005 55.504208
12.275408 6.8901987 57.08921
14.563408 26.440205 59.96521
15.786407 27.662205 58.47821
16.688408 32.685204 61.56821
17.403408 33.475204 63.47921
17.104408 23.170198 50.074207
18.741407 21.810198 49.10521
12.447408 16.468203 49.83621
11.174408 16.408205 48.50721
10.588408 24.498205 65.82121
9.255408 25.825205 67.22621
7.404408 26.933205 1.1952133
9.713408 27.693205 71.90721
15.601408 68.5092 62.288208
14.412408 67.8682 63.754208
11.587408 2.9591992 67.804214
13.593408 3.7952054 68.96721
24.503408 51.451202 59.57621
25.528408 52.8832 60.441208
26.727407 56.7952 54.094208
28.879408 57.263203 53.984207
37.904408 53.117203 47.19521
38.48541 54.726204 46.34221
38.405407 60.6822 43.25821
36.848408 61.613205 43.55121
30.807407 31.103205 63.074207
31.610409 32.977203 62.14121
30.933409 33.074203 53.789207
33.07641 31.802204 53.90421
16.361408 63.589203 3.390213
16.148409 64.9972 1.0202179
11.915408 57.879204 71.92321
10.312408 58.9802 0.72021484
44.08841 24.578205 65.08621
44.411407 26.567205 66.00021
44.592407 26.910204 58.35521
46.716408 26.253204 58.62521
12.884408 31.563206 59.32021
12.770408 28.658205 59.566208
9.616408 27.309204 64.45021
7.5124083 27.105206 65.39921
10.3974085 37.4192 44.44721
12.364408 38.172203 43.29121
15.057407 31.604204 46.450207
14.778408 29.957205 46.14721
29.865408 23.081202 50.57921
30.254408 24.7642 51.663208
36.550407 21.101198 50.73721
38.42341 22.8902 50.59921
49.70741 16.965204 46.07821
50.570408 15.205201 44.63921
5.3564076 19.246202 44.01021
5.7104077 19.601198 41.91821
13.826407 6.8142023 48.10621
14.127408 5.594201 46.207207
9.653408 0.7751999 49.908207
9.563408 69.3002 51.483208
7.4624085 69.7152 31.957209
5.552408 0.17720032 32.68021
1.8764081 3.2221997 39.06721
3.078408 3.1971982 40.81421
11.653408 5.368203 41.87821
12.771408 5.153199 40.06221
16.904408 8.565202 44.95821
15.3784075 8.617204 46.602207
38.42141 45.0152 51.92621
37.891407 43.0312 51.21721
32.73541 47.191204 45.749207
31.800407 48.470203 47.54421
47.108406 36.4672 46.56521
49.030407 36.583202 48.018208
2.2204056 30.840204 48.75921
4.296406 30.721205 49.38521
7.474408 21.859201 58.54721
7.434408 22.658197 60.56221
13.613408 22.8602 64.11321
15.972408 22.854204 63.11821
36.183407 20.9852 64.86521
35.349407 19.365198 65.08521
30.450407 20.790201 59.54121
32.028408 21.262201 58.63421
41.885406 20.7082 19.43021
40.08241 19.255198 19.328213
38.19241 16.257204 25.039211
40.13041 15.148202 25.87421
18.705408 8.103204 61.04221
18.608408 9.409204 58.893208
25.546408 7.658204 56.92921
26.098408 5.891198 56.14721
16.800407 22.902205 35.40521
17.112408 24.319204 33.761208
20.606407 30.739204 34.24321
19.368408 31.246204 36.27621
48.823406 61.665203 64.55321
49.36741 63.030205 65.42421
43.88841 68.7742 63.886208
44.503407 0.4402008 63.12821
6.501408 13.933198 61.630207
7.567408 12.417199 62.748207
9.328408 10.313203 56.57021
11.430408 9.470201 56.59221
33.36541 11.852204 36.39721
33.412407 9.966203 37.55821
31.433409 10.085198 43.455208
32.501408 9.2342005 45.23921
13.214408 15.743203 52.15321
13.020408 17.854204 53.219208
8.406408 14.245202 59.49621
6.638408 15.849198 59.84621
44.772408 41.596203 49.32221
44.521408 40.513203 50.88821
47.483406 37.006203 57.22421
49.017406 39.111202 57.51421
8.587408 19.5832 59.740208
9.948408 18.461206 60.52021
16.573408 20.262201 61.908207
17.484407 19.563204 64.10021
45.746407 15.306199 41.96021
45.670406 15.1382 44.13921
40.53341 16.1132 47.89721
39.58141 14.564202 46.40221
35.919407 28.318205 43.455208
36.82441 27.761206 45.873207
30.497408 24.706205 48.12621
29.264408 26.084206 49.68121
43.33941 56.012203 10.595211
42.975407 58.222202 9.494213
49.440407 61.118202 6.560211
48.53241 62.926205 6.0102158
22.938408 3.0092022 41.95321
23.377407 5.094201 42.41221
29.664408 1.4311992 44.75121
31.474407 2.9812024 44.98221
37.898407 43.402203 54.609207
39.802406 44.7602 54.17221
46.18641 42.331203 57.18121
45.153408 43.132202 59.11121
37.357407 46.790203 44.040207
38.003407 44.894203 42.90521
33.17141 47.401203 36.05021
34.99841 46.789204 34.46621
40.023407 13.001199 44.136208
37.43641 12.941201 44.422207
36.676407 5.9572 39.21821
36.466408 8.266198 37.92921
46.78941 12.885201 67.78121
45.641407 13.848199 69.761215
46.550407 12.690202 4.466217
48.50741 12.589204 5.3842163
27.312408 44.0452 2.579216
26.353407 41.3282 2.5752182
30.905407 43.977203 69.748215
32.70541 44.7232 69.78421
31.330408 43.5442 39.74421
30.687408 43.3432 41.73921
31.133408 43.254204 46.23021
30.666409 42.937202 48.35621
12.881408 6.2602015 69.95121
11.1144085 6.894204 68.95421
7.106408 5.1072016 3.1202164
5.822408 4.2322016 3.7982178
35.08841 4.0822 49.17321
36.087406 5.3032007 50.90221
40.105408 1.5942012 46.48921
41.73641 2.690202 44.87021
33.82641 23.873201 11.420208
31.924408 25.004198 11.58321
27.869408 18.073206 15.18121
26.026407 18.4592 14.085209
18.024408 57.229202 23.73621
16.461409 57.1752 22.655209
21.038408 56.4452 17.330212
22.295408 57.927204 16.852215
31.884407 39.8222 60.75121
31.651407 40.100204 62.91021
32.38941 45.410202 66.694214
29.926409 46.366203 66.57121
31.572409 8.479203 40.559208
33.446407 8.074204 42.178207
38.04141 3.1251996 45.13521
36.571407 1.3152019 46.16021
48.115406 48.950203 41.164207
49.11741 47.5172 42.00721
46.877407 46.7942 46.41821
46.77041 46.1622 48.17521
22.065409 50.7882 48.629208
24.357409 50.464203 49.04821
24.851408 43.096203 49.519207
24.052408 41.116203 49.38921
43.857407 56.5452 62.581207
43.254406 58.156204 61.24521
35.961407 56.8292 65.60221
34.29141 58.506203 64.82921
47.04741 51.222202 59.77921
48.78941 50.139202 58.052208
50.52041 43.256203 57.95021
1.4654083 42.9042 59.02721
42.851406 16.7652 50.75021
41.017406 15.5262 50.53521
38.170406 11.032205 55.81321
39.086407 11.590203 57.92621
24.343409 32.810204 32.78221
23.073408 30.763205 33.13721
26.360409 25.860205 37.76121
24.377407 25.024204 38.38921
7.967408 2.6671994 64.12521
9.201408 1.063203 65.64421
6.6884084 66.5952 69.06521
7.7164083 64.448204 69.58821
37.349407 46.3282 54.449207
35.821407 45.962204 52.622208
29.570408 42.157204 50.59821
31.146408 40.1882 50.89721
20.392408 33.1962 38.55421
21.818407 32.257202 37.19721
24.841408 35.172203 31.888208
26.927408 36.4252 31.483208
42.710407 42.894203 63.53021
41.600407 45.074203 63.81921
43.77641 50.6552 59.51621
45.01341 50.116203 57.95421
35.640408 2.9412014 59.30721
34.425407 4.2272043 60.56421
33.00641 3.7521985 67.291214
31.628408 6.2012033 67.67721
20.034409 50.1552 50.22221
19.048409 52.6972 50.73821
13.780408 52.971203 56.012207
12.8454075 51.275204 56.71721
30.077408 46.8572 24.29321
28.747408 48.389202 23.385212
24.196407 41.7102 22.321209
23.659409 41.792202 24.58321
38.90241 20.1122 31.704208
39.14341 21.066202 33.52621
40.697407 15.760201 36.90521
39.432407 15.135201 38.77321
15.522408 23.045198 13.77721
14.419408 21.6242 13.396214
13.255408 15.213204 15.33321
14.442408 14.230203 16.919209
15.764408 1.7072002 30.328213
18.014408 0.860199 30.26421
17.46041 6.3191996 24.060207
16.839409 8.020204 26.226208
24.182407 64.1302 63.42221
24.406408 65.4212 61.73921
24.008408 2.0561993 63.66821
22.279408 3.6362011 63.65221
36.591408 63.4942 14.767208
36.967407 63.7302 12.493214
34.724407 0.14820099 10.710209
33.82641 0.8741989 8.73621
25.202408 9.330201 36.01321
23.374409 8.002198 36.96421
22.045408 7.505204 41.64821
20.619408 6.6712046 42.962208
22.260408 23.216204 51.095207
20.707407 22.522203 50.803207
15.854408 23.063204 52.57121
14.167408 22.662203 54.088207
5.7294083 45.7312 49.91021
3.865408 47.493202 49.61221
4.331408 47.651203 41.789207
2.880408 48.549202 40.463207
13.859407 56.5032 55.658207
15.677408 56.888203 55.39221
15.151408 62.469204 49.16221
13.339408 64.389206 49.43621
19.716408 46.166203 63.89721
20.752407 45.2812 65.45821
23.356407 52.658203 64.02221
23.701408 53.358204 62.19021
41.02741 39.553204 47.803207
41.93641 40.964203 49.38121
40.057407 46.757202 43.41921
42.11041 47.2512 43.24421
22.758408 30.494205 41.976208
21.585407 31.747206 41.06221
22.017408 38.8132 43.935207
23.842407 39.6902 44.414207
22.380407 31.575205 57.15321
21.068407 32.250202 55.91121
16.428408 25.485205 53.59921
15.7204075 24.771204 55.50821
15.330408 7.7182016 36.90721
13.840407 9.811204 36.31321
13.897408 13.227204 44.23121
12.507408 11.714204 44.450207
40.51241 16.123201 60.983208
40.75741 14.1662 61.337208
33.93541 15.237199 58.747208
32.016407 15.879205 58.691208
15.635407 64.02621 32.86721
13.774407 63.457203 34.22521
14.673408 65.0392 40.00221
14.472408 66.3132 41.360207
14.615408 57.423203 67.55621
12.859407 58.199203 66.71621
18.88041 62.099205 62.59921
18.139408 61.606205 60.82121
32.90941 42.763203 57.406208
32.37241 40.881203 56.21821
27.041409 42.5382 59.31421
26.347408 41.490204 61.149208
14.114408 37.931202 52.62721
15.670408 38.975204 52.53021
20.984407 39.984203 47.76621
22.156408 37.951202 46.733208
29.746408 41.6692 44.71521
29.970407 39.442204 44.66821
27.041409 34.097202 40.74621
24.961409 34.278202 39.34621
17.943409 33.150204 35.62721
17.690409 34.1412 37.94921
15.244408 31.251205 43.62721
17.707409 31.719204 44.10021
8.237408 16.2492 46.43921
7.507408 17.896204 45.75721
11.476408 23.234201 48.81521
10.695408 25.554205 49.50621
50.440407 11.956201 25.95921
51.136406 12.534204 23.969212
46.60941 18.828203 26.04021
48.32641 20.328203 24.739208
21.067408 1.2641994 51.61221
19.474407 70.1942 52.18921
12.966408 2.254205 52.177208
13.455408 3.6752026 53.79321
30.609407 8.826203 22.44321
32.94341 9.292199 22.272213
33.633408 2.829202 16.358212
36.28241 3.2781994 15.926212
22.989408 12.481202 68.93521
24.155407 11.206201 67.91721
24.978407 7.0682 61.31821
22.847408 6.9652033 60.219208
37.53941 52.261204 51.580208
38.78941 51.004204 52.365208
35.84041 50.248203 59.79921
36.216408 47.838203 58.809208
2.1354082 53.736202 27.04121
2.469408 51.7242 26.578213
5.257408 48.0702 32.76821
6.8674083 47.6472 34.051216
9.627408 34.408203 56.18221
8.443408 32.343204 57.10721
7.6034083 25.662205 55.44321
8.681408 25.283205 53.623207
29.800407 34.929203 44.281208
30.829409 33.354202 45.24421
37.974407 32.736202 44.47921
39.50741 31.156204 44.859207
13.072408 51.4452 11.863209
13.843408 49.875202 11.178211
6.914408 44.6072 10.49921
7.1304083 44.9672 7.825218
17.708408 43.102203 39.48621
15.9634075 43.914204 40.27021
16.668407 49.705204 42.50921
16.153408 50.8992 44.630207
7.6164083 38.234203 60.66821
6.660408 39.118202 58.79821
12.226408 36.0432 53.50921
11.411407 37.567204 52.35321
32.980408 24.579205 41.03021
34.22741 26.209206 41.81221
30.092407 32.238205 40.06121
30.240408 34.823204 39.65821
21.780407 30.840204 65.804214
22.619408 29.887205 63.899208
23.249409 23.223206 64.88121
23.330408 21.719206 63.22821
14.773408 29.325205 35.55121
15.629408 27.189205 35.48221
17.215408 22.140205 39.13821
15.770408 21.082205 39.46721
4.286408 52.3432 54.533207
5.782408 52.733204 56.20121
11.115408 48.8922 57.56121
10.993408 47.1772 56.35321
15.462408 51.262203 9.671207
15.686408 50.8982 7.513214
12.772408 58.408203 5.4812164
13.641408 59.304203 3.454216
14.236408 51.903202 58.963207
12.428408 50.361202 59.59621
9.070408 54.722202 64.66321
10.137408 55.101204 66.317215
6.529408 21.551203 55.82221
5.312409 21.106203 57.03621
1.5034065 21.101198 55.595207
50.70841 21.740198 57.10021
0.4804077 55.4542 48.151207
2.2414055 55.152203 47.08421
1.174408 49.5852 51.366207
50.34641 49.1902 50.82621
45.544407 47.999203 21.064213
45.67841 50.4272 20.521214
45.417408 55.903202 23.104214
44.903408 57.752205 21.627209
16.472408 50.234203 27.492207
14.5884075 51.923203 27.678211
12.995408 51.5292 35.68621
11.952408 49.608204 35.36521
0.29740524 46.340202 52.71521
2.0294075 47.3762 52.59221
2.2174072 50.257202 60.886208
50.890408 50.798203 60.24921
24.384407 18.845201 49.324207
25.861408 17.244204 48.795208
27.456408 17.1122 41.64721
26.085407 16.954203 40.12321
42.434406 22.501205 21.76421
43.767406 22.820206 19.910213
46.69941 29.255205 19.113209
47.614407 30.505205 20.51421
2.5674057 57.614204 28.797207
0.8344078 55.9272 28.05521
50.307407 59.656204 21.326214
47.911407 58.748203 20.836208
1.8934081 41.680202 28.706211
3.5764081 42.499203 28.316212
9.926408 41.3082 30.591206
11.359407 40.409203 29.724209
1.4314082 48.8842 65.62521
2.308408 49.9322 64.15121
9.328408 47.0912 62.99621
10.827408 46.8992 61.380207
15.022408 25.794203 32.94921
14.578408 24.519197 34.63121
7.600408 20.851198 30.98721
