62.239044 36.591957 0.7593605
81.737045 41.877956 104.19536
82.04804 39.534958 104.93036
3.2090454 30.624958 1.6393656
4.656044 29.853958 0.44836426
83.47804 39.270958 75.448364
0.58004 37.813957 76.80236
80.46304 44.27496 86.48036
79.12204 42.291958 87.267365
4.198044 23.695957 30.610361
2.6510468 22.463959 31.93836
75.77604 20.264957 26.43136
75.19904 21.692957 27.72636
37.762043 18.804958 84.61936
37.71004 16.864958 83.70136
38.69504 13.306958 77.22936
39.738045 13.552958 75.41836
69.70004 1.5109558 98.031364
69.01204 3.466957 97.84936
56.637043 46.764957 103.23736
55.123043 47.486958 101.587364
54.545044 41.765957 87.99136
55.419044 41.674957 89.84836
52.738045 37.263958 96.60636
53.66704 35.646957 98.31736
28.728043 42.890957 48.534363
26.412048 43.613956 47.76036
27.753044 8.883957 49.35936
29.791044 9.652958 49.88536
74.98104 33.25396 13.986361
73.21904 31.848957 13.53736
66.750046 34.76196 2.3703604
65.57604 33.82896 1.2243605
69.99104 44.828957 31.28136
68.752045 45.24196 33.08836
81.13304 47.21496 41.44736
82.988045 45.58896 40.10236
19.030045 29.613958 2.2903605
18.412048 31.357958 4.5123606
10.205048 40.402958 5.9723606
10.266045 42.174957 6.6293607
42.84104 37.113956 2.5613625
40.336044 36.751957 2.3463585
38.52204 26.857958 109.59336
37.553043 25.295958 107.62536
34.671043 45.265957 105.739365
36.391045 46.752956 105.59236
36.588043 2.2269554 91.02936
38.024044 0.7069588 90.16736
62.630043 31.075958 32.49336
61.410046 30.894958 34.41336
66.87904 18.121958 33.21336
68.46804 16.682959 33.583363
63.086044 45.090958 96.26336
61.814045 46.08296 95.23636
50.589043 1.0739555 89.11636
49.821045 1.7519569 91.18836
25.319046 3.9579582 7.2283607
25.789047 3.1099586 5.2863607
16.393044 45.520958 -2.0346396
18.731049 45.04096 -3.2106397
68.71904 46.599957 73.73636
69.82804 45.065956 73.09436
71.05204 47.08796 58.26736
68.74804 47.75396 58.25536
61.976044 31.995958 70.92736
61.520046 31.212957 68.42236
55.64604 19.888958 72.809364
54.296043 20.887959 71.04236
19.764046 18.610958 111.684364
19.618042 17.286959 113.47936
31.335043 10.555958 111.89836
32.39805 11.638958 112.86136
19.562042 17.216959 25.626362
20.468048 17.673958 23.366362
33.043045 14.848958 18.546362
32.18804 13.324958 16.33836
16.258049 -0.11104223 72.239365
14.329048 -1.2070422 72.42536
5.781044 11.087958 68.559364
3.9280472 9.565958 68.99936
61.736046 15.614958 93.27136
60.837044 14.892958 95.64936
66.668045 25.962957 97.16836
68.667046 25.804958 98.308365
53.131042 27.932959 25.90936
52.882042 26.860958 27.919361
53.442043 17.085958 36.96936
51.073044 16.732958 37.92236
47.273045 41.918957 85.33036
47.620045 42.542957 87.572365
46.439045 45.868958 96.42636
48.036045 47.454956 97.06936
18.931046 22.158958 94.45236
18.202042 21.547958 97.06736
29.739042 13.769958 94.73636
29.588041 11.726958 94.48736
5.3630447 41.988956 56.535362
3.3670425 43.120956 55.62836
8.880043 6.9819565 58.90636
8.478043 7.5079575 61.174362
55.541042 27.749958 27.978361
56.108044 28.607958 29.93836
52.386044 27.796957 37.951363
52.617043 28.378958 40.32436
69.31004 21.330957 77.18736
68.45204 20.769958 79.33436
66.376045 30.807959 74.15136
68.195045 29.423958 74.392365
52.226044 15.979958 40.388363
53.958042 17.580957 39.69736
49.721043 26.296957 49.06836
50.842045 27.497957 50.28336
8.856041 35.93696 3.6503603
8.397041 33.59296 3.8033605
12.645042 26.076958 14.20036
10.654045 26.765957 15.06336
41.635044 10.398958 38.736362
42.365044 10.332958 36.65836
42.599045 -0.097042054 28.369362
43.726044 0.14095786 26.776361
7.3510437 4.574959 93.28836
8.849045 3.242958 94.50536
7.420044 47.000957 104.56036
7.981041 0.02495575 107.06436
45.138042 39.994957 77.07136
46.200043 41.97796 77.99136
40.104042 4.2089577 74.90436
41.677044 4.447956 76.57736
18.596046 17.366959 109.38336
17.489044 15.251958 109.98636
6.404045 17.123959 102.09036
6.285042 14.786958 101.22336
45.434044 24.935957 79.46736
43.76504 25.452957 77.63436
31.029043 25.636957 81.69536
30.122044 23.937958 83.05536
67.82604 36.520958 41.83136
65.45604 36.35396 43.08236
57.962044 32.007957 48.631363
58.685043 29.837957 48.56736
36.476044 44.752956 54.14936
38.33504 43.76096 53.59236
46.91704 41.96296 61.777363
47.128044 44.502956 61.750362
77.836044 6.028958 31.96836
77.084045 6.915958 29.55536
2.9940414 13.547957 26.86536
5.217041 13.329958 26.61536
58.668045 40.606956 21.658361
60.291042 39.606956 22.92036
59.523045 33.883957 32.73336
61.921043 33.65896 32.42136
40.907043 1.2399559 7.8683605
40.503044 0.9749565 10.210361
54.516045 2.1819572 12.74636
53.522045 1.6209564 14.73536
44.996044 16.654959 52.72036
43.409042 18.019958 51.521362
42.00804 26.483957 57.43936
41.530045 27.027958 59.882362
34.18905 5.928958 74.45436
32.124046 6.704958 74.03636
24.181046 10.343958 80.57836
22.426048 9.587958 79.57036
14.816048 34.55296 96.94536
13.403046 33.24696 96.03036
17.352043 33.09496 88.31936
17.351044 34.834957 89.82036
49.988045 2.6639578 60.506363
47.838043 2.3359578 60.31536
50.180042 9.639958 67.169365
50.833042 12.140958 67.21336
35.257042 6.939958 106.94536
37.060043 8.958958 106.59936
34.650043 10.202958 99.16036
34.919044 9.563958 101.01936
36.152042 12.510958 15.89736
34.548042 12.142958 17.279362
37.295044 2.4869578 25.45836
38.84104 2.8489578 26.810362
61.682045 -1.2450423 44.30236
63.550045 -1.374042 45.89436
60.04204 6.991958 35.03336
60.491043 9.367958 35.486362
79.014046 46.02496 89.69236
78.41104 44.04096 89.475365
75.738045 4.0119553 88.02136
75.64604 2.5569572 89.239365
11.520042 20.283958 33.965363
9.142044 19.811958 33.15536
7.243042 12.388958 42.16536
7.088043 14.130958 42.94636
77.52404 21.662958 79.04736
78.236046 23.755959 78.33236
81.903046 24.184958 65.64136
82.61604 26.402958 64.46636
18.890045 39.20596 17.829361
20.317047 38.17296 15.87036
23.667046 35.39296 8.17836
24.150047 33.13096 7.9383607
50.016045 9.483958 22.721361
51.337044 10.307958 24.831362
60.987045 9.551958 31.883362
62.067043 11.249958 33.431362
22.373047 41.065956 41.506363
21.759048 40.577957 39.32836
30.226042 34.41196 32.47736
32.59205 34.39296 33.11836
71.014046 35.187958 46.903362
70.05204 33.05096 47.278362
71.09004 20.065958 45.01536
72.20204 20.617958 43.291363
72.252045 32.28396 89.17636
72.88004 31.739958 91.27936
65.67904 39.17196 97.88236
67.03604 39.571957 100.240364
64.27604 8.3289585 30.283361
63.823044 9.475958 31.940361
60.648045 13.188958 44.16936
58.253044 13.366958 42.87336
39.541042 46.10896 9.23136
37.977043 44.758957 8.80636
41.002045 36.51796 16.17836
40.17504 34.903957 16.71336
69.305046 43.632957 15.045361
68.03704 41.937958 15.06936
63.830044 30.045958 14.66436
65.223045 29.144958 13.406361
24.959045 35.285957 75.50836
26.185043 36.71296 74.60236
26.687042 1.5719566 69.57836
26.670044 2.289959 67.01236
31.491041 8.646958 26.00336
29.401045 9.179958 27.084362
21.240044 20.505959 25.912361
19.681046 19.586958 26.849361
62.804043 29.926958 56.35236
63.465046 32.590958 56.84936
59.198044 42.71396 49.89036
60.394043 43.94396 51.70736
16.245049 34.09596 -5.3416395
17.242043 36.315956 -4.7456393
19.522049 41.44996 7.8263607
18.058044 41.654957 9.81236
78.155045 32.91996 62.12036
78.126045 32.25496 60.09536
76.64504 46.000957 58.61336
75.875046 46.020958 60.25936
58.205044 2.4469578 75.85536
58.02104 3.2169578 73.56036
55.203045 16.86596 70.50736
56.479042 19.161959 70.08036
48.691044 37.68696 69.49136
48.241043 38.912956 70.97236
37.361042 44.34496 64.62636
37.669044 43.90196 62.556362
5.0100403 10.136958 16.47936
5.5860443 12.049958 17.928362
3.2510452 13.698957 2.5753605
5.3320465 14.801958 2.2353604
67.86604 -0.87904215 52.52936
66.53504 -0.52004194 50.49536
66.42304 12.487958 55.49636
64.420044 12.352958 56.15436
70.65904 6.735958 103.61236
68.55404 6.930958 103.81236
71.91404 44.12196 112.531364
74.24804 44.44296 113.198364
8.3930435 6.677958 86.379364
10.321045 8.573958 85.67336
14.660042 18.788958 92.44236
16.932045 20.402958 92.98436
83.92104 37.90096 65.30536
81.904045 36.090958 65.24636
76.74904 25.452957 67.81436
74.55004 26.315958 67.76636
14.052048 12.861958 67.43536
13.385048 13.689958 69.32936
11.804047 21.442957 76.44536
12.356049 20.822958 78.36236
62.065044 11.615958 19.103361
63.268044 9.893958 18.877361
63.802044 -2.0020423 26.435362
63.065044 -3.814042 25.49336
16.957047 31.420958 65.20936
16.995049 28.865957 65.46336
16.257042 22.996958 55.53236
17.962044 22.408958 53.305363
27.251045 17.943958 94.72436
28.313042 18.787958 92.63236
28.282043 21.251957 82.87136
27.513046 23.202957 82.77236
66.87204 10.390958 17.925362
67.460045 11.384958 15.77336
55.449043 9.609958 6.732361
55.520042 11.862958 6.608361
43.080044 21.989958 -0.86163944
44.600044 21.814959 0.5063605
48.95204 19.716957 9.02736
49.628044 17.725958 8.54636
21.509048 36.45696 6.5263605
20.798042 35.724957 8.38936
7.6830444 36.022957 6.7693605
7.6240463 37.660957 5.4183607
80.974045 47.763958 89.73036
81.77504 45.604958 88.197365
2.3960419 38.576958 93.91336
0.7620468 38.291958 92.29336
65.99904 33.94696 32.24736
67.09304 34.55896 34.382362
77.599045 37.203957 37.340363
77.24304 38.84596 38.52236
68.16404 18.359959 93.93636
69.44304 20.313957 92.77736
71.99704 11.021958 96.60436
71.792046 8.390958 96.656364
4.609047 8.716958 76.41536
4.239044 6.514958 75.97036
74.23204 8.325958 80.419365
72.836044 9.944958 81.36036
4.98304 13.513958 70.198364
4.3740463 13.600958 67.531364
12.346046 22.320957 63.87836
13.949043 23.914957 63.33136
72.75504 4.959958 39.52936
73.501045 5.269958 41.75236
78.70104 8.845958 52.81636
78.60304 6.272958 53.23236
71.04004 4.558958 12.09136
72.559044 5.2019577 13.14536
70.128044 16.310959 3.4323604
69.042046 16.42496 5.528361
58.981045 45.981956 69.65236
57.073044 46.68696 69.86336
55.041042 1.3619576 56.92636
54.691044 47.792957 55.89036
18.516045 18.738958 2.2703605
19.803047 17.818958 3.1113605
28.315048 9.791958 2.3563604
28.659042 7.512958 3.3603604
30.101042 38.60396 2.487365
30.956045 36.409958 1.7563623
22.161049 35.21396 103.614365
23.852043 34.20696 102.57636
74.17904 20.779959 34.12836
75.182045 19.11596 34.82136
79.416046 17.133959 25.130362
77.56804 18.991959 24.293362
71.181046 8.970958 67.07636
71.45304 10.904958 65.98236
75.99704 10.790958 53.60736
74.45204 11.938958 53.87136
40.004044 29.762959 97.22236
37.693043 29.872957 97.20936
31.330044 28.484959 102.36236
29.608044 29.475958 103.642365
8.7560425 25.741959 19.742361
8.376045 27.974958 21.55236
14.097046 17.949959 27.471361
13.517044 16.310959 26.54536
31.119043 20.663958 30.815361
33.093044 20.198957 29.439362
34.582043 13.536958 22.05636
35.061043 11.154958 20.945362
8.473045 45.940956 80.83836
10.217049 44.654957 80.794365
13.135048 34.313957 88.55636
11.661049 34.89796 90.268364
70.517044 29.686958 80.95636
71.33204 31.081959 82.615364
83.834045 35.208958 77.518364
0.98604584 35.001957 75.73036
1.3270416 46.25496 23.519361
1.0770416 45.322956 25.574362
1.6350403 42.897957 26.11836
83.71204 41.862957 25.32636
38.982044 35.65696 52.785362
39.66804 37.65796 52.96236
40.55004 45.96496 49.938362
42.447044 47.513958 49.778362
33.603043 5.323958 102.99436
33.639046 7.8399577 103.68236
20.211044 10.700958 106.47436
18.653046 9.323958 105.14636
61.695045 2.3829575 112.75836
60.062042 2.6589584 110.91236
58.053043 40.00396 0.8073654
60.087044 39.10296 2.3143609
0.98104095 5.4909577 1.2803644
2.2380447 6.982958 0.12936401
3.92704 13.474957 101.05236
4.812042 11.049958 99.69036
73.75904 15.862958 51.223362
73.66104 13.793958 51.861362
77.59504 1.3959577 52.855362
79.29904 2.4929578 50.81836
43.37604 32.680958 70.22436
43.885044 34.10796 72.45936
32.081043 31.869957 68.52936
30.735043 32.06196 69.94936
6.1010437 4.506958 37.28036
7.9120407 5.855958 36.88336
14.902046 1.2909579 24.570362
15.824043 3.109958 23.036362
13.725044 26.005959 66.61836
13.807045 26.939959 64.23836
2.5350418 25.186958 64.04336
1.0750427 23.543959 64.51536
54.993042 35.78896 101.65136
54.364044 37.986958 102.14136
50.449043 45.062958 104.46336
51.789043 46.74196 103.31936
17.237045 15.423958 52.62136
19.346046 15.923958 54.06036
18.017044 18.527958 42.77936
19.560043 20.225958 42.702362
25.288048 29.878958 46.40436
24.711044 32.049957 46.89836
16.032043 35.690956 41.71936
17.987045 36.792957 42.098362
63.359043 23.217958 110.23136
63.139046 22.866959 107.781364
56.144043 18.172958 109.50036
57.435043 16.736958 110.80636
63.832043 11.937958 91.60436
64.95504 13.385958 90.61836
69.822044 3.9109578 81.16136
67.988045 4.546958 81.53836
25.298042 22.391958 31.78436
23.702044 20.996958 32.26536
37.470043 15.669958 26.46936
37.197044 16.376959 24.14536
49.082043 22.623959 69.24436
50.005043 20.494957 69.58136
42.77204 26.096958 72.26436
43.720043 27.631958 70.73736
70.66504 18.415958 31.59436
71.861046 19.325958 33.53036
71.69904 5.666958 31.48636
70.46704 5.008958 29.75436
43.380043 42.638958 77.98036
42.979042 40.222958 78.39136
31.222044 37.82496 69.70336
29.388042 37.905956 71.37336
50.471043 4.2489576 91.23836
50.353043 3.892958 93.22936
60.385044 8.595958 89.85836
62.650043 8.252958 89.88736
81.89504 21.403957 94.740364
80.670044 23.096958 94.98036
77.515045 24.340958 81.10836
75.20204 23.022959 80.00636
38.58404 41.38096 82.08536
38.055042 39.264957 82.614365
29.713043 34.46896 73.09336
28.107044 34.638958 74.27836
2.7710419 35.06096 78.48436
2.5410461 35.020958 80.59036
9.805046 45.320957 76.62436
8.402046 46.738956 75.30536
3.4850464 40.835957 70.75536
4.989044 42.648956 71.14836
6.4170456 5.6329575 77.49136
7.1670456 7.739956 76.81836
72.198044 41.056957 35.50336
71.210045 42.425957 33.562363
64.51904 44.229958 29.477362
62.647045 43.501957 30.699362
60.662045 10.163958 38.30236
58.543045 10.057958 38.007362
57.770042 13.298958 48.31136
58.796043 13.562958 46.62036
22.675049 36.534958 65.47836
23.246048 34.53796 66.66636
27.764046 27.626957 72.92736
29.32604 28.787958 71.726364
49.371044 40.83796 99.711365
48.684044 41.145958 97.851364
45.018044 28.400957 96.56636
43.610043 27.135958 97.84136
17.801048 18.848959 38.01836
20.238045 19.147959 38.96436
13.522049 17.973959 36.59636
15.558044 17.391958 36.639362
31.460043 10.403958 90.89136
31.407043 12.461958 92.21936
31.995043 5.213958 100.62336
32.302044 2.501958 99.97936
20.860046 13.327958 105.35336
20.260048 14.412958 107.03336
27.828049 20.144958 2.1623604
29.900045 21.184958 2.4393609
44.130043 31.540958 57.40536
44.32104 32.333958 55.694363
31.537043 27.680958 59.29736
29.943043 28.275957 60.90136
44.427044 34.791958 40.42736
44.895042 36.47096 39.38036
35.62604 34.56896 35.65536
34.918045 33.319958 34.111362
26.643044 2.290958 34.076363
25.192043 4.608958 34.30836
37.90304 7.356958 39.021362
39.843044 6.929958 40.29436
35.248043 15.646957 63.986362
34.714043 16.064959 66.20736
42.518044 24.605957 69.80536
44.78504 25.202957 69.36936
76.18604 19.952957 37.027363
77.265045 22.057959 35.77936
2.0850449 30.728958 31.502361
0.7620468 32.583958 32.99636
6.6620407 39.266956 61.527363
7.9240417 39.28196 59.91436
9.492043 42.67896 60.229362
7.0820465 42.174957 60.555363
64.25804 16.357958 51.08236
62.942043 17.258959 52.985363
58.925045 13.216958 55.60036
58.936043 12.046958 57.40836
19.276047 25.049957 6.2423606
18.219048 23.597958 4.7723603
10.002045 19.922958 14.14836
12.366043 20.850958 14.56036
1.9490433 15.064958 98.59036
2.722046 13.056958 98.48736
10.673042 21.103958 98.25536
8.30204 20.909958 98.71336
70.319046 3.5979578 8.425361
71.863045 3.790958 7.0933604
71.792046 6.429958 108.37336
69.766045 5.875958 107.44136
43.427044 5.912958 44.34336
44.726044 6.441958 46.597363
42.235043 1.5499578 53.22736
44.463043 1.1479578 51.96236
2.08004 0.6259575 6.5503607
1.0540466 1.8149567 8.08436
81.96704 40.118958 17.02036
80.39404 41.236958 18.609362
5.984047 36.180958 32.80436
7.6990433 37.67896 34.19936
7.503044 46.807957 39.08136
7.962044 1.2089577 39.38636
8.787041 18.32796 3.4153605
10.295044 18.42496 4.7533607
17.322044 24.774958 12.81836
17.300049 27.030958 14.23836
47.927044 12.172957 26.574362
47.628044 11.653958 24.40336
38.823044 10.120958 14.47636
41.017044 9.555958 14.31636
6.696045 9.826958 60.909363
5.571045 8.642958 61.778362
77.85204 4.2869577 63.60036
75.54904 4.492958 62.37936
9.226044 8.481958 22.046362
8.083046 10.032958 21.09036
16.026047 11.509958 9.95936
15.171043 9.918958 8.397361
37.912045 25.696959 30.518362
39.579044 24.135958 30.737362
51.353043 26.256958 30.317362
51.925045 27.970959 31.00736
11.602043 5.5169563 50.25536
13.439049 3.8309555 49.79336
5.1740417 42.620956 46.32936
5.0260468 42.37296 43.916363
44.385044 27.686958 62.867363
43.561043 25.862957 61.618362
41.73704 16.638958 55.78936
40.995045 14.873958 57.472363
49.233044 38.548958 83.21836
51.19504 38.42196 84.68136
48.819042 27.181957 93.19636
46.655045 26.376957 93.24536
55.095043 3.7509575 58.13336
53.087044 3.3779564 59.28936
48.266045 47.09496 62.584362
49.433044 47.569958 60.66536
9.348045 15.578958 4.9493604
11.066048 15.143958 6.0103607
13.575043 2.7399578 9.31536
15.420044 2.511958 10.64836
22.780045 7.656958 68.365364
23.664047 9.626958 69.36136
29.093048 17.750957 64.62936
28.057045 19.110958 66.69436
1.194046 35.806957 63.09536
2.2350464 37.15896 63.944363
83.09304 43.718956 57.527363
81.780045 45.148956 56.19136
40.870045 31.106958 39.30336
42.394043 31.934958 38.313362
34.829044 28.249958 30.55536
34.53504 29.933958 31.76036
26.746048 32.01896 48.91936
28.403046 32.237957 50.07536
24.795044 36.05296 49.07336
24.858047 36.89396 46.59936
48.475044 13.136958 34.20736
50.051044 14.438958 34.56136
47.43804 24.432959 38.93336
46.566044 26.183958 40.69636
2.8630447 22.612957 94.99636
3.6600418 23.763958 92.93036
12.274048 20.982958 84.76536
10.444046 18.893959 84.93736
51.79904 29.605957 34.31436
54.205044 30.859959 33.39136
52.744045 42.96296 35.69636
51.822044 42.69896 37.71436
50.057045 17.187958 83.85436
50.544044 15.200958 82.921364
57.825043 15.954958 75.94536
59.359043 15.941957 76.71836
74.807045 7.3689575 102.879364
76.26904 8.8759575 102.38936
74.77204 43.61096 100.76436
73.42704 45.36596 100.76936
2.880043 4.4519577 10.04636
1.2870407 4.611958 8.82036
77.93604 15.215958 9.33136
79.80304 16.046959 10.229361
68.41404 19.935957 31.683361
68.82604 21.983957 30.35436
66.113045 32.62296 36.042362
67.13404 34.35696 37.10136
26.838043 29.686958 44.243362
25.478043 27.367958 44.77636
34.15304 24.493958 53.89736
34.698044 26.715958 54.58836
15.7070465 34.764957 82.36036
14.589043 36.17096 81.100365
14.831047 25.753958 73.61236
16.247047 26.374958 71.96836
61.975044 24.992958 89.61736
60.18104 25.885958 88.62136
51.70904 15.370957 86.22936
51.388042 13.299958 87.10436
48.171043 16.357958 99.47436
49.041042 16.877958 101.71536
41.685043 7.421958 108.309364
40.33404 5.657958 106.75736
76.08004 7.657958 82.364365
75.57404 9.622958 83.51336
70.057045 8.285958 94.28636
68.198044 10.392958 94.06636
68.03604 47.690956 45.55136
69.89404 46.61696 45.08636
69.055046 45.319958 56.716362
67.194046 45.680958 57.38036
32.197044 2.615958 77.20336
31.986044 4.847958 75.84736
38.594044 13.893958 81.545364
39.773045 14.531958 83.21036
31.827044 32.37096 31.155361
33.597042 33.11496 30.376362
39.158043 33.348957 18.953362
40.655045 32.00996 17.751362
21.564049 13.916958 85.46536
22.245049 13.426958 88.04336
12.265045 4.9579577 92.14636
11.296043 3.9939578 89.82536
1.3470459 20.871958 65.35636
0.4270401 19.852959 63.50936
5.213043 22.514957 51.860363
5.953041 21.554958 49.72436
73.76804 35.751957 45.83736
75.45404 36.72196 44.23936
80.906044 29.720959 48.57836
82.07604 27.774958 49.40436
30.590044 8.587958 1.7413629
29.900043 9.614958 0.070365906
32.178043 2.276958 103.08936
32.03504 0.7069578 101.95336
82.45404 40.349957 72.337364
81.24904 42.29596 73.65536
0.65504456 6.8389587 68.79236
83.613045 8.432957 66.836365
10.731049 9.875958 83.18836
10.424042 11.979958 84.48836
22.807045 9.146958 82.62236
23.392044 9.115958 84.71436
13.741043 22.052958 80.69936
12.3320465 23.475958 80.58136
14.809044 20.585958 85.93536
15.793045 20.836958 84.20536
27.412043 21.055958 98.419365
27.174044 20.187958 96.16336
38.831043 27.966957 99.30036
37.221043 29.382957 100.85236
53.902042 46.58096 24.449362
53.843044 45.981956 22.467361
56.255043 3.0829582 33.32336
57.540043 4.6919556 33.986362
38.754044 28.655958 102.86836
37.09804 29.345959 103.81636
49.038044 34.98396 99.79036
50.419044 33.138958 99.88036
65.68804 33.16396 84.60736
65.475044 34.42996 82.79936
64.42104 43.763958 75.52336
63.501045 44.98496 73.33936
32.413044 29.495958 13.163361
34.023045 28.148958 14.3753605
29.257044 34.43396 26.266361
28.023043 36.20096 26.74336
5.128044 11.147958 65.92936
3.3950424 11.291958 67.02636
79.750046 5.709958 58.19636
78.90104 5.213958 55.62036
3.4400406 3.0789566 40.53036
4.576042 1.3109589 40.26936
79.83204 41.98996 32.25136
80.626045 39.821957 31.136362
39.643044 24.032957 110.74136
40.927044 22.181957 111.031364
46.865044 27.050959 98.39436
48.236042 25.571959 98.57136
49.079044 28.427958 22.43836
48.175045 27.916958 24.11536
40.159042 16.112959 26.161362
42.07804 16.32796 24.85036
70.88604 38.704956 34.763363
69.84204 40.10396 33.58836
68.044044 40.576958 19.564362
69.44104 39.391956 18.25336
44.248043 27.162958 93.33136
44.046043 25.832958 95.01236
38.798042 20.137959 87.07736
39.120045 18.868958 88.73436
60.972042 1.770958 75.46836
60.838043 2.3569565 77.33236
52.829044 43.492958 86.01036
52.081043 40.97696 85.77936
5.602043 29.291958 19.38236
5.3880463 26.954958 19.16036
83.42504 18.87296 16.10836
82.361046 16.423958 15.85336
47.416042 34.35396 74.09936
45.838043 33.45696 74.24436
40.42504 30.266958 71.017365
40.964043 27.673958 69.55036
28.185043 28.026958 105.32636
30.275045 27.462957 105.47936
27.584045 26.565958 93.282364
28.697044 26.551958 91.91336
14.777046 19.602959 42.46736
15.303047 17.475958 41.862362
13.969048 17.882957 31.43836
15.725044 18.184958 29.856361
75.64404 31.053957 17.096361
74.447044 30.145958 15.39636
74.98304 19.927958 6.0643606
73.114044 18.744959 4.7123604
8.769043 22.712957 38.584362
10.8810425 23.572958 38.06036
8.036041 21.206959 47.04036
7.898041 19.083958 46.466362
50.643044 4.763958 15.80636
48.984043 3.4179578 16.051361
46.075043 2.447958 23.519361
47.547043 3.1349578 22.547361
76.225044 30.217958 26.019361
75.503044 28.155958 26.946362
60.592045 26.650957 21.76036
60.821045 24.333958 21.98936
1.5130463 9.664958 70.34636
0.7480469 11.377958 68.46436
82.392044 23.314959 79.46536
81.156044 21.531958 80.55236
63.792046 18.505959 75.34936
62.827045 20.540958 76.63136
61.566044 28.974958 65.96336
63.276043 29.671957 64.50236
24.766045 21.563957 104.91636
23.154045 22.512959 103.98436
18.714043 23.832958 92.49736
16.326042 23.631958 93.128365
76.305046 20.188957 3.5633614
74.559044 19.852959 2.5093606
80.57504 14.268958 105.98236
79.917046 13.398958 107.88836
48.499043 20.247957 98.97736
50.428043 20.452957 100.49236
44.075043 16.962957 110.03036
42.82704 18.546959 110.87736
73.252045 14.096958 68.796364
74.15004 15.740958 68.08336
1.2900467 16.944958 65.09236
2.0350418 14.885958 66.79836
54.100044 34.98996 85.43136
53.317043 36.67896 83.85936
47.960045 37.62896 73.83436
49.137043 36.11596 72.76636
4.781044 45.159958 103.18936
4.300041 43.666958 101.91836
12.264046 0.4769554 92.41636
13.894043 2.1519585 92.05336
75.197044 35.951958 84.615364
76.419044 37.35196 83.48536
67.808044 33.29696 81.32636
68.59004 31.226957 81.23036
20.198044 11.966958 77.02536
20.783043 9.595958 77.06436
11.388046 6.280958 85.309364
10.032043 4.6359577 85.545364
30.660044 16.790958 66.77536
29.779043 14.843958 68.11936
32.617043 2.3819578 64.21936
32.91004 -0.0010420982 65.407364
78.25504 3.3319588 88.33036
77.69004 3.5509567 86.03736
79.49204 42.07496 75.71936
77.49404 43.208958 74.80436
69.36504 12.488957 69.00636
71.20104 11.853958 68.657364
76.791046 16.459959 78.378365
76.059044 18.618958 77.725365
80.73404 33.799957 30.34336
82.184044 32.93996 28.973362
5.94104 28.210958 29.591362
3.908043 28.049957 30.856361
56.172043 3.6399574 36.103363
55.786045 2.1699562 37.47436
45.427044 6.4639587 40.43636
43.222042 6.2279587 40.99536
60.287045 15.078958 60.48136
60.756042 14.476958 63.20436
71.49104 24.463959 64.78636
72.50504 25.241959 66.65336
40.51504 21.061958 48.67036
38.928043 21.088959 47.15536
32.51404 16.816957 38.09436
33.047043 15.991958 35.861362
20.60505 26.605957 48.13736
20.982048 25.662958 46.05236
14.030045 31.459957 36.21236
12.844048 32.73196 38.42736
50.957043 11.645958 89.77536
53.384045 12.539958 88.77236
56.536045 21.398958 99.84636
54.413044 22.356958 100.97836
42.345043 26.368958 18.199362
43.712044 25.098957 17.429361
51.843044 19.220959 23.702362
54.051044 18.364958 22.43136
60.323044 29.532957 86.78436
59.425045 27.550959 85.81636
61.687046 18.962957 78.546364
61.800045 17.208958 77.06636
60.301044 17.034958 42.875362
58.205044 16.480959 42.31036
54.915043 29.318958 48.09636
56.178043 30.008957 49.37136
46.429043 34.437958 71.67236
46.149044 31.555958 71.85836
43.777042 30.848957 60.153362
42.759045 32.47796 59.51136
75.92804 23.237957 43.70036
74.89404 23.626957 45.743362
77.641045 36.537956 40.51636
77.49904 36.537956 42.42036
80.51804 5.704958 26.00036
78.49004 6.430958 24.744362
70.22804 10.531958 20.51036
71.22904 8.426958 19.28536
72.280045 46.91596 55.48436
74.12104 46.625957 54.28236
75.78304 40.856956 40.875362
76.46304 38.89296 41.487362
16.364044 20.939959 81.46436
16.213043 22.962957 81.94336
21.623047 25.606958 71.28036
22.439049 23.331959 72.53436
12.834045 17.346958 44.819363
13.750046 19.575958 45.298363
11.448044 28.429958 54.58836
10.046043 29.698957 53.92536
50.046043 21.247957 12.79036
48.703045 22.274958 13.39836
59.301044 28.690958 20.09736
60.204044 27.001957 19.01436
36.992043 42.093956 65.99236
35.898045 42.126957 63.59236
40.920044 29.629957 60.28236
42.276043 29.073957 61.84436
46.274044 47.53996 105.282364
44.729042 1.0699577 105.74236
47.429043 1.5589561 112.26036
47.039043 1.5169563 0.27635956
81.46504 18.798958 21.617361
79.72004 17.536959 22.220362
82.02304 5.446958 20.89536
0.124046326 5.554958 21.768362
51.550045 42.993958 21.17036
52.402042 43.03196 23.24636
52.413044 29.769958 28.453362
53.823044 29.680958 30.662361
42.694042 27.430958 27.577362
40.928043 27.817957 28.49736
50.95204 30.896957 36.681362
50.370045 29.067957 36.55336
54.852043 15.491958 -4.7846394
54.101044 14.065958 -5.5406394
50.121044 14.456958 7.3163605
51.370045 14.438958 8.71636
38.673042 30.049957 68.89136
36.399044 29.306957 68.42436
29.974043 36.710957 67.87436
30.320044 34.597958 68.45736
72.97104 45.08096 9.085361
72.66504 47.287956 9.41836
81.11604 1.3419571 1.0113605
80.24504 46.697956 1.4863605
9.267044 27.222958 56.098362
10.320045 30.000957 56.74436
15.301048 38.530956 60.02336
16.068047 40.624958 59.99036
47.190044 22.064959 66.27036
47.609043 23.559958 64.741356
54.103043 12.571958 57.93936
52.220043 11.166958 58.930363
5.21904 27.099958 101.99236
3.5500412 28.460958 101.70236
1.0090408 38.251957 102.60636
83.10204 39.44396 102.42936
74.015045 34.994957 25.775362
72.35904 33.07496 24.61536
63.904045 29.424957 30.14636
62.080044 28.962957 30.914362
17.518044 1.6549578 70.68936
16.456047 0.83695793 69.58436
7.465042 8.857958 63.69736
7.8570404 10.068958 65.61736
16.484047 10.254958 36.38336
14.389046 9.238958 37.652363
18.954048 2.418958 43.02936
20.512047 2.8029578 44.58636
29.296043 28.799957 78.782364
28.236046 27.806957 76.40136
19.805046 19.749958 82.48236
20.641045 20.658958 85.04236
70.10304 10.483958 17.716362
72.184044 9.634958 17.27036
83.17404 9.540958 15.29436
82.27604 7.560958 16.43036
15.403046 44.15796 76.40236
16.714043 46.044956 77.12736
22.782043 6.791958 71.22236
23.905045 4.4939575 70.84136
44.622044 10.466958 39.88736
43.200043 8.730958 40.33236
48.144043 12.755958 52.94936
46.891045 14.630958 53.007362
67.22804 11.142958 31.846361
66.44304 12.880958 30.120361
64.98004 10.540958 22.230362
65.85504 11.283958 20.255362
3.2540436 5.856958 2.6343606
4.9870453 6.712958 0.5003605
16.251045 6.371958 7.884361
18.155045 7.199958 8.147361
44.268044 3.598957 50.14036
42.740044 2.4339561 50.25136
38.78504 46.689957 53.874363
41.06404 46.834957 53.11936
75.29904 27.414957 65.08536
74.93804 25.027958 65.05536
71.95304 13.904958 62.29736
70.36704 13.507957 60.53236
58.541042 40.72096 89.00636
56.946045 40.97896 87.545364
57.483044 5.9509583 87.05336
55.752045 5.718956 85.16536
15.694046 44.68696 69.461365
16.685043 45.722958 67.75736
11.839043 2.4419556 58.493362
9.910042 2.0049553 57.819363
48.489044 31.749958 1.3123621
46.760044 31.251957 0.26836395
52.658043 30.870958 102.45536
54.715042 30.675959 103.808365
45.009045 19.117958 97.92736
43.234043 17.647959 97.254364
49.951042 9.496958 90.98036
48.07704 8.455958 92.02636
66.55004 18.823957 46.01036
68.653046 18.896957 46.43436
80.76204 25.128958 47.88536
79.55304 26.765957 47.367363
31.00704 29.213959 107.295364
32.610046 28.224958 108.49336
28.452042 30.168959 6.972366
27.602043 32.631958 7.4173656
17.067047 35.988956 98.08236
15.915047 37.084957 97.031364
20.964043 44.350956 90.45936
22.459045 45.69896 90.78436
61.606045 46.67096 64.47836
63.527046 46.126957 66.22036
68.89604 4.3869553 61.472363
69.64504 6.376957 61.57536
54.567043 26.592958 65.15936
55.605045 27.980957 66.83136
50.825043 26.521957 79.49536
48.884045 26.531958 80.97236
68.60904 19.920958 72.351364
68.04604 17.996958 72.98636
65.389046 6.848958 78.66636
66.68804 5.928958 77.11636
62.928043 8.198956 80.18636
62.648045 5.798958 79.65136
53.246044 47.39496 86.18736
50.833042 46.843956 87.02436
69.67404 27.107958 79.53836
71.49404 25.905958 79.65336
75.70404 17.492958 82.29936
77.24604 17.835958 80.93936
24.049042 12.797957 84.351364
24.814049 15.124958 84.86136
27.802048 5.322958 81.26536
26.503044 5.730958 79.20036
3.6400452 0.6169586 83.37336
5.7160416 47.028957 82.98036
0.42204285 36.271957 89.35936
82.889046 34.89196 88.98336
15.629044 16.044958 56.285362
16.319046 18.528957 55.68936
3.991043 14.512958 50.36636
2.970047 12.915957 52.326363
64.266045 16.657959 47.37936
65.34204 15.486958 48.973362
70.60904 2.461958 43.24136
69.78704 0.36695793 42.62936
75.46904 42.113956 -2.0176396
76.25604 42.148956 -0.31463948
83.569046 36.437958 5.0553603
82.65004 37.305958 7.0383606
82.39504 32.889957 60.945362
0.18404388 32.74896 62.51636
14.290047 32.37896 65.61336
14.367043 34.58596 63.75436
28.275043 33.05996 47.174362
28.050043 31.687958 45.51936
40.39604 26.044958 41.65036
42.336044 25.172958 43.117363
7.8040466 15.5599575 44.99636
6.180046 16.363958 44.882362
0.48804474 13.650958 37.58936
0.7110443 15.723958 36.28136
32.596043 45.013958 53.270363
31.443043 42.930958 52.049362
43.614044 37.805958 43.47736
41.43904 37.312958 41.53836
82.29704 37.49096 62.91536
82.88805 35.83896 61.521362
10.8930435 32.139957 55.16236
10.379044 32.35696 52.709362
70.46304 47.04796 15.873361
69.558044 45.92996 17.815361
66.153046 46.270958 28.58636
66.73304 45.541958 30.790361
24.788048 24.469957 -2.7766395
26.889046 23.260958 -1.6706394
25.875046 23.499958 12.21436
27.635048 22.353958 12.84336
33.075043 5.0669556 71.836365
31.762043 3.7199554 73.26936
35.662045 44.995956 75.34136
37.101044 43.47696 75.03836
70.95204 15.322958 51.81736
69.764046 13.319958 53.30436
69.96604 0.5739579 52.56436
72.25904 0.3949578 52.77336
11.180046 32.25296 97.56336
12.032043 30.254957 96.85536
12.747047 20.466957 90.52736
14.912048 20.742958 90.56136
55.293045 31.941957 44.562363
56.046043 31.720959 46.93436
58.605045 43.46996 45.007362
60.346043 44.494957 45.465363
1.0900421 26.410957 16.894361
3.3460464 27.028957 16.11236
80.847046 35.285957 15.420361
81.77004 36.759956 13.15736
57.180042 32.64496 55.770363
55.788044 33.86096 54.89136
44.303043 36.919956 57.38336
44.13904 34.48896 58.52236
74.36804 12.286958 111.18236
73.38304 12.844957 109.14036
70.128044 24.919958 113.54236
71.558044 26.514957 113.25636
11.150047 8.397957 60.99436
11.368042 7.364956 58.88636
22.939049 45.813957 59.90836
25.083046 45.66596 60.75436
78.347046 5.7209587 36.29736
76.81004 5.4299583 34.75236
77.17604 3.9909554 29.58636
78.71904 5.1899567 28.24036
64.83004 18.033958 12.163361
63.044044 18.31396 12.95236
54.330044 24.420958 3.9603605
54.293045 22.315958 2.9533606
79.586044 47.639957 57.500362
79.39504 45.785957 59.19836
6.489044 43.87196 58.53036
6.5860443 44.08096 56.92536
51.472042 13.2179575 107.26036
49.650043 13.245957 109.23036
56.648045 11.955957 1.640365
56.529045 14.285958 1.3423609
63.531044 29.023958 9.79636
64.14904 26.799957 10.80336
72.39804 23.907957 1.0853605
73.53704 22.177958 1.2483605
22.102043 33.751957 5.8073606
20.670044 33.27396 4.6183605
33.881042 35.528957 0.06736048
35.639046 33.861958 0.8683605
60.233044 15.428958 51.90436
59.079044 14.211958 50.30236
59.673042 23.730957 48.91536
59.946045 25.533958 49.42836
36.43804 19.090958 87.60936
36.394043 17.057959 87.13436
44.930042 11.929957 92.46036
44.59104 14.550958 92.36736
76.51305 20.646957 40.17936
74.82704 21.780958 38.598362
69.70504 34.85996 44.16136
70.89904 36.023956 43.08636
50.586044 6.129958 102.268364
49.41704 8.3029585 101.97736
55.461044 19.411959 101.84736
53.176044 19.673958 101.14536
60.948044 26.714958 91.337364
60.071045 28.437958 89.322365
49.905045 27.845959 99.19136
50.677044 28.680958 101.17436
65.406044 23.176958 29.38936
64.41404 22.788958 31.662361
60.875042 12.892958 39.01736
58.52804 12.619958 37.88036
81.141045 44.516956 90.698364
79.04704 44.305958 92.211365
1.9300461 4.2199554 98.961365
3.495041 5.2129555 100.32936
70.84004 45.474957 11.07636
68.419044 45.37896 11.27536
66.25504 31.275957 12.01336
67.918045 30.279959 10.81336
59.705044 11.332958 17.84336
61.741043 11.150958 16.50136
50.609043 4.1229577 18.761362
49.074043 3.3909578 19.954361
41.613045 29.048958 25.860361
43.902042 30.121958 25.821362
46.985043 37.81696 37.82936
45.95204 39.76096 37.569363
49.803043 12.497958 58.17236
50.402042 10.726958 56.46836
47.031044 6.357958 44.53636
46.684044 6.797958 42.73836
64.26104 26.968958 58.43336
62.199043 27.187958 57.216362
54.968044 15.824958 64.18736
56.011044 16.314959 66.47936
33.496044 23.122957 9.36436
32.741043 21.279959 8.998361
40.782043 9.474958 6.5913606
43.01504 9.4279585 6.528361
72.83004 29.296957 55.56436
75.28204 29.163958 54.77636
73.46404 15.552958 54.19636
73.529045 14.525958 56.493362
44.49404 25.733957 88.76336
45.193043 23.595959 88.14936
39.243042 16.239958 86.52936
41.372044 15.687958 85.03436
83.91404 24.442957 111.23136
0.61904144 25.875957 109.41236
5.9030457 26.696959 104.45236
7.8130417 27.375957 103.87636
11.113045 33.389957 1.5973657
12.880043 35.09496 0.5853653
20.754044 25.446959 1.5753626
21.638046 26.500957 3.5943596
32.462044 7.683958 28.33636
29.964043 7.542958 29.15936
27.415043 17.098959 38.388363
29.634043 16.900959 38.31736
72.12104 42.522957 99.78936
70.25404 41.558956 100.01136
81.71504 36.992958 92.95136
80.22904 36.433956 90.77236
35.865044 13.496958 66.41636
35.551044 11.628958 67.61636
36.642044 1.3329577 62.26036
36.058044 -0.3700423 62.374363
32.12005 30.042957 51.618362
31.111044 27.968958 51.49036
23.376045 24.437958 44.417362
21.590042 23.109959 43.402363
78.34404 25.742958 110.98436
78.946045 24.313957 109.75736
81.931046 14.596958 102.60736
83.56004 13.320958 101.18136
55.516045 37.308956 96.75236
55.967045 35.11696 97.11736
60.134045 34.37196 85.93536
60.009045 33.027958 83.82136
46.678043 47.33996 59.278362
45.242043 0.48895645 58.153362
53.131042 46.770958 50.152363
54.753044 47.652958 51.06636
15.123047 24.201958 79.39936
14.555046 25.681957 77.58036
24.756042 32.96796 74.14636
25.414047 31.619957 76.101364
25.933043 33.33696 45.11936
27.339043 32.493958 42.798363
38.796043 32.82896 41.42236
38.354042 31.076958 40.598362
76.87204 31.428957 52.60736
79.33704 31.318958 50.54436
82.319046 26.454958 45.94836
0.124046326 27.108957 47.05036
67.53804 5.592958 63.67636
67.61604 7.868958 63.82336
53.828045 8.843958 59.93636
55.194042 10.369958 60.903362
45.905045 10.089958 9.45036
45.213043 7.599958 10.07936
55.745045 10.994958 17.061361
54.694042 11.226958 19.62536
83.069046 13.650958 105.169365
83.446045 12.210958 103.41336
4.2280426 -0.20604226 104.96536
5.7020416 -1.4760423 106.90836
74.59104 40.04596 84.34636
74.34204 41.95096 85.16236
70.378044 46.410957 95.75536
70.66504 45.888958 97.45736
35.458042 25.800959 13.32736
35.600044 27.150957 12.12436
41.232044 25.229958 2.5983605
43.03604 26.366959 0.5573605
68.92804 46.211956 99.84536
70.68704 44.947956 100.84736
77.472046 47.141956 112.69936
79.33204 47.481956 112.308365
11.940048 37.232956 36.54036
14.024048 37.99096 36.979362
10.617043 45.08896 28.25036
8.7680435 44.499958 27.859362
70.66404 3.725956 40.67736
71.016045 1.4489555 40.32136
73.66204 38.732956 41.716362
73.85104 36.808956 41.403362
57.031044 31.849958 52.53236
58.672043 30.492958 52.041363
72.02204 30.532957 52.55936
70.79804 31.300959 54.638363
78.06504 42.924957 72.37136
77.708046 40.902958 71.35636
67.51804 34.577957 72.66336
67.88504 32.88796 73.59636
59.055042 44.041958 54.11436
57.828045 43.78396 52.813362
51.166042 2.3689575 57.659363
52.640045 2.0229568 55.91836
27.733047 30.916958 27.414362
26.512047 31.969957 25.866362
21.904045 24.472958 15.51436
20.437042 24.753958 13.98336
0.37704468 27.160957 0.8013605
2.868042 27.674957 0.9623605
2.182045 34.19696 8.83436
1.3480453 35.16296 10.78636
59.427044 47.223957 106.13936
61.043045 46.702957 107.42636
73.76804 42.395958 105.35236
73.225044 40.786957 106.350365
5.007042 6.640957 64.01436
6.6010437 7.244957 65.78936
8.37104 43.10196 72.82036
6.4190445 42.44396 73.32036
68.13004 9.480958 66.01636
68.600044 7.669958 66.419365
60.118042 1.3459578 73.128365
61.902046 -0.611042 72.921364
33.025043 44.43596 62.13736
33.27104 45.897957 60.965363
37.102043 47.18696 48.38536
37.967045 45.24796 48.93936
45.301044 10.616958 73.98036
44.124043 10.721958 72.046364
39.954044 12.712957 64.70436
38.971043 14.299958 65.34536
9.440048 26.994957 101.36636
10.895042 26.093958 100.68736
21.223045 18.027958 100.601364
22.100044 19.914957 101.79036
82.876045 34.15896 7.6553607
80.62204 35.30296 8.24736
70.46304 26.634958 2.9113605
70.001045 27.847958 1.0973605
57.062042 1.4429588 8.56636
54.781044 1.770958 9.99536
55.856045 5.9449577 0.7223605
57.752045 6.202957 1.1293606
78.34204 42.598957 7.4243608
77.99204 43.389957 9.40436
80.91004 5.1119576 16.478361
82.751045 4.9039574 15.56236
25.674042 32.01996 103.39036
24.481049 31.505959 101.58536
31.619047 34.10396 89.61036
32.325043 33.340958 87.684364
74.84104 5.068958 28.30636
74.487045 7.399958 29.377361
69.18704 20.233957 28.164362
71.28304 21.561958 28.266361
28.231049 29.670958 89.01336
28.497047 30.513958 86.97036
19.516045 35.33596 96.74636
19.336044 34.24796 98.64836
43.55004 22.383957 46.42036
44.148045 24.183958 48.355362
35.090042 31.805958 53.103363
33.07704 30.976957 53.85936
36.603043 0.8229561 39.71936
36.326042 46.72796 40.33536
22.290047 2.4139557 40.60836
21.881042 1.3059578 42.257362
81.224045 19.930958 17.17036
81.18904 20.991959 15.40436
67.597046 18.133959 11.62436
68.89804 17.675959 10.21236
1.9960403 8.054958 2.7033606
1.6730423 9.542958 1.5993605
81.10504 18.234959 11.77536
82.18504 18.902958 13.70236
13.475044 3.6899579 88.22236
12.828049 5.394958 87.53436
14.359047 19.473959 88.21736
16.427048 18.85196 87.63236
78.00904 30.357958 63.51536
79.266045 31.803957 63.937363
69.44904 32.188957 71.45636
69.88204 29.721958 71.73436
7.1880417 10.358958 100.85636
6.9660416 9.899958 102.65436
19.013046 16.724958 106.669365
19.447044 18.717958 105.74836
62.488045 43.81696 64.977356
60.166042 44.67296 65.657364
50.886044 35.815956 68.07636
48.699043 35.890957 66.906364
44.70304 29.021957 68.39936
42.627045 29.267958 67.364365
44.71004 42.800957 63.40536
42.49404 43.40796 62.44136
24.646042 -1.3070421 89.54936
25.559044 -1.4830422 91.27336
25.149048 10.618958 86.12436
25.974045 10.842958 84.28836
80.39504 11.467958 66.28336
81.89804 12.249958 68.240364
72.34304 15.289958 71.08336
72.97604 17.474958 69.65136
27.306044 26.631958 53.027363
29.609043 26.493958 53.12736
29.909044 14.252958 49.39136
30.251043 12.264957 49.36436
54.670044 10.094958 63.576363
52.548042 9.561958 64.52736
53.120045 14.775958 68.88336
54.460045 13.874958 67.05436
47.871044 41.662956 37.03836
45.391045 42.35196 38.18236
46.106045 3.7619553 43.860363
47.52804 3.9119568 45.51936
33.367043 27.223957 65.95336
33.05604 25.522959 67.531364
35.349045 23.910957 71.15036
34.335045 23.066957 68.62036
76.072044 43.513958 83.32936
75.875046 41.60896 82.58236
83.77504 34.69996 80.10436
83.863045 32.69996 79.254364
42.380043 43.807957 93.990364
42.865044 44.169956 96.37036
41.637043 31.845959 97.36036
39.225044 32.92996 97.21636
54.212044 14.674958 35.715363
55.557045 15.489958 36.980362
61.344044 26.023958 31.697361
59.802044 27.615957 31.509361
75.63504 42.960957 8.0003605
75.11904 43.350956 9.85936
73.63805 34.396957 19.800362
73.89504 32.22696 18.699362
0.9360428 30.253958 79.907364
2.3260422 31.733957 80.47936
7.0260468 27.134958 67.393364
8.660042 26.002958 66.76236
35.93804 27.032957 67.004364
38.05704 27.338959 67.36936
38.777042 16.828959 58.194363
39.069042 17.25496 55.88436
30.165043 10.705958 14.24536
30.963043 9.104959 13.43636
33.365044 15.988957 3.6503603
33.757042 17.944958 4.7423606
35.305042 2.1639557 43.87836
36.134045 4.0409584 45.21236
23.739042 2.6809578 44.58936
22.693043 4.018955 42.70436
28.341042 25.029959 15.73136
29.124046 24.702957 13.65036
22.559044 25.301958 5.7153606
21.789047 24.378958 7.4863605
19.375046 39.180958 56.34536
18.699043 37.361958 57.47536
14.759048 27.722958 50.10836
17.107048 28.800959 49.14936
59.343044 28.288958 26.62536
59.78504 28.349958 24.314362
71.38004 29.904959 22.27836
72.65104 30.536959 20.692362
79.960045 1.9549578 54.03236
81.375046 1.8809578 52.50936
9.048042 9.064958 56.681362
7.894043 9.6779585 58.42136
68.32804 28.094957 99.38036
65.91004 27.825958 99.101364
54.879044 32.80096 99.85436
52.815044 31.568958 99.961365
32.784042 3.6279564 106.31636
34.79904 2.5169563 106.99436
42.608044 1.9139557 1.5623621
43.57804 1.3859558 3.4483635
63.394043 42.458958 95.86936
64.515045 39.96296 94.892365
61.445045 39.05996 87.267365
61.076042 39.930958 89.587364
10.053047 35.19296 36.78336
9.691048 36.368958 35.21936
15.036049 38.84696 29.633362
15.338043 40.24196 27.898361
22.287048 12.524958 70.44236
20.640045 14.111958 69.30136
18.708046 26.796957 65.90936
20.012047 28.357958 66.01536
48.632042 32.85896 56.097363
50.045044 33.26796 54.85136
55.395042 44.869957 51.21136
57.012043 44.466957 49.79736
24.097046 19.333958 68.19636
23.018044 18.727959 65.97136
31.523046 19.827957 64.39236
33.17505 19.523958 63.05136
41.184044 40.056957 1.0883605
42.57704 39.82596 3.1023605
37.856045 40.92796 14.67836
37.923042 40.31096 16.67836
38.136044 47.58996 42.306362
39.795044 1.7509575 42.105362
36.77904 45.33796 31.793362
38.41104 44.77696 32.63536
14.774048 0.53795624 21.304361
13.696045 2.5129585 20.499361
19.427048 2.9109573 9.649361
20.866043 3.2009583 7.6363606
42.495045 29.308958 92.84936
44.276043 30.185957 93.55736
39.694042 43.648956 92.92636
39.84804 45.944958 91.350365
69.71904 36.21996 112.59236
71.67304 35.42596 112.27536
74.308044 27.338959 0.17636108
74.15804 26.188957 112.09836
21.107048 9.547958 71.84736
20.199043 11.476958 71.88736
6.4450455 9.159958 73.68236
4.856041 10.540958 73.31436
53.218044 18.371958 71.65836
53.189045 16.809958 72.68136
40.783043 15.356957 77.77436
39.98704 14.084958 79.42236
81.18604 9.167958 53.57136
82.739044 10.346958 52.833363
10.349045 11.929957 56.33136
12.098045 11.699958 54.44336
0.53804016 16.256958 113.28936
83.31704 14.213958 112.614365
78.57404 12.5929575 110.25536
80.017044 14.487958 110.41636
53.416042 35.76296 11.85636
51.580044 36.223957 12.82636
54.427044 43.292957 21.62936
55.78504 44.42796 20.59436
57.247044 28.770958 45.98936
55.151043 29.267958 44.82336
59.113045 29.906958 33.38436
58.257042 30.429958 31.376362
63.316044 46.586956 29.261362
63.924046 0.49095535 29.963362
73.96604 5.317959 36.27336
72.753044 6.5289574 37.487362
51.436043 46.725956 18.519361
49.522045 45.35996 17.922361
57.082043 47.111958 10.21836
59.493042 45.87196 10.65236
5.251045 36.88096 63.812363
4.198044 36.34496 65.54836
12.602043 27.803957 69.14736
13.329048 28.716957 67.50236
50.715042 38.87196 7.1023607
51.496044 39.704956 9.262361
45.612045 37.940956 20.532362
44.937042 40.13096 21.973362
66.38004 29.943958 56.33236
66.906044 31.975958 56.034363
61.984043 44.147957 55.53736
61.809044 45.794956 53.59636
46.100044 45.363956 90.41636
47.801044 46.445957 91.62136
54.399044 39.593956 99.91036
52.738045 38.225956 99.89936
53.250042 1.8119583 74.94536
52.293045 1.1499557 76.77036
39.199043 0.99995804 76.23736
38.25804 0.83895874 78.50136
45.103043 29.230957 90.85436
42.797043 29.161959 90.01536
35.68104 37.780956 91.85436
34.82704 35.64896 91.86036
65.82804 44.39296 20.00736
64.60104 45.487957 17.94136
64.279045 5.4439583 10.163361
66.35304 3.9819565 9.45836
28.534044 16.74796 97.04036
30.506042 17.947958 98.086365
36.592045 26.542957 104.33536
35.769043 28.015957 105.85636
63.537045 30.992958 12.20436
63.615044 31.927958 10.25436
54.854042 30.969957 2.7913604
52.891045 29.646957 3.0543604
78.000046 41.675957 38.96236
79.55104 42.91496 37.77636
72.544044 3.6969566 28.797361
71.77705 4.0199585 26.76736
54.340042 45.58896 103.68836
55.345043 43.83096 104.434364
45.277042 38.645958 113.00836
43.361042 40.001957 113.45436
38.34104 38.749958 96.22136
37.68904 37.542957 97.34336
42.034042 39.085957 110.15536
42.257042 37.76896 112.54036
28.204048 41.687958 21.859362
28.347046 41.104958 19.87936
21.211044 41.828957 10.65236
20.914047 40.44196 12.03636
40.986042 43.132957 83.23736
40.075043 40.995956 84.406364
33.221043 38.74196 91.51436
32.859043 36.536957 90.30736
72.695045 33.23996 52.15636
74.88204 34.499958 51.26736
69.126045 40.95096 59.728363
68.26204 42.12296 58.06436
3.6080399 4.169956 79.879364
2.1140442 3.7099571 77.86236
1.9210434 39.23396 74.31636
3.7320404 38.834957 72.86136
28.211044 15.891958 51.06536
26.032043 15.388958 50.54536
30.099043 13.106957 59.26036
29.495047 11.430958 57.53736
63.485043 34.08096 35.18336
61.300045 33.52696 35.028362
49.256042 39.45096 38.36536
49.099045 41.17096 39.50336
77.653046 10.213958 104.504364
79.46204 11.109958 106.25836
80.04804 3.5169578 113.406364
78.31604 2.040958 113.09636
60.080044 12.923958 93.41436
61.358044 13.385958 91.76136
58.823044 18.262959 79.225365
57.117043 16.859959 78.42736
42.069042 33.30096 22.477362
39.908043 33.80496 22.893362
35.236042 43.619957 30.33736
34.840042 43.298958 32.23536
47.007042 0.4179573 18.675362
46.84104 2.138958 17.36436
32.566044 1.0149574 15.10536
32.111042 1.1179581 13.12836
33.061043 27.351957 69.47736
33.34804 27.141958 71.82036
41.46604 37.86596 79.24236
43.219044 37.717957 78.20536
10.295044 0.3739586 83.31936
10.699043 1.6529579 85.490364
23.930046 46.743958 81.60336
25.559044 0.4309578 80.84336
72.38104 8.068958 39.77236
70.52705 7.686958 39.28836
63.923046 18.105959 40.58636
64.01804 17.959959 43.10736
36.471043 15.086958 58.39936
37.658043 15.011958 56.458363
41.850044 17.008959 49.04736
42.16804 16.81396 47.03336
69.15004 12.187958 66.35636
69.91104 13.711958 64.852356
77.93604 21.525957 63.993362
77.54704 23.429958 65.04936
78.64904 31.637959 14.88136
77.821045 33.042957 13.42136
74.514046 25.282957 1.8983605
76.431046 24.937958 0.8293605
7.779045 27.191957 34.577362
8.695045 26.903957 36.42136
0.6290436 24.512959 46.62136
2.5150452 25.564959 46.67236
27.036049 10.869958 57.88436
28.134048 9.065958 58.56836
31.064047 -1.0300422 62.97536
31.328047 -2.0610423 64.74336
57.013042 2.388958 70.77236
55.455044 0.60795593 71.15936
50.54204 39.81696 69.98636
50.794044 38.96496 67.65836
80.82804 41.25396 91.11636
82.46204 39.439957 91.75836
2.6120453 4.6489563 92.31936
4.819046 4.8849564 94.57636
2.6500397 20.491959 89.14936
4.1120453 21.459957 91.31236
4.333046 16.66796 99.754364
4.2380447 18.678959 100.70636
21.890045 22.276958 9.081361
20.295044 21.251957 7.5433607
23.536049 9.404958 7.206361
24.005043 6.950958 6.791361
17.366043 46.44196 108.84236
19.401047 46.725956 107.52936
8.645042 4.9659576 103.02136
8.039047 7.702957 103.47936
