2.2676506 131.14902 10.880412
0.90265274 130.322 9.930412
5.009651 123.43001 12.578412
4.718651 121.77701 11.025413
39.29165 12.478012 22.504414
38.92765 13.827011 21.094412
43.88765 21.712006 22.769413
44.03665 21.93901 20.436413
26.657654 115.28701 32.470413
26.685654 117.71501 33.123413
19.474648 117.95201 28.149412
18.495651 119.78401 27.688412
11.570652 35.33902 19.510412
12.879654 33.56601 19.975412
15.306648 29.699005 15.166412
15.381653 27.394012 14.043412
42.66565 100.88601 23.995413
43.47465 103.12901 24.433413
47.98165 103.38801 31.679413
47.22965 103.640015 33.811413
28.39265 40.79401 15.429413
28.28565 43.04801 15.087413
21.411652 47.15401 12.853413
19.648651 47.30301 14.299413
4.124653 18.943008 8.630412
3.341652 16.631012 7.7564125
2.9706497 10.66301 13.4474125
0.964653 10.727005 14.359412
30.06365 12.536011 37.46041
28.301651 12.492004 36.221413
28.266651 6.76001 30.028412
28.68765 7.612015 28.267412
10.886654 7.2150116 35.611412
10.993652 5.935013 33.54541
9.017651 137.016 29.520412
9.117653 135.45102 30.649412
42.07365 100.83901 42.524414
43.68365 100.558014 1.3344154
48.23465 100.946014 36.73841
46.71365 102.30901 36.15441
18.161652 28.093018 33.986412
17.115654 27.535019 36.03541
14.022652 18.276016 34.68141
12.168652 18.670013 33.125412
41.65165 119.95901 16.530413
39.30865 120.587006 16.828413
40.12165 127.07101 22.201412
39.40165 128.56001 21.110413
20.562653 20.587006 16.185411
20.384651 20.608017 13.587413
24.056652 29.109009 16.302412
25.841652 29.18901 17.247412
38.80165 65.93401 36.89841
37.55565 64.07901 36.284412
39.38065 58.367012 31.887413
40.43465 57.89001 29.955412
17.09465 15.130005 4.048416
18.759651 15.351013 2.1594162
27.363651 12.083008 5.0814133
26.925652 9.99501 4.418415
19.602652 24.889008 21.993412
19.05265 25.461014 20.140411
27.14565 21.405014 15.721413
27.22265 20.356018 17.632412
43.55965 5.8630066 22.529413
45.52465 5.702011 22.601412
0.80465317 11.175018 25.061413
49.43065 13.418015 25.736412
45.65865 28.308014 5.769413
47.33665 26.754013 6.9284134
5.12265 24.06401 1.9814148
3.9396515 22.841019 0.394413
2.568653 75.29901 16.587412
4.3806496 77.113014 16.694412
8.914654 75.34001 23.361412
8.294651 73.71901 24.244413
16.779648 72.65401 12.687412
18.611649 71.19901 11.530413
25.338654 69.72601 16.671412
25.948654 69.48401 14.525413
16.868652 3.6370087 8.180412
17.76165 1.3640137 8.599413
18.753647 133.503 1.5384123
19.09465 132.39201 3.5354125
49.16365 86.22001 4.9814124
49.18865 87.709015 3.1344125
0.7296524 95.04901 8.133412
1.8156509 92.78701 9.2564125
6.528652 36.353012 31.665413
7.976654 35.097015 32.318413
12.119652 32.707016 26.916412
13.507652 30.957016 26.365412
0.07165146 51.32001 7.3154125
48.14565 51.36201 8.744412
1.1816521 59.78001 8.081412
2.2086525 60.27601 5.8794127
0.13165283 34.304016 12.3224125
0.29865265 34.356018 14.621412
6.316654 26.683014 16.147411
7.0296516 26.472015 14.356413
15.815651 28.097015 17.089413
14.471649 26.363007 16.803411
6.030651 27.124008 19.645412
5.209652 27.839005 21.779413
36.33965 106.22101 32.33641
36.72765 104.25601 30.423412
28.908651 104.12801 32.435413
28.30565 101.766014 32.360413
22.10765 46.55201 36.35741
24.550652 47.30601 35.99441
31.82065 45.98401 35.86241
33.62465 45.81901 37.087414
38.79165 128.95702 4.9314156
37.58165 126.56501 4.788414
30.654652 125.01401 42.705414
29.56565 126.81601 0.90641403
11.161652 76.55901 23.862413
11.821651 78.68001 25.399412
8.799652 80.37501 17.516413
8.787651 78.87801 15.781413
17.113647 18.60701 5.6754127
15.540649 17.333008 4.0624123
13.845654 18.976013 11.509413
12.615654 20.309006 10.892412
40.00965 94.14401 7.7324123
42.341652 94.81901 7.6624126
49.77365 94.90101 10.893413
49.70165 96.73201 10.143413
5.6256523 29.108017 26.090412
3.9656525 30.70401 26.586412
5.4966507 38.57802 26.883413
4.1776505 37.98802 28.649412
22.86465 107.53001 4.1924124
24.82365 108.38101 4.0884123
22.912651 109.85401 12.584413
23.33465 107.70901 12.245413
27.148651 49.22201 5.8274126
28.12265 47.77401 6.8484125
31.85765 54.60801 11.158412
34.22265 55.36101 10.915412
22.45565 47.17001 22.149412
21.130653 46.55501 19.970411
20.446648 54.353012 16.279411
19.403648 53.84301 18.266413
15.954651 124.85401 9.562412
13.726654 124.00101 9.151412
12.281651 127.489006 16.607412
10.664654 128.54701 17.518412
39.00865 129.33601 8.580413
39.966652 131.07701 7.3814125
48.69465 131.391 7.8444123
49.49565 129.557 7.6204123
29.290651 111.61301 32.644413
29.276651 113.73601 32.05641
29.45465 113.36101 22.989412
30.81965 112.21701 23.364412
34.68665 19.141006 26.430412
32.71365 18.384018 26.253412
27.04865 22.38501 22.877413
25.672651 22.827011 21.249413
10.528652 135.16202 23.579412
10.152653 136.17801 25.514412
12.259651 3.2670135 21.995413
12.753651 4.708008 20.453413
20.661652 105.41301 39.826412
19.80265 105.90701 37.51541
15.574654 99.77601 35.60541
12.782654 99.62901 35.639412
18.978651 135.23601 22.476412
20.82265 134.77301 21.357412
26.714651 134.84901 17.835413
28.68865 134.753 17.896412
20.688652 82.83101 34.71841
19.240654 81.112015 35.53841
23.550652 78.251015 33.171413
23.22565 76.31001 32.249413
21.054651 89.50701 39.138412
22.699652 88.447014 39.525414
26.137651 85.95201 32.37241
24.651651 84.20701 31.971413
11.42765 60.82301 17.263412
9.926651 61.874012 15.587413
6.912651 63.51001 9.148413
7.542652 65.32901 8.286412
1.6776505 85.08901 24.790413
3.9486504 84.22501 26.388412
4.742653 76.27801 21.443413
5.9426537 75.26801 23.168413
41.62365 29.952011 12.972413
39.33165 30.652008 14.123413
33.03365 32.087006 15.102412
31.04265 31.091019 14.626412
46.21865 5.279007 8.520412
46.95565 6.0170135 10.672413
44.00165 6.2860107 19.397411
43.39365 8.264008 19.058413
15.282654 66.41401 14.188413
16.48565 67.95801 15.363413
19.17765 69.51701 22.364412
21.103653 71.07601 22.276413
15.433647 97.32801 5.4894123
17.035652 98.52601 6.3484125
19.784653 95.42501 13.174413
19.953651 93.43001 14.172413
49.59765 121.91201 28.958412
47.86965 121.878006 27.352413
49.06165 120.02501 19.793411
1.2106514 118.87601 19.183413
28.863651 55.985012 24.385412
28.02465 54.117012 23.436413
23.69765 47.63301 24.925413
23.38965 45.84401 26.357412
42.12665 111.52801 0.49541473
41.90865 111.61001 40.809414
34.82265 114.754005 41.791412
34.05165 116.25801 40.615414
0.04465103 115.18101 31.661413
0.7256508 113.27501 30.694412
1.5126495 107.336006 31.332413
0.5046501 105.50001 31.195414
9.126652 100.36901 27.701412
10.859653 99.32701 28.438412
10.6706505 91.57601 30.268414
9.732651 90.03201 29.255413
47.42965 2.6580048 35.73341
49.12965 1.1700134 34.73741
6.6326523 7.2700043 33.789413
7.7156525 7.525009 35.80641
14.019653 62.52801 35.250412
13.311653 61.59801 37.414413
12.290653 54.31001 40.011414
10.209652 53.62001 39.301414
29.366652 76.79201 21.110413
30.137651 76.50801 23.076412
35.986652 74.67701 18.924412
36.55565 72.30101 18.386412
21.669651 16.868011 30.702414
23.77565 16.251007 30.936413
30.044651 20.131012 34.87141
29.009651 21.743011 35.776413
41.68565 6.959015 20.436413
41.20765 5.0950165 21.582413
34.75265 2.3370056 18.351412
32.63465 2.032013 17.308413
15.94165 29.943008 36.41741
16.117653 29.379013 38.375412
20.439651 30.531006 2.4784126
18.854652 31.734009 2.8504143
13.251652 56.60601 10.365413
13.082653 57.255013 7.8814125
5.190651 58.89301 7.4454126
4.68565 59.69801 5.0454125
27.32965 120.78901 19.246412
26.96165 122.22001 21.086412
30.38565 126.03501 27.371412
30.196651 124.95301 29.276413
48.83665 19.240005 16.578413
47.42765 21.290009 15.965413
38.48765 21.007004 15.997413
39.30565 23.110016 15.298412
14.907654 0.6770172 20.439413
13.211651 1.8730164 19.993412
11.957653 130.20102 15.845412
13.993652 129.35301 15.493413
26.168652 38.084015 34.84141
25.397652 36.366013 34.025414
18.786652 35.004013 29.415413
19.062653 33.032013 28.496412
15.174652 50.32701 22.116413
13.287651 50.51801 22.439413
8.501652 47.69001 15.772412
7.200653 47.55701 17.863413
35.37965 69.45701 40.611412
33.43065 69.51201 40.87641
37.271652 66.09401 5.027416
36.99165 67.78101 6.7454147
4.1216507 8.254013 38.097412
2.2626495 9.355011 39.100414
45.79165 13.256012 38.937412
45.86265 14.123016 36.867413
1.7886505 75.58901 19.271412
2.5096512 77.51801 20.225412
45.75965 75.34501 27.026413
47.21465 76.43801 27.734413
23.641651 60.07401 4.1344147
22.578651 58.82601 2.5374146
24.63165 53.09701 42.389412
22.15265 52.92501 42.22341
25.217651 48.01901 7.9964128
24.57065 48.94901 9.558413
32.216652 45.26501 13.402412
31.144651 44.14201 14.680412
40.00065 93.49401 12.849413
41.06665 94.709015 14.278413
36.78165 102.11001 11.845412
36.64165 104.23201 12.389413
0.39765167 132.51102 1.531414
1.1396523 134.434 0.23241425
5.7586517 131.68501 35.484413
6.8096504 133.92102 35.484413
23.487652 42.88501 42.39041
23.389652 40.603012 41.15541
17.62265 43.05501 34.166412
19.173653 44.22001 32.89641
5.8456535 40.90701 18.399412
8.461651 40.95501 18.750412
9.898651 48.575012 21.843412
9.618652 49.85001 23.794413
13.359653 62.76901 17.646412
15.423653 63.75201 17.832413
12.917652 64.64501 26.694412
11.147652 63.30501 26.885412
44.12765 110.51101 41.52841
42.92265 109.01201 42.669415
47.20965 107.28201 7.798416
45.20065 106.28001 7.929413
22.036652 43.63401 27.355413
19.855652 43.17501 26.034412
14.397652 46.325012 24.988413
13.355652 47.83601 26.155413
38.39565 78.54601 38.165413
37.87765 79.69501 36.29341
35.771652 86.06501 0.76441574
33.27765 85.20501 0.5744133
11.255653 87.904015 20.608412
13.169651 87.71101 21.552412
10.680653 94.669014 25.634413
11.110653 95.42601 23.182413
15.97065 23.265015 20.533413
17.014648 24.458008 22.457413
19.083649 29.963013 26.199413
18.411652 30.438019 28.862413
18.975647 102.09701 22.313412
18.31565 103.65901 22.571413
12.503651 107.48801 27.028412
13.620651 109.08801 25.955412
37.34565 87.72601 2.1204123
38.03665 88.002014 4.0294123
35.64065 92.51301 11.594413
37.65965 93.29801 11.629413
29.939651 97.15901 3.8704123
30.48765 98.74101 2.2774124
35.63165 101.22501 9.436413
37.86365 100.723015 8.573413
49.79365 6.3420105 13.919413
0.04165268 4.9650116 15.825413
2.0506516 9.05101 23.442413
3.9966507 8.428009 22.650414
36.14865 34.90602 20.481413
35.10165 36.40802 21.448412
37.53465 43.432014 16.028412
39.49165 43.334007 17.067411
14.575653 99.04701 29.278412
15.591652 97.169014 29.381413
10.454651 93.446014 33.28741
10.232651 92.10801 35.32941
9.617653 123.03301 3.3894124
10.312653 124.84701 3.4364126
8.462654 125.65801 12.606413
7.962654 128.10501 13.096413
19.564651 6.9720154 5.864414
19.674652 7.7380066 3.894413
18.465652 3.3200073 39.64641
20.840652 2.4970093 39.31341
47.50665 2.5190125 19.918411
45.87965 1.1070099 20.189413
41.76165 133.28302 16.363413
42.56265 131.33902 17.297413
25.599651 110.99501 12.694412
25.74665 108.78601 13.939413
27.08165 112.31901 21.474413
25.915651 112.63301 23.071413
32.49965 11.036011 6.298416
32.88165 12.1910095 4.3514137
30.557652 13.770004 40.02841
32.74165 14.049011 39.243412
3.669651 123.87301 27.176413
3.38665 121.97201 27.927412
8.243652 121.851006 20.767412
6.7986526 121.20001 19.509413
25.617651 16.899017 14.002413
25.81665 14.434006 15.196413
26.79665 19.666016 21.966413
26.52565 18.615005 24.060413
4.6146507 75.51101 13.752413
6.3666534 76.34201 14.404412
13.886654 72.81401 15.123413
15.540649 74.27601 14.701412
33.07965 75.072014 27.026413
32.31065 73.27101 27.147413
27.45465 74.93101 34.333412
28.34365 77.21401 35.22341
40.96065 98.168015 8.369412
42.63565 97.38401 7.7864127
46.52865 102.18801 14.491413
44.85465 103.73601 14.207413
26.64565 125.44401 31.505413
27.34365 123.23201 31.793413
22.90665 118.45701 25.197412
24.26865 118.80801 23.079412
19.745651 60.45601 42.611412
19.434647 59.76801 40.527412
24.196651 67.36001 38.089413
25.604652 67.01701 36.361412
34.75565 119.226006 15.2304125
33.94265 117.22101 14.957413
34.62065 112.29601 8.281412
35.67965 111.90301 9.952413
44.40865 54.18301 34.611412
45.63565 54.888012 36.250412
44.21965 59.31401 41.823414
42.31265 60.97501 41.192413
17.34365 50.79801 20.515411
17.972649 49.94101 22.577414
24.476654 55.76501 23.068413
24.707653 55.53201 20.382412
35.71765 136.83401 42.735413
36.29765 136.81502 2.5604134
42.71965 135.90501 8.353413
41.38865 133.89302 8.716415
26.66765 95.31801 16.772411
24.69065 96.34501 17.192411
21.94765 101.169014 21.984413
20.13965 100.13101 23.705412
33.042652 26.591019 19.494411
31.547651 26.513016 20.888412
36.20365 32.23001 23.751413
36.92965 32.56201 21.825413
21.310654 113.99301 19.168411
23.318653 112.90701 18.625412
18.112648 114.36301 12.807412
16.384651 113.18501 12.198413
28.41365 74.74601 24.247412
30.27065 74.62001 25.189413
28.59065 67.09801 19.746412
27.776651 68.61801 18.357412
20.306648 17.095016 39.858414
20.85865 17.289017 41.941414
23.806652 8.952011 1.7634163
22.55365 6.755005 1.288414
30.43865 8.755005 16.434412
29.530651 8.619019 14.469413
27.842651 137.17001 14.306413
26.06565 136.63101 15.854413
48.57965 111.66201 24.257412
48.80565 110.28501 26.473413
46.07965 115.95201 29.126413
44.44165 115.66701 30.585413
28.07765 25.387009 38.186413
26.415651 24.463013 37.71641
30.495651 18.438019 39.15441
31.08865 16.450012 39.221413
14.55265 85.62901 32.90441
15.871651 84.08301 33.23841
23.831654 86.92901 28.242413
24.558651 85.446014 29.546413
28.297651 133.81001 42.548412
28.637651 132.90501 40.576412
33.75165 130.88101 35.298412
32.43565 129.57 34.94041
11.987652 38.323013 20.304413
13.715652 37.03401 19.689413
18.017647 32.81102 25.919413
15.549652 32.81401 26.235413
45.55265 122.77701 38.27941
44.46465 121.38401 37.075413
43.59565 117.93501 28.906412
43.37565 119.95101 28.301413
27.054653 88.68401 30.440413
25.316654 87.84601 30.620413
17.964653 89.62801 35.722412
17.645653 87.85701 36.00141
8.850651 86.37201 1.0924149
9.972652 87.29101 42.401413
14.478653 85.849014 35.694412
15.077652 87.87201 34.624413
6.396652 81.86701 9.909412
8.844654 81.62201 9.443413
8.286652 89.96501 13.709413
8.982651 91.19301 15.500413
48.08165 20.341019 40.49441
46.47465 18.684006 39.437412
49.48165 18.179016 3.0724144
48.82465 18.102005 5.007416
6.431652 60.06001 18.180412
8.210651 60.31701 17.713411
13.367653 55.32101 13.295413
14.980652 56.69501 12.813413
23.158653 6.128006 23.692413
21.269653 5.780014 23.665413
25.292652 134.78001 25.289413
25.42065 134.72002 27.350412
13.582653 16.193008 18.440413
14.488647 17.706009 20.133411
8.384651 23.639008 17.091412
9.153652 24.951004 15.175413
24.88265 132.36201 42.645412
26.53165 131.50801 41.33541
27.991652 131.837 32.386414
26.544651 129.81201 31.883413
35.57965 45.29901 14.965413
37.80865 46.47901 15.472413
33.53365 51.66701 14.917413
31.20865 50.499012 14.451412
16.058647 109.04401 40.471413
17.589653 107.98401 39.392414
15.925652 115.51801 35.242413
14.7276535 115.88701 36.893414
38.18665 75.835014 37.740414
38.10065 74.07501 36.928413
44.48465 71.90901 32.30241
44.07365 69.48501 32.61341
40.87365 8.499008 22.556412
39.55065 9.957016 20.839413
35.71565 8.338013 14.249413
33.46265 6.6150055 15.028413
27.662651 8.770004 17.791412
29.401651 9.132004 18.730412
31.14965 14.271011 25.459414
30.72965 16.612015 24.884413
42.19265 107.44501 39.790413
41.76565 106.23801 40.975414
34.80565 111.38901 41.747414
34.702652 112.77901 0.7594147
1.221653 90.946014 39.496414
48.86965 90.67701 39.635414
44.72665 87.64301 33.220413
43.40965 85.21701 33.37041
48.00865 78.88301 38.04341
49.31065 79.20801 36.041412
49.13965 78.99101 28.778412
47.68965 79.17901 27.062412
29.797651 86.68601 7.3404126
31.07165 84.99401 6.6254125
31.06565 83.53901 14.245413
30.69165 86.127014 14.9474125
23.886654 81.73201 31.221413
21.863647 81.376015 32.25941
15.897652 78.86401 25.713413
14.448654 80.13601 24.295412
39.66165 113.39101 26.005413
39.33265 111.490005 27.156412
39.90665 105.81701 26.489412
39.77065 103.52401 26.003412
29.59765 128.988 41.367413
29.880651 127.12501 40.40441
22.734652 125.46901 35.05841
21.658651 125.99601 33.144413
23.842651 7.7460175 20.146412
22.084648 7.362015 21.323412
17.33265 14.077011 21.899412
16.159653 15.372009 20.862413
37.42765 80.61501 5.2984123
39.18165 79.35501 4.5164123
43.91365 73.77301 6.9404125
44.33665 71.92201 6.1444125
28.82065 8.981018 5.9554124
29.807652 10.810013 6.8324122
27.36165 9.729004 13.602412
26.88965 10.118011 15.719413
24.120651 7.7730103 15.658413
25.17465 7.877014 17.617413
26.904652 3.6960144 23.723413
25.91665 2.1480103 24.905413
43.53165 32.481018 34.241413
42.46165 33.30902 36.525414
37.82665 35.864014 29.712412
35.64165 36.474014 30.670412
5.5176506 101.155014 2.9074135
6.9206505 101.04601 1.281414
1.6546516 94.34501 40.553413
0.6146507 95.80901 38.67541
17.322647 96.39301 13.9474125
18.201653 95.46201 15.646413
11.195652 94.28901 19.602411
10.416653 93.68601 17.761412
31.169651 136.77301 16.300413
33.118652 136.61101 16.816412
39.09265 132.69902 13.8554125
39.32565 132.38202 16.332413
16.990654 13.767014 0.95041275
15.960648 11.392014 0.6214142
24.308651 10.156006 38.302414
23.962654 12.188019 36.96641
34.945652 65.55601 29.860413
32.53665 65.91201 30.214413
32.84065 64.49501 20.628412
34.03665 62.70801 20.603413
31.37365 71.37001 4.489414
29.193651 71.83001 3.7754135
26.508652 68.48901 38.80741
25.235651 67.60001 40.42441
8.135651 0.64701843 24.581413
6.770653 135.70102 23.564413
1.5056496 133.86902 19.022411
1.0996513 134.12401 17.048412
20.130653 17.35701 8.022412
20.132652 16.695007 9.880412
18.726654 10.863007 5.1394124
20.448654 10.524017 3.7054124
23.419651 58.02101 33.527412
22.700653 56.84801 35.311413
22.711647 48.05101 34.18141
20.925652 47.57301 33.171413
46.07865 86.01401 30.676413
47.15965 87.06001 32.49541
4.62265 86.31101 37.868412
3.8196526 88.55601 38.527412
14.37365 102.94001 14.740413
16.87265 103.88501 14.204412
18.090652 107.32501 6.8564124
18.20565 109.62201 6.0264125
42.61465 69.15101 34.71741
44.37265 70.60601 35.52341
45.27065 78.10101 39.248413
46.85465 78.66401 40.783413
12.068653 92.348015 15.944412
10.80265 93.19001 14.376412
11.522652 102.377014 14.614412
12.279652 102.16101 12.722412
4.9776497 72.56501 20.993412
3.4486504 74.12501 20.823412
46.25865 70.65501 25.729412
46.93065 68.59001 25.957413
4.568653 11.825012 25.572412
4.971653 14.028015 25.844412
6.403652 7.7450104 26.252413
4.8526497 9.206009 25.113413
14.113647 74.62501 35.79941
16.203651 73.77101 35.16141
13.700653 77.16001 26.036413
12.751652 75.349014 25.712412
46.31365 80.04201 16.404411
45.58765 77.63601 16.781412
37.96965 76.29101 14.409412
37.72465 74.60101 16.212412
47.80365 100.88601 21.228413
47.55065 99.17901 22.944412
2.2676506 103.71701 29.783413
2.0066528 105.78501 28.945414
26.57765 80.68101 42.623413
28.481651 79.94001 41.677414
26.557652 71.92601 0.10941315
25.73665 72.73101 2.1914139
34.74965 21.948013 16.620413
36.63365 23.170013 16.509413
39.98865 21.185013 24.951412
38.48765 20.673004 26.198412
48.62365 4.3610077 12.340412
49.63065 4.3090057 10.583412
1.2276497 132.95001 9.075413
49.01265 133.82701 9.196412
45.14765 24.076004 22.621412
44.15865 26.024017 21.634413
46.38265 33.252014 25.011414
46.22265 34.683014 26.622412
11.210651 89.12301 32.025414
11.667652 86.84001 31.118412
6.1406517 81.19401 35.50841
6.0816536 82.24201 37.401413
21.251648 135.391 18.569412
19.306648 134.891 18.717413
14.26165 135.01102 12.026412
13.002651 133.39401 12.437412
5.457653 59.52801 20.865412
4.4026527 57.99301 19.722412
9.784653 53.79901 22.311413
11.263653 52.46001 21.908413
36.14165 71.98801 38.33541
36.59665 73.89701 39.150414
32.22765 75.543015 3.8454132
32.96965 73.45001 4.224415
5.138653 10.547012 40.552414
3.537651 11.867004 40.303413
3.5556526 20.267014 42.658413
2.6376495 20.445007 1.6954155
10.618652 128.96501 34.48041
9.757652 128.28801 32.14241
9.6706505 132.86601 26.607412
8.571651 133.53601 24.582413
6.943653 133.68802 32.80841
4.853653 132.98901 32.99641
6.410652 125.09101 27.618412
8.587654 126.07101 27.346413
48.58965 21.688019 18.407412
0.3866501 21.117004 17.849413
5.325653 18.532013 25.020412
5.492653 16.976013 23.834414
44.15065 77.71101 27.279413
42.74165 79.308014 27.027412
35.71565 79.78701 31.599413
35.19265 81.279015 29.913412
25.17765 79.43501 31.147413
23.391651 78.35001 30.575413
28.117651 78.45701 23.094412
26.880651 79.31301 21.616413
30.03265 72.93401 36.51041
28.03265 74.09201 36.894413
23.148651 76.73001 41.108414
21.15265 77.77001 40.27341
10.591652 123.976006 0.807415
10.813652 121.74101 0.32141495
18.94065 120.07101 42.40441
20.350647 121.70201 1.3204155
22.26865 5.3150177 19.417412
21.00665 4.279007 18.323412
25.391651 1.1590118 11.558413
25.03965 136.30002 12.852412
1.2316513 137.16101 42.00941
3.1726532 1.4490051 41.603413
2.7466507 134.58002 33.394413
3.8826523 135.24501 31.673412
20.805649 58.43301 36.706413
19.835648 58.35701 34.43841
16.237648 58.41101 29.613413
15.155647 56.63201 28.389412
33.69365 10.8450165 17.523413
32.02065 10.874008 15.693413
28.280651 17.449005 13.735413
27.808651 15.915009 12.662413
6.400654 14.685013 23.577414
6.744652 14.9440155 21.553413
7.966652 5.7740173 20.659412
8.515652 5.5710144 22.710413
15.543648 100.96901 16.080412
17.406647 102.48601 16.903412
16.472649 106.865005 23.011414
18.84565 107.53701 22.208412
13.073654 72.12001 37.061413
12.157654 72.86801 35.30641
10.949654 73.33401 28.971413
9.130653 72.70801 30.157413
34.01365 15.892014 37.197414
32.96565 16.465012 35.451412
36.48765 21.027008 28.652412
37.16265 19.045013 27.941412
12.330654 89.86101 28.667412
13.641651 87.68801 29.770412
20.087654 91.17801 26.963413
22.008652 91.82701 27.893414
18.460648 21.908005 33.30841
20.245651 20.018005 32.796413
14.537651 15.224014 38.544415
15.593651 14.227005 40.331413
25.10465 134.84601 1.071415
26.575651 136.02501 42.39741
32.938652 136.17102 42.603413
32.52265 134.878 1.5704155
41.05965 11.004013 26.162413
41.62565 10.999008 24.109413
47.90365 13.047012 19.922413
49.54565 13.88501 21.116413
4.4396515 56.53401 40.929413
2.7376518 55.84301 40.104412
49.54165 51.73201 3.0444145
49.33365 52.63201 5.2214127
4.384651 122.67601 19.073412
3.780651 120.65001 18.930412
49.57865 118.45001 16.041412
47.33065 119.00901 15.029412
5.865654 96.27301 9.051413
6.7586517 94.86501 10.448413
12.944653 99.31601 9.926413
14.485649 100.13601 11.731413
48.19365 45.01501 20.643412
49.80365 46.27201 19.561413
5.539654 47.88601 26.170412
3.5226517 49.54101 26.036413
43.29065 39.918015 20.439413
40.79965 40.82602 20.943413
36.74265 34.845016 26.061413
38.04765 33.652008 24.848413
41.77065 57.14901 32.32341
43.34065 58.64701 31.271412
41.83365 65.78601 37.09241
43.10965 66.95401 38.115414
2.4356499 62.78501 6.760414
3.7036514 64.48101 6.4494133
48.87565 67.52801 0.9914131
47.38265 66.33601 0.42341614
20.331652 93.709015 1.8864136
21.09165 92.41201 3.9804153
26.043652 87.21201 5.684414
27.53165 88.655014 6.746414
21.863647 41.78401 31.532413
20.022652 41.07402 29.631413
15.367653 36.140015 28.107412
15.824654 33.76602 28.584414
43.94465 61.08001 2.8324127
41.81265 61.93101 2.8974152
35.21365 58.11801 0.5994148
34.35965 58.41601 2.1974144
40.10665 131.97902 1.6164131
40.85565 130.641 3.755413
47.81565 134.88002 6.505413
47.06465 136.63202 7.040413
38.24965 26.840012 32.13541
39.26665 24.375015 31.693413
44.98065 23.429016 33.284412
44.25565 23.874008 30.760412
30.22265 84.196014 19.880413
31.88565 85.87401 19.886412
29.259651 93.96201 17.773413
31.57965 94.252014 16.868412
17.551651 93.72701 6.1224127
19.717651 93.38501 6.1634126
20.891647 87.88801 11.453412
22.015648 85.46301 10.799413
36.30965 2.880005 3.2044125
34.53265 1.5940094 2.5254123
27.10465 2.32901 6.2664123
25.460651 0.40301514 6.6704125
19.173653 78.51201 10.011413
18.600647 78.91701 7.5614123
24.367653 79.20701 1.1254125
24.636654 76.86801 0.6494124
47.05265 60.61401 14.967413
45.68365 59.87601 13.294413
40.93965 57.41201 16.561413
39.21765 56.005013 16.196413
43.56665 102.91401 41.277412
43.94365 103.08601 0.5984154
0.801651 108.93301 0.13641357
2.655651 107.96401 1.2874146
0.16765213 102.29601 15.029412
0.8146515 103.28101 12.419413
4.0996513 101.24001 5.4224124
6.1996536 101.39201 6.0384126
25.776651 83.23501 42.435413
26.01065 85.21101 42.526413
30.939651 88.79501 40.05041
32.09865 87.30101 41.40441
6.801651 72.35501 7.6124125
4.9726524 72.14801 8.720412
47.50865 76.19101 8.696412
46.84665 78.43101 9.047413
25.533653 15.948013 11.157413
23.664654 15.355011 9.399412
19.822647 18.494019 5.5384126
19.087654 19.879013 7.0394125
31.49865 89.27501 10.451412
32.86065 89.59601 9.2894125
39.83065 87.34601 6.1244125
40.82765 89.09201 6.4414124
15.967651 135.84102 25.287413
16.550652 136.90802 23.399412
17.301651 7.628006 26.546413
18.617653 9.304016 25.806412
31.29565 96.084015 1.583416
32.28865 97.293015 0.6294136
40.67165 98.43101 2.604416
40.44565 100.53401 2.038414
43.26265 122.15301 18.155413
44.09765 121.28201 16.411411
39.08465 124.55501 9.634413
38.08965 122.39701 9.108413
40.63465 113.51001 16.664412
42.01165 113.26101 18.450413
42.24165 116.30701 26.924412
42.28565 114.19101 26.784412
21.40065 95.74201 40.09141
21.67765 98.01301 40.11941
24.242651 105.01301 0.45441437
25.40265 106.254005 2.0684128
24.255651 40.039017 6.0654125
22.630651 38.751022 6.1454124
26.04265 34.819016 11.080413
26.832651 33.24301 12.786412
8.907654 92.20401 19.493412
10.018654 90.38201 20.119411
1.808651 89.31301 20.398413
1.1986504 88.85001 22.578413
16.403648 44.779015 32.068413
14.740654 43.64501 33.53041
9.849651 41.045013 26.484413
8.462654 38.84601 25.838413
20.779648 57.08301 39.79941
18.640648 56.02301 39.962414
11.998653 53.87501 42.701412
11.341652 51.98401 0.22841263
38.30465 121.27501 38.819412
39.87865 122.142006 39.872414
36.74765 121.27001 4.8764153
34.68465 122.29701 5.901413
2.695652 114.961006 11.042413
4.0596504 117.05001 10.680412
7.945652 122.33901 12.9404125
7.0886536 123.68701 14.594413
38.68465 56.14201 29.247412
39.34465 54.44201 28.882412
41.41665 47.48801 25.804413
39.71265 47.07101 26.560413
37.51065 111.95501 7.9404125
38.13565 113.91101 6.5534124
44.33465 118.71301 7.9824123
46.68465 118.01301 8.129413
36.87265 16.315018 26.394413
34.85965 16.627014 25.426413
37.55765 17.103012 17.059412
38.77765 15.289017 18.307413
24.78865 78.94901 16.684412
22.85965 80.49601 16.187412
21.162651 82.47001 23.119413
19.032654 81.84701 23.643414
46.40465 77.51901 19.597412
44.35565 78.56301 19.079412
45.82165 83.31101 15.033413
46.42765 85.08301 14.922413
10.541653 133.39401 1.6084125
8.415653 133.74101 2.4514124
6.681652 135.55301 10.790412
5.994652 0.55900574 11.584413
43.23965 128.16801 28.312412
45.63165 128.57602 27.455412
3.6016502 125.84601 31.000412
3.445652 123.95201 29.859413
13.312653 58.64301 27.264412
11.380653 59.59801 26.214413
16.347649 60.71001 19.326412
15.019653 60.94701 17.036411
27.65365 39.307022 10.915412
28.97365 37.974014 11.191412
37.64465 38.431015 8.356413
37.97065 36.80301 9.809412
0.91765213 82.04701 19.411411
1.4546509 83.155014 21.456413
42.49065 82.26701 24.515413
41.80365 79.83201 24.515413
27.499651 55.55501 29.500412
26.54165 54.06001 30.835413
24.07365 46.72601 32.23941
22.29865 45.117012 31.914413
6.763653 71.86601 1.1904144
7.233654 69.86001 1.3184128
1.5906525 65.03601 41.061413
0.96565247 67.30101 40.541412
3.9766502 26.819016 25.779413
4.9676514 25.976013 23.834414
12.463654 20.640015 22.521412
14.231651 21.160019 23.649412
34.20765 88.19001 36.80841
32.77965 88.60901 35.68341
28.60165 94.42401 32.50241
27.68465 92.26401 32.60041
32.20665 19.281006 36.81641
30.780651 20.864014 37.685413
31.03465 23.81601 2.104416
28.52565 23.848007 2.144413
25.317652 39.96501 38.178413
25.641651 40.027008 40.367413
33.32465 42.671013 41.02841
33.36565 43.991005 42.687412
7.148651 112.16301 40.565414
6.3056526 112.19501 42.441414
13.763653 108.63801 1.2604141
14.277649 110.18701 2.7254143
33.21965 53.84301 40.90441
34.74665 55.84001 41.75141
38.83865 58.32501 35.63341
40.63565 60.44701 36.75841
30.342651 47.742012 4.229416
30.897652 45.91401 2.3294144
23.401651 49.06701 42.09141
22.335651 49.08101 40.520412
17.446648 16.759018 12.665412
16.294647 18.147018 14.259413
16.084648 20.351013 21.418413
16.742653 21.828018 22.948412
35.00565 88.488014 39.26541
37.021652 90.28101 39.21041
41.75365 85.89701 36.04541
41.15165 84.48601 34.87141
34.18365 134.84601 18.507412
34.75265 136.81902 19.107412
40.46465 1.1940155 12.138412
38.97965 2.4030151 11.998412
15.341652 135.73502 32.08441
15.424652 135.05402 30.145412
15.311653 7.501007 29.561413
13.680653 8.083008 31.168413
11.193653 17.852005 37.297413
13.007652 16.825012 36.694412
9.035652 8.112015 33.111412
10.582653 8.003006 31.825413
0.9586525 63.93101 29.631413
3.17165 64.78101 29.999413
8.134651 71.63001 33.435413
7.6966515 73.48801 32.478413
6.9426537 18.765015 39.053413
4.42865 18.195007 38.742413
5.589653 10.472015 35.66741
6.787651 9.618011 37.353413
17.380653 72.88201 18.014412
15.855652 72.75801 20.383411
9.645653 67.48901 18.042412
10.387653 65.65701 18.875412
43.58565 112.01801 15.960413
44.60565 111.53001 17.849413
45.39165 104.20701 17.828413
46.72665 102.58601 17.221413
16.432648 92.02401 4.6844125
14.820648 93.44901 5.2184124
7.433651 94.97601 6.1044126
6.0786514 93.62401 7.9614124
47.10565 73.45701 6.5654125
47.77565 71.38001 5.8794127
4.6806526 69.12601 12.272412
5.1426506 70.81401 13.608413
25.32965 16.366013 37.73041
24.374653 16.369019 35.901413
21.64965 25.099014 36.493412
20.451653 24.528015 38.28541
34.34265 30.649017 17.897411
32.37965 29.831009 17.002413
24.81565 31.643005 17.406412
23.32765 32.862015 16.544413
11.369652 53.00001 36.00341
9.919651 54.14301 36.596413
9.217651 60.59401 30.959414
9.643654 62.66501 29.950413
28.35565 98.52001 19.365412
28.89665 99.56901 21.385412
23.977652 103.33901 26.300413
24.47965 102.29801 28.375412
14.765648 71.00201 2.7794151
15.862648 70.12701 0.9024162
17.530647 75.73201 39.171413
15.994652 75.55401 37.712414
48.70765 95.26001 24.545412
1.0496521 95.598015 25.882412
4.5106506 102.67101 29.041412
4.723652 102.25301 31.132412
20.90065 108.31901 38.211414
22.745651 108.851006 39.159412
21.800652 114.97901 42.51641
21.824654 117.30201 0.94641495
49.48565 14.37001 18.004412
49.67165 13.943008 15.665413
44.11665 17.369019 11.035413
43.58665 18.431015 13.238413
10.752651 32.458008 10.057415
9.409653 31.848007 8.086414
9.661652 32.246017 42.128414
9.353653 30.175018 42.70341
47.90065 24.511017 25.570414
45.89365 24.002014 25.103413
40.78665 19.641006 27.537413
39.69365 20.220016 29.732412
43.091652 101.17301 19.638412
43.91665 100.96501 17.348412
42.57765 92.571014 18.011412
41.61265 91.61101 16.520412
24.189651 33.333008 37.511414
23.532654 34.71402 35.77441
16.338654 30.061005 33.804413
15.806648 29.677017 31.648413
9.494652 3.1560059 21.774412
10.124653 4.2220154 19.863413
5.624653 134.50902 15.701412
3.5666504 134.86002 14.326412
9.167652 18.706009 7.1214128
9.607651 20.804016 7.2964125
4.2656517 22.269012 15.448413
5.242653 24.339005 15.409412
21.66365 106.57201 2.1074142
21.259651 104.932014 0.958416
19.810654 96.72201 2.3014145
18.194649 95.56301 3.7184143
48.34365 21.924011 38.443413
48.64565 21.709015 36.63541
44.24865 15.655014 32.33541
42.18965 16.77301 31.406412
37.29565 59.16001 20.079412
36.23965 60.76101 21.609413
42.88365 66.35601 20.398413
44.68665 65.43801 20.356413
17.268654 78.09501 13.536412
17.625648 79.697014 11.774412
15.084648 79.50901 4.4334126
13.185654 78.64801 3.0734124
48.85965 83.18601 4.0774155
46.77565 83.862015 3.3564148
41.12265 88.27301 3.972416
40.35365 88.64601 1.9684143
47.94165 56.172012 22.253412
45.50565 56.44901 22.220413
46.56365 48.42601 25.418413
47.82565 47.11101 24.011414
46.13465 63.78201 13.148413
48.17965 62.32901 13.279412
2.8356514 60.65701 19.674412
2.0316505 58.56601 18.573412
42.27265 124.74201 37.53041
39.80065 124.49801 38.16141
36.30965 130.848 36.040413
36.35065 132.94002 34.98941
49.23465 130.22801 25.227413
47.93165 130.462 23.293413
44.53065 122.20901 27.282413
43.65665 122.55401 29.278412
48.36565 103.13301 5.9264145
49.78465 102.04801 4.739414
6.1806526 102.90601 42.239414
5.961651 104.32701 40.64841
7.2916527 64.54801 18.250412
6.122654 62.67001 17.702412
4.1586533 59.58701 9.799413
3.9656525 61.21601 8.581412
38.06965 93.51001 37.165413
39.50265 92.84001 36.081413
39.53465 85.78301 30.402412
40.42765 83.54501 30.501413
15.225647 63.43501 38.900414
15.6026535 65.07301 37.032413
22.906647 61.03701 33.35141
24.544651 62.47301 32.875412
41.51265 79.85301 18.583412
40.12965 78.96501 16.960413
45.35565 80.95201 10.467412
45.51665 83.27101 10.1054125
15.319649 116.503006 15.107412
15.298653 114.15801 15.265412
9.388653 113.18001 18.841412
10.779652 113.13001 20.963413
30.634651 2.9490051 31.784412
29.933651 5.2380066 31.524412
38.45165 4.326004 27.986412
38.66665 2.1460114 28.204412
13.799652 61.19901 27.956413
15.946648 60.57401 27.771412
19.38565 68.71801 24.927412
21.217651 67.42301 24.207413
19.961647 42.879005 13.437412
21.465652 41.77002 14.114412
18.699654 35.251022 13.324412
18.545647 33.180008 13.650413
33.71865 129.88402 20.493412
32.59865 130.919 19.057413
30.07765 133.86702 13.643413
28.675652 134.67502 15.326412
21.13665 128.78702 34.437412
20.189651 130.60802 34.28041
18.481651 130.78801 0.5614128
20.197647 129.44101 0.60741425
13.257652 28.723007 39.427414
13.335651 27.271011 37.379414
10.409653 20.27301 35.123413
8.756653 19.072006 35.846413
18.018654 33.570023 11.258412
16.97065 34.04402 9.316412
15.196648 39.26602 13.094413
14.781647 40.502014 14.599413
33.53365 68.85401 25.537413
31.67165 69.99301 26.917412
27.245651 67.40601 32.908413
27.91665 69.04201 34.067413
16.119652 111.68601 6.7704124
17.071648 112.73501 8.272412
23.124653 114.80801 2.0194125
24.073654 116.96501 2.0374124
6.8576508 71.65501 4.3884125
7.1286507 73.80401 4.6414123
10.115654 79.86801 4.9244123
7.8716507 80.53601 5.148412
31.73265 47.69501 21.655413
29.88665 46.46301 21.859413
25.27765 48.48901 15.273413
27.499651 48.43201 14.835413
0.9346504 86.87101 18.719412
0.27565002 84.63501 18.395412
46.85965 83.765015 12.491412
46.87365 81.62001 12.844413
16.502647 99.14501 14.309413
16.689651 100.99901 12.659412
24.477654 102.17801 9.2234125
25.542652 101.79001 7.2464128
15.48465 98.79601 31.965412
15.2276535 100.61101 32.90641
21.34465 106.59001 30.319412
20.81665 107.46701 28.277412
41.41065 82.76901 27.518414
40.44065 81.03801 26.305412
38.30065 81.56101 20.749413
39.00865 80.10401 19.840412
38.24465 92.52601 22.958412
37.59465 94.82801 22.019413
44.90665 99.030014 24.007412
44.92965 97.41501 26.087412
37.53165 131.781 6.0904126
37.21165 129.48302 6.8144126
29.96665 126.84001 9.1974125
29.52565 124.740005 8.584413
48.24965 67.76201 40.93941
46.10465 67.32501 40.06341
45.94665 70.50101 3.5414162
45.79765 69.35301 5.0514145
19.558647 108.95901 14.235413
21.84665 108.406006 14.785413
19.60865 102.50801 19.506413
20.94265 101.00001 19.267412
23.95565 50.90501 5.9384127
25.66665 51.10801 7.6884127
26.266651 51.11501 15.211412
28.491652 50.957012 15.127413
45.37565 16.803009 6.1564126
47.02165 18.957016 6.5874124
1.0356522 19.777008 14.521413
1.7456512 21.757004 15.525413
32.49165 47.943012 29.837412
31.81765 45.94101 31.070414
27.88265 52.98601 33.118412
29.662651 53.25301 35.068413
34.04665 50.84101 17.549412
32.285652 49.13301 16.708412
24.571651 53.07101 18.550413
24.696651 54.096012 16.518412
46.20565 67.308014 28.558413
48.45165 67.19901 28.554413
45.31565 66.46601 35.61941
45.43565 68.07401 37.329414
16.92765 84.87801 35.89841
18.99865 84.68901 36.06541
21.78965 81.06701 0.3904152
22.56765 79.63101 41.676414
48.66465 93.52601 39.70341
48.03165 94.49901 41.797413
44.65265 97.36401 4.140415
44.97665 96.76001 6.2964134
23.151653 49.33301 11.987412
23.181652 51.20801 11.023413
17.460648 55.38601 13.785413
16.98465 57.22701 15.403413
19.53865 22.956009 29.549412
20.051651 23.714005 31.472412
27.616652 24.35701 35.37041
27.988651 23.407013 33.77941
30.776651 130.52002 32.686413
32.62965 130.75702 31.788412
34.54665 130.12201 23.031412
35.96165 131.41202 23.808413
9.753651 104.58301 14.439413
11.584652 104.90301 13.630413
11.855652 111.25601 7.4644127
13.720654 112.33101 8.351413
9.642651 79.52601 27.172413
10.661652 81.67501 27.925413
16.740654 80.50501 34.81641
18.21965 79.33601 33.706413
21.466652 134.23201 41.09941
22.758652 135.90201 42.345413
23.083652 2.0380096 6.1744156
23.756653 3.8100128 7.696415
2.1966515 120.79701 29.897413
1.7906532 119.53801 28.566412
8.970654 114.97801 25.682413
8.005653 113.03701 24.686413
39.27065 84.85401 21.643414
40.47465 85.26801 23.771412
49.39665 86.40101 23.029413
49.70965 86.24101 21.195414
28.238651 74.21901 6.635414
28.00865 74.12201 4.4424133
33.30165 81.016014 4.861416
34.507652 81.38301 2.7894135
46.08965 131.98601 31.724413
45.27165 132.49901 33.94641
44.37865 126.045006 40.373413
45.01265 127.83301 41.68241
14.950653 15.545013 12.721413
13.644653 13.611008 12.772412
16.724648 12.531006 4.8354125
15.230652 11.320007 3.0684125
1.7666512 115.57601 33.72341
2.6046524 116.20001 31.981413
9.858654 114.02201 30.647413
10.990654 112.96701 29.469412
11.928654 51.193012 24.720413
14.0456505 51.05701 25.890413
15.117653 51.62501 34.449413
17.49765 52.30001 33.762413
31.62665 92.655014 41.83441
31.297651 91.488014 40.04341
23.44165 95.87501 38.158413
23.61565 98.56901 38.477413
0.71765137 45.29701 14.522412
49.84665 45.54901 16.687412
41.75465 45.64001 17.879412
42.61565 43.71001 19.035412
3.6046524 19.152008 15.696413
5.1096497 17.777008 16.636412
0.95765305 15.310013 24.732412
2.5136528 13.327011 24.434412
32.15565 84.93401 39.442413
31.891651 87.23901 38.00941
28.915651 79.83701 37.811413
27.85065 78.919014 39.375412
35.79765 74.27201 5.0384126
35.11065 72.84801 5.9604125
41.39365 71.18001 11.808413
41.01665 71.26201 13.959413
7.551651 103.42701 15.599413
7.9866524 105.31001 16.883411
5.5976524 102.86601 24.330412
4.48365 101.50301 25.024412
3.9946518 106.97001 30.299412
4.2246513 106.81501 32.43941
8.041653 103.32801 37.581413
10.070652 102.77701 39.05741
31.91865 85.32501 17.157412
30.83665 83.17201 17.232412
37.01065 79.71701 18.183413
37.19165 78.57901 16.522411
35.88165 85.59601 32.651413
34.28465 86.47501 34.428413
26.97565 82.52401 31.286413
27.49665 80.53301 32.14941
35.74165 38.78801 3.630413
37.00565 39.220016 5.8224144
44.12565 41.442017 2.2924156
44.39465 39.14702 0.564415
14.837654 71.09101 12.570413
16.283653 70.17501 10.859412
15.280647 74.64401 4.2914124
14.295647 73.98101 2.4784124
37.82265 51.97001 28.227413
36.59965 53.49001 29.140413
33.94665 47.86601 35.24641
33.87065 48.42801 37.73741
42.24465 113.70801 29.478413
39.93865 112.62001 29.467413
32.514652 113.05701 25.459414
33.78865 112.71601 23.882412
20.243652 60.13401 2.2914162
19.10965 58.14001 2.0014153
14.228653 52.117012 6.0114136
12.401653 52.36301 5.337414
0.15765 23.88501 35.033413
49.44865 25.420013 37.22441
4.22665 29.44101 30.922413
4.829651 28.472015 28.911413
32.93065 45.11501 6.8014126
31.79365 45.95901 8.339413
38.69465 51.67801 8.488413
39.06365 53.43801 10.151412
43.79965 64.544014 9.352412
44.17065 64.12601 11.107412
37.48865 57.70201 10.584413
36.30765 56.93701 11.806413
15.506653 36.69702 14.663413
14.749649 36.889008 17.271412
20.013649 30.103012 15.517412
21.504654 29.983017 16.795412
16.854652 40.46301 18.312412
15.51165 39.62701 17.165413
9.572651 44.67401 13.7304125
8.1826515 44.94201 15.212413
4.9956512 69.83601 23.530413
6.1826515 68.75601 24.721413
8.377651 60.30701 20.525412
10.737652 61.57701 19.871412
41.11565 62.40501 5.9634123
39.36765 61.10901 5.7654123
40.58165 53.87501 8.037413
41.43865 51.82401 7.0364127
38.30965 104.01901 42.74541
37.71165 101.68801 41.811413
39.57465 94.97501 40.518414
40.25365 93.94401 38.67441
44.80565 69.70401 27.767412
43.53265 67.91101 28.484413
34.60965 67.75001 27.861412
33.48265 69.63601 28.801413
40.80365 21.256012 4.8244123
39.44865 22.880005 3.7824125
38.86965 22.543015 12.438413
36.90665 21.931015 13.520412
49.48265 125.170006 39.942413
0.9356499 123.99501 37.683414
46.25965 125.01901 30.544413
46.56665 122.66901 29.695414
16.324654 27.718018 3.2564163
14.633652 27.05101 2.6714134
18.092651 18.19101 2.729416
19.891647 18.118011 2.3594131
3.1456528 46.66901 42.789413
2.4306526 45.14901 1.6104164
46.91565 50.922012 4.2454147
46.93865 51.33601 6.262413
21.31265 41.75701 9.444412
22.37965 42.74301 11.106413
31.00665 44.44401 10.470412
32.063652 42.69001 8.812412
20.653648 107.06601 6.2164125
21.13665 105.97301 8.662413
15.332649 100.571014 8.895412
13.415653 101.03701 7.3274126
9.5456505 10.465012 15.667413
11.048653 11.774017 16.540413
13.845654 16.570007 14.834413
13.614651 18.583008 14.401413
19.406647 2.2420044 20.990412
18.62465 3.4240112 19.054413
14.023651 10.698013 19.833412
12.187653 10.036011 19.515411
33.80265 63.48201 17.785412
34.625652 65.42601 17.344412
43.84765 64.78801 17.465412
44.94165 63.80701 15.726413
8.947651 111.031006 7.762413
8.198654 112.94101 6.554413
3.6076508 110.23501 0.40541458
2.4566498 111.30101 41.802414
30.65265 56.48801 34.568413
31.93765 54.505013 33.678413
33.06265 49.25301 27.582413
32.34865 48.81601 25.600412
8.216652 82.52301 26.593412
8.157654 84.29201 27.474413
6.7226524 77.87001 33.89041
5.6096535 76.68801 32.41141
18.384651 56.76001 25.076412
19.744652 57.95501 27.126413
19.076653 61.72401 20.656412
20.51165 62.81401 20.016413
25.960651 35.110016 20.931412
26.12265 36.12001 23.034412
21.964651 37.18802 25.134413
22.609652 37.759018 22.913412
24.214653 124.32101 18.386412
24.041653 122.52001 17.141413
17.66465 117.98201 14.518413
17.953651 115.67201 15.234412
22.495651 44.33801 34.42741
24.84065 44.81201 34.15541
32.53265 43.69801 34.478413
32.81165 43.55001 32.055412
29.90265 33.807022 2.979416
29.325651 35.528015 4.0794144
23.374651 32.791016 2.3154144
21.307652 32.630005 1.3444138
43.38965 68.53601 12.069412
43.11265 66.67801 11.361412
35.438652 69.82601 9.312412
34.53665 67.86201 9.449412
42.90365 14.9410095 34.479412
43.40165 14.657013 37.132412
37.382652 8.484009 35.400414
37.792652 6.507004 36.138412
32.35965 108.80201 9.469413
33.94165 109.59401 8.2564125
36.27665 103.57501 2.0014124
35.24965 105.28401 0.44341257
48.26065 51.92101 37.02841
47.90365 50.34401 35.54441
44.84365 43.30301 42.288414
46.19965 44.02401 1.288414
0.9986496 28.391006 23.892412
1.8296509 28.774017 26.208412
48.72265 36.282013 30.223413
48.35965 36.935013 27.990412
20.230652 50.783012 0.010414124
19.406647 49.29201 41.27141
15.991653 44.86401 37.107414
13.568653 45.04901 37.823414
6.1286507 5.952011 30.628412
7.476654 7.6370087 30.798412
13.857651 9.664017 24.914413
13.225651 8.518005 22.919413
12.326653 111.37401 4.8294144
11.239651 112.89601 3.531414
17.542648 116.68201 42.28041
17.547653 115.03401 40.135414
34.18065 47.01701 17.771412
33.306652 44.74701 18.264412
34.54865 46.52201 26.339413
34.695652 45.89001 28.406412
5.582653 7.977005 10.748412
4.591652 8.768005 12.793412
6.174652 17.572006 13.639413
5.04665 18.056015 11.342412
42.99165 103.92501 16.106413
41.33865 103.65801 14.439413
37.97765 112.07201 17.691412
39.77765 112.10501 19.326412
43.70065 79.77201 40.087414
43.60565 81.543015 38.478413
49.63065 84.86501 1.076416
0.28765106 86.59301 0.6614151
3.05365 57.34201 11.080413
2.7386513 56.047012 12.744412
47.01765 54.019012 19.099413
44.81665 55.25901 20.016413
4.99065 118.03801 20.021412
5.903652 116.86301 21.537413
0.09965134 117.45601 28.030413
1.2966499 115.490005 28.864412
40.96065 87.76901 18.873413
42.06065 89.07401 17.281412
0.36865234 88.45601 16.686413
1.8916512 89.73901 17.653412
28.18865 0.89201355 26.448412
26.97265 136.93602 25.653412
32.11465 133.28601 20.215412
34.47965 132.863 20.350412
29.92365 89.849014 13.040413
28.81765 89.91701 11.270412
22.39565 84.47801 13.092413
20.745651 84.69101 15.183413
47.03965 50.790012 11.378412
46.45265 48.97201 9.920412
41.77065 42.73001 14.558413
39.70065 44.78801 14.564413
18.807648 95.77501 40.358414
18.074654 96.41601 42.18841
12.960651 99.419014 4.111416
14.911652 100.18901 5.319416
27.54165 110.364006 10.886413
28.70965 111.02601 8.765412
28.33065 114.78901 2.6684124
28.911652 114.00001 0.9114125
36.23565 10.791016 3.696415
38.736652 9.781006 3.3694153
38.584652 16.978012 4.132416
39.72865 18.818008 4.2854156
27.60565 8.52301 2.196415
26.07065 9.946014 0.708416
27.80565 5.310013 35.61941
28.36165 5.7400055 33.60141
26.21665 37.33702 37.625412
26.022652 35.41301 38.621414
35.299652 32.104004 39.434414
35.56565 30.664017 37.881413
22.55265 18.945007 40.670414
21.013649 20.440018 42.136414
21.967651 25.022018 2.1134148
21.168648 22.99501 2.2774162
44.72765 15.225006 17.031412
43.02865 14.567017 19.073412
46.59065 20.975006 22.757412
46.70765 20.968018 20.409412
8.450653 90.53701 0.5614128
8.204651 91.27001 2.915413
3.8026505 98.42901 4.941414
5.1476517 99.07301 6.5914154
17.514648 105.08001 4.2544136
16.453651 107.00501 4.6344147
11.205654 101.279015 2.8914146
9.1706505 100.63201 4.2664146
35.21165 43.37201 34.67041
36.00365 44.52801 36.499413
38.11065 49.58401 39.998413
36.72065 51.26701 40.630413
40.79065 98.93701 5.4514127
42.79265 99.73201 3.7104125
40.44665 105.04901 10.920412
42.53565 105.80501 12.268413
27.97365 71.35301 6.3154125
25.991652 70.23401 7.0114126
26.988651 67.03201 14.935412
28.863651 67.52701 15.967413
28.07665 16.05101 24.453413
25.61165 16.031006 24.175413
26.168652 6.534012 24.411413
25.744652 6.880005 22.694412
29.974651 20.371017 16.571413
31.63365 20.875015 18.224413
36.34765 14.348007 19.335413
36.73465 12.090012 20.638412
13.387653 71.64601 0.24941635
11.768654 70.11101 0.018413544
6.4746513 66.65801 37.658413
5.4276505 67.07001 35.359413
6.459652 74.95501 34.428413
7.1586533 73.31201 35.687412
9.316654 71.67201 0.29541397
10.595654 72.68901 1.670414
34.39065 102.35901 0.29141617
32.47465 104.28301 1.156414
30.16765 100.19001 7.2854156
29.669651 100.53201 9.725414
33.55465 59.56701 18.607412
34.59265 58.09501 20.458412
27.26065 58.249012 24.451412
25.76365 58.23901 26.251413
28.26865 96.62901 1.5634155
29.92365 96.78201 42.058414
30.620651 104.70101 41.949413
32.07365 104.74001 40.69541
26.94565 64.06001 32.80841
26.776651 62.66101 30.746412
28.603651 65.03801 22.249413
26.67465 63.50301 21.046413
15.556648 92.75701 37.094414
15.641647 92.11901 39.194412
6.3686523 88.55401 39.788414
7.9216537 86.79101 40.39741
47.19265 5.881012 34.16841
47.52865 8.233017 32.860413
3.721653 6.9370117 26.127413
2.1166496 6.729004 24.669413
32.334652 79.05301 9.533412
31.69765 81.23601 9.240413
26.29565 75.46601 7.5734124
25.26065 74.70101 9.236412
46.55465 57.42401 1.6314163
44.66565 57.61601 1.1404152
42.75865 53.05601 36.416412
44.35165 51.22301 37.879414
1.4866524 116.15801 9.184412
2.2626495 117.573006 7.976413
47.90065 124.48701 6.0904126
48.20765 125.63701 8.317412
41.93965 42.91701 23.346413
43.14265 42.60801 21.616413
49.66565 39.81101 17.737411
1.3126526 40.84201 16.931412
44.13065 75.06001 23.471413
43.09365 75.16401 25.621412
35.16265 73.31201 26.369413
34.27765 71.32001 26.204412
41.20865 4.1580048 11.924413
39.55465 5.787018 12.214413
41.63265 10.652008 19.415413
43.47865 11.844009 18.090412
28.57465 117.28801 12.134413
27.52565 115.49201 13.432413
24.356651 120.48801 19.285412
23.019651 120.12101 21.205412
3.6526527 80.31401 0.40341568
2.327652 82.44801 0.52641296
7.001652 88.38001 1.6354141
6.322651 89.13401 42.684414
19.27165 30.87001 5.5444126
19.51865 30.671005 7.4884124
29.19165 31.716019 9.461412
28.27165 33.45302 10.163412
34.25965 72.14701 16.593412
34.43065 74.155014 16.563412
28.727652 78.86001 19.633411
29.484652 80.66001 18.702412
4.1706505 58.58401 2.248413
4.9396515 60.91101 1.387413
46.56065 60.04601 1.6984138
45.62065 61.32501 0.2294159
30.759651 30.442017 27.885412
28.401651 30.040009 28.484413
33.88865 32.851013 25.108412
34.51365 34.446014 23.581413
34.69965 41.56201 31.898413
35.31965 43.28301 30.286413
39.68465 45.72701 24.167412
39.98365 45.07001 22.434412
34.49165 131.70001 17.256413
35.667652 129.97702 16.039412
28.759651 126.05401 11.307412
27.50365 128.39601 11.673412
34.72565 107.211006 9.935412
36.841652 108.34301 9.505412
40.26365 103.36601 1.6674125
41.82865 104.92901 1.2764125
18.167648 109.99801 23.426413
19.129654 112.22901 23.198412
11.419651 112.461006 26.525414
11.405651 110.35201 24.973413
26.43765 121.63001 33.52141
26.26765 122.89001 35.50841
