36.487904 28.429192 38.59613
25.901901 17.736198 51.231133
25.631903 20.134193 49.732132
25.475903 26.032196 49.051132
26.103903 26.622192 50.98413
28.538902 0.3191986 67.383125
26.547901 1.2891922 67.260124
19.912903 0.7071991 71.13113
20.103903 68.25919 70.79813
29.979902 62.968197 41.75113
31.762901 63.880196 41.142128
34.105904 0.34819794 40.29213
35.799904 0.95119476 38.95713
36.654903 3.4461975 54.40513
35.799904 2.893196 56.30313
31.162903 0.29919434 57.65813
30.831902 69.5982 60.081127
29.322903 51.481194 56.931126
30.642902 51.815197 55.70313
33.523903 58.362194 52.77413
33.316902 59.145195 54.91613
19.253902 44.812195 64.18513
18.258902 45.970196 62.61313
19.332903 43.272198 55.75813
19.277903 41.604195 54.358128
41.100903 52.725197 69.10213
38.872902 53.796196 69.07313
37.017902 59.012196 65.58813
35.253902 59.913197 66.68213
46.467903 34.917194 6.7361298
45.478905 35.659195 5.328125
42.686905 39.613197 2.880127
41.148903 41.015198 2.302124
37.259903 33.593197 48.10013
37.285904 32.644196 50.89013
40.229904 39.686195 51.67813
41.425903 40.162197 49.91813
22.073902 26.070198 35.16913
23.201902 26.333199 37.047127
21.146902 31.414192 41.587128
21.594902 31.908195 43.52813
20.715902 56.178196 53.04413
18.744902 56.386196 52.253128
18.417902 62.122196 47.990128
19.201902 63.930195 47.714127
28.428902 0.08919525 63.29213
28.363901 1.5001984 64.76313
31.429901 2.9831924 58.02613
33.341904 3.4771957 56.86913
17.421902 63.617195 1.6871262
19.125902 64.8342 1.529129
19.528902 61.151196 66.23613
20.528902 62.930195 64.99712
22.566902 16.396194 46.050133
21.662903 18.239197 47.24913
17.568903 17.440193 51.701134
16.264902 19.273193 51.287132
15.398906 40.499195 56.804127
13.455905 39.033195 56.85513
7.5279036 38.388195 53.44413
8.087905 39.927197 51.898132
36.576904 59.592197 57.24113
35.779903 59.263195 58.98813
39.170902 52.925198 57.22313
41.233902 52.237194 57.892128
17.687902 47.921196 59.816128
19.383902 49.025196 60.48113
24.560902 51.143196 55.22913
25.018902 50.600197 53.629128
49.018906 52.863197 27.197128
50.760906 51.648197 25.783127
2.5049045 58.030197 24.280128
3.241904 59.590195 25.448128
49.141903 43.591194 43.645126
48.654903 43.196198 41.46913
46.956905 36.910194 42.43213
44.770905 35.577194 42.42713
32.665905 28.34919 54.172134
33.9219 28.579193 52.467133
27.556902 25.163193 47.27513
28.060902 25.357193 45.37413
28.104902 33.997196 65.41913
29.346903 33.786198 67.107124
25.927902 38.606197 0.16412354
26.245901 39.316196 2.2421265
8.578906 11.407196 52.22213
9.679904 12.375198 50.812134
5.8109045 12.434196 43.825127
7.408904 13.391197 42.407127
21.093903 35.88919 28.962128
20.935902 33.99819 27.578133
13.904903 30.902191 26.550133
12.788903 32.631195 26.146133
20.443903 63.605194 3.880127
22.491901 62.940197 4.781128
25.145903 59.390194 70.58813
27.127903 59.393196 71.50013
22.150902 8.388199 69.00413
23.092903 7.298195 67.58713
29.179901 2.7141953 70.12313
30.369902 3.5301971 0.053123474
44.217903 13.540199 52.54013
45.139904 14.241196 54.11413
51.602905 12.588196 55.063133
0.668906 12.177193 56.82313
16.375906 32.907196 67.28013
16.732904 35.343197 67.924126
11.932906 40.075195 71.30313
10.887904 39.380196 1.7011261
25.592901 48.435196 30.19313
27.743902 48.652195 31.079132
29.007902 55.405197 34.52413
30.385902 56.124195 35.879128
34.3039 12.899193 53.534134
33.499905 11.161194 53.536133
36.4359 5.655197 56.265125
38.622902 5.3471985 56.81313
22.349903 43.347195 59.46713
24.473902 44.056194 59.42413
27.040901 50.887196 58.41513
28.680902 51.145195 59.49313
31.733902 24.647194 59.31913
33.095905 25.454193 60.733128
29.769901 30.59819 65.32213
29.710901 32.29119 63.82013
29.762901 26.016197 57.17513
29.622902 24.055199 56.251125
29.241901 19.658195 50.773132
31.077902 20.385193 49.591133
13.375903 54.909195 62.22313
11.934905 54.244194 63.69013
16.678904 53.025196 70.69713
18.795904 54.128197 70.52512
7.8649054 68.838196 52.853134
9.520904 66.922195 53.69513
6.0639067 59.546196 53.518135
6.559905 58.007195 54.643135
37.231903 0.22719574 5.487129
36.882904 2.5761948 5.0301285
32.809902 2.9291992 12.705124
33.538902 4.820198 13.178131
36.144905 66.7922 16.160133
35.843903 64.8912 17.077133
38.028904 63.143196 24.01313
39.725903 63.429195 25.129128
16.108902 39.148197 34.77813
17.734901 39.219196 36.117126
17.032902 41.330196 41.55513
17.611902 41.121197 44.102127
17.081902 23.869194 35.408127
17.834902 24.748192 37.004128
17.212902 32.150192 40.107132
18.597902 32.187195 42.23513
28.771902 19.227196 34.77413
27.803902 20.856194 36.34413
28.867903 22.913193 43.980133
29.361902 24.741196 42.87313
21.702902 6.4301987 30.882133
23.050901 5.2101974 32.726128
20.089903 4.4911957 39.440132
21.497902 4.4791946 40.607132
3.7509067 23.952194 27.977127
2.1629055 25.677193 27.95913
4.5839033 32.953194 28.980133
6.0989065 33.38919 30.108131
41.521904 0.7921982 46.33013
41.124905 68.31519 46.187126
42.845905 62.987194 51.851135
45.355904 62.690197 51.979134
19.395903 47.894196 36.796127
19.235903 49.959194 37.228127
23.809902 48.567196 42.894127
25.619902 48.685196 44.116127
6.1769056 5.2521973 66.50513
7.207904 7.117195 67.273125
2.9229038 13.3441925 66.691124
3.7769039 15.2221985 67.89513
28.933903 9.739197 22.39013
28.136902 10.739197 24.18013
22.795902 9.899193 29.426132
23.888903 10.372192 30.74813
9.852904 48.401196 63.76213
9.902904 46.605198 65.22213
5.4059057 41.816196 64.03013
3.8959033 41.199196 65.996124
40.163902 53.832195 38.105133
42.6929 53.325195 38.45813
48.879906 57.802197 38.564133
49.998905 57.559196 36.73413
11.252906 39.826195 47.67813
12.932902 41.185196 48.815132
17.439905 41.501198 52.11313
17.321905 43.408195 53.077133
11.699904 57.254196 62.36913
10.003905 56.160194 63.899128
3.1939037 54.992195 62.37713
2.4539058 52.894196 60.61213
16.373901 23.975197 58.501125
16.982903 26.322197 58.138126
17.624903 30.93219 53.62613
16.498901 31.36119 51.548134
43.131905 50.290195 50.562134
45.3799 50.300194 50.689133
47.115902 45.849197 56.294125
49.512905 45.373196 56.415127
35.048904 31.832191 42.54313
35.543903 31.092194 40.67713
38.433903 37.643196 38.338127
38.538902 38.747192 36.314133
1.1589038 67.48119 48.01513
51.013905 67.3592 49.674133
49.097904 63.201195 55.201134
47.126904 62.737194 55.23613
10.453906 21.763199 41.853127
12.7419 21.766197 41.93313
12.431903 30.20919 40.38713
10.314906 30.178192 41.19713
28.586903 23.412193 36.214127
26.629902 23.118195 35.004128
22.683903 29.666191 33.190132
22.621902 29.14019 35.576126
23.970901 26.397194 56.51913
23.893902 28.656189 55.77313
30.071901 32.15219 54.76113
30.412903 34.58519 54.104134
3.0609043 16.723198 45.15313
1.7639034 18.303192 46.379128
51.739906 15.437195 53.894135
1.5679042 16.350197 55.41513
7.6839056 40.114197 69.66413
9.737906 39.753197 69.328125
16.264906 42.508198 67.468124
17.293905 42.719196 65.47813
9.039905 29.117195 39.11113
11.074904 29.899193 38.00213
9.886905 36.26319 33.84413
9.257907 37.704193 34.94313
10.029906 28.813194 34.950127
11.779906 26.649193 34.424133
12.745906 19.504196 37.30813
12.135905 19.166199 35.37113
50.631905 46.550198 24.956131
49.404903 48.238197 24.147133
46.075905 41.266197 20.467133
44.007904 41.619198 21.212128
51.427906 7.221199 20.331131
0.77290606 7.5251923 22.504128
5.045905 5.2411957 28.052132
5.531905 3.2531967 26.881126
14.233905 27.550194 1.4081268
16.581903 26.837196 1.7721252
17.039904 23.100197 8.546127
15.668902 21.786194 9.025124
7.865905 6.5611954 37.51413
6.4759054 6.581192 39.61113
1.017905 1.8051987 40.83613
1.7029064 69.5732 41.313133
38.203903 1.6941986 37.851128
40.538902 2.5571976 36.96013
44.305904 1.1291962 32.033127
42.981903 68.8052 32.325127
4.8819036 50.684196 43.29013
4.693904 50.509193 41.22313
9.082904 54.281197 36.80213
9.028907 54.914196 34.647133
1.9239032 43.225197 65.48513
1.6789043 41.826195 63.73413
48.072903 43.741196 58.06813
46.409904 44.780197 59.032127
44.300903 49.918194 14.312126
44.920902 48.683197 15.6931305
0.47790408 49.572197 15.915131
2.6259067 50.518196 15.122131
11.419906 37.910194 21.900131
10.724906 39.136196 20.159126
18.373903 40.704197 18.950127
20.548903 40.460197 20.273132
30.114902 37.18219 29.802132
27.967901 37.144196 29.369133
23.567902 32.510193 32.36113
21.693903 32.57119 32.86013
15.982905 2.3901978 1.5261307
14.782901 3.6991959 2.5751266
9.061904 68.93919 3.6971283
9.035907 66.41219 3.6741257
13.193904 3.8181992 49.020134
13.740901 4.5431976 47.035133
10.205905 3.2851944 40.741127
8.035907 2.5971985 40.504128
5.1109037 36.572197 9.94413
6.5609045 35.553192 8.658127
2.4949062 36.216194 1.8861237
0.3039043 35.93119 1.7341232
1.510905 26.732193 35.33313
2.2969043 28.588188 36.27613
3.8769062 34.57119 33.12513
3.9229038 35.089195 30.885132
42.237904 32.420197 49.953133
43.774902 31.83319 48.162132
45.311905 30.12619 43.37313
45.056904 31.975197 41.91813
5.807906 40.398197 4.132126
6.922904 40.013195 5.9281235
12.550906 42.045197 2.2941284
11.700904 44.099197 1.9971237
3.1959064 52.806194 31.330132
2.7499034 51.537197 32.726128
1.267905 45.334198 28.460129
1.1389034 45.5562 26.289131
43.552902 46.142197 23.295128
42.458904 48.235195 22.488129
49.764904 51.324196 23.316132
49.769905 52.778194 21.799133
41.3039 65.46819 31.322128
43.405903 66.049194 31.655128
46.088905 69.6772 34.22413
48.204903 0.15919495 34.41913
21.519903 7.959198 42.704132
22.752903 9.436195 43.48813
28.131903 9.313194 36.67913
28.358902 11.372192 36.98813
23.398903 21.474197 54.97213
21.521902 21.210197 56.031128
19.680902 27.251198 57.615128
20.770903 29.05719 58.386127
29.927902 3.7021942 22.287132
30.998901 4.6531982 23.851128
37.558903 3.784195 21.307129
38.604904 3.9631958 19.475128
40.139904 13.810196 52.46013
38.682903 15.113197 54.12313
34.924904 16.483192 55.450134
32.510902 15.506195 56.35113
37.890903 65.6672 64.828125
39.1439 64.21919 64.94913
41.012905 62.007195 0.43312836
38.675903 61.420197 1.8201294
42.828903 37.579193 39.95813
41.110905 36.856194 38.176132
37.970905 30.494194 41.522133
36.963905 29.817192 43.57013
7.7089033 9.990196 60.62613
8.653907 8.118195 60.32513
8.449904 1.9391937 54.96113
8.366904 1.2491989 57.40113
18.636902 43.951195 49.07213
19.277903 42.938194 47.09613
25.117903 45.794197 43.86413
24.787903 46.289196 41.798126
44.655903 20.402199 60.45113
46.978905 19.176193 59.97813
51.246906 17.921196 57.20013
50.958904 17.458199 59.303127
37.229904 53.218197 28.09613
35.462902 54.561195 28.691132
38.2829 58.714195 34.879128
36.361904 59.750195 35.04313
32.042904 33.312195 67.04213
32.172905 31.826195 65.16713
35.481903 25.239197 62.68313
37.676903 25.954193 61.824127
39.512905 2.7661972 54.897133
40.581905 4.3771973 55.323135
41.880905 9.992195 51.63613
40.622902 11.514198 51.226135
37.969902 8.810196 39.65413
37.115902 7.7711945 41.546127
36.2689 1.4341965 41.576126
36.799904 68.8612 42.19113
33.4219 21.851196 32.01613
34.453903 20.367195 32.77813
36.484905 15.443199 37.87313
34.728905 14.823196 39.19213
8.690906 6.8511963 30.322128
10.642905 5.794197 30.198128
14.535907 13.294197 27.76313
16.661905 12.892197 28.492126
30.902903 68.283195 33.38913
30.260902 0.6471939 33.86213
24.702902 3.0391922 29.272133
24.429901 4.749199 29.799133
28.242903 57.725197 52.69213
26.818903 59.049194 51.020134
27.070902 56.111195 43.753128
27.079903 57.908195 42.54413
42.159904 21.246193 50.24813
41.551903 21.120193 48.171135
45.634903 23.352196 44.787132
45.452904 23.664192 42.607132
51.547905 5.647194 57.31313
49.688904 4.7571945 57.45613
0.64590335 68.1392 60.96313
51.149906 68.7932 62.80713
29.312902 45.884197 51.159134
30.282902 45.077198 48.84513
36.146904 42.474197 48.15213
36.932903 39.846195 48.314133
34.600903 64.8892 57.57413
33.634903 62.594196 58.61713
27.117903 60.090195 60.01613
27.279902 59.773197 62.83813
9.288905 36.257195 57.64013
9.543906 36.844196 59.601128
4.979903 42.552197 59.73213
4.571906 43.188194 61.69613
24.531902 16.672195 21.779129
23.097902 14.943199 20.58213
19.268902 11.503197 27.754128
17.807901 11.293198 26.518127
26.286901 48.432198 54.30713
27.083902 47.535194 52.480133
29.078901 41.434196 51.58513
27.404902 40.620197 50.619133
41.249905 59.326195 39.81713
41.853905 60.384197 38.256126
48.983906 59.865196 40.590134
48.194904 60.038197 42.61413
20.086903 64.0142 38.91613
21.516903 63.034195 37.852127
19.316902 57.166195 42.91713
20.794903 55.281197 42.035133
24.363901 66.9312 21.61113
23.983902 65.6792 20.130127
21.818903 58.200195 22.43013
23.217903 57.283195 23.455132
32.898903 47.248196 62.615128
30.413902 48.465195 62.24413
29.731901 45.156197 68.72113
30.880901 45.147198 70.493126
32.093903 42.704197 32.73513
31.480902 44.059196 31.051132
26.851902 46.314198 26.460129
26.754902 48.005196 27.613129
43.365902 10.074196 47.45813
43.345905 11.768196 48.839134
39.986904 17.816193 46.51013
39.840904 17.827194 44.02613
30.152903 37.205193 41.811127
29.191902 36.839195 43.857132
35.369904 33.29019 45.81713
34.346905 30.916191 46.17713
35.718903 42.460197 41.24613
37.721905 43.718197 41.629128
41.6929 44.775196 37.18013
41.243904 43.950195 35.33013
32.030903 10.441193 64.51112
33.592903 11.332199 63.56913
32.288902 13.018196 55.58913
30.686901 13.037193 54.156128
35.846905 5.5111923 26.23613
33.849903 6.905197 26.895126
32.877903 1.0361938 33.06813
34.305904 1.9971924 34.44613
28.466902 22.560196 46.659126
28.989902 20.812195 45.77613
21.657902 18.744194 43.65213
20.232903 20.526192 43.28813
31.589903 7.171196 25.45813
30.432901 5.7751923 26.877129
29.147902 7.2331924 33.646133
29.023903 5.6011963 34.920128
30.446901 49.200195 56.431126
29.252903 47.948196 54.701134
31.656902 40.334194 54.49613
32.412903 41.030197 52.507133
7.160907 52.904194 22.61213
8.778907 52.712196 23.85913
13.808902 57.506195 19.205132
14.9779005 58.739197 21.050133
35.042904 39.776196 41.231133
37.249905 39.079197 40.23713
40.034904 34.390198 47.67813
40.380905 32.619194 46.120132
5.9929037 20.041199 30.605133
6.596904 20.219193 28.72013
5.7159033 14.154198 26.82013
4.0069036 12.476196 27.38913
27.867903 69.629196 58.629128
28.109901 0.5371933 60.518127
26.862902 3.8351974 64.427124
25.943903 3.8851929 66.74013
24.534903 23.741196 36.894127
22.763903 23.245193 38.018127
25.719902 25.116196 44.354134
24.693903 24.606194 46.51013
19.224903 15.471199 42.02513
19.860903 16.700195 43.55313
16.706902 22.129196 45.633133
14.689903 23.039192 45.45713
11.398906 8.407196 48.407135
10.320907 7.6441956 50.11413
5.344905 2.4161987 49.768135
5.3869047 1.0891953 51.47013
31.040901 7.7831955 46.07213
30.707903 9.184196 44.75113
30.110903 12.795197 41.84713
30.784903 14.934196 41.103127
20.534903 34.606194 50.73913
18.491901 32.992195 50.90213
14.096903 31.290192 45.15313
15.559903 29.768188 45.74613
15.812903 7.887192 21.739128
14.557903 8.672195 23.394127
18.805902 9.017197 28.567131
20.897902 8.2191925 28.90313
1.7179058 15.548195 36.256126
3.1839054 17.616196 36.37113
4.0049047 19.687195 43.396133
2.642905 20.597198 44.94113
14.447902 42.881195 41.366127
15.4519 44.271194 42.203133
14.542903 51.087196 43.523132
16.190905 50.310196 44.838127
1.2439067 18.397194 12.293129
0.8309047 19.003197 14.523132
5.892905 13.077194 16.231133
6.596904 13.599197 18.72113
14.583903 8.1581955 63.09613
14.929904 5.7731934 62.997128
15.660907 2.0101929 70.396126
18.232904 3.0251923 70.676125
18.834902 68.5012 39.784126
16.544903 68.9022 40.312126
17.494902 3.258194 47.966133
16.369902 5.1531982 47.199127
24.733902 20.159195 21.711128
23.886902 20.218193 19.551132
18.620903 25.081192 18.210129
19.231903 25.908195 16.142128
16.770903 5.088196 50.050133
15.704903 2.9011917 49.92813
17.531902 0.22219849 57.488125
16.209902 1.2541962 59.317127
21.091902 53.048195 34.08213
21.327902 54.427197 35.769127
25.048903 55.730194 41.97213
23.383902 55.363197 43.34713
24.560902 58.375195 41.30313
26.044903 59.204197 40.218132
24.922901 55.966194 32.842133
24.420902 53.728195 33.198128
51.313904 64.6012 67.72313
0.44690585 64.7522 66.118126
6.0729055 60.479195 67.08813
7.4619055 61.777195 67.80313
7.0369062 48.677197 35.07213
9.375907 48.849197 35.798126
7.0429068 49.691196 42.176132
7.1269064 47.904198 43.18013
39.625904 0.9191971 22.830132
38.660904 0.9121933 20.605133
32.437904 67.16219 18.355133
30.380901 67.853195 17.87613
12.017905 32.743195 20.197128
13.470904 32.380196 18.738129
14.277904 32.631195 11.077126
11.781905 32.188194 10.289124
17.476902 45.376198 36.813133
18.006903 45.477196 38.55413
23.470901 47.175198 36.50113
25.466902 46.173195 36.633133
8.789905 64.5832 32.68313
8.320907 62.872196 30.967133
10.485904 57.481197 34.101128
10.926906 56.276196 36.17713
20.986902 26.155197 29.884132
19.312902 26.695198 30.753128
19.819902 32.26319 35.272133
21.571901 31.302193 36.661133
17.330902 6.393196 62.24213
17.840902 4.1061935 60.62513
19.232903 5.685196 66.844124
20.910902 6.034195 68.18313
28.691902 6.6861954 45.26413
26.896902 6.9971924 43.94713
30.683903 5.8441925 36.878128
30.862902 8.119194 37.157127
19.948902 32.47119 20.997131
20.871902 32.148193 22.904129
18.943903 28.630188 28.420128
17.114902 29.949188 28.322128
3.0519054 46.883198 13.45813
2.8239048 45.260197 12.22113
1.5099056 40.714195 17.963127
2.9499042 39.461197 19.11213
13.719905 68.6842 55.158134
12.815906 66.2512 55.98213
13.452907 59.677197 54.620132
11.950904 58.083195 54.409134
42.5259 50.642197 60.143127
39.983902 50.274197 58.84913
34.066902 50.940197 62.30813
33.997902 49.431194 64.08613
18.564901 30.451195 64.43313
19.260902 32.12619 65.01213
16.838902 37.967194 63.934128
17.534903 39.940193 64.98312
30.028902 45.481197 11.274124
32.095905 46.525196 9.951126
28.312902 51.912197 5.890129
25.988901 52.127193 5.359123
46.485905 0.8861923 45.255127
46.049904 2.758194 44.98413
0.9839046 4.978195 44.953133
1.340903 6.8391953 44.963127
32.239902 7.3491974 43.22213
34.466904 7.0331955 42.173126
36.941902 11.531197 36.69213
38.154903 11.454193 38.43013
11.739905 3.7371979 28.793129
11.643905 5.506195 26.586128
13.554904 2.7471924 20.087128
11.350905 3.1231918 19.549133
2.7289035 3.2891922 30.186127
3.0559032 4.754196 32.26513
5.089904 69.465195 36.95613
3.4229038 69.436195 39.244133
17.310902 45.968197 43.71013
18.345901 45.240196 42.017128
18.606903 53.547195 42.156128
17.979902 54.356197 39.70913
32.183903 69.2352 66.48613
32.479904 69.1392 68.60013
28.473902 61.505196 69.49712
28.998901 61.412197 0.0031280518
46.453903 30.526192 27.552132
47.390903 30.55619 25.828133
48.852905 38.10919 23.315132
50.423904 37.92919 21.739128
6.031905 59.782196 50.644135
7.0979033 58.007195 50.855133
6.363906 51.149197 48.253128
6.318904 49.336197 49.83513
7.203906 21.400192 43.61413
5.6219053 20.719193 41.676132
0.13890338 24.292198 37.37613
0.7969043 22.881195 36.36413
5.479903 11.968193 29.557129
7.3909063 13.340195 28.992126
11.224906 8.072197 24.578133
12.0799055 9.586197 23.51313
14.6999035 4.032196 29.217133
14.211903 3.579193 31.52613
18.177902 6.643196 36.50013
16.281902 8.038193 36.659126
8.838904 60.786198 50.504135
9.4739065 61.901196 49.12713
11.883906 58.089195 42.857132
13.484904 59.616196 42.672127
4.653907 19.127197 34.550133
6.335906 19.984192 34.76613
9.989905 19.784195 40.256126
8.387904 19.529198 41.659126
0.3209064 46.887196 15.36113
1.9479053 46.189198 16.95913
0.3059032 40.567196 20.690132
50.974903 40.159195 22.84713
42.279903 61.921196 35.966133
41.599903 59.950195 34.98713
43.474903 56.174194 30.317131
42.610905 54.352196 29.65113
42.655903 16.747192 57.70013
41.089905 15.453194 58.087128
39.031902 8.858192 61.69513
39.733902 6.945198 60.64413
7.6479063 50.299194 24.176132
7.4339056 48.041195 24.80613
15.404902 47.817196 25.11113
16.583902 46.428196 23.59613
9.719905 23.766197 67.72713
8.887904 25.655197 68.43613
7.3479033 21.562195 3.4481277
8.341907 22.740196 5.2781296
7.0849066 56.009197 52.69313
4.804904 56.769196 52.661133
49.718903 56.176197 53.240135
48.720905 56.436195 54.66613
17.031904 50.178196 38.52513
16.682905 48.951195 36.34613
10.164905 44.517197 37.55613
10.915904 42.305195 36.425133
42.950905 31.761196 63.50113
40.7899 32.277195 63.91513
41.396904 40.849197 64.993126
42.283905 39.828197 66.83813
3.2129047 43.558197 28.883133
2.182906 43.045197 30.573128
6.274905 37.097195 31.504128
6.9479055 36.205196 33.56813
11.351905 30.152191 27.215134
12.996905 28.69619 27.738129
7.4249067 22.095192 26.87513
9.134906 20.736198 27.407127
48.726906 58.836197 10.731125
50.672905 57.895195 11.415131
45.423904 51.941196 11.373131
45.240902 53.247196 9.26413
0.7829044 59.185196 22.331131
1.484904 60.612194 23.855133
0.18890643 67.714195 23.169128
50.981903 68.4332 24.706131
39.783905 15.590195 39.717133
39.992905 17.575195 39.16613
38.1649 18.097198 30.454132
37.859905 19.868195 30.323128
48.570904 48.147198 41.09813
50.094906 47.412197 41.93113
1.7049053 50.348194 48.31713
3.8389041 49.825195 47.94313
47.846905 32.854195 41.884132
46.380905 33.65219 43.49613
45.5609 30.98719 50.06913
47.276905 29.65419 51.157135
6.6769056 34.662197 27.455132
6.514907 36.830196 28.585129
2.6809032 41.425198 25.073128
1.9359043 41.776196 22.589127
30.460901 42.937195 40.69613
29.321901 41.185196 40.964127
27.954903 35.513195 36.83513
29.765902 34.339195 36.62513
47.056904 4.7871933 55.946125
44.785904 4.8401947 56.151127
43.084904 10.141197 53.897133
43.6999 12.070198 54.923134
30.795902 46.819195 20.38713
30.445902 46.898197 18.566132
24.357903 52.024197 20.588127
25.470901 51.391197 22.59513
46.676903 13.591194 28.913132
44.451904 12.880196 28.711128
40.5469 19.765198 29.325127
42.273903 19.768196 30.952133
51.323906 9.1581955 47.744133
51.638905 9.721199 50.341133
50.613903 17.197197 49.898132
49.585903 18.817192 49.55813
20.426903 4.013199 17.11213
21.959902 4.9951935 16.242126
23.238903 9.210197 11.253128
22.562902 9.585197 13.226128
33.001904 34.366196 30.11113
34.536903 32.615196 29.606133
36.279903 29.803192 34.22413
38.063904 28.88919 33.58513
33.3799 60.957195 40.522133
34.207905 62.676197 41.619133
36.675903 59.922195 48.548134
36.321903 58.184196 49.801132
8.187903 42.515198 52.05213
8.171905 43.306194 49.801132
11.754905 50.214195 48.89113
12.358905 51.696194 50.535133
4.6819067 58.046196 66.36713
6.7849035 57.672195 67.14213
9.531905 50.667194 65.94313
10.163905 49.254196 68.201126
35.528904 47.571198 42.815132
34.045902 47.690197 40.825127
27.116901 44.451195 42.978127
28.182901 42.685196 43.07113
50.496906 9.678192 25.154129
51.801903 10.069199 23.170128
50.806904 17.417198 24.912132
1.1559055 18.662193 24.399132
10.338904 20.683197 4.2841263
9.024905 19.263199 4.001129
11.235904 13.107193 7.3431244
9.539905 13.644196 9.297127
39.779903 28.104195 35.551132
38.122902 26.234192 35.87113
39.273903 20.148193 39.85813
37.915905 18.960197 41.24913
49.736904 67.130196 65.994125
50.959904 66.1702 64.24813
49.287903 65.841194 57.19613
47.198902 64.7642 56.705128
39.141903 4.683197 23.09613
38.110905 3.1011963 24.247131
43.910904 1.1621933 28.47013
45.410904 2.209198 29.642128
50.003906 60.696198 34.476128
48.880905 62.330196 33.506126
49.781906 68.129196 38.995132
50.950905 68.2502 40.895126
4.3869047 39.664196 51.04213
5.3989058 40.960197 52.656136
6.533904 45.4242 57.693127
7.469905 46.618195 55.775127
25.721903 38.872196 49.022133
25.225903 38.473194 46.493134
20.051903 41.754196 44.70513
19.397902 42.727196 42.409126
33.002903 31.105194 51.49813
34.564903 32.783195 50.254135
32.061905 36.81919 53.18113
29.973902 38.186195 53.70813
37.800903 19.652199 46.61413
37.850903 21.564194 47.411133
35.461903 25.615196 40.51613
34.076904 27.218193 41.829132
30.990902 22.345192 57.79813
32.260902 23.072197 56.737125
36.2899 23.713196 50.83513
36.799904 21.775192 50.04113
48.541904 8.352196 38.992126
49.901905 8.549194 41.13613
47.361904 0.94919586 42.478127
48.535904 69.449196 41.699127
38.757904 4.961197 9.618126
38.175903 6.6821976 10.8411255
41.475903 8.717194 16.716133
40.641903 8.119194 18.475128
40.779903 0.7621918 3.1851273
41.675903 68.71819 2.9381256
39.080902 69.0542 66.72213
38.287903 0.8931961 66.04713
30.801903 7.9381943 50.466133
29.936901 6.804199 52.43013
23.291903 4.812195 53.296135
22.363903 5.751198 54.878128
33.408905 56.504196 10.68013
35.439903 58.406197 10.20713
38.500904 63.018196 5.578125
36.646904 64.004196 4.904129
23.026903 10.393196 53.869133
24.787903 8.787193 53.212135
26.525902 5.084198 46.295128
24.755901 5.2361984 44.757133
7.3939047 40.199196 20.532127
5.5989065 39.275196 21.634132
10.394904 34.148197 21.365128
10.725905 32.548195 22.532127
34.631905 30.032188 48.745132
35.913902 31.21019 48.54213
39.725903 24.970192 50.323135
38.431904 23.706192 48.698135
32.742905 31.04219 54.36413
32.500904 32.897194 53.69513
40.195904 34.240196 57.14313
41.4359 34.088196 55.29313
47.398903 42.294197 51.383133
46.249905 41.645195 50.07113
43.304905 36.490196 54.41913
42.180904 36.054195 53.02413
22.456902 3.1301956 43.80213
23.773903 2.6681976 45.642128
21.630901 1.1141968 51.88713
21.975903 2.5161972 53.48613
25.363901 1.7991943 47.670128
26.863901 2.4951935 45.90513
32.793903 6.579193 47.83513
33.790905 6.7731934 45.853127
42.305904 57.982197 20.84513
40.646904 58.301197 19.572128
40.186905 53.278194 15.24913
38.965904 52.382195 13.924126
42.029903 57.013195 9.248131
41.812904 55.789196 7.646126
40.767902 62.221195 3.663124
42.466904 63.116196 3.104126
18.780905 29.879189 56.68113
18.542906 32.17919 57.73713
12.549907 35.399193 59.83913
12.400905 36.896194 60.90413
19.090902 47.189198 25.330132
20.808903 46.256195 24.047127
15.064903 41.846195 26.43113
13.039903 42.406197 25.329132
31.562902 47.400196 29.092133
32.966904 48.310196 31.147133
30.268902 43.887196 36.90013
31.936901 43.441196 38.370132
27.664902 28.34819 49.79213
29.472902 30.022194 49.92813
28.075903 37.16519 49.02813
26.447903 36.336197 47.55513
28.089903 63.618195 25.95713
29.635902 64.674194 24.48413
31.919903 67.147194 30.919128
33.569904 68.7262 31.51313
41.660904 44.616196 30.454132
43.124905 45.414196 32.24713
38.856903 52.319195 35.02513
40.922905 52.312195 35.98513
34.805904 9.421196 46.08013
36.835903 9.316193 46.42813
37.331905 16.195198 40.76613
35.047905 15.863197 41.58413
44.1649 21.656197 30.630127
43.780903 20.753197 28.674133
47.586903 19.010193 21.72013
48.021904 16.587196 22.697128
20.718903 1.4781952 29.84713
20.264902 68.893196 30.509132
16.720901 66.727196 36.256126
16.719902 67.880196 37.966133
21.477901 31.627195 59.29313
22.451902 32.390198 61.449127
23.498901 39.975197 60.32613
21.544903 41.585197 61.53713
33.089905 2.7671967 1.2441254
34.339905 4.1661987 1.5261307
36.749905 7.030197 67.43513
36.342903 5.270195 66.74712
17.965902 41.036198 48.731133
19.103903 39.198196 49.009132
16.918901 34.305195 42.44213
18.436903 35.455196 40.796127
24.252903 17.239197 48.477135
26.446901 17.6792 48.34713
30.864902 16.903198 43.05213
29.627903 18.742195 41.912132
30.509903 56.168198 20.760132
32.6579 57.242195 19.664131
36.707905 55.564198 23.506126
37.830902 55.979195 25.525131
22.090902 58.160194 46.45513
21.863903 56.550198 45.245132
16.696901 52.766197 43.97013
15.644903 54.365196 42.98413
31.861902 34.449196 15.406128
33.349903 35.796196 13.95713
40.227905 34.656197 12.538124
41.565903 35.91519 10.84613
41.010902 11.177193 38.16613
40.997902 10.546196 35.851128
45.288902 13.712196 31.550133
47.461903 12.931198 31.796127
21.458902 8.352196 56.04613
21.000902 6.6881943 57.18913
24.902903 9.092194 64.67113
22.961903 8.677193 65.35812
16.765905 46.122196 56.275127
15.563907 45.036198 54.72813
9.545905 46.465195 57.267128
8.532905 45.8062 59.32013
51.532906 30.508194 18.475128
51.435905 32.57119 16.619133
5.7309065 33.200195 12.119125
6.4309034 35.272194 11.837128
14.624904 32.313194 40.90013
14.236903 34.476196 41.70713
10.595904 40.231197 40.856133
10.460906 41.083195 38.79313
40.647903 7.240196 28.18113
41.1509 8.228195 26.420128
37.337902 13.681198 27.644127
38.215904 15.363197 29.851128
18.544903 28.090195 19.206131
17.366901 26.578194 19.864128
21.907902 26.891197 25.73413
23.714903 26.3322 24.372131
19.833902 23.089195 36.12213
22.386902 23.374199 35.059128
22.227901 22.775192 28.144127
23.772902 21.628197 27.323128
0.741904 48.808197 10.877129
2.5359066 46.993195 10.343124
4.5329046 53.169197 8.673126
5.934905 55.101196 7.779129
19.566902 7.292198 45.230133
18.159903 7.9641953 46.994133
19.610903 5.6221924 53.85913
18.596903 7.0411987 55.24613
48.883904 67.9732 55.54013
46.319904 67.020195 54.91513
41.669903 68.757195 51.326134
40.969902 69.520195 53.14013
8.030906 26.517197 38.448128
6.146907 26.625198 39.30413
4.9239035 26.711197 46.421127
6.035907 25.201195 47.366127
3.2289035 10.077194 61.06313
2.7369068 10.418198 63.04813
0.3039043 3.999199 66.037125
51.503906 3.6291962 68.24013
48.393906 1.3151932 32.15113
49.039906 3.5251923 31.886131
43.141903 8.5971985 32.603127
40.5469 8.241196 32.325127
16.148903 15.247192 35.16813
17.578901 14.7831955 37.340134
19.384903 8.927193 31.366127
21.965902 8.808197 31.940132
37.062904 42.228195 45.603127
36.475903 39.983196 45.226128
29.266903 39.275196 46.854134
29.466902 39.419197 49.323135
49.129906 33.876194 3.7891235
48.0119 35.777195 4.1411285
50.439903 37.883194 9.584129
0.01990509 38.207195 11.477127
18.242903 44.455196 21.199127
18.218903 43.572197 19.317131
18.105902 48.214195 13.126129
15.898903 48.078197 13.11113
12.712901 10.883194 37.36013
10.741904 10.100197 36.86313
5.832904 7.697197 33.255127
7.016906 6.095192 32.34413
9.519904 19.654198 7.4071274
9.158904 20.660194 8.948128
7.502906 14.717194 13.572128
8.654906 12.942192 13.073128
49.753906 12.464195 26.927132
51.664906 11.342194 26.89013
2.8209064 7.7851944 31.16613
4.5779066 6.6041946 30.907127
3.425906 23.654198 56.82413
3.1539066 21.134193 55.98013
50.197903 25.735199 50.91513
49.248905 27.473198 51.58313
50.260906 49.425194 35.505127
48.079903 50.190197 34.82013
50.057903 49.088196 26.41713
47.468903 47.773197 26.076126
0.7189052 29.91719 21.11213
2.3069065 30.907196 21.995132
1.7249057 37.30619 20.560127
51.813904 38.156197 19.196129
9.232905 62.363197 23.446129
11.011905 63.453197 24.034126
5.7569036 66.186195 28.259132
5.6479063 66.76019 30.196129
50.544903 41.097195 42.45913
0.2829044 39.884197 41.384132
2.7459056 33.635197 42.449127
3.9299037 34.854195 41.522133
8.590903 44.309196 15.90213
9.823905 44.814198 14.181129
4.712905 51.961197 13.132126
5.6909056 53.315197 14.647125
10.658904 10.760193 71.354126
12.292903 9.796196 0.89312744
18.808905 6.822197 0.517128
19.260904 5.897194 70.274124
25.183903 26.532196 68.75613
24.863901 24.413193 68.050125
26.386902 20.058197 2.9431305
24.870901 18.447197 3.2321243
40.094902 28.82019 40.840134
38.3109 26.622192 40.481133
40.1439 20.534195 43.19213
41.660904 19.829193 41.50013
13.966907 56.549194 41.63513
15.767901 58.073196 41.661133
11.986907 60.995197 35.34513
12.597903 59.255196 33.70813
7.6579046 6.6011963 27.793129
9.128905 4.5781937 27.036133
11.873904 7.098198 21.878128
11.748904 6.296196 19.733131
49.122906 8.313194 21.725128
48.713905 6.911194 20.23413
49.891903 0.38519287 21.867126
51.722904 0.9421921 23.088127
49.954903 68.1702 45.59613
51.553905 66.34319 46.19713
5.351905 69.088196 47.06613
4.908904 68.5962 49.67813
50.136906 55.777195 22.521133
0.11290741 54.631195 21.206131
5.6889067 55.197197 26.343132
7.1219053 56.911198 24.968132
49.097904 55.612194 26.44413
47.134903 55.003197 26.94413
40.915905 59.923195 25.15313
41.822903 61.679195 26.47113
6.8409033 51.824196 27.90113
4.4099035 52.419197 28.79213
0.39390445 51.761196 21.821129
0.76890445 49.898197 20.730133
35.125904 62.268196 38.94613
36.570904 63.203197 39.704132
38.715904 69.2512 36.48813
40.5469 69.647194 37.644127
19.041903 40.667194 34.342133
21.350903 40.298195 34.787132
24.822903 46.374195 31.871132
27.105902 46.874195 32.851128
1.854903 9.624199 42.812126
2.3659046 7.348198 42.51013
4.066905 6.388199 35.90213
3.0759037 7.345192 34.01413
47.264904 32.50119 5.330124
47.2549 31.127197 7.08313
40.696903 29.692192 8.245125
38.599903 29.969193 7.733124
48.754906 13.879196 35.828133
50.324905 14.973198 36.13513
45.954903 20.312195 33.10913
47.658905 22.282196 32.92813
42.141903 49.222195 16.344131
40.354904 50.456196 15.306129
33.049904 49.926197 18.107132
32.813904 47.454197 17.22113
26.853903 4.088196 34.718132
26.765902 5.638199 36.77613
24.860903 1.3871918 42.563133
26.614902 0.5371933 44.103127
11.273906 43.007195 41.494133
8.943904 43.321198 42.66413
8.037906 40.243195 38.06713
8.765906 40.282196 35.89913
10.734904 57.869194 57.00813
8.914905 56.790195 58.39413
13.581904 49.588196 60.004128
11.442904 48.832195 59.68013
49.781906 47.624195 58.02313
51.622906 48.656197 57.08913
51.166904 52.444195 50.66513
49.249905 52.073196 49.81713
41.008904 38.713196 35.33013
42.9149 37.272194 36.204132
45.597904 45.242195 38.079132
43.855904 45.188198 38.96013
43.350903 29.131195 27.604134
42.392902 30.780197 25.322128
44.623905 26.675194 19.078133
43.556904 27.0402 16.753128
43.874905 18.768196 20.44513
42.895905 16.464195 20.383133
45.2619 9.651192 23.466133
45.3799 10.111198 25.535133
42.967903 20.271194 33.87713
43.225903 21.910194 35.508133
34.724903 23.218193 34.185127
35.072903 25.195198 32.90413
50.177906 31.785194 28.14013
0.19290423 30.482193 28.950127
48.729904 24.595192 33.16313
50.345905 24.515198 34.615128
0.38590503 54.274197 38.31813
1.8319042 52.971195 39.23313
4.4359045 61.320194 39.244133
6.625907 61.237194 40.203133
7.4029036 50.358196 44.674133
7.979903 48.955196 46.898132
10.875907 42.410194 46.57213
9.465903 42.039196 47.74713
33.891903 53.210197 41.410133
33.740902 52.218197 39.28813
28.231901 47.1812 37.532127
26.677902 46.509197 39.06613
48.936905 4.5141983 53.156136
47.885902 2.5161972 53.31613
48.737904 66.92819 48.281136
47.148903 66.0842 46.686127
31.664902 37.703194 25.156128
32.697903 35.843193 24.09513
32.447903 30.005188 20.272133
31.041903 31.865196 18.571129
49.927906 9.623192 43.647133
49.031906 11.672195 43.573128
51.277905 17.889198 47.30313
50.695904 20.325195 46.67913
25.609901 34.093193 49.176132
23.430902 34.147194 49.797134
22.348902 30.37819 46.628128
20.425901 30.089195 45.04213
16.488905 67.1232 25.891129
14.043902 66.6692 26.043129
7.6219053 0.51519775 27.053131
6.5839033 1.1781921 25.548126
32.858902 24.384193 30.872131
31.647902 24.863197 33.017128
28.725903 26.448196 36.63713
29.889902 26.452194 38.61113
37.325905 15.434196 1.3751297
37.345905 17.326195 3.0621262
28.631903 18.177193 3.5211258
29.070902 19.327194 1.6181259
49.020905 58.170197 18.866127
48.977905 56.570194 19.953133
44.927902 51.646194 16.324127
42.619904 52.153194 15.941132
2.6849048 49.547195 18.92913
3.163905 48.542194 16.770126
9.938907 51.132195 17.317131
11.722903 51.275196 18.439133
0.18290591 52.140194 19.024132
51.081905 50.022194 18.671127
44.0399 48.356197 20.185127
43.1649 46.311195 20.511131
47.321903 63.931194 13.685127
48.900906 63.275196 12.882126
46.852905 65.49519 6.8791275
47.304905 65.25919 4.5441284
28.610903 18.811195 32.147133
26.680902 20.0402 31.377129
30.218903 25.724197 26.024132
32.119904 24.327194 26.30513
11.569903 27.517197 52.33113
11.413905 26.475197 50.16613
17.207903 27.692192 46.633133
16.386904 27.338196 44.34413
28.577902 66.3742 48.784134
27.631903 68.25919 47.97313
23.709902 69.548195 52.85013
22.992903 0.47019196 55.02913
19.945902 34.52619 36.993134
18.521902 34.020195 38.439133
13.024903 29.199188 35.672127
14.114903 28.094193 34.59813
4.0279036 31.651192 24.475128
5.3769064 30.69519 23.064133
9.736907 27.826195 20.294128
7.811904 28.703194 19.645126
12.037906 63.762196 49.93113
11.069903 64.299194 48.215134
8.939906 69.102196 43.90313
7.228904 0.607193 45.13613
38.807903 2.956192 11.899124
40.770905 2.822197 10.8181305
37.856903 64.5012 8.09613
35.620903 65.1092 7.146126
23.784903 67.9202 50.20913
21.541903 67.0302 50.921135
23.908903 59.527195 51.478134
24.558903 58.041195 52.82213
40.4149 31.531197 11.803123
38.933903 31.203194 10.270126
34.062904 30.52819 16.324127
34.434902 29.337189 18.393127
18.593903 52.028194 35.535133
19.250902 51.118195 33.16913
16.014902 52.662197 28.29013
15.047903 51.634193 26.73413
12.276904 40.149197 34.906128
11.402904 38.658195 33.633133
7.6619062 42.793198 27.726128
6.783904 40.861195 27.080132
23.138903 57.116196 9.728127
23.563902 54.734196 9.715126
27.282902 49.058197 11.877129
24.880901 48.779198 12.59713
28.625902 39.363197 32.81713
28.164902 37.256195 32.032127
22.397902 35.660194 36.630127
22.318903 33.775196 36.310127
21.817902 37.612194 31.060127
21.145903 39.668198 30.406128
24.352901 46.160194 27.023132
23.574902 47.698196 28.672127
17.021902 15.657196 13.163124
18.524902 14.602196 11.825127
18.846903 14.623192 5.1621246
19.193903 16.643196 2.8671265
35.623905 15.596199 15.745132
37.7969 15.090195 16.088127
43.043903 20.689194 18.675133
41.948902 22.437195 19.050133
26.484901 56.017197 54.38213
24.278902 55.744194 54.47413
27.287903 53.396194 61.05513
28.897902 54.446198 62.00913
48.846905 0.80319214 9.24913
50.150906 1.8401947 10.325127
4.2259054 2.6501923 5.4151306
5.191905 0.20319366 5.788124
13.8539 51.726196 8.036125
13.507907 53.350197 9.525124
11.669906 58.160194 4.269127
10.244906 56.362194 3.7641296
26.422901 39.145195 28.190132
28.557901 38.812195 27.19413
29.779902 44.252197 21.95713
30.808903 46.015198 23.050133
13.643903 34.492195 24.171127
13.331903 36.134197 22.62513
20.410902 38.000195 26.878128
19.147902 38.986195 28.77613
2.3249042 6.675194 59.70913
0.9309032 4.891197 59.56313
3.3189037 68.7672 59.12613
5.108905 67.839195 60.18013
8.837905 18.354195 32.50013
8.612906 19.283195 30.507133
13.498904 15.707199 28.563133
14.642901 16.966194 27.712128
20.101904 24.191193 14.295128
18.880903 23.678192 12.59613
13.2659025 23.854195 17.465134
11.561904 21.716194 17.865128
19.341902 8.515198 39.50213
20.318903 6.8751984 37.866127
26.380901 7.4971924 34.71913
25.528902 5.902199 33.101128
19.707903 18.052193 39.37413
20.771902 19.215195 37.91613
23.727901 16.492195 32.323128
24.733902 18.184196 31.627129
38.515903 31.177193 17.48513
40.249905 30.823196 17.922127
42.077904 29.534195 11.870125
40.542904 28.161194 12.29113
34.815903 69.144196 35.09713
34.858902 66.991196 33.771133
29.640902 64.66419 39.147133
28.144901 63.316196 38.311127
40.403904 53.387196 32.94513
42.285904 53.589195 32.689133
48.598904 58.124195 34.607132
48.242905 59.558197 36.27513
9.161906 42.231197 10.807129
10.765906 42.608196 12.837128
6.6409063 39.927197 17.83213
4.755904 38.464195 17.507133
25.798903 55.923195 30.093132
25.564901 54.020195 30.77813
25.390902 48.504196 24.88913
23.278902 47.266197 24.746132
24.208902 56.831196 68.899124
26.871902 57.467197 69.495125
32.380905 53.675198 1.8371277
30.681902 53.354195 3.2711258
44.687904 35.143196 39.741127
47.050903 35.011196 40.32113
51.771904 40.034195 38.727127
51.604904 41.974197 38.69713
9.195907 60.038197 22.038132
9.003905 59.110195 23.993134
15.428905 60.814198 27.079132
15.471904 63.185196 27.404129
9.338904 51.979195 31.085129
9.561904 51.829197 28.68013
14.647906 46.349197 27.76513
16.606905 47.062195 28.395126
41.010902 31.397194 20.589127
38.631905 31.202194 20.298126
37.034904 31.896194 27.604134
38.410904 30.775192 29.009132
24.287903 48.666195 32.89913
22.831902 48.258198 31.366127
17.348902 50.033195 27.941132
17.776901 50.258194 25.550133
0.84690356 38.586197 35.329132
1.7659061 39.079193 36.963127
3.2599056 30.829193 37.39913
4.7739058 29.842194 36.65013
28.943903 56.986195 31.896133
29.613901 58.330196 33.33513
29.956902 58.358196 40.26613
30.429901 60.501194 40.73713
15.962901 36.767197 52.38613
16.793905 38.30719 50.684135
12.247905 31.805191 47.43213
11.753905 30.48619 48.797134
0.41890597 41.246197 26.922127
51.443905 43.441196 27.259132
43.783905 43.035194 27.731133
42.978905 44.155197 26.047127
4.0429068 44.825195 31.364128
3.9199054 44.591198 33.535133
2.1859043 51.905197 35.453133
3.4459064 52.858196 37.02713
4.316905 67.604195 19.799133
4.4289045 65.144196 21.128128
51.175903 62.819195 15.796127
48.858906 62.562195 15.548126
15.809901 13.153198 12.428123
13.841907 13.106194 13.793129
14.093905 9.705193 20.641129
12.217906 9.193199 19.771133
29.233902 14.559196 38.634132
27.579903 14.210197 37.51113
22.256903 12.334198 42.05213
20.867903 13.677193 42.551132
28.597902 1.9881973 35.757133
30.730902 1.9081955 36.170128
26.867903 65.9042 39.43013
25.242903 65.8362 40.632133
16.909903 59.750195 22.718132
17.744902 59.340195 20.478127
22.171902 57.542194 17.977127
22.161901 57.918198 19.827133
18.341902 4.5191956 18.531128
19.454903 2.7731934 20.603127
17.333902 3.374199 27.814133
16.480902 1.8871918 29.094131
27.364902 60.791195 28.83213
29.013903 61.924194 28.09813
25.360903 57.663197 25.93013
25.473902 56.264194 24.326126
14.495903 64.44119 37.700127
15.410903 66.146194 39.464127
19.196901 62.624195 45.09613
18.658901 60.455196 45.824127
32.291904 54.047195 20.836128
33.7969 54.721195 19.244133
40.358902 48.781197 20.441132
41.647903 49.522194 18.84613
18.544903 17.583199 28.247131
19.533901 18.228195 26.40213
26.519901 13.654198 27.80513
27.954903 14.557198 26.37613
10.357905 22.523193 20.45913
10.545905 25.091194 20.413132
12.962901 30.651192 23.767128
13.8259 32.314194 22.599129
20.094902 9.803192 44.17713
19.155903 10.874199 45.66813
13.218904 11.669197 44.73513
12.372903 11.481194 46.313133
21.073902 69.5032 27.718132
22.240902 68.1682 25.885132
24.038902 61.996197 28.20713
25.365902 60.118195 27.065132
21.448902 7.070198 71.454124
22.381903 7.8471985 1.9571304
24.006903 7.798195 6.0231247
23.175901 9.339195 7.737129
15.574901 4.4011917 18.825127
14.677905 3.6231918 16.823128
12.419902 10.670197 13.637131
10.472903 11.101196 12.664124
6.6789045 56.439198 56.97413
5.4379034 58.207195 57.44313
7.517905 60.559196 63.51313
6.910907 62.340195 65.036125
48.049904 49.385197 37.67713
46.780903 48.814198 38.84813
42.739902 54.412197 42.72413
43.412903 54.630196 44.65313
51.448906 42.139194 10.137131
50.045906 43.059196 8.11113
3.2309062 38.592197 3.0121307
1.4739063 38.588196 1.1051254
9.566905 8.518196 0.89112854
8.162906 7.457199 70.83413
3.708903 3.2391968 0.9321289
2.9669063 4.7121964 2.5651245
12.889903 50.533195 0.63713074
12.280902 48.601196 71.47813
11.975905 47.041195 7.092125
11.368907 45.261196 7.7731247
2.4619052 12.056198 33.14913
1.6659038 13.103195 35.200127
8.5609045 9.111198 37.934128
8.972903 10.109192 39.34913
5.262904 50.779194 0.46312714
6.2659063 49.275196 70.69213
6.700904 43.054195 2.4561234
7.4199057 41.750195 0.9701233
24.405903 25.827194 64.73913
23.291903 26.645195 66.425125
25.570902 33.90419 64.55513
23.986902 34.563194 66.22113
51.575905 19.883194 22.414131
49.801903 20.430199 20.900131
50.162903 28.476189 21.104134
49.845905 27.84819 18.76413
46.410904 11.385193 47.575127
47.1509 11.419197 45.656128
42.376904 17.120193 42.853127
41.895905 17.254196 41.10013
50.780903 45.789196 7.836128
0.71190524 45.916195 8.924126
6.5049047 42.564198 7.1451263
4.870906 42.304195 8.683128
9.163905 34.970192 11.992126
8.590903 33.244194 13.768127
8.408904 31.580193 20.352127
6.3369055 30.991196 20.08313
3.3049037 10.815193 25.398132
2.616904 10.611198 23.26313
8.946906 10.7571945 21.942131
8.130904 11.887192 20.456131
51.249905 62.077194 13.12413
0.96790576 63.214195 13.622131
50.317905 69.21819 12.019127
47.964905 69.5402 11.306129
1.4159038 19.882195 36.657127
1.1229045 18.089195 34.481133
2.5459049 22.914192 30.214127
3.9609058 24.149193 30.962128
15.459903 19.454193 22.84813
12.8119 19.692192 22.810127
10.614905 12.543198 22.72213
11.789905 11.184196 21.479134
39.958904 40.550198 23.463127
40.6649 39.976196 25.20913
38.995903 33.975197 28.467133
40.815903 32.078197 28.010132
12.862903 65.2662 24.142128
14.9789 64.145195 23.338127
16.207903 69.255196 17.676132
16.408903 1.6281967 17.739128
33.299904 65.143196 28.57013
34.154903 66.9292 26.962128
40.959904 68.0682 30.495132
42.644905 68.7482 29.35913
51.095905 29.78019 39.40013
50.376904 31.492195 40.342133
50.904903 36.530197 34.50113
0.24190402 36.491196 32.74713
43.417904 51.504196 36.412132
42.848904 50.930195 34.41313
45.201904 53.267197 28.531128
46.231903 52.147194 26.982132
20.910902 55.953197 10.170128
18.705902 56.611195 10.355125
17.651901 59.752197 2.2041245
17.219902 57.603195 1.404129
14.3809 61.637196 31.29213
12.3959 61.387196 31.93013
6.4529066 58.186195 27.438133
5.677905 59.954197 25.94513
47.417904 32.164192 30.40113
46.360905 30.249191 30.282127
50.272903 26.685196 35.950127
50.767906 26.819199 37.773132
35.228905 35.49919 63.17213
37.716904 35.522194 63.392128
35.272903 32.954193 71.44813
36.454903 34.815193 0.9981308
0.6899059 60.571198 15.283127
50.810905 59.190197 14.0911255
3.227904 53.025196 15.626129
2.7439067 52.066196 18.038132
27.605902 22.703194 4.6391296
26.105902 24.282196 4.8711243
21.233902 26.407196 71.496124
21.208902 25.410194 69.64313
38.544903 68.34219 45.83413
36.825905 68.99519 44.84613
38.366905 6.5571976 46.909126
39.107903 7.423195 45.25213
48.315903 59.688194 31.962128
48.949905 59.574196 29.869133
44.385902 64.744194 27.42913
42.051903 64.5452 27.034126
6.134906 20.835197 65.910126
5.832904 18.734192 65.47013
51.863903 22.341194 61.86413
0.8289058 24.764198 60.49113
2.769904 52.893196 6.798126
1.3099048 51.618195 6.4421234
47.064903 48.384197 6.3611298
45.682903 49.440197 7.524124
46.204903 56.366196 29.232132
48.576904 56.818195 29.09813
51.683903 52.788197 34.55313
51.741905 52.183197 36.79413
49.905903 58.789196 26.40113
51.008904 59.834194 24.922127
48.069904 67.633194 25.88913
48.221905 67.5952 24.12313
49.740906 8.539192 16.466133
48.170906 6.9441986 17.712128
1.0459049 1.8921967 20.549133
0.31490588 69.2672 20.704132
28.907902 45.561195 13.771126
28.897902 47.097195 13.01413
32.634903 52.541195 16.937126
32.823902 54.456196 16.76513
50.097904 11.081192 33.742126
49.725903 13.619194 33.28913
3.2669055 18.072197 32.11213
5.236907 17.671196 31.909126
4.6079054 8.573196 3.9221268
3.6529033 9.492195 6.080124
51.267906 13.680199 9.134125
0.9419048 12.296196 9.954124
39.003902 9.505196 42.67713
40.544903 9.064194 43.83113
46.661903 10.142197 39.91713
47.662903 11.476196 38.41713
46.381905 24.513199 34.839127
45.182903 22.873192 34.03013
45.570904 28.07019 27.199127
45.217903 26.453194 26.219131
38.364902 40.943195 38.142128
38.439903 41.501198 40.092133
39.570904 41.857197 45.716133
40.748905 41.051197 47.281128
33.034904 54.022194 6.5181274
32.903904 52.868195 4.463127
32.665905 45.591198 4.765129
33.494904 44.401196 6.5981293
38.394905 60.390194 25.80613
38.207905 62.475197 26.952133
38.940903 61.542194 34.548126
39.861904 63.314198 35.116127
50.165905 50.398197 67.604126
49.217903 49.018196 69.05413
47.430904 47.213196 4.0321274
45.552902 46.390198 2.9211273
7.1529036 33.115196 8.934128
7.2279043 30.950195 8.073128
9.455905 24.7072 11.243126
12.373904 24.736198 10.810127
2.222903 49.505196 42.353127
2.7149036 49.600197 40.02713
2.222903 41.669197 38.046127
3.512904 41.198196 36.27513
26.299902 49.463196 70.57313
25.413902 51.213196 69.22113
31.979902 51.475197 64.95713
31.807901 52.202194 62.47513
17.721903 63.003197 26.030128
17.297901 64.633194 24.82013
22.448902 67.88419 19.978127
22.038902 68.5012 17.62613
43.653904 7.864197 45.810127
41.872902 7.576195 46.465134
44.940903 4.891197 49.62313
46.328903 4.7291946 51.787132
46.864902 15.733192 33.022133
45.651905 17.341194 31.773132
51.535904 19.614197 26.67913
1.7949054 19.203194 26.831131
2.977904 62.508194 46.204132
2.7259052 61.784195 43.812126
51.525906 60.233196 40.77913
51.362904 59.199196 39.241127
2.5879047 9.278198 17.576126
1.0569065 6.6981964 17.45913
6.108905 3.159195 13.233131
5.5069036 1.4021988 11.615128
16.594902 56.110195 31.274132
17.701902 57.781197 30.09713
16.997902 63.744194 36.259132
15.717903 64.617195 34.953133
41.055904 41.812195 27.172127
39.569904 42.510197 29.227127
35.417904 47.483196 28.697128
35.4149 46.937195 30.699127
49.914906 43.831196 70.760124
48.0119 43.209194 71.46213
45.470905 48.288197 64.812126
43.443905 47.919197 64.44513
44.984905 37.406197 21.293129
46.6859 38.716194 21.43113
49.161903 38.153194 13.955132
50.005905 36.699196 12.632126
49.824905 23.575195 10.908127
47.8799 22.853195 12.016129
41.780903 24.725197 9.089127
42.371902 23.596199 7.880127
