8.195488 54.79341 26.640184
11.03249 51.49041 32.541183
10.494488 49.33241 31.583183
6.5154877 79.08541 19.396183
6.89349 76.859406 19.864183
14.265488 76.32941 23.813183
15.759491 75.13541 23.398184
41.50449 105.96341 40.425182
43.50249 105.276405 39.296185
40.21049 104.85241 30.780184
42.04549 104.595406 29.362185
27.43349 40.21741 34.109184
26.96149 40.59841 36.624184
18.97549 35.48541 36.852184
17.95849 35.09141 39.594185
35.840492 99.25741 9.793182
34.410492 99.89941 7.7751846
26.178492 99.25741 5.757183
26.192492 99.72941 3.7761803
47.85349 100.833405 0.35918045
45.910492 101.498405 40.945183
40.979492 93.498405 41.631184
42.80149 92.164406 0.41018295
2.0004883 83.85041 37.550182
0.099487305 84.80841 37.140182
48.83949 77.54141 0.58918
48.73949 75.734406 40.224182
39.52649 126.17741 3.7271805
40.53349 125.74341 5.5931816
44.82149 132.9264 7.736183
43.68449 134.43741 5.91518
4.3404884 46.12441 4.210182
4.9464874 45.82341 6.792183
2.6004868 37.29141 5.5741806
1.1164894 37.11941 7.308182
23.081491 64.06941 32.648182
23.653492 61.83841 33.785183
27.05549 54.702408 30.391184
29.015491 54.38741 29.761185
20.41249 2.0424042 1.83218
21.745491 2.6114044 3.7611809
18.765491 9.530411 7.5391846
16.667492 7.7794037 7.733181
35.46949 121.570404 29.119184
35.80149 123.51941 30.019184
28.64949 122.59141 32.229183
28.949492 120.748405 31.105185
9.423489 15.9874115 10.379181
8.075489 14.655411 10.795181
13.016487 12.023407 18.126183
12.211487 14.153397 18.901184
4.1144867 42.11341 19.409184
2.3554878 42.46541 18.182184
45.16149 45.72841 16.618183
44.29949 43.87441 17.700184
18.84349 107.31341 28.998184
20.473492 105.93541 29.459185
19.254492 111.8224 34.717182
20.83349 112.276405 36.017185
39.51149 6.2313995 29.094185
38.95949 5.1773987 31.175184
34.35149 137.93541 26.964184
35.46749 137.46841 24.868183
12.542488 120.21841 33.716183
10.08849 120.139404 34.701183
7.8264885 117.67141 26.071184
6.7384872 117.89241 24.409184
15.3714905 18.480408 41.668182
16.933489 17.0484 40.629185
9.58749 16.0374 34.210182
9.52549 18.124405 33.410183
11.0764885 33.67741 36.098183
10.67849 31.960411 35.099182
3.945488 36.32841 30.557184
2.3664894 35.03341 31.803185
30.158491 51.18441 1.891182
28.015491 51.91141 2.0921822
25.317492 50.34341 10.158184
25.130491 51.08341 12.616184
44.555492 138.1654 6.3971825
43.95249 136.46642 7.8521843
40.722492 136.21242 14.550182
39.96849 134.24042 14.718182
45.89149 62.18341 33.040184
44.17849 63.09541 33.300182
38.30449 60.76141 37.622185
38.79349 62.33841 39.259182
15.422493 46.73241 16.455181
16.00849 45.24041 17.657185
15.351494 36.97741 15.635181
16.628492 37.06341 13.658184
17.032492 34.32241 25.152184
17.90249 35.22441 23.276184
24.313492 32.79041 25.715183
25.56949 30.56741 24.360184
34.44849 80.58541 22.728184
33.13749 80.637405 24.505184
28.521492 88.16941 23.011183
29.880491 89.53141 21.484184
45.694492 122.11941 12.611183
44.91849 122.14441 10.161182
0.47848892 121.2524 6.1771812
1.1874886 119.16341 5.9891815
17.893492 25.46841 13.457184
15.623489 25.99341 14.149181
13.10849 27.81341 5.42918
11.889488 29.49541 4.3661804
4.815487 24.68241 35.42618
3.0064888 25.07741 36.583183
1.2734871 32.72341 33.494183
0.70648956 34.52241 34.259182
8.725487 50.43441 30.043184
7.1894875 48.14941 29.999184
2.2624893 49.96541 37.607185
0.03748703 51.40641 37.885185
35.07949 97.70441 6.393181
36.78149 98.25341 7.3851814
35.506493 92.639404 13.112183
35.72049 91.93541 14.866184
13.893494 31.72041 4.1521835
15.617493 30.092411 3.5541801
13.395493 32.61241 36.985184
13.972488 35.12441 37.07918
28.234491 60.92241 7.6211815
28.840492 61.53141 5.7251816
28.060492 64.95941 10.482182
28.68049 66.80041 11.064182
5.2964897 74.03841 33.694183
6.72649 74.71741 35.686184
0.44248962 80.11841 33.734184
0.66848755 82.233406 32.535183
8.26049 4.166397 36.964184
6.6614876 4.595398 35.769184
6.968487 11.831406 40.631184
8.626488 10.666397 0.1631813
12.19849 86.23741 30.267183
9.836487 86.88141 29.507183
6.917488 90.99641 34.604183
6.2554893 91.82941 36.445183
30.758492 73.86541 11.630184
30.987492 74.13941 14.183184
28.462492 76.89841 21.454184
30.199492 76.27241 22.340183
26.993492 82.956406 14.300183
26.26349 85.21541 13.519184
24.355492 89.24141 19.814184
25.63849 88.50141 21.785183
38.56349 131.1484 28.953184
40.528492 131.69241 29.129185
43.35549 126.33041 34.860184
43.12649 124.04741 33.41218
32.78649 18.28041 30.159184
31.64549 19.371414 32.075184
31.30149 28.013409 32.316185
33.65149 27.0984 32.559185
9.696487 80.040405 35.014183
10.74749 80.27441 37.253185
2.7594872 77.15741 40.478184
2.346489 77.44641 0.81518173
2.6804886 110.74341 16.371183
2.7434883 110.26841 18.795183
4.980488 116.347404 23.612185
3.7964897 114.64341 24.532185
16.47349 127.873405 19.243183
16.926489 129.5724 18.701183
12.241489 130.69241 10.964184
10.76749 129.36241 10.250183
38.145493 122.46841 28.859184
38.58649 121.902405 30.821184
38.80449 112.32441 31.595184
36.33249 112.64341 32.543182
22.39549 95.1264 22.527184
21.817492 93.79941 23.733183
19.834492 99.91341 28.921185
21.00749 101.15741 30.995184
25.342491 132.78241 19.970184
25.91949 134.91441 19.159184
26.331491 135.3834 10.575184
27.988491 133.94041 9.365181
47.11549 106.348404 39.797184
46.18549 104.986404 38.094185
50.91449 106.42741 30.132183
50.30049 104.9194 28.463184
17.86749 133.43541 27.358185
18.675491 132.22041 29.743183
20.043491 135.62842 36.677185
19.85349 137.3834 38.092182
0.18548965 65.902405 25.330183
50.87149 64.05541 24.328184
5.174488 59.07541 29.936184
7.12949 58.17941 29.632183
23.512491 57.13241 40.833183
22.14249 55.69041 41.22518
16.04849 63.20441 1.1641808
17.172491 63.98941 2.8191833
33.069492 82.679405 18.903183
32.88049 84.72341 18.519184
37.23749 86.14141 25.490185
39.20349 87.06941 24.354183
14.981491 108.80041 40.703182
13.966492 109.278404 38.91218
13.769493 105.8774 31.782185
14.770493 104.263405 30.369184
10.783489 45.47741 11.229183
11.888489 44.91941 8.927181
19.13149 49.87541 7.747181
17.698492 51.63141 7.4471817
23.693491 104.97741 24.573183
23.925491 106.66241 22.661184
26.768492 100.095406 19.649183
25.36449 99.05941 17.733183
42.26249 41.45441 4.585182
42.61349 42.07841 6.5271835
35.80449 46.69641 6.8341827
36.60349 48.61441 8.579182
11.007488 35.60741 34.424183
11.835487 36.69841 36.443184
18.14549 40.47741 30.878183
16.684492 41.36841 30.027184
31.084492 119.847404 15.609184
32.93249 120.43641 16.668184
33.819492 120.56341 23.594183
35.000492 118.32741 22.660183
20.289492 79.28641 27.939184
19.066492 80.62741 28.836184
15.012491 85.34941 30.413183
15.834491 87.72941 31.084185
24.988491 8.302399 33.536182
26.653492 7.396408 32.341183
30.424492 13.087402 28.185184
32.076492 14.0634 27.887184
17.53049 101.8634 29.235184
16.640491 100.14441 29.980185
17.36149 99.47741 21.235184
18.96849 97.735405 20.189184
25.58249 58.36141 37.755184
24.236492 59.78541 36.923183
23.306492 53.07241 31.469185
22.981491 53.97041 29.428185
9.965488 138.11742 13.970184
11.509487 1.6294098 14.527184
18.204489 1.046402 9.020184
16.463491 0.0054016113 7.5981827
25.415491 130.2734 27.518185
25.44049 127.92341 27.002184
21.58249 121.9054 27.716185
22.19849 122.02041 29.916183
38.57949 98.097404 33.888184
39.52649 96.38541 34.630184
36.29649 97.678406 1.6681824
36.93649 98.67541 3.4301834
20.76749 8.9614105 9.969181
18.64849 8.00441 10.016182
16.674492 5.268402 8.667183
18.973492 5.4914093 9.237183
7.82349 69.74641 1.285183
8.759487 70.872406 0.3691826
16.04149 70.97841 38.941185
16.941492 69.04141 39.633183
19.94149 118.693405 6.3781815
21.925491 118.75941 5.5721817
27.414492 117.66241 3.1971817
28.651491 119.722404 2.8261833
12.640488 25.549408 37.845184
11.572487 23.624405 36.160183
16.57549 21.204407 31.095184
18.47949 20.4234 31.195185
39.33049 108.2514 4.8901825
38.22449 105.96641 5.4251823
33.31549 102.831406 41.28718
34.19149 100.71341 41.840183
18.412489 74.388405 41.239185
16.49449 73.46141 40.035183
9.166489 73.51741 1.6191826
7.57349 74.79441 2.264183
50.54249 72.21541 12.023182
49.08249 72.24641 9.963184
5.5504875 71.39441 5.938183
5.80949 70.21241 4.0411835
48.26949 67.58441 19.605185
0.062488556 67.43741 19.320185
0.6974869 75.623405 21.431183
3.1354904 74.95941 21.850183
45.201492 4.867401 12.770184
45.73049 2.996399 11.509182
42.91949 2.8684082 18.755184
42.145493 0.16040039 19.071182
47.46749 40.42141 29.488184
49.26049 41.52341 28.751184
5.3424873 42.43041 23.170183
6.7344894 41.39241 23.944183
13.472491 125.20341 35.56518
13.141491 124.34341 33.817184
19.10049 122.8084 28.139183
18.293491 123.834404 26.238184
8.147488 2.0174103 30.055183
8.424488 1.6734009 32.619183
3.8634872 10.3284 31.588184
3.1354904 10.238403 29.679184
20.82649 116.07441 5.356182
22.58249 116.28241 3.8191833
15.845491 115.79741 40.244183
15.321491 115.638405 38.024185
28.252491 30.65541 27.829184
28.286491 31.571411 25.701183
34.72749 35.76441 27.846184
33.47549 37.56641 27.491184
7.05249 93.33941 3.57518
7.603489 95.71741 3.889183
11.402489 101.78541 1.2861824
10.474487 101.44041 3.344181
31.351492 62.409412 4.7791824
31.616491 61.42841 6.754181
36.98249 53.63341 4.65818
38.82949 54.81541 3.358181
33.67649 131.85341 37.338184
31.74949 132.57341 38.064182
27.047491 132.7044 30.537184
28.189491 131.3484 28.326183
23.671492 129.98141 29.898184
22.62149 131.82541 29.972183
22.21849 132.8144 39.408184
21.668491 135.15941 39.033184
32.881493 93.67041 10.008183
31.53449 94.85241 8.693184
25.358492 99.87041 9.561184
24.39949 99.694405 7.794182
39.15449 79.43641 9.734184
40.73249 78.43541 8.299183
36.81849 75.777405 2.962181
35.63449 73.67641 3.0441818
42.604492 65.33641 4.016182
41.88449 63.60041 3.660183
38.47349 67.68241 38.095184
38.604492 65.60241 37.710182
16.748491 72.86241 19.907185
17.955492 72.386406 18.047184
24.20149 71.34941 24.094183
23.484491 73.24541 24.807184
13.505493 64.29141 2.0121803
13.95649 64.46141 0.051181793
6.994488 65.82041 36.311184
7.912487 63.92141 34.948185
29.884491 99.98041 36.40518
29.689491 98.6694 38.888184
29.831491 90.44841 37.139183
29.27449 89.27041 35.081184
23.85349 112.10441 6.250183
21.601492 112.2654 6.582184
16.32949 111.12141 41.766182
16.21449 112.63541 40.111183
14.515488 129.97441 34.122185
13.141487 130.23141 32.205185
9.225487 137.25241 31.847183
9.937489 137.90541 29.420183
30.590492 67.41941 12.679184
32.40649 65.51041 12.380184
34.38749 57.75741 14.811184
36.03349 56.88341 16.193184
23.564491 135.58942 20.339184
22.619492 133.60641 20.494184
18.97549 131.17441 26.608185
20.56549 130.84142 28.094185
15.514491 129.5254 28.442184
17.356491 129.25742 27.713184
22.278492 127.31341 30.152184
22.216492 124.8074 30.793184
33.54949 15.406403 6.9731827
35.39049 16.840408 6.339184
31.102491 19.119415 41.623184
29.797491 17.592407 40.295185
50.19849 87.206406 13.546185
0.23048782 86.17541 11.410183
44.79549 81.64341 8.358181
42.67749 80.35441 8.067184
9.016487 83.79541 23.526184
8.180489 83.71741 26.059183
2.2774887 76.803406 29.132183
4.0264893 76.00041 30.470184
24.328491 117.612404 27.394184
25.859491 118.79641 28.123184
32.41149 118.0584 23.599184
32.67849 117.026405 21.457184
10.37249 134.32841 9.686184
11.14349 135.3444 11.5151825
17.35349 131.11742 7.429184
15.623489 132.2624 6.655182
33.95349 55.08841 35.764183
33.708492 52.96541 35.785183
28.699492 51.98241 33.004185
27.72549 50.74541 32.004185
17.943491 51.40841 12.198181
19.936491 50.89541 10.388184
18.34049 57.424408 5.6591835
16.894491 57.45741 7.762184
47.31149 126.13241 36.958183
46.44549 125.74241 34.653183
45.138493 119.845406 29.566183
43.07849 120.332405 29.090183
11.499489 1.6233978 20.408184
11.058487 137.23041 19.864183
10.40749 132.5984 22.272184
9.78149 131.55942 19.878183
11.954492 44.72541 4.7231827
12.656491 44.396408 2.4371834
20.02749 39.19041 2.0971832
19.147491 37.82441 4.0121803
34.55749 70.06241 0.7421837
35.71449 71.23141 2.6441803
44.28149 68.25241 2.2701836
46.569492 68.92141 2.4321823
7.96949 86.32441 23.689184
6.2934875 87.415405 22.424183
9.92849 95.262405 20.063185
8.01149 96.5024 18.557184
40.694492 56.58941 10.670181
38.410492 56.81141 9.502182
40.21349 65.23141 5.2861824
41.33249 66.33441 7.101181
4.0054893 76.07141 24.326183
2.0694885 77.60241 23.475183
1.5384903 85.915405 23.466185
4.2034874 86.039406 24.500183
47.01249 56.93041 30.892183
47.59349 58.65741 32.229183
39.02549 58.21741 36.798183
39.29949 56.73141 38.403183
48.29149 135.2084 32.557182
47.68649 135.88141 34.264183
46.14149 129.89542 37.011185
44.29349 128.83942 38.071182
7.1824875 57.92841 4.549183
5.27549 58.25941 4.6771812
5.87249 63.79341 37.949184
5.933487 62.16541 36.493183
39.944492 61.937412 27.182184
37.78349 62.41141 27.774183
30.834492 61.35741 25.997185
29.692492 62.35041 24.488184
38.88449 84.85341 33.228184
39.97349 86.33841 31.980185
45.152493 89.34041 40.005184
44.17149 91.46241 40.038185
19.804491 65.733406 10.827183
19.67349 64.82141 8.885181
17.20749 56.52341 13.043182
18.84749 54.862408 14.610184
34.80649 7.865402 29.330183
33.396492 9.646408 29.449184
27.150492 7.097397 36.477184
26.224491 6.3374023 35.054184
49.33549 122.74341 26.622185
49.41649 124.91141 25.386185
46.069492 119.026405 20.501184
44.88449 120.57341 19.566183
40.423492 8.7604065 38.535183
41.62049 9.72641 39.749184
44.756493 16.500412 40.224182
45.93949 18.067413 39.097183
3.6844902 72.095406 39.064182
5.53249 71.54941 40.389183
0.5314903 66.61741 2.8501816
0.18248749 66.970406 0.60518265
10.78249 115.222404 27.574184
12.693489 113.92341 27.348185
12.597488 113.10241 22.000183
11.424488 113.81541 20.078184
5.4844894 45.417408 25.737185
4.827488 46.26141 27.778185
3.3714905 38.94541 31.238184
1.2104874 37.55941 31.439184
29.10749 55.21741 7.3401833
29.453491 57.70541 8.417183
22.925491 57.49041 15.606182
23.068491 60.02041 14.643181
43.249493 129.85841 10.591183
45.15549 131.00342 9.623184
46.12749 137.80042 8.383183
48.12149 137.34041 8.627182
1.5644875 111.42241 0.7731819
1.3664894 111.00941 40.276184
1.6594887 118.29941 37.981182
2.9354897 119.736404 37.194183
47.07049 116.88141 1.0641823
46.20349 114.373405 0.86118317
47.85349 109.652405 37.328182
49.48049 108.97741 35.896183
38.01249 6.7274017 33.805183
39.21749 7.414398 32.510185
46.034492 2.3644104 37.382183
47.99949 3.5604095 37.650185
35.52349 60.74841 37.955185
33.153492 60.89041 39.041183
32.35549 63.80641 2.6631813
32.367493 64.82041 4.577183
19.12849 67.094406 0.9051819
17.20849 65.68941 0.63918304
19.51649 63.24541 33.335182
21.126492 61.52541 33.858185
18.630491 60.00641 5.16518
15.993489 59.58041 5.8941803
13.190491 61.36741 12.9281845
15.491493 60.68541 14.057182
5.4494896 111.666405 16.114182
4.8834877 109.64441 14.710182
11.325489 111.88241 12.061184
13.631493 111.12041 12.645184
14.102493 126.111404 27.916183
15.565491 124.53641 26.372185
16.76349 122.59241 18.492184
16.655489 125.041405 18.661184
1.8054886 125.26741 5.85318
0.32548904 125.85741 4.32518
42.52649 124.1824 4.4011803
43.312492 121.89541 3.0251808
10.408489 41.58341 8.311184
10.9254875 43.57141 6.726181
6.207489 45.37441 41.78018
5.120487 47.20041 1.6421814
24.58949 134.16042 29.042185
22.005491 134.6224 27.941183
20.153492 1.7374115 27.992184
21.24249 3.8264008 28.971184
4.4024887 133.7104 31.854183
3.7014885 131.5164 31.350183
47.32349 128.23741 34.463184
48.52049 128.5704 36.514183
6.4164886 85.66141 26.014183
7.915489 86.57741 26.355185
9.419487 91.70041 33.632183
11.298489 92.21641 32.740185
2.6144867 56.93041 6.328182
2.4614868 58.20041 4.46418
2.431488 54.74741 38.540184
0.93748856 53.94741 37.195183
24.283491 137.31741 5.2231827
23.26749 0.474411 3.2151833
27.39149 5.817398 39.134182
28.94449 6.801407 39.347183
4.9774895 75.03741 40.71818
6.598488 73.75141 41.424183
11.110489 77.64541 34.702183
12.53149 78.54241 36.285183
11.861488 8.753403 1.7901802
12.67749 7.1074066 3.0481834
10.158489 0.42640686 6.7151833
11.426487 2.2174072 7.580181
19.448492 128.0724 7.5601845
19.66649 128.50641 9.642181
25.532492 123.89441 13.694183
24.11049 121.542404 13.954182
35.94649 135.08841 34.379185
36.520493 134.1614 36.550182
42.35249 133.78542 29.947184
44.12149 135.50941 30.229183
46.75449 41.08741 11.874184
44.826492 39.86841 11.331184
43.70649 36.15741 18.911182
44.53149 34.06141 18.124184
48.24349 106.9324 27.677183
47.229492 105.32441 28.238184
39.39849 102.9464 26.630184
40.34949 102.67441 28.543184
46.485493 81.748405 20.620184
47.39949 79.90741 20.633184
4.2464905 84.91841 19.747185
5.0974884 84.82341 22.004183
49.53749 27.37941 37.722183
49.13349 29.16341 38.125183
49.88249 36.34841 39.896183
47.62649 35.68041 40.243183
39.60749 23.501404 36.779182
39.32249 22.982407 34.55118
31.630491 20.700409 34.227184
32.72149 18.804413 35.504185
41.30249 44.00441 0.37218094
40.76149 45.67841 1.7751808
38.93849 49.80541 7.665184
37.72849 51.55741 6.3381844
45.139492 47.66541 18.702183
44.07949 48.95841 19.882183
43.72349 52.43541 11.819183
43.354492 54.44341 11.749184
10.299488 76.72441 9.895184
12.40749 75.95441 8.840183
17.62749 74.358406 15.999184
16.150492 74.78841 18.142181
8.39349 25.457413 6.398182
7.6094894 23.598404 6.8601837
8.222488 16.240402 2.7981834
8.285488 16.222397 0.07118225
33.06849 47.00641 14.362183
33.569492 44.70441 14.256184
25.630491 40.92741 12.211182
26.127491 39.32541 13.974182
33.49749 117.72741 13.358181
34.81649 116.05941 14.051182
40.32549 121.250404 18.645184
42.71649 121.64741 18.467182
29.664492 5.0884094 4.1191826
30.341492 5.095398 2.009182
36.63749 9.651398 0.63918304
34.97349 9.982407 41.28018
20.936491 75.50941 27.221184
22.682491 74.14741 28.137184
27.154491 80.14641 31.817184
29.172491 80.79841 32.185184
7.8424873 75.31541 17.233183
9.251488 74.886406 19.107183
15.187492 69.80241 21.772184
14.91349 68.39741 23.895184
27.20049 125.82741 14.364183
28.24249 123.61741 15.871183
20.45749 122.18941 16.954184
19.514492 122.20241 19.284184
9.95549 71.15941 16.266182
10.78249 70.09141 14.510181
13.5344925 62.41941 15.5151825
12.729488 60.479412 16.244183
38.48849 43.12341 22.237185
40.64149 41.86141 23.064184
34.555492 43.57241 27.418184
33.034492 42.27741 27.252184
34.90449 90.21041 11.686184
35.472492 92.00941 10.327183
42.81749 93.345406 10.404182
42.45749 95.78341 10.389183
46.41249 90.44741 26.639183
44.87149 89.84041 24.819183
44.21749 84.64941 18.272184
41.82549 85.721405 17.735184
17.578491 68.818405 8.200184
18.125492 68.35341 10.601181
23.179491 75.40541 10.530182
25.335491 74.83041 10.235184
49.66049 58.67941 18.551184
48.88449 58.764412 16.381184
40.21049 61.430412 17.409184
38.874493 63.201412 16.897184
20.087492 0.247406 20.184183
18.38849 0.48539734 19.448183
13.616491 5.769409 17.614183
13.138492 4.6334076 15.679184
24.863491 74.74341 21.218184
25.459492 73.14941 22.422184
30.14549 72.30041 15.855184
30.709492 71.55641 14.216184
11.728489 122.652405 35.046185
9.369488 122.77241 35.606182
9.286488 130.3444 40.181183
9.486488 132.10042 39.085182
25.59349 87.665405 10.536182
26.616491 88.11541 12.750183
33.410492 85.53841 16.162182
34.45249 83.16941 16.212181
39.08649 107.64441 29.588184
39.92249 106.32841 27.966185
37.24449 107.319405 21.038183
35.88449 105.62041 20.799183
35.708492 97.056404 32.456184
36.87349 99.25641 32.016186
33.569492 104.193405 36.953182
32.39249 103.358406 38.514183
12.38649 90.10241 7.5601845
11.528488 88.47241 8.922184
17.289492 84.20441 11.808182
17.25149 86.82741 13.040184
17.64849 23.760406 15.824183
16.935492 24.662415 17.816183
20.203491 19.182404 23.745184
21.539492 17.973404 21.966185
3.4214897 74.01741 26.276184
1.7974892 74.48941 28.006184
44.90749 73.58441 30.095184
45.58449 74.388405 31.870184
13.034489 26.808407 0.60518265
12.55349 26.067413 2.8121834
6.01149 25.195404 38.877182
3.9734879 25.0354 39.109184
13.194489 38.92341 11.470184
11.814487 39.31041 10.295181
7.179489 36.88941 15.657185
5.2744904 36.58341 16.544182
29.175491 106.361404 4.92218
29.660492 108.2934 5.2461815
31.919493 106.944405 14.796185
29.85749 106.89841 15.964184
45.68349 96.5994 21.300184
45.951492 98.848404 20.490183
0.3054886 104.194405 23.200184
0.016487122 106.345406 23.979183
32.771492 38.05641 37.66218
32.548492 36.08941 36.189182
38.69249 30.87641 35.71118
40.63349 32.24641 35.972183
28.87849 98.388405 18.865183
30.198492 100.06541 18.633184
35.90849 103.57541 16.596184
37.965492 102.3904 16.060184
26.259491 1.0774078 32.199184
28.61749 0.27140808 32.749184
32.27349 1.4364014 26.778185
30.615492 1.5523987 25.811184
17.287489 66.33641 28.014183
15.093491 65.07641 28.304184
12.4704895 66.30241 34.907185
14.64949 67.03141 34.525185
36.75249 63.09541 30.641184
37.05749 64.608406 28.909184
40.81449 68.78341 23.712183
39.874493 70.88541 23.237185
7.1684875 118.04541 11.067184
5.85849 117.42241 12.836182
2.681488 126.151405 16.259182
4.7534904 126.69941 16.492184
47.52649 108.998405 40.321182
45.65149 108.969406 39.506184
41.75849 114.88141 36.119183
42.30249 115.76941 33.930183
3.9634895 44.18241 36.995182
5.7134895 43.76241 35.762184
11.020489 46.46541 30.773184
9.509487 46.827408 29.199184
25.748491 23.503403 20.194183
26.83349 22.603409 18.105185
32.19349 20.12941 22.361183
32.93849 18.572403 23.743183
42.49649 63.70541 25.818184
42.78349 63.49541 28.048183
40.49849 67.81141 34.847183
38.46949 66.65841 35.35018
18.928492 42.74041 38.979183
17.453491 41.28841 38.104183
16.58249 36.59141 3.56818
17.695492 35.95341 2.2861824
47.39049 57.05441 11.926182
49.08649 56.65041 13.222183
45.784492 48.20841 11.977184
48.25449 47.33641 12.149181
49.90949 10.964401 38.392185
49.27249 9.840408 36.737183
4.21949 5.7084045 34.999184
4.39349 3.2144012 34.721184
25.147491 76.70241 6.2621803
24.56949 75.20441 5.0831833
21.439491 81.776405 1.6931801
23.435492 82.20141 41.848183
19.831491 2.6124115 5.6851807
19.904491 4.202408 7.2371826
25.10049 8.516403 9.844181
23.43049 9.954407 10.081184
22.05549 22.628403 6.7631836
21.32649 23.319412 8.848183
21.73949 30.2104 12.524181
21.53849 28.615398 14.257183
46.37949 97.7244 7.991184
47.24049 95.63541 7.976181
2.3074875 90.06641 6.8481827
3.5184898 88.85541 8.727184
28.973492 37.38841 10.196182
29.230492 38.73441 8.642181
31.594492 45.43441 5.691181
33.54349 45.723408 5.2721825
23.720491 36.04141 11.149181
23.78049 34.38641 12.412182
13.939491 32.85641 11.400185
14.255491 35.00041 11.257183
9.237488 0.20941162 24.584185
9.586487 0.7794037 26.898184
10.815487 3.6444092 33.221184
12.209488 4.3114014 34.501183
27.64849 72.20341 5.8661804
29.28049 73.84741 5.271183
35.45449 68.54441 5.407181
34.75149 69.06441 3.6431808
29.40949 114.858406 29.581184
28.445492 116.137405 28.102184
30.465492 122.89841 24.437183
32.18349 123.14341 23.318184
9.76049 122.318405 1.3631821
9.91349 122.14541 40.834183
4.24749 128.7734 0.5121803
4.056488 129.93442 40.892185
3.4874878 1.6834106 6.9941826
3.667488 0.8043976 5.07518
2.176487 130.8354 0.9681816
0.4684868 131.7754 41.696182
48.60049 48.68441 1.514183
47.035492 50.12741 0.4111824
49.71849 55.75341 4.6141815
49.35949 57.54841 2.601181
45.54749 136.2904 4.9421806
46.624493 135.2104 6.8191833
48.74249 129.82741 0.42118073
50.93049 128.56541 0.98818207
6.44149 56.89141 31.979183
7.0814896 54.81841 31.495184
50.67249 53.43241 34.618183
50.62849 55.51041 34.999184
38.77349 98.52341 30.016184
37.22749 99.54541 29.164185
37.21849 91.87041 24.897184
38.374493 90.67241 26.240185
7.76149 76.943405 11.378181
6.2274895 78.06141 11.948181
4.5884895 84.373405 15.950184
6.6074867 84.68641 15.523182
39.271492 60.729412 22.295183
40.26049 60.27541 20.234184
48.06949 57.39841 23.090183
48.66049 59.18641 24.234184
17.20149 3.5624084 6.5931816
15.85249 2.0304108 6.0911827
12.579487 10.187408 7.0621834
12.27549 11.3414 5.1091805
28.561491 14.427399 26.437183
26.901491 13.122406 25.944183
20.29849 16.450409 28.822184
18.32949 16.453415 29.694183
1.5584869 37.74041 2.9651833
0.33848953 38.66341 4.33218
50.77049 45.862408 41.399185
0.42848969 47.92541 40.69718
23.526491 85.59241 29.105185
22.261492 83.66041 28.790184
19.507492 85.86141 36.889183
18.66249 88.61741 36.161182
5.4064903 56.60341 12.219181
7.2274895 55.64541 13.332184
8.901489 56.76241 6.695183
9.773487 58.528408 4.891182
42.46849 82.71841 36.273182
44.91449 81.57341 36.124184
47.27549 89.360405 38.241184
49.17349 90.48141 37.325184
12.444489 91.04741 3.0061836
13.426491 92.83841 2.1681824
13.254494 93.192406 10.961182
10.812489 92.6544 11.298183
47.94349 137.93842 31.686184
48.77049 137.91441 29.707184
40.58949 2.0594025 25.210184
39.97549 3.0243988 27.061184
3.6274872 20.906403 18.384182
3.7794876 19.942413 20.192184
0.35448837 14.812408 13.186184
0.0024871826 15.774399 11.064182
40.83449 5.905411 39.071182
38.72149 4.791397 37.70418
29.90249 3.9804077 39.633183
29.546492 3.0864105 37.332184
37.94349 87.15941 30.240185
36.79449 86.05241 31.686184
34.444492 79.581406 26.657185
35.82449 79.179405 24.475183
19.490492 16.776413 2.391182
17.63349 17.624405 1.5071831
9.666489 13.899399 6.1701813
11.14249 12.618408 7.7091827
11.453487 125.25941 32.182182
10.091488 123.27341 32.611183
1.3004875 123.234406 29.679184
0.16848755 123.71541 31.324184
49.90149 7.0584106 25.924185
1.0344887 7.617401 25.912184
0.27048874 2.1753998 33.305183
49.96549 1.5924072 31.077185
12.465488 90.28741 14.886181
13.793488 89.49341 13.441181
10.859489 83.52941 15.154182
13.180489 84.39841 14.522182
41.67649 8.250397 6.9731827
41.292492 8.200409 5.1921806
38.54649 1.770401 0.019180298
40.15449 0.8534088 0.35918045
29.126492 44.50741 31.807184
31.31949 45.834408 30.930183
37.60549 48.90441 31.560184
36.23849 50.64041 30.418184
8.32449 68.10641 24.425184
9.133488 66.27341 23.483183
6.4374886 66.56041 14.973184
6.24049 64.415405 14.139184
41.375492 68.73141 14.584183
39.05249 68.40441 13.401184
33.46149 74.53541 13.375183
33.04449 75.32141 11.099182
43.89749 41.22241 34.195183
42.96749 40.53141 36.144184
39.67249 33.88841 33.402184
40.81549 31.83341 32.913185
39.53849 50.31141 21.615183
41.56449 48.89841 20.956184
43.57949 47.94741 30.167185
46.00149 48.292408 30.513184
39.56149 109.775406 7.6091843
37.53049 109.763405 6.5081825
30.601492 114.569405 5.2721825
31.27049 116.5304 4.2861824
40.40749 111.53841 36.703182
38.32249 111.306404 36.181183
33.33049 107.84041 38.575184
31.871492 105.96841 39.473183
46.17749 85.68341 16.445183
46.173492 87.95241 16.457184
49.070488 88.94741 8.009182
50.08149 89.18941 9.705181
48.62549 43.32141 26.909184
50.83649 44.19241 26.347183
44.32149 45.96541 20.843184
45.291492 43.93641 20.265184
33.54549 77.41941 9.199184
32.51149 78.78841 7.974182
32.19349 73.86441 0.033180237
32.28149 71.94841 1.0861816
7.2744904 47.83941 7.1021843
8.44949 49.82441 7.325184
15.951489 49.47141 1.9631805
17.711489 47.80141 1.2571831
28.50349 66.025406 24.416183
29.502491 66.30041 22.775185
39.30149 66.07941 23.679184
39.388493 67.20241 21.895184
9.991489 98.09341 21.563183
11.203487 98.417404 23.340183
3.7564888 97.03541 28.156183
3.0924873 95.320404 27.177183
23.578491 129.1784 0.74018097
24.61449 129.61241 40.377182
31.420492 130.46341 39.590183
32.96149 129.44041 40.873184
3.846489 45.63141 40.187183
5.74749 45.94941 38.535183
9.930489 50.18441 34.764183
11.669487 51.160408 35.577183
13.859491 25.459412 21.457184
14.143491 24.696411 23.182184
17.462492 20.646408 28.396183
16.195492 22.607407 28.508184
24.686491 114.582405 29.880184
26.281492 112.8494 29.684183
19.46549 108.78141 25.939184
19.72849 106.623405 26.665184
11.863487 112.46441 40.182182
13.615494 112.46441 41.457184
15.15049 119.6684 4.601181
14.864487 119.167404 6.658184
5.2314873 9.857407 8.961182
4.811489 8.990402 11.311184
0.88248825 2.8603973 7.6611824
49.94749 1.6894073 8.051182
11.888489 15.286407 27.368183
11.028488 17.034409 26.104183
12.968487 24.306412 25.833183
10.909489 24.858414 25.617184
25.24649 55.40741 37.452183
23.146492 55.75741 38.184185
19.60349 50.403408 40.014183
19.591492 49.54541 41.498184
14.680489 98.651405 21.768183
12.38649 98.777405 20.756184
13.329491 100.59341 12.720183
14.77449 99.08841 11.393184
50.48149 57.08741 15.576183
1.0714874 58.03741 14.535183
3.0644875 65.42141 14.808182
1.7094879 66.73241 16.152184
24.584492 31.05941 36.96818
24.104492 32.91841 37.85018
21.68749 31.599411 29.270184
20.563492 32.08541 27.624184
45.305492 70.761406 30.662184
43.73449 70.90341 29.130184
42.42849 66.66641 22.268183
42.49449 67.373405 19.715183
7.964489 84.13041 18.296185
9.848488 85.32141 17.409184
14.357491 87.15941 14.614183
16.066492 85.94141 15.090184
9.584488 82.21341 41.620182
9.359489 83.23641 39.842182
16.18249 89.53141 39.487183
16.440489 89.71241 37.43318
33.194492 71.47341 40.021183
34.278492 69.17141 39.395184
32.624493 67.71141 31.995184
31.828491 65.651405 30.944183
28.675491 76.11941 35.53718
30.109491 74.59841 34.173183
35.00849 82.00741 35.159184
36.485493 82.78241 33.479183
32.09949 115.71241 14.225182
31.07949 117.46641 14.411182
24.79449 112.081406 14.953182
23.581491 113.638405 16.817184
38.91549 53.81541 8.204182
40.472492 52.07141 8.652184
38.25449 54.25741 16.044182
36.17849 54.44841 17.109184
13.947487 93.862404 21.327183
14.248489 92.28241 22.893183
11.83849 88.55241 28.709185
13.026489 89.19841 30.149183
20.79449 37.76541 27.203184
21.966492 39.64541 26.835184
30.70049 37.14741 27.660185
31.252491 38.12141 26.194183
42.437492 2.6444092 21.234184
40.86949 4.030411 22.473185
42.485493 8.538406 28.283184
41.68549 10.648407 27.371183
26.134491 34.13441 39.160183
24.928492 32.43241 40.654182
19.547491 35.19241 4.9441833
17.97249 33.63341 3.6901817
26.41649 32.79441 28.016184
26.682491 32.53741 30.022184
21.021492 38.14241 30.012184
18.818491 37.75141 30.621183
44.43449 47.54541 40.823185
43.14149 46.48241 41.805183
39.75349 52.54741 4.7651825
40.500492 54.42141 6.10318
8.21249 71.44041 5.6701813
7.8574867 69.55541 6.3531837
15.137489 67.74141 9.397182
16.141489 66.36141 10.757183
34.30949 76.59141 14.901184
36.48249 77.525406 14.668182
39.56449 82.54941 17.605183
37.94149 83.73241 18.658184
17.706491 39.07041 26.621183
16.227491 37.72641 26.118183
11.035488 34.62641 31.523184
11.77549 33.56441 33.029182
14.420491 6.449402 41.606182
14.909492 5.7724 2.0371819
19.352491 11.939407 5.981182
19.36449 13.9844055 6.4351845
25.321491 115.598404 3.2421837
23.983492 115.58941 1.4481812
23.56949 112.25941 36.123184
23.512491 112.06641 34.265182
2.3974876 86.35441 21.169184
3.4914894 87.91641 22.534184
2.3504868 95.372406 22.183184
2.5054893 96.56641 19.569183
3.9934883 68.41241 39.087185
3.2344894 66.874405 40.436184
10.957489 62.63441 1.7751808
9.908489 60.32541 2.2161827
14.494492 122.81341 6.7651825
15.464493 121.5574 8.454182
12.612488 123.36541 16.581184
14.864487 124.91041 16.305183
49.25749 103.37041 39.921185
47.33049 102.6264 39.028183
1.1754875 97.040405 33.324184
49.61749 96.13141 32.453182
35.951492 68.415405 35.19018
38.00549 69.65541 35.013184
44.11349 70.36941 32.911182
45.354492 72.16941 33.20418
19.05249 60.63641 15.8101845
21.310492 61.03141 16.280182
27.618492 64.34041 16.325184
28.04149 65.40541 14.440182
40.24849 116.289406 41.154182
39.86349 117.67141 1.0911827
38.07249 115.88541 9.654182
35.965492 115.49241 8.622181
7.426487 2.518402 26.873184
6.15049 3.252411 25.006184
8.04549 134.8164 20.479183
10.107487 135.21442 21.484184
49.80549 99.6414 2.1991806
50.11349 97.28441 1.7531815
3.5984879 98.42241 36.992184
3.4884872 97.24441 35.026184
7.0714874 35.60341 38.441185
5.461487 37.12641 37.965183
50.22049 35.85441 0.57518005
50.41049 36.30641 2.5361824
23.754492 78.303406 11.115181
24.949492 80.05141 9.734184
18.13849 83.10641 4.410183
16.90549 84.79541 5.3921814
42.91249 26.76941 27.673183
41.98849 28.53841 28.417185
33.47549 28.10441 29.350183
32.138493 28.32741 28.040184
42.826492 5.943405 29.691183
41.68849 4.0554047 29.147184
43.20349 136.95941 37.165184
45.63049 136.63242 36.993183
25.012491 72.41741 3.2771835
25.095491 72.43841 5.6941833
18.62149 66.332405 4.120182
19.088491 64.664406 5.106182
28.03449 54.53841 20.320183
28.338491 56.62441 20.344183
36.76249 59.15041 22.362185
38.17849 57.60941 21.752184
48.86849 91.84141 27.927183
48.73449 89.92241 28.172184
41.81749 85.63041 30.025185
42.826492 83.08541 30.107183
3.2184868 86.67241 38.111183
2.8974876 86.23141 40.373184
49.70049 87.858406 5.316181
48.08049 89.388405 5.3291817
25.032492 68.75541 24.861183
25.236492 70.14741 26.746183
30.264492 63.62641 29.754185
30.206491 63.67941 27.598185
29.101492 70.00741 4.4371834
29.955492 68.05641 2.5601807
23.358492 64.15341 41.678185
21.657492 64.48141 1.20718
34.54449 16.478409 16.412182
33.26549 17.249405 18.310184
34.47149 23.438416 13.593182
34.29949 26.064407 13.518181
7.0034904 58.71341 24.426184
8.294487 57.63741 22.893183
3.2914886 54.771408 17.159184
3.1404877 54.30741 15.153184
31.224491 39.38541 39.477184
30.375492 37.55341 39.107185
24.862492 39.72641 3.4521828
22.72549 38.89341 3.3681831
30.428492 99.28741 41.490185
31.168491 100.928406 40.295185
27.042492 100.68541 35.526184
25.62849 99.054405 36.466183
12.17149 41.81441 10.407185
10.0764885 42.80341 11.012184
5.077488 39.28541 16.196182
4.45549 39.47641 18.512184
43.02249 5.8814087 6.516182
45.215492 6.6114044 7.3171844
48.55049 10.615402 41.527184
49.91149 12.988403 41.353184
24.841492 31.231411 19.295183
26.70749 30.69241 21.128183
32.28749 36.70341 20.557184
33.26249 37.22841 22.874184
37.29049 46.72841 24.883184
36.68449 45.56841 23.217184
31.72549 39.78341 23.803185
29.69049 40.88541 25.052183
11.798489 24.86441 30.346184
11.58149 24.023407 31.959185
10.24049 16.419403 31.215183
8.56049 15.117401 30.154184
11.9324875 26.47841 32.719185
10.971489 26.21341 34.929184
3.5604897 31.10141 30.713184
4.20549 30.66941 28.443184
47.52249 50.00341 28.449184
48.61149 51.23841 29.825184
50.20649 45.61041 30.972183
48.23949 46.35741 32.122185
29.306492 49.96841 20.042183
28.814491 47.73241 18.951183
29.396492 40.45641 21.627184
31.303492 39.25541 21.154184
32.27249 89.17241 11.075184
32.51849 90.122406 8.885181
31.882492 81.79941 7.014183
33.72649 80.582405 6.09618
35.65149 56.49841 37.855183
34.49149 58.26241 37.630184
27.03049 54.19341 39.501183
25.65549 55.47841 40.536182
29.771492 6.530411 14.125184
28.564491 5.493408 15.439184
29.02349 2.6404114 23.023184
28.80549 4.041397 25.194183
42.43149 109.81641 6.7251816
41.23249 110.90741 5.3501816
46.84449 105.28841 1.3871803
46.37249 104.23941 41.327183
4.676487 9.75441 14.861184
5.042488 11.544403 16.495184
11.53149 4.0904083 17.981184
10.514488 2.7444 16.854183
40.00149 28.790411 13.671185
42.12049 28.49241 12.725182
42.229492 33.26841 17.648182
41.16249 34.95241 19.315182
14.468492 28.44841 22.124184
15.189491 29.52241 20.390184
24.92649 28.17741 19.696184
25.699492 27.99141 22.163183
10.589489 95.71341 14.804184
11.3074875 94.14441 16.621183
6.6804886 86.693405 19.173183
5.855488 86.00841 17.648184
5.263489 135.84142 30.448183
4.3334885 134.35242 29.266184
0.61148834 2.9573975 26.937183
50.26249 4.1044006 25.449184
13.58049 128.23341 30.259184
12.783489 128.61742 28.463184
7.4754868 134.19241 30.698183
7.1664886 135.64441 32.160183
27.89849 49.612408 28.677183
28.663492 51.44741 29.426184
36.37849 49.00241 26.151184
38.37149 49.46441 24.925184
0.9514885 99.443405 15.271183
2.075489 98.03541 14.129181
44.69849 97.71741 12.286182
43.44749 95.970406 13.106182
27.580492 41.70041 0.07718277
26.122492 41.04041 0.9531822
19.584492 36.70141 0.82718277
19.526491 34.65541 0.16418076
49.94649 72.290405 29.770184
50.07449 70.14541 31.230185
1.7474899 67.275406 38.231182
50.59449 66.32941 39.92618
8.14949 44.46141 40.021183
9.734489 46.17741 39.029182
13.721489 45.95741 30.818184
13.120491 44.334408 30.305183
22.469492 21.164413 33.814182
20.348492 21.274414 33.171185
15.2914915 21.225403 40.364185
17.113491 21.312408 0.04818344
12.90649 111.92741 25.433184
11.08749 110.30141 25.773184
9.93549 102.75341 22.005184
7.9184875 102.374405 21.918184
16.014492 27.415411 5.669182
17.640491 29.54241 5.479183
25.556492 28.20341 6.309181
26.93349 30.06141 6.259182
24.77049 15.928406 16.891182
23.851492 15.365402 15.064182
15.967491 19.258408 13.973183
14.851491 21.365402 12.894184
36.29049 54.29041 20.325184
36.493492 51.58241 21.128183
28.883492 52.26741 21.983183
27.428492 52.81141 23.432184
31.955492 0.66841125 9.387184
32.67249 136.7664 8.724182
31.22149 129.5084 3.70718
31.095491 128.42542 5.5841827
26.376492 96.957405 19.154182
28.23249 95.233406 18.349182
30.52349 91.13041 11.205181
30.57949 91.96441 8.937183
39.95349 34.28341 9.127182
38.32449 34.81041 8.318184
37.70949 28.83341 12.273182
37.70549 26.18341 12.546185
47.47149 12.766403 39.745182
46.23049 11.038406 40.234184
43.21049 17.821411 0.67718124
45.11249 18.311401 0.91218185
11.729488 34.83441 12.374184
11.334488 32.42541 12.211182
8.00349 25.606411 8.950184
9.147488 24.54841 10.381184
49.69949 128.36942 40.038185
49.11149 130.32341 38.356182
5.565487 132.3484 36.913185
7.336487 133.69641 36.270184
5.2364883 99.0024 11.369183
3.2394867 100.290405 12.400185
11.023487 103.8764 10.305183
10.45549 104.525406 7.9231834
28.865492 29.75841 30.668184
27.300491 30.30841 31.702185
26.59649 30.81141 38.726185
26.89849 30.48941 40.682182
50.37949 128.9994 21.873184
48.32549 129.6634 21.640184
48.60549 133.8634 29.791183
49.71649 135.46841 28.421185
34.99549 91.164406 26.585184
33.23049 91.2944 27.890184
29.042492 97.64341 30.684183
29.445492 98.29541 33.365185
38.81449 67.346405 5.827183
38.10749 68.67441 6.957184
45.61949 72.25941 6.2691803
46.83949 70.96541 7.6001816
43.42149 41.21841 22.254183
45.26749 42.09541 23.124184
44.07149 39.97841 31.727184
43.24049 38.27841 30.600183
46.70249 102.52141 29.038183
48.00349 102.39741 31.350183
42.153492 100.92441 38.810184
42.85749 98.86941 38.966183
33.167492 75.886406 29.153185
34.437492 76.82641 27.406183
41.85049 72.067406 26.941183
43.00249 73.28541 27.903185
20.640491 120.36941 38.434185
22.724491 119.43641 40.238182
26.715492 119.84341 32.920185
26.20149 119.249405 30.932184
23.671492 77.15741 21.778183
21.783491 75.511406 21.337183
15.886491 71.74641 24.196184
14.635491 70.456406 25.929184
43.62849 28.83141 26.033184
42.75849 27.59641 24.069183
33.673492 28.38341 25.038183
32.243492 26.45441 24.046185
10.112488 79.20441 9.108181
7.8264885 78.72541 9.524181
3.4844894 85.81441 12.638184
5.1614876 86.96441 14.033184
22.785492 99.40741 17.801182
21.234491 100.86841 17.282185
20.39249 101.18741 11.349182
18.304491 102.17141 10.6141815
34.41949 133.75241 17.557182
32.826492 134.1074 15.649181
31.856491 2.7593994 13.475182
33.12249 4.127411 12.156181
17.84649 130.3464 16.251183
19.271492 132.26541 15.922184
25.41649 132.8854 10.797184
27.47149 131.67441 10.693184
24.01049 22.178406 9.555183
23.637491 20.56041 7.398182
30.160492 14.873398 6.441181
31.67349 16.001404 4.979183
14.835487 11.668411 7.2351837
14.8834915 9.844406 8.575184
14.0574875 7.872406 15.510181
13.209488 8.64241 17.859184
38.64049 134.00941 29.180183
37.30949 135.2924 28.353184
39.08449 3.9934082 33.684185
37.74449 4.3414 35.017185
47.367493 74.249405 10.054184
48.35449 74.49041 12.054184
47.16149 82.53241 14.932182
47.87149 82.46841 17.327183
6.6644897 95.27241 16.604183
4.3904877 95.41141 17.143185
1.7154884 86.86741 15.117184
50.92949 86.20541 16.172184
31.387491 29.78741 0.7011833
28.931492 29.87241 0.4321823
29.48249 36.38641 7.497181
28.09649 34.88141 9.123184
38.50349 87.25341 13.288184
37.368492 88.720406 14.186184
35.889492 92.11841 20.450184
36.15449 91.74241 22.570183
18.47249 56.62441 16.776184
20.481491 58.09241 16.648184
19.18049 53.67341 24.203184
20.32949 52.99541 26.143185
19.054491 133.37141 38.792183
17.955492 133.6614 37.450184
19.20049 124.3074 37.505184
21.03049 124.57741 36.455185
22.89949 136.57841 30.474184
24.942492 136.23941 30.650185
29.65249 136.89742 34.661182
29.174492 0.5884094 35.878185
5.9374886 56.50941 6.757183
4.1144867 55.80841 8.152184
50.56749 50.58541 7.1001816
48.58349 51.05841 7.2301826
47.99949 59.07741 4.6241837
49.75649 58.58041 5.615181
2.8164902 56.78841 12.693184
1.544487 55.612408 13.607182
25.337492 90.32741 11.606182
23.393492 90.13441 11.127182
19.47249 85.49541 18.647182
19.417492 87.07141 20.056183
28.068491 45.74241 29.689184
27.70049 48.15541 30.939184
19.591492 43.62241 32.096184
17.856491 43.93741 34.231182
24.373491 83.31641 12.312183
23.785492 84.91241 12.342182
20.92649 90.387405 10.526184
21.14549 91.54841 8.768181
21.88849 50.40841 0.09118271
22.807491 51.31941 39.934185
21.863491 49.93541 33.417183
21.109491 51.99741 32.532185
4.6854897 76.30641 1.5931816
4.4934883 78.05541 2.5391808
48.36749 76.67641 6.132183
47.409492 74.56341 6.1441803
40.37849 134.8704 4.82518
39.37649 132.56142 5.1491814
46.29349 129.0274 41.714184
46.951492 130.6224 39.743183
25.372492 70.17041 17.229183
23.407492 70.763405 18.052183
18.507492 62.30841 19.972183
20.002491 61.30241 18.512184
34.26049 43.51841 11.958183
36.229492 42.74041 12.775185
36.05649 35.97141 6.941181
33.90649 36.56541 5.3691826
46.19849 108.512405 19.015184
45.08849 110.18541 20.094183
44.416492 116.486404 19.779184
43.17449 118.2654 19.269184
36.639492 30.35741 33.168182
38.34449 30.83841 32.837185
42.33049 23.30041 34.869183
44.53149 22.96441 34.880184
27.61449 64.41741 35.201183
30.279491 63.52541 34.819183
27.57249 55.31241 33.032185
29.868492 54.02541 32.247185
28.047491 127.777405 25.715183
29.870491 126.6824 26.065184
33.04449 133.75241 30.457184
34.15549 134.20341 32.372185
11.87249 101.11641 21.854183
13.363487 100.24241 23.596184
17.017492 107.38441 26.217184
14.975487 108.112404 26.812183
42.95049 67.94741 4.9561806
44.71649 66.98241 4.7041817
44.62349 69.58641 13.083183
46.13749 70.858406 12.219181
11.868491 12.47641 23.121183
12.884491 14.7344055 23.072184
20.262491 15.414398 19.126184
19.68349 13.003403 20.046185
27.884491 63.46941 23.130184
27.35749 63.42941 25.100183
21.19749 63.00241 30.904184
20.64849 65.05041 31.791183
45.17049 44.23441 13.860184
44.520493 46.341408 13.790184
35.826492 46.966408 14.0151825
36.48249 45.52241 11.869183
26.717491 9.474411 38.248184
26.251492 9.2854 35.54418
28.244492 17.990402 35.383183
30.22149 17.611404 34.962185
30.11049 25.92441 1.8881836
31.404491 26.91241 0.74718094
34.43149 28.86641 34.624184
33.43949 29.98541 33.119183
25.87849 115.553406 27.317184
27.269491 114.03441 27.495184
22.47249 111.109406 21.513184
22.63849 112.17341 19.491184
29.549492 93.86941 21.684183
27.76049 93.03841 20.282185
32.610493 91.42341 12.891184
32.88649 93.638405 13.011184
13.188492 94.65741 30.086184
13.235489 96.844406 31.364183
4.061489 97.4044 32.490185
3.1274872 95.469406 31.995184
22.057491 107.3074 41.293182
20.595491 105.67141 0.24918365
19.23549 110.539406 8.936184
21.248491 109.24541 9.896183
14.05249 9.9874115 36.845184
11.890488 9.434402 36.509182
6.8454895 14.673401 40.236183
5.0974884 15.878403 40.03018
23.34349 86.609406 25.232183
23.94049 84.91341 26.531183
31.379492 89.29941 28.551184
32.91849 89.53241 30.006184
0.47848892 80.873405 30.131184
49.97349 82.69041 30.267183
0.2774887 87.10341 25.376184
0.06548691 89.06041 23.945183
41.91949 43.89241 39.179184
43.59549 44.57441 39.979183
1.1124878 44.70141 39.233185
0.9464874 46.93441 38.018185
26.06249 76.27341 23.162184
28.15549 76.26441 24.334185
27.820492 73.47341 32.180183
30.223492 73.00941 31.857183
28.28449 32.74041 39.707184
29.502491 34.111412 38.897182
36.14849 35.94141 3.5331802
36.89749 34.06741 4.9301834
39.646492 63.45941 22.706184
41.71349 63.993412 23.135183
49.71649 65.25341 20.188185
50.39849 64.94141 18.452185
15.750491 93.39941 1.1471825
17.536491 92.53641 41.282185
25.674492 93.11741 1.5501823
24.790491 91.59241 3.3761826
29.82949 76.17641 39.96818
29.841492 77.46241 38.050182
35.86349 83.50241 39.612183
33.60249 84.62141 39.453182
22.870491 24.585403 35.239185
24.81949 23.700409 36.175182
21.401491 17.612411 40.642185
19.370491 18.346405 41.009182
16.983492 64.14541 24.303185
18.578491 64.56941 22.876184
17.689491 69.67541 17.353184
16.79149 69.179405 15.391184
25.06549 92.00641 34.077183
22.963491 92.19041 35.348183
28.20749 97.05241 40.417183
29.130491 96.832405 0.42518234
21.053492 130.6394 17.371181
21.414492 128.67342 15.999184
30.324492 132.24341 14.359184
30.99249 132.58641 16.954182
47.66149 97.05141 0.37218094
48.58749 98.264404 41.003185
42.08549 97.2664 34.418182
43.29949 97.748405 32.238182
50.50349 130.79941 12.070183
50.06149 131.35841 13.684181
45.58749 136.1334 18.647182
45.14249 137.8764 19.535183
16.34049 41.76141 18.486183
15.739487 39.88441 18.651184
9.87249 35.90041 14.467184
9.739487 34.29941 16.338184
0.41148758 10.955399 14.932184
2.2784882 11.520401 15.966184
3.8144875 14.460403 24.641184
5.5054893 15.9254 24.519184
3.9994888 110.957405 33.439182
4.452488 112.650406 32.025185
3.1454887 120.12841 34.582184
5.3404884 120.96841 34.838184
37.874493 9.644409 38.507183
37.81149 10.0074005 36.230183
35.22849 17.853409 34.201183
33.22449 17.539413 32.857185
33.92949 115.85641 25.510183
35.319492 116.681404 24.757183
43.55049 118.207405 25.565184
43.875492 120.20141 23.892183
43.37949 66.25641 36.300182
42.86449 68.32241 36.450184
36.14349 70.984406 38.509182
36.60349 71.60541 36.077183
38.16449 56.327408 14.369183
36.17849 55.41241 13.480183
30.730492 60.28041 8.923183
29.828491 62.56841 9.615181
11.894489 101.42241 10.288181
14.156494 100.81541 9.683182
15.3454895 104.82841 2.2021828
12.8714905 105.721405 1.5221825
10.127487 125.61741 6.688183
12.090488 126.77341 7.6261826
18.39749 125.45541 2.910183
18.829489 127.429405 3.1921806
22.061491 7.072403 29.858185
20.293491 8.240402 29.169184
20.755491 13.5074005 22.535183
21.602491 15.213409 21.641184
25.24649 137.43541 9.037182
24.48949 1.0664062 7.8071823
29.775492 5.6394043 10.668182
31.878492 6.4374084 11.805183
28.35749 28.754406 12.302181
29.995491 26.949398 12.344181
27.073492 19.496414 13.973183
27.210491 21.087402 12.445183
2.023487 67.57341 25.367184
3.6254883 66.80141 23.633184
7.3924904 71.31641 17.749184
6.424488 71.344406 15.726184
26.792492 17.166412 15.818184
27.752491 16.26941 14.018181
27.78749 9.801407 10.745182
27.762491 7.650406 10.344181
10.215488 116.819405 41.391182
9.75349 119.237404 40.934185
3.5034904 120.639404 5.938183
3.1514893 122.75941 5.6871834
15.698491 105.247406 8.8641815
17.928492 104.945404 9.820183
18.99949 100.68741 2.6581802
18.796492 101.234406 0.95918274
7.2724876 131.97641 20.460184
7.8454895 131.6524 22.880184
7.535488 123.34041 20.082184
6.589489 124.525406 17.626184
6.0454903 18.167404 1.3531799
6.5004883 18.189407 40.971184
2.6874886 22.818405 34.627182
1.419487 21.370407 33.731182
24.38149 109.094406 0.068180084
23.143492 109.66041 40.364185
19.577492 114.55941 35.576183
20.056492 116.291405 34.340183
2.99049 110.36541 5.377182
1.0314903 108.72641 4.983181
48.59449 103.2104 1.2701836
48.00749 102.06241 2.9771805
17.518492 98.44941 32.418182
15.896491 97.61741 31.281183
13.942492 92.00341 32.324184
13.250491 90.247406 32.748184
49.76949 78.915405 30.429184
0.78948975 78.304405 31.380184
3.181488 74.46141 37.703182
2.4634895 74.54741 39.631184
46.47349 54.89941 26.987185
45.94949 54.91141 29.488184
38.68449 59.37141 28.168184
38.826492 61.604412 29.984184
12.07349 119.30041 8.281181
11.936489 118.21741 10.133183
8.53149 122.53841 17.819183
7.3194885 121.03541 18.450184
21.91949 19.501404 9.307182
23.490492 19.848404 10.717182
24.719492 27.048397 10.924183
26.817492 26.849407 10.883183
26.123491 81.47741 11.636181
24.654491 80.34241 12.728184
22.74949 77.36341 19.220184
21.039492 76.56141 18.907185
47.78649 61.583412 2.4511833
46.32849 59.70941 2.83218
48.51749 57.278408 36.574184
50.83149 58.37741 35.591183
30.241491 20.196411 36.259182
28.38149 21.0354 35.435184
26.111492 27.88641 32.686184
26.32949 28.16441 30.486183
16.907492 66.04141 15.200184
18.345491 66.92041 13.744183
27.290491 69.00041 12.287182
26.929491 69.94941 9.865181
1.9334869 95.15741 29.362185
0.5004883 96.72541 30.137184
47.41549 93.611404 22.794184
46.70249 91.820404 24.028183
23.55849 93.00741 21.088184
22.63549 91.23941 20.186184
18.94049 91.75741 11.581183
18.30849 89.72341 12.202184
3.061489 26.39341 2.1141815
2.47649 27.49341 0.653183
1.9214897 34.52441 6.5361824
3.8244896 33.55141 7.356182
33.47749 78.89641 20.926182
33.57849 79.73141 18.825184
31.077492 81.749405 12.168182
31.02049 80.09841 10.029182
44.81749 61.36241 28.349184
