6.115795 93.99016 21.782932
36.902798 90.19315 18.529932
38.5958 90.441154 17.512932
44.411797 84.40315 16.483932
44.256798 83.287155 18.039932
38.0888 129.69716 6.864933
39.868797 129.95015 5.8779335
38.205795 124.84816 39.33393
35.8308 125.52116 38.545933
48.003796 107.27016 36.01493
47.659798 106.85316 38.359932
40.853798 106.11615 34.753933
38.4628 105.38915 34.727932
45.101795 46.344147 7.1329346
44.869797 43.987152 7.015934
38.959797 46.370148 0.58893204
39.576797 45.994156 39.35393
4.329796 18.90216 36.77993
5.3527946 16.508148 36.587933
53.228798 15.98616 31.42593
51.215797 16.761154 32.09793
20.762793 42.344147 20.294931
19.072798 41.092148 21.09093
16.480795 34.10515 17.971931
18.310797 34.18515 15.8329315
2.1947937 75.79415 15.501932
54.569798 76.11215 15.134932
48.7068 74.983154 21.564932
48.743797 72.800156 19.662931
31.244799 65.51515 22.273932
31.518799 65.79716 20.331932
28.775799 70.71216 13.939932
29.561798 72.41615 14.520931
13.538797 128.17516 7.1019325
14.4648 126.42016 8.0219345
17.939795 130.92615 16.296932
16.480795 132.55515 16.628933
20.4998 38.522156 27.234932
22.071798 38.936157 28.881931
21.157797 41.09616 23.082932
23.5148 41.125153 23.28193
21.1258 35.76216 28.61893
20.8758 34.745148 30.56093
29.016796 37.90915 32.55493
29.014797 40.04416 31.59893
52.478798 79.15215 31.88293
50.565796 78.96416 30.80693
49.162796 87.64616 31.850931
48.868797 87.065155 33.981934
2.2077942 131.16515 12.330933
3.6467972 0.30316162 12.094933
0.99279404 8.95816 10.314934
3.0857964 8.843155 10.136932
41.708797 82.68416 32.84893
41.910797 80.941154 34.60493
38.3588 73.51315 32.906933
39.573795 71.83716 34.393932
14.6938 106.36215 25.532932
14.677797 106.28015 27.704931
13.619799 113.49316 32.69493
11.998796 113.75015 31.311932
16.747793 80.205154 36.831932
16.476797 80.466156 34.70793
18.9578 83.912155 31.502932
20.997793 85.483154 32.39093
34.744797 53.630157 36.41693
36.529797 53.969147 37.94393
37.668797 58.31817 4.871933
36.098797 57.079155 5.404934
23.345793 9.347153 15.555932
24.714796 7.7781525 15.761931
18.738798 6.813156 21.873932
20.080793 8.013153 22.339931
42.978798 80.96015 40.19693
44.1798 79.57215 40.122932
42.106796 72.802155 2.786934
41.3118 71.90716 5.1699333
33.339798 55.13315 20.575932
33.631798 57.298164 19.38993
30.8098 54.40515 13.536932
30.731798 53.660156 11.3069315
46.673798 92.15916 25.55693
45.627796 91.16715 27.315931
42.117798 83.44415 30.35893
42.242798 85.176155 31.77993
3.8497963 32.87416 3.2749329
3.690796 33.15416 5.300934
50.673798 32.354156 3.4679337
50.059795 31.75116 1.2229309
45.268795 4.717148 14.670932
46.0338 2.7641602 14.116931
38.510796 130.53215 10.324932
39.685795 131.20015 8.714935
6.3027954 74.65616 1.8889313
6.676796 73.967155 4.2059326
53.035797 70.93115 4.8899345
50.926796 71.96116 5.024933
2.1197968 58.59516 32.289932
4.042797 57.99816 33.38193
7.9637966 52.426147 37.740932
7.773798 52.24115 40.031933
27.2768 74.93015 18.178932
28.1398 73.76615 16.626932
23.878798 67.16715 14.994931
26.045797 66.95116 14.525931
13.6357975 31.441147 37.574932
14.7768 33.102158 37.148933
17.4578 38.319153 35.616932
17.246794 38.830154 37.61793
15.064798 12.097153 7.2479324
14.7148 13.398148 8.924934
19.674795 7.7571564 13.323932
20.780798 7.169159 15.368934
34.1168 63.46917 26.297932
35.696796 63.30117 28.196932
39.340797 70.16916 25.040932
38.014797 71.213165 24.46993
20.983793 37.102158 23.773932
20.288794 38.92415 24.568932
17.559797 38.755157 29.961931
15.951799 39.62915 31.165932
44.750797 127.97816 27.140932
44.132797 127.662155 25.192932
43.431797 4.215149 26.387932
41.758797 4.2251587 27.18493
3.299797 112.177155 4.401932
4.556797 112.27615 6.0809326
7.698797 112.81216 9.6469345
8.937799 111.44415 9.273933
3.1827965 78.14416 15.666932
4.9277954 77.27116 16.909931
7.1477985 80.022156 24.52893
5.589798 82.08816 24.548931
54.676796 6.2801514 22.89393
54.083797 8.405151 22.987932
5.1517944 8.211151 30.958931
6.749798 9.299149 30.447931
53.666798 106.536156 26.513931
53.698795 105.76715 24.387932
53.711796 114.14516 21.659931
51.9568 115.119156 22.95593
33.826797 22.564148 27.640932
33.069798 21.467148 25.36593
32.425797 28.933151 21.40393
33.807796 30.087158 20.487932
27.009794 113.89415 26.742931
25.8328 112.61215 25.907932
26.577795 104.82015 21.480932
24.494795 104.91515 22.55293
45.011795 82.495155 13.021932
46.209797 82.72415 14.968932
50.029797 75.539154 12.268931
51.806797 75.17116 12.390932
15.8818 122.74916 9.264935
17.612799 123.18316 7.9869347
24.128798 127.76416 10.503933
23.274794 127.914154 12.235935
30.5108 131.40616 10.035934
32.480797 131.79915 9.612934
33.980797 7.5751495 9.826935
34.640797 8.623154 8.135933
40.980797 36.328156 12.270935
39.860798 37.740158 12.936934
43.438797 44.03116 9.288933
45.467796 45.56015 9.516933
35.3178 36.28116 11.578934
34.009796 35.401154 10.052933
40.441795 35.93315 4.2439346
38.478798 36.520157 3.5729332
54.083797 58.314156 22.53593
0.15579605 59.188164 20.75093
54.342796 55.342148 13.954931
52.826797 54.898148 13.067932
15.590799 47.71216 12.538932
16.866796 47.107147 14.242931
11.316797 49.416153 20.935932
12.6167965 49.518158 22.595932
1.7467957 38.93515 27.388931
2.2087936 40.857147 26.35893
53.284798 48.23015 28.940931
53.5478 48.38716 26.64393
5.247795 117.621155 8.242935
4.181797 118.438156 6.2129326
0.83579636 123.81916 11.830933
1.9647942 122.706154 13.462932
17.185797 2.8051605 12.148933
15.705797 4.1061554 12.159935
9.524797 131.09415 8.266933
8.111799 130.05916 9.564934
39.455795 73.926155 5.248932
39.006798 72.82516 3.1319313
42.370796 77.21216 38.843933
42.344795 79.608154 37.967934
52.890797 121.32316 13.549932
51.771797 123.328156 14.314932
52.201797 127.63715 21.848932
52.849796 129.53316 21.437931
35.0048 88.966156 24.72693
33.000797 87.980156 24.97693
27.4938 94.53216 20.43493
27.754799 95.898155 22.072931
31.999798 27.918152 30.77993
32.174797 26.356155 32.080933
31.174799 20.209152 36.016933
30.548798 20.311157 38.727932
44.904797 44.987152 34.559933
46.124798 44.98816 32.52893
48.4428 36.664154 28.82493
46.725796 35.289154 30.22793
14.838797 95.83415 4.569935
13.532797 94.64015 3.3989334
17.7508 89.51415 37.844933
18.803793 87.96316 38.35393
12.4917965 91.730156 3.555931
11.584799 93.24116 1.8079338
15.136797 89.99316 36.67393
16.282797 89.14115 35.03493
37.437798 128.26816 10.034935
35.510796 129.80315 10.135933
31.891798 123.70016 7.649933
29.523798 123.26916 7.406933
34.287796 90.32115 30.52993
34.854797 91.84016 31.749931
39.455795 85.34016 37.580933
37.4778 85.26315 38.384933
18.003798 1.265152 10.128933
16.441793 131.98415 8.579933
25.367796 130.83516 6.4509354
26.2908 0.14715576 5.1469345
36.570797 98.48915 40.70993
35.093796 96.425156 39.989933
34.853798 88.398155 36.91793
32.9068 88.703156 38.08493
12.025797 116.97415 40.11793
10.320799 115.802155 38.690933
2.8487968 122.48716 40.41593
4.113796 123.774155 0.9689331
0.1737938 31.689148 30.634932
2.4947968 31.915161 29.94693
9.064798 27.691147 29.863932
9.905798 28.481155 27.562931
33.1928 103.594154 15.544931
30.919798 103.20815 15.302932
26.842798 95.90415 13.807932
25.8028 96.33715 12.135932
37.957798 80.51716 7.251934
37.7208 81.62715 5.3969345
46.006798 81.38016 6.3519325
46.536797 79.02116 6.0189323
4.3337936 19.80716 14.343932
5.7037964 17.65416 13.293933
12.899797 22.481155 9.875935
14.942797 23.104156 10.700935
0.7227936 71.54315 29.60293
54.600796 70.49016 28.07793
46.062798 66.719154 27.475931
47.841797 65.508156 26.283932
42.123795 103.73915 30.363932
42.743797 101.455154 29.75193
40.021797 95.02915 30.00193
38.997795 93.03115 30.38993
40.907795 26.933151 24.988932
40.889797 27.455154 22.998932
48.176796 31.79515 24.598932
48.928795 29.72615 24.304932
25.7778 129.63016 20.241932
25.474798 130.93216 21.90393
26.816793 5.8081512 20.057932
28.561798 5.385147 20.80993
53.298798 102.72515 7.0969353
53.305798 101.65215 4.913933
5.1727943 101.54916 8.793934
5.5477943 103.580154 9.597935
28.719795 52.658157 13.578933
28.081793 52.76216 11.131935
24.7498 59.516167 11.811935
25.696798 61.14016 12.2909355
40.192795 96.50716 20.885931
38.963795 98.07215 21.44893
35.905796 102.65415 26.949932
33.690796 101.55715 27.54593
1.9437943 77.303154 10.676933
1.5357971 79.13715 12.472935
49.156796 77.399155 9.925934
49.656796 75.690155 8.780933
43.423798 46.811157 33.48693
41.961796 47.52115 35.343933
42.781796 55.319153 32.49493
44.326797 54.785156 31.578932
45.606796 67.54016 33.601933
47.669796 68.67015 33.88393
53.546795 62.550163 29.885931
52.578796 60.76217 29.24193
41.323795 17.34816 10.729932
41.644794 16.06215 12.186932
36.2968 11.248154 16.607933
34.635796 11.845154 18.28893
42.187798 128.76416 13.202933
43.228798 127.12315 14.648932
43.338795 125.08416 7.2229347
44.9428 125.02816 6.270935
26.813795 130.05415 25.10893
25.598799 129.95915 26.703932
18.9018 2.9771576 25.186932
17.030798 1.5591583 24.578932
35.055798 11.418152 35.90893
33.8808 12.156158 37.42493
40.482796 14.781158 0.20293427
42.069798 16.37416 40.59693
34.267796 48.369156 31.843931
32.3238 46.91716 31.912931
25.522799 52.035156 37.39793
25.454798 50.718155 39.162933
41.108795 128.46016 17.795933
40.900795 126.58416 18.638931
48.6168 124.69416 21.687931
50.135796 123.39316 20.873932
5.454796 118.87815 30.22993
6.179798 120.314156 29.10293
5.754795 120.466156 21.21993
5.1147957 122.75316 20.494932
8.937799 85.06815 2.090931
7.9897976 84.815155 0.12593079
8.347799 87.00215 32.84093
9.746798 88.82215 32.356934
36.8588 114.108154 24.383932
34.953796 112.24115 23.933931
30.2508 117.344154 23.97293
28.2088 117.11716 24.783932
53.3178 76.011154 0.81093216
54.210796 77.663155 40.349934
7.3127995 78.44816 40.53693
7.2017994 76.303154 40.384933
7.8557987 102.32315 22.355932
5.0337944 102.45815 22.064932
0.99479675 99.34915 29.510931
0.49279404 97.29816 28.758932
29.012798 5.4031525 35.712933
29.675798 4.238159 34.29093
33.6718 130.60416 38.33293
31.231798 130.88315 38.84093
35.035797 119.85416 28.213932
36.870796 119.55515 30.18593
41.870796 125.065155 34.39493
43.557796 124.43216 35.92993
45.822796 57.031166 35.76393
43.966797 58.132164 34.947933
35.9848 59.661156 37.046932
35.1568 61.107155 35.162933
27.748793 103.83615 19.203932
25.436796 104.26715 18.020931
29.411797 105.690155 11.947931
28.460796 107.23415 13.242931
33.607796 132.14615 29.203932
33.501797 1.4441528 29.951931
36.967796 127.871155 35.79793
36.930798 128.82315 38.037933
44.021797 35.84816 11.9979315
44.007797 34.65016 13.576932
49.435795 29.56015 18.808931
47.480797 28.623154 19.825932
5.6737976 131.87215 35.664932
5.655796 131.22415 33.29393
53.752796 1.7741547 30.055931
52.403797 132.23015 28.92793
14.884798 52.52916 7.6819344
13.532797 51.66516 8.667934
10.066797 47.35016 11.262932
12.109797 47.37416 11.884933
22.172796 85.00115 18.549932
22.962797 83.66815 16.564932
24.779799 77.18015 18.859932
24.793798 75.23915 19.21993
13.312799 54.380157 29.575932
12.912798 52.619156 30.99793
7.9117985 51.60515 23.98693
7.5457973 53.158157 23.16093
19.171797 16.16716 25.753931
18.802794 16.720154 28.078932
17.969793 17.768158 34.053932
19.324797 20.044159 34.91093
48.299797 53.046158 30.083931
47.246796 54.99315 30.57393
43.689796 57.90316 32.183933
41.424797 57.710167 31.57093
53.3528 22.592148 22.888931
52.864796 21.068161 21.11893
49.261795 27.537155 17.123932
46.802795 27.009155 17.860931
3.7987938 106.19415 29.152931
3.7127953 107.60015 31.11893
50.218796 108.89215 34.011932
51.689796 110.634155 35.30593
50.148796 91.482155 14.501933
48.486797 90.82115 14.481933
46.271797 88.44315 5.555935
48.521797 88.83916 4.0719337
24.129797 3.1541595 1.6059341
25.123793 5.191147 1.6539345
30.087795 5.3761597 38.608932
31.447796 6.7781525 38.26593
26.635794 32.73616 8.4159355
25.5558 30.70015 8.088932
26.490797 23.257156 6.2389336
27.352797 20.91716 6.251934
25.577799 50.38716 23.246931
28.364798 49.40416 23.144932
34.453796 47.28015 29.65693
35.689796 49.26616 29.524931
27.909798 47.47815 40.43093
29.571798 47.12915 1.0009308
37.718796 48.87715 40.77893
39.437798 50.18416 0.7439308
43.780796 66.538155 11.904934
43.110798 67.94315 10.756935
50.398796 69.15916 5.383934
51.691795 67.43616 5.8519325
12.794798 107.733154 24.079931
13.299799 106.25716 22.369932
17.705793 111.663155 18.364931
18.675795 112.94715 19.754932
50.175797 60.159157 11.936935
48.7698 58.257164 10.434933
52.368797 64.85917 4.878933
0.18479538 65.04717 4.9749336
19.119795 20.875153 37.61293
18.391798 20.14215 39.960934
17.645796 26.465149 4.6919327
17.154799 27.760147 2.8399315
36.4298 7.3721466 5.7179337
36.447796 9.276154 6.204933
35.978798 10.646149 38.524933
35.6868 8.660156 37.247932
23.233793 31.93016 28.88093
21.518797 32.441147 27.703932
25.698797 32.66916 19.873932
27.8198 32.523148 20.141932
26.176794 59.544167 2.904934
26.989798 59.63816 0.68793106
18.217794 61.047157 37.80493
18.128798 59.745155 36.434933
40.800797 17.031158 37.203934
39.302795 18.091156 36.357933
37.2138 13.012161 29.315931
36.482796 10.531158 29.78193
13.954798 10.399155 3.3489342
11.6588 10.2261505 3.489933
9.640799 6.342148 36.29393
9.083799 4.3251495 37.842934
27.446798 5.822159 29.48393
25.809797 4.536148 29.83893
28.418797 1.164154 21.55693
29.001797 131.71515 21.700932
13.719797 115.787155 31.17893
14.535799 116.260155 29.18993
22.201796 112.316154 30.284931
22.006796 109.758156 30.47393
53.326797 96.594154 26.231932
53.5548 98.89215 26.62293
45.237797 101.245155 21.380932
44.437798 102.19515 23.33493
24.893797 24.415161 8.067932
22.7778 24.356155 6.730934
15.481798 26.375153 9.4039345
15.5268 24.327148 8.2789345
38.224796 66.03817 16.397934
38.558796 66.656166 14.385932
40.863796 65.71017 7.1019325
43.219795 65.05616 6.7809334
34.292797 114.051155 8.826935
33.5888 113.76715 10.632935
33.5338 105.41815 12.495934
31.5698 105.44815 13.632934
7.9797993 97.26215 1.6399345
7.106798 99.16715 1.9039345
4.935795 102.80715 34.49493
5.4137955 100.91615 33.65493
43.188797 70.48915 36.338932
41.988796 70.32315 34.726933
37.1158 64.40116 38.532932
38.8118 62.74717 39.217934
30.0318 109.41016 5.0619354
31.409798 109.39516 3.2859344
40.462795 108.50315 2.8099327
40.951797 110.72115 1.9229317
8.9917965 132.58415 24.20593
10.602797 131.07315 24.701931
12.275797 124.43416 18.394932
10.6588 123.11116 18.268932
35.245796 130.24515 13.238932
33.138798 130.61716 14.256931
25.6328 126.35116 12.183931
25.886799 128.36116 13.485931
27.071798 72.68616 10.712933
29.270798 71.23515 10.860935
23.849798 68.06116 3.876934
23.590796 70.47115 3.475933
36.028797 113.761154 6.7859344
37.000797 113.233154 8.486935
35.834797 105.065155 10.197933
34.082798 104.83415 8.7909355
2.9187965 96.30715 31.975931
0.89079666 97.232155 31.482931
50.393795 91.51415 34.449932
50.238796 89.67015 33.461933
7.6857967 67.636154 21.866932
8.6868 66.36617 20.31693
16.978796 62.92617 23.25093
17.356794 62.060158 20.67093
37.450798 41.83516 12.9579315
36.628796 42.194153 11.128932
32.577797 47.720154 16.472933
34.0528 49.115158 17.946932
9.970797 19.97116 2.2149315
8.011797 19.274155 2.1579323
9.835798 12.121155 7.9679337
11.501799 11.499161 5.9349327
47.083797 77.12415 22.033932
47.035797 77.480156 19.393932
47.171795 70.704155 18.387932
47.975796 68.89116 17.072931
31.9378 20.511154 17.306934
29.976799 20.882156 15.828933
31.008799 17.543152 7.4649353
30.558798 15.371155 7.831932
4.683796 18.602158 39.649933
3.9817963 20.26616 39.483932
1.1267967 21.85115 7.4489326
54.147797 20.666153 6.8619347
54.7698 25.14116 21.971931
53.009796 26.316147 22.026932
2.122795 29.094147 15.401932
2.813797 31.147156 15.974932
36.147797 29.70816 21.963932
34.1778 29.056152 23.442932
32.294796 31.344147 30.37393
32.564796 31.61316 32.54793
29.953798 22.743149 18.005932
28.532799 23.679153 18.806932
31.114798 19.053162 19.959932
29.265799 18.442154 18.428932
27.1248 99.28315 34.164932
24.996794 98.509155 33.72193
21.042799 92.57516 29.415932
21.5968 91.192154 31.34893
4.775795 15.022156 38.710934
6.242798 16.028152 39.823933
6.924799 9.592148 5.0169334
8.022799 7.467148 3.8209343
42.500797 80.94515 28.149931
40.946796 81.399155 29.26593
33.341797 76.52016 32.206932
33.967796 74.72115 32.62493
33.794796 120.79616 21.356932
32.7968 119.22715 21.994932
30.277798 114.26615 15.844932
30.9588 113.93015 13.623932
0.67079544 61.451164 32.592934
0.7667961 63.565163 31.47093
7.2677975 69.31116 33.16693
6.3737946 71.511154 34.463932
8.023798 122.29716 20.093931
9.807798 122.357155 20.950932
8.3948 116.67115 27.492931
8.458799 114.83615 25.884932
29.075798 46.07315 4.267933
31.165798 46.845154 3.4059334
31.438799 53.539154 3.5119324
32.350796 55.497147 3.5469322
4.612797 9.051147 35.484932
2.9477959 9.191147 37.023933
6.0087967 3.3111572 1.7119331
4.8697968 1.7201538 1.3039322
49.280796 111.68215 38.14493
49.143795 111.84016 35.49293
54.308796 118.37615 36.634933
53.8528 120.28116 34.663933
35.4428 86.856155 39.301933
37.100796 87.581154 39.699932
33.551796 94.092155 3.5429344
32.725796 96.09715 2.515934
8.432798 64.72817 30.30793
8.891798 67.24815 30.71693
2.280796 65.19616 28.912931
1.6867943 63.27517 28.74793
13.743799 30.699158 2.8159332
15.6167965 29.944153 1.701931
24.440794 31.179153 0.86193085
24.830793 29.459152 40.350933
6.6267967 67.019165 24.450932
7.813799 65.27616 23.142931
2.660797 60.02717 20.772932
2.8397942 58.56716 19.621931
10.9648 46.526154 36.503933
8.975798 45.79915 35.82193
7.6588 39.000153 32.581932
8.017797 37.245148 32.17393
47.3318 115.44415 33.238934
45.383797 116.47816 33.899933
42.105797 112.69915 39.85493
39.777798 111.62615 40.288933
13.0208 105.04315 8.844933
11.696798 104.12415 10.722935
14.076799 95.452156 10.823933
15.148798 95.58515 9.212933
32.272797 63.70617 9.709934
30.7508 62.399162 10.884933
28.450798 58.01116 3.4539337
29.9418 56.76716 3.1019325
28.137798 131.40414 7.076935
29.8478 131.77216 7.4149323
33.9918 130.22916 0.24693298
35.792797 130.57216 40.322933
46.346798 32.68515 4.564934
48.014797 33.020157 2.5949326
48.461796 36.30815 37.88093
50.2488 36.14415 36.91593
42.103798 14.392151 37.76293
42.734795 13.839157 39.97293
39.091797 4.943161 40.79093
37.300797 5.166153 1.6909332
20.273794 1.2521515 29.555931
21.520796 2.5591583 30.69593
27.629797 4.318161 32.106934
27.116796 6.2771606 33.928932
15.063799 70.66715 25.61893
13.140799 72.43716 25.172932
6.0247955 72.078156 21.496931
4.983795 72.22616 23.50793
22.931799 111.28215 21.179932
23.140799 113.00716 21.869932
31.107796 111.746155 17.425932
31.237797 111.369156 15.277932
42.287796 94.053154 28.380932
40.488796 92.93716 28.266932
39.547794 84.57315 29.83493
39.041798 84.787155 32.06393
34.9568 24.711151 1.588932
33.4908 26.134155 0.21193314
25.7788 26.509155 37.29193
24.114798 25.375153 37.91893
1.0077972 63.083168 20.230932
54.3118 63.39216 18.850931
3.6007957 58.853157 11.974932
5.384796 58.19616 12.536932
6.2227974 38.783157 18.627932
4.8147964 37.85515 17.369932
8.905798 44.653152 12.535932
7.4508 46.08716 11.030931
30.224798 44.518158 18.813932
30.7228 45.04515 20.812931
33.953796 38.96115 19.293932
34.683796 37.08116 20.151932
24.0828 77.79516 36.80693
26.062796 79.15115 36.27993
21.363798 86.87615 37.37593
22.150793 87.63815 39.13293
51.010796 27.467148 14.805934
50.728798 29.563156 14.382934
44.903797 31.311157 9.829933
43.773796 33.189148 10.841934
41.954796 81.22515 18.674932
43.227795 82.07015 20.442932
35.312798 87.717155 22.225931
34.329796 86.370155 21.197931
52.6658 56.839165 24.388931
51.6238 58.95716 24.123932
45.4298 60.72216 25.668932
44.578796 62.76217 25.06693
22.504797 68.634155 12.761932
23.407797 66.98415 11.800934
19.5978 70.67216 5.442932
19.523794 69.18516 4.1939354
26.035795 125.54516 32.204933
25.145796 123.90916 33.295933
19.814795 126.886154 28.158932
18.1398 127.928154 28.200932
44.889797 33.013153 30.877932
44.837795 31.01616 30.374931
53.139797 29.650162 31.50193
54.072796 29.174149 29.73393
45.612797 16.645157 7.0099335
43.751797 15.440155 5.817932
38.799797 10.778152 7.0259323
37.237797 12.041153 6.5029335
23.506796 89.85015 28.296932
24.252798 91.43616 27.540932
30.570797 92.82115 29.787931
32.796795 94.39616 29.135931
4.9757957 116.36816 3.9229317
5.915798 116.96516 1.5589333
7.7078 124.344154 4.466934
9.6318 124.372154 6.242935
22.885794 108.400154 28.019932
24.644796 108.78516 28.885931
31.614796 106.56015 31.218931
30.695797 104.02715 31.93993
1.393795 69.37915 26.25093
54.479797 70.26315 25.44893
54.377796 61.813164 26.527931
52.898796 61.080162 24.850931
52.200798 40.617157 25.05693
54.215797 40.535156 25.402931
0.76579666 37.439148 19.909931
1.1117973 37.477158 17.752932
1.3757973 61.958168 22.811932
1.9827957 59.622154 23.24093
7.1307964 62.494164 28.755932
8.771799 63.79316 27.78193
15.487799 23.71016 19.949932
15.059797 21.826157 20.685932
8.5478 19.104156 24.741932
7.6707973 20.438156 26.440931
22.538794 80.36616 6.0219345
24.047796 79.74815 7.647934
28.940796 79.65515 8.971935
27.5268 78.594154 10.248932
16.185797 36.791153 39.328934
15.1598 37.89415 40.53393
7.5177975 35.606155 3.0459328
8.718798 33.969147 5.0529327
53.284798 7.3261566 20.553932
53.375797 5.994156 18.749931
0.19779587 2.867157 24.52593
0.64079666 1.8111572 26.94893
53.943798 91.99815 40.635933
52.8668 92.86015 1.6859322
46.034798 96.10416 39.481934
44.598797 94.83215 38.41093
17.506796 16.275162 10.077932
17.037794 18.441147 10.7739315
8.6248 15.906158 15.007932
9.2978 14.248154 16.249931
36.813797 94.07115 2.8939323
39.293797 93.42216 3.4259338
39.992798 86.75315 39.86993
41.913795 85.51315 39.989933
21.419798 125.29516 13.462932
23.529799 125.71316 13.914931
25.605795 119.09715 8.420933
27.5288 118.412155 8.095932
50.634796 21.905151 0.04493332
51.464798 23.81015 40.34793
45.693798 30.985153 1.9369316
46.410797 32.39415 0.34293365
21.726797 66.10517 26.516932
21.0268 63.746162 25.887932
27.602797 61.98716 32.295933
26.420797 61.986168 33.83993
24.641798 55.382156 19.211931
23.2648 55.472153 20.74393
16.349798 56.81916 22.349932
14.627798 56.380165 21.44593
1.2627945 130.54816 7.7949333
53.649796 129.89516 8.429935
53.7278 124.23415 1.6749344
1.1857948 123.938156 1.2409325
54.1868 93.39316 23.231932
52.264797 93.04415 24.200932
45.108795 95.523155 24.68193
44.945797 94.19916 26.213932
45.798798 54.91916 33.836933
47.773796 55.21515 33.63393
48.295795 46.12915 33.47393
49.009796 45.21216 35.359932
1.7077942 21.78415 11.255932
1.7137947 23.706161 11.671932
9.107798 27.296158 12.156933
10.018797 25.46315 13.407931
51.421795 107.84715 1.2719345
52.8948 106.57315 2.5679321
52.153797 113.897156 4.4789352
52.822796 115.370155 6.4269333
47.747795 116.08315 23.048931
46.008797 115.20915 22.120932
52.329796 112.606155 17.677933
52.820797 112.18515 15.627932
6.658798 56.023155 20.40393
6.077797 53.86415 18.888931
8.572798 47.15416 14.7149315
10.748796 46.289154 13.962932
34.4008 26.75116 27.061932
31.909798 27.140152 28.121931
32.210796 34.311157 24.65093
31.726799 34.802155 22.686932
48.985798 43.69516 8.787933
49.306797 44.145157 6.909935
54.444798 50.719147 8.658932
52.814796 51.76416 7.3639336
26.412798 88.94415 9.652935
27.680798 89.384155 11.062935
34.514797 87.106155 12.767933
33.412796 88.94315 12.748932
15.9047985 95.72415 14.005932
14.169798 94.30515 13.473931
18.177794 89.61115 19.747932
17.496794 88.21516 21.315931
11.834799 25.109161 9.933933
9.9718 27.02916 9.331932
6.688797 31.291153 5.968933
6.487797 32.61415 4.235935
19.0698 50.429153 11.877932
16.9588 51.67816 11.791932
16.881796 58.531166 14.585932
18.715796 59.05416 13.537931
24.9488 112.35015 29.11893
25.064798 111.05515 30.686932
32.565796 115.037155 29.735931
32.106796 115.65615 27.994932
37.9918 120.73916 16.571932
36.924797 118.26215 16.548933
30.6398 117.79715 10.446932
32.189796 115.94315 9.078932
25.235798 17.76616 15.760932
27.033798 17.239151 17.045933
31.848799 11.329147 14.3659315
30.975798 10.946152 15.935932
26.1528 39.386154 6.6679344
26.826796 37.873154 4.8239326
24.538794 39.399155 39.768932
25.061796 40.759155 37.83493
29.115795 8.045151 37.364933
28.1118 8.579147 35.961933
22.409796 7.544159 31.00793
24.3328 7.068161 30.085932
5.7747955 127.93116 25.76193
5.589798 129.60016 26.973932
53.7488 128.20316 24.11593
52.954796 127.203156 25.95293
40.237797 127.90916 30.937931
39.532795 126.04716 29.51893
31.303799 123.57516 33.00593
31.824799 121.74216 34.38193
41.506798 49.122147 20.547932
40.035797 50.62416 20.224932
37.204796 48.58116 11.083932
37.7768 50.615158 9.942932
38.4428 56.75016 7.0499344
37.862797 58.296165 8.928932
44.876797 60.669167 11.779934
46.917797 60.279167 11.718933
39.648796 129.68216 37.864933
39.238796 127.61116 39.330933
43.670795 130.58215 5.189934
42.471798 130.05716 7.1539345
16.307798 30.57315 36.80493
16.127798 28.36316 37.79993
24.974798 30.593155 38.02293
26.301794 29.607147 36.90893
52.589798 86.371155 24.326931
53.892796 84.19415 24.280931
4.2227936 80.66515 27.932932
5.8887978 79.25316 29.53593
1.6237946 26.136154 24.076931
2.6017952 24.135147 23.912931
8.1807995 22.092148 30.085932
7.4687977 23.461151 31.912931
28.023794 125.27116 36.331932
26.350798 126.192154 34.68693
28.296797 2.8941498 36.07093
28.867798 2.8511505 38.372932
45.347797 53.11815 12.201935
43.323795 52.354156 11.702934
47.183796 52.018158 5.312935
46.940796 51.528152 3.1629333
39.344795 15.480148 22.345932
38.457798 13.512161 22.29593
40.541798 6.5281525 26.127932
38.709797 5.993149 27.942932
23.976797 76.80515 22.86893
21.738798 76.356155 22.912931
14.676798 80.578156 22.11593
13.924799 79.29415 20.596931
11.9228 92.108154 34.337933
14.220797 92.42416 35.05093
17.838797 96.70815 0.49693298
19.725798 98.204155 0.68593216
2.9617958 14.33316 1.0589333
4.037796 16.370148 2.0259323
4.275795 11.225159 8.925934
5.6117973 10.01915 7.777935
47.523796 82.60015 8.414932
48.400795 82.91915 6.374935
0.8257942 82.49216 10.645935
3.0007973 82.98915 10.426933
44.668797 102.37715 28.116932
46.032795 101.96015 29.74093
49.3118 93.703156 27.942932
51.135796 93.441154 28.71593
44.425797 14.697159 36.081932
45.238796 13.469147 34.11193
44.582798 7.4021606 31.26593
42.347797 6.3351593 30.256931
34.4018 102.69915 18.183931
33.0388 104.07315 19.692932
31.901798 103.40315 27.086931
31.117798 101.72015 27.954931
5.1267967 3.8331604 36.393932
4.4087944 1.7381592 35.775932
52.360798 0.3451538 40.78393
50.746796 0.5971527 39.54393
1.1707954 116.43015 36.61293
2.6757965 115.37715 36.12693
5.855797 108.33815 39.835934
5.8507957 106.178154 38.69493
6.8507977 61.314156 32.41193
8.604799 62.557167 32.088932
14.647799 58.404167 35.962933
16.176794 58.339165 37.592934
34.6098 118.328156 31.672932
33.564796 117.98515 29.71693
27.7058 123.51916 33.24493
29.168798 123.17116 35.017933
31.529799 83.54015 26.468931
31.794798 82.218155 24.439932
32.871796 75.12415 29.894932
33.7198 72.68616 30.11693
14.308798 66.317154 34.219933
15.400797 68.15115 35.10593
19.504797 68.23916 1.6239319
20.449797 70.30515 1.2759323
22.2778 22.799149 0.60993195
21.1118 20.718155 0.345932
16.682798 17.553162 7.873932
16.136793 19.24916 8.410934
30.900799 64.71917 12.516932
28.864798 63.98516 12.221931
29.6848 59.72016 21.317932
29.9868 61.81916 21.94893
14.688799 103.74815 25.936932
14.9788 102.71015 23.67493
22.309797 106.09016 25.765932
22.705793 105.78315 27.513931
12.537798 59.451164 22.88993
11.720797 57.550163 22.849932
3.917797 55.326157 22.04293
1.7867966 54.804153 22.871931
11.4368 18.411148 40.38993
10.209799 20.556152 40.37493
14.300798 28.454147 39.54393
12.559797 28.584152 37.990932
34.284798 38.911148 12.738934
32.975796 37.77115 14.601932
31.685799 33.72316 9.486935
32.320797 33.069153 11.261932
18.481794 121.81815 25.65093
16.494795 122.106155 26.588932
15.418798 123.052155 31.92793
16.311796 123.28116 33.85593
26.799795 102.35215 22.391932
24.113798 102.244156 23.085932
23.825796 94.467155 27.963932
24.551794 93.94515 25.96593
45.099796 105.397156 6.3089333
44.615795 105.413155 8.119934
50.597797 101.55515 13.014934
51.695797 100.23615 11.988934
6.237797 111.14415 22.322931
8.465799 111.10316 23.009932
6.9657993 104.09915 19.34093
7.447798 104.15215 17.391932
31.919798 12.800156 38.84693
31.7538 10.609161 39.13093
29.102798 9.867157 6.2719345
28.546799 8.455154 7.583935
6.389797 51.232147 21.485931
4.7537956 53.108154 21.123932
54.634796 47.47516 15.904932
0.73379517 45.28015 16.222933
21.934797 83.44815 4.1629333
23.559797 84.88216 4.8919334
22.863798 85.49216 14.267932
23.714796 83.480156 13.716933
3.3127937 52.05516 7.010933
5.6567955 51.80316 6.795933
8.7148 57.89216 12.768932
10.683798 57.200157 12.329933
17.7498 37.485153 0.826931
17.739798 39.482147 1.9099312
19.502798 47.09015 39.73793
17.967794 47.317154 37.91093
47.464798 85.34016 7.543934
46.107796 85.913155 5.402935
37.383797 84.90716 9.577934
37.930798 84.98615 11.699932
47.101795 30.734161 6.484932
46.343796 29.57315 5.008934
45.975796 22.897156 12.055935
46.138798 25.041153 13.349933
5.6407967 69.03416 40.072933
6.4047966 71.02116 0.864933
12.451799 64.72315 1.9529343
15.119799 64.733154 2.3019333
36.193798 53.104156 29.888931
35.0118 55.026154 31.02893
26.466799 53.367157 29.12593
24.894798 52.204147 30.01893
3.8447952 92.885155 19.865932
3.7717972 95.26916 20.608932
3.5347939 101.70016 19.82393
5.280796 102.24915 18.349932
48.038795 122.28316 2.4279327
46.781796 123.67416 4.8019333
46.310795 130.17715 7.2009354
46.452797 131.69514 5.4749336
52.475796 91.80615 37.039932
54.001797 93.45116 38.41193
49.161797 99.815155 40.447933
49.473797 101.897156 40.245934
24.162794 51.953156 10.694935
25.367796 50.244156 9.967934
27.5548 45.138153 6.269932
27.025793 43.149155 5.0029335
4.7127953 55.65216 17.689932
2.754795 55.774155 19.342932
51.4708 52.50215 15.355931
53.299797 52.546158 14.063931
42.319798 73.33616 36.627934
41.607796 74.15515 38.398933
46.138798 69.04616 37.14493
47.666798 70.40215 36.77193
19.900793 63.723156 15.629931
21.482794 64.64015 15.064932
20.576796 72.72616 18.819931
20.5418 73.11716 21.237932
51.726795 103.591156 3.5899315
50.114796 105.135155 2.4029312
42.246796 108.47916 0.5299339
43.364796 110.188156 40.65293
36.5328 9.677155 34.93193
37.989796 11.281158 36.620934
45.041798 5.44516 34.801933
47.2628 5.26416 34.32593
22.525793 104.563156 19.289932
23.608793 102.47916 19.735931
21.905798 101.43716 14.007932
22.327795 101.33615 11.697931
6.4397964 92.54816 33.30693
4.898796 94.08415 32.45093
3.049797 95.62715 24.481932
3.7937965 94.57616 23.182932
2.0607948 72.21015 24.68493
2.0947952 74.08616 24.40393
1.5777969 75.14416 32.55093
54.314796 75.32115 33.149933
42.779797 27.961151 3.2739334
42.986797 26.243149 4.4199333
41.120796 21.77916 10.574932
40.201797 19.55516 9.763935
10.875799 122.84016 4.725933
12.7008 121.42216 3.8429337
9.359797 125.11416 36.961933
7.5437984 124.82416 38.19593
30.679798 106.29515 8.471935
28.572796 105.55515 9.211933
22.100798 111.230156 7.867935
21.504797 112.914154 8.173935
42.188797 115.20915 14.921931
42.901794 114.25515 12.564934
50.810795 111.00515 10.796932
49.871796 108.95715 10.456932
13.977797 82.72215 20.542933
12.518797 81.370155 19.36893
9.723799 85.412155 13.965932
10.762796 83.702156 13.134932
22.219793 65.58616 3.7719345
20.6808 64.98116 2.0379333
14.581797 63.22016 4.336933
12.372797 63.98516 4.4959335
31.654797 71.12315 38.59893
30.416798 70.10915 36.822933
24.177794 67.69716 33.942932
23.675795 65.49216 34.19593
17.4858 93.233154 29.731932
16.233793 95.04515 30.263931
19.387793 101.928154 31.315931
18.095793 103.47916 32.392933
17.383795 92.719154 25.003931
17.160795 91.51415 23.467932
13.022799 84.99316 25.18193
13.081797 83.01916 24.727932
1.2717972 84.84615 22.782932
2.0607948 87.08715 22.553932
53.174797 93.79015 26.763931
53.709797 94.63915 28.47293
13.844797 63.634163 13.860931
12.322798 65.11416 13.893931
12.892797 58.936165 19.324932
11.174799 57.561165 20.124931
33.6588 23.90915 7.0669327
33.655796 26.255157 6.3639336
26.380798 23.768158 3.076931
24.332798 24.287155 2.0829315
13.237799 80.45016 25.76193
13.272799 79.092155 23.833931
8.4858 72.45116 19.819931
7.997797 73.29215 17.705933
46.962795 1.0691528 11.366932
47.094795 0.92315674 9.444935
50.1098 9.743149 9.395935
51.753796 10.31015 10.212933
46.288795 116.314156 30.96593
43.944798 116.38216 31.540932
39.109795 114.745155 29.84893
36.9568 115.02815 30.36893
6.5347977 87.39316 30.457932
7.697798 85.69615 30.399931
6.8787975 80.26916 37.09193
7.6387997 80.939156 39.38793
0.46279526 92.58415 3.324932
0.39079666 91.32115 4.838932
3.3187943 84.32516 7.7299347
0.8557968 84.74016 7.857933
9.281797 1.8921509 36.07093
8.3678 0.62416077 34.488934
13.5278 1.266159 26.824932
11.8258 0.7081604 25.463932
20.219793 112.04916 14.201934
19.269796 110.39616 12.805934
14.4578 109.36615 9.494934
11.962797 108.731155 8.814934
52.664795 24.731155 37.31193
53.479797 23.533157 38.66893
0.71079636 15.599152 0.26693344
0.42479706 13.46315 40.70993
5.572796 76.61115 9.219933
4.167797 78.746155 8.607933
52.863796 76.649155 3.3919334
52.231796 78.38016 2.5739326
35.899796 119.550156 0.22293091
36.202797 117.63915 40.28393
43.116795 123.10116 38.42493
42.247795 125.39016 38.719933
4.8427963 88.217155 22.399931
3.888794 88.136154 20.777931
50.885796 89.00516 20.907932
49.249798 88.62515 22.532932
17.865797 60.705162 24.832932
19.1538 59.466164 23.678932
25.572798 58.130165 19.30993
27.740797 57.108162 20.13293
54.127796 30.125153 27.095932
1.4217949 30.703156 27.770931
3.6127968 38.079147 25.54993
3.6187973 39.666153 24.117931
15.2848 117.24015 4.546932
13.720797 118.536156 3.3959312
6.6197968 120.48616 8.783932
8.307798 120.49316 10.606934
51.175797 75.43516 39.67293
50.538795 73.289154 40.509933
54.441795 72.65716 33.066933
1.1567955 71.36215 32.129932
1.7697945 119.93616 36.030933
1.6327972 121.89616 34.731934
7.3457966 127.03116 36.046932
8.549799 126.92316 33.947933
15.822798 32.845154 15.462932
17.409796 32.498154 14.069932
20.512793 25.628159 15.488932
22.228796 25.095154 16.707932
28.4038 98.97015 23.666931
30.313799 97.65916 23.49793
35.0318 93.47916 19.760931
35.728798 91.786156 21.92793
49.091797 51.79715 23.289932
49.7418 52.707153 24.911932
42.792797 59.315163 25.484932
40.407795 58.97016 25.897932
24.840796 43.576157 27.71593
26.7918 43.00215 28.228931
25.6808 39.143158 35.63793
28.0838 39.636154 34.835934
2.9907951 103.41715 12.524932
3.6137962 101.43716 11.278932
6.8627987 94.411156 14.682932
4.5977936 94.14015 15.709931
17.880796 16.872147 38.586933
16.515799 18.151154 39.69493
15.035799 16.190155 6.1869354
13.889799 16.265152 8.514935
52.266796 109.97916 13.759932
54.701797 109.427155 13.454931
51.497795 102.06115 15.819932
52.028797 99.995155 14.824932
11.072798 42.11116 24.054932
13.5278 41.92015 24.072931
12.437799 37.71016 16.952932
11.285799 38.841156 15.435932
54.385796 10.276154 19.97993
54.364796 11.20015 21.728931
50.1448 16.120148 21.786932
48.611797 17.522156 22.11893
37.217796 95.63915 30.291931
36.632797 93.65115 29.40493
31.1778 96.786156 26.18493
31.490799 99.19515 26.977932
46.1588 131.11916 14.467932
45.550797 132.43515 16.359932
40.822796 0.14115906 23.214931
39.427795 131.25015 24.898932
33.142796 34.929153 13.313931
32.576797 33.069153 14.027931
40.381798 29.178162 18.197931
39.603798 29.869156 20.62593
49.100796 11.277161 11.641933
47.556797 12.135147 10.399933
49.038795 19.358154 5.137932
51.293797 19.780151 5.4199333
37.680798 14.517151 5.4269333
39.900795 14.383148 5.295933
45.1308 10.603149 1.2749329
46.318798 12.800156 0.6429329
21.017797 119.563156 18.278933
21.7908 121.44315 17.623932
28.448795 115.79215 14.444932
29.978798 116.718155 13.057932
4.7837944 21.306152 31.825932
3.6667938 21.63916 29.901932
51.794796 23.579147 33.412933
49.948795 24.134155 32.13793
28.831795 82.05615 25.138931
29.183796 80.38216 23.944931
25.607794 83.22916 16.778933
26.655798 82.773155 15.038932
37.868797 59.279167 13.803931
38.070797 61.895164 13.469932
41.118797 66.03817 14.545932
40.528797 67.06116 16.460932
50.126797 7.1721497 24.66793
48.530796 8.138153 25.67493
52.318798 13.49115 30.72993
51.393795 13.884155 32.89093
8.717798 31.138153 18.447931
6.7067947 30.539154 18.699932
11.5278 30.51915 24.928932
12.6737995 31.896149 25.60193
18.609793 55.623154 35.366932
17.7078 56.042168 37.67993
15.5268 47.038147 39.294933
13.371798 45.959152 39.977932
48.812798 43.58615 11.967932
49.007797 41.40616 12.434932
41.930798 37.73915 16.570932
40.661797 39.316147 14.900931
2.8877945 49.50415 27.328932
4.447796 49.00116 26.072931
10.024797 47.37416 33.774933
10.282797 44.43715 33.378933
26.2088 59.344154 16.837933
25.480795 59.25016 14.815931
21.898794 53.59015 10.344932
20.100798 52.80516 10.847932
25.0148 95.91815 34.502934
25.713797 94.20715 33.155933
22.877798 87.40115 30.214931
24.368795 87.01715 29.033932
29.285797 121.678154 38.50593
28.967796 123.939156 38.43193
23.237799 121.317154 2.458931
22.858793 118.89015 3.1249313
53.980797 116.37615 19.572931
53.808796 117.605156 20.968931
51.542797 125.12716 22.168932
51.379795 126.150154 24.221931
42.353798 47.18315 6.3399353
39.677795 46.515152 5.538933
35.522797 54.44716 6.0359344
36.454796 54.84015 7.899933
13.724798 69.58315 27.655931
13.453798 71.95815 27.89393
5.3077965 72.11015 31.81693
2.997795 72.88016 31.593931
51.062798 22.33316 6.565933
53.013798 22.40715 5.2039337
1.6797943 30.441147 3.2639313
2.1687965 31.121155 1.5559311
25.461798 61.994164 36.428932
23.302794 62.56716 35.766933
16.370794 63.34716 0.5329323
15.748796 62.417168 39.28493
31.894798 37.08815 31.59493
30.643799 35.972153 32.71693
26.665798 32.750153 38.77293
25.126799 34.19716 37.86793
9.1448 40.28215 24.22993
8.829798 38.06215 23.109932
15.847799 33.538147 24.744932
17.606794 34.390152 23.592932
50.226795 35.10315 7.3329353
51.5618 36.591156 8.3589325
50.745796 40.233154 40.621933
53.068798 40.122147 39.86893
9.130796 2.3041534 40.06493
7.6307964 1.5931549 0.49193192
4.961796 126.52116 40.52193
5.2797966 126.06216 1.7999344
20.215796 46.79515 11.051933
17.725798 46.83815 10.963932
13.545797 38.888153 7.548935
15.419798 37.84816 7.3499336
20.200796 9.827148 1.0949326
19.395796 9.022156 2.852932
11.952799 2.9731598 40.23793
11.6938 3.69516 38.12493
27.572798 6.9331512 17.464931
27.3548 7.5051575 15.863932
28.6708 10.7061615 9.261932
30.187798 12.352158 7.9169316
32.930798 21.31215 7.197933
33.1228 22.166153 9.154934
27.836798 23.36615 16.164932
26.2058 24.51616 16.204933
16.825796 93.00416 7.966934
16.396795 93.438156 10.366932
13.292799 84.621155 13.320933
14.2918 83.31815 11.710934
44.213795 93.05415 12.282932
41.933796 92.54315 12.610935
40.477795 88.04816 5.133934
40.270798 88.84615 3.3589325
26.886793 75.19816 14.625932
26.960798 72.692154 13.4649315
17.948797 73.78216 15.520931
16.182798 72.843155 14.764932
36.6718 40.091156 0.22893143
37.168797 38.798157 1.6199341
34.861797 38.31015 9.770935
36.5478 39.441147 10.910934
30.7958 79.580154 39.774933
28.804798 79.34815 38.954933
30.027798 87.59915 38.495934
30.9628 87.969154 36.14793
21.841795 68.14316 31.468931
21.273794 66.59417 33.26493
23.5408 61.02717 33.232933
22.240797 59.65017 35.074932
43.592796 62.504158 39.66593
42.635796 62.47616 0.826931
43.193798 54.77516 40.329933
43.886795 53.160156 1.1679344
27.978798 124.46416 5.614933
28.137798 127.218155 5.0239334
36.570797 124.75416 7.6989326
36.454796 122.884155 6.654934
9.983797 8.607147 5.0619354
8.984797 9.559158 6.656933
11.584799 3.7981567 13.961932
10.355799 2.2851562 13.350932
53.932796 58.69816 0.14893341
52.980797 56.908165 40.12393
3.2527962 54.457153 4.5619354
3.1807938 54.617157 6.675934
27.999798 112.66615 38.171932
29.622799 111.55615 39.88193
33.849796 117.12815 1.0279312
33.210796 119.63715 0.82793427
11.2417965 40.492157 32.94693
12.315798 42.457153 32.63893
12.322798 48.939148 34.024933
12.748796 49.830154 35.77893
4.074795 62.606163 3.972931
5.381794 64.26316 5.1159325
8.678797 66.43217 10.491932
8.751799 64.39716 10.390934
30.194798 50.17215 12.632932
28.654799 49.913147 14.202931
27.306799 54.53015 19.740932
26.969799 52.84015 21.166931
5.811798 76.83415 30.690931
6.586796 74.386154 31.81393
14.7987995 76.97616 33.392933
14.975798 78.079155 35.483932
1.0177956 88.953156 33.93693
54.099796 88.63216 33.997932
49.876797 90.97415 28.55293
49.487797 91.870155 26.039932
46.140797 86.85915 12.780931
44.771797 85.303154 13.913932
37.043797 87.95016 12.711931
36.092796 90.37815 12.608932
34.474796 104.79215 33.68093
35.7618 105.86015 34.879932
35.409798 113.99316 37.13093
37.667797 113.62315 36.34193
43.647797 37.839157 32.04393
42.708797 37.20616 33.963932
39.663795 40.35916 39.68293
39.286797 42.14415 0.06293106
7.917799 125.93716 0.18193436
7.8907986 126.300156 2.4739342
15.216799 131.21616 0.14693451
15.788797 0.6001587 0.43193436
39.531796 78.108154 7.5879326
40.059795 76.76315 5.569935
48.103798 76.79415 6.7289352
49.0958 76.39516 4.824932
27.8058 92.27615 17.195932
26.101797 93.093155 18.616932
21.585798 93.677155 24.523932
21.383795 93.53015 26.700932
16.2768 46.927155 20.65693
15.264799 48.29515 22.65093
14.831797 55.39615 24.24793
12.620798 54.811157 23.499931
20.079794 54.018158 8.320934
20.112799 54.745148 6.409935
16.232794 47.17415 1.4699326
17.911795 48.110153 0.8099327
25.116796 83.30415 28.748932
25.508795 81.14616 28.583931
25.293798 74.42216 34.115932
26.362799 75.91915 36.253933
32.508797 83.51916 37.15293
31.755798 81.83816 38.02893
38.246796 78.91615 4.3539352
40.478798 79.12615 3.260933
28.176794 17.910156 6.694935
29.567795 18.758148 5.091934
24.565794 13.035156 0.45393372
24.608793 11.620148 39.352932
4.120796 105.22916 22.102932
5.301796 106.14215 20.030931
4.6427956 105.69615 12.108932
4.124794 106.467155 10.131932
32.9698 18.214157 37.13893
30.741798 17.65416 38.43093
34.923798 13.816147 4.649933
34.836796 14.966156 6.225933
47.170795 121.203156 31.346931
48.124798 123.14616 30.805931
49.771797 128.47516 38.11093
50.580795 130.31316 36.75193
10.981798 25.87915 30.419931
9.997797 24.12616 29.77893
12.990797 17.169159 28.338932
14.320799 16.647156 26.117931
5.7817955 130.77515 30.50893
5.846798 128.83415 29.74793
3.292797 121.68216 32.302933
6.009796 120.94916 31.99493
17.3758 5.516159 23.74093
18.7638 7.1371613 24.67493
11.636797 8.840149 28.94693
10.712797 8.635147 31.31093
42.596798 26.46315 14.401932
44.682796 26.496155 16.085932
39.544796 20.127151 17.931932
37.580795 20.357147 17.778933
21.209799 65.06417 12.053932
23.348799 64.32816 12.015934
22.313795 58.060158 9.872932
21.547796 58.427162 11.694935
2.3117943 85.87615 19.606932
1.9307938 85.97916 17.487932
2.9637947 91.37415 11.980931
3.4877968 93.55715 13.285932
54.041798 130.01515 37.747932
53.539795 130.63715 36.09093
0.25779724 126.78216 28.11893
53.063797 125.85116 28.259932
31.900799 81.72115 21.735931
32.319798 81.58716 19.683931
28.409798 82.02615 13.208932
28.589798 80.11816 12.221931
45.412796 58.27717 13.410932
42.924797 58.727165 13.1819315
40.744797 55.482147 20.48693
41.415794 55.936165 22.989931
9.4368 60.62316 12.856932
7.400797 60.19216 12.508932
2.9477959 68.29616 14.989932
4.124794 69.63216 13.126932
3.7837944 4.488159 20.40393
4.641796 3.5541534 18.284931
51.878796 131.02715 19.220932
52.424797 132.28516 20.77193
26.530798 76.564156 21.07393
27.065798 76.22015 22.83493
34.2688 71.564156 24.480932
35.8178 72.925156 23.76893
44.435795 42.121155 19.51493
42.502796 41.90715 20.735931
38.207798 39.79016 14.499931
37.077797 37.914154 13.376931
26.741798 128.02515 28.140932
28.794798 129.06615 28.562931
30.2368 3.8231506 28.450932
32.2138 3.8021545 29.80293
32.481796 79.53216 33.74993
33.710796 81.094154 34.739933
38.510796 82.54415 28.63693
39.375797 81.84815 26.815931
16.1668 35.890152 3.1799316
15.043798 36.563156 4.631935
15.925798 33.617157 11.628933
13.793798 33.912155 12.503933
42.721798 54.51915 15.722932
40.782795 53.05316 16.338932
36.9568 57.952156 11.415932
34.843796 58.882164 11.301931
22.740797 75.42316 9.955933
22.799795 75.87415 7.9469337
29.525795 71.801155 5.133934
31.087795 73.33315 4.0599327
5.912796 1.6861572 20.088932
6.3497963 0.57115173 18.148932
5.7677956 124.261154 22.616932
8.275797 123.703156 23.09093
12.501799 14.631149 29.151932
12.469797 12.834152 29.66793
15.495798 8.744156 36.016933
14.121798 7.0581512 37.233932
51.960796 64.82816 12.055935
53.504795 63.753166 13.175933
5.162796 60.810158 10.944935
6.773796 61.132164 10.226933
16.629797 79.14416 12.171932
15.538797 77.164154 12.458935
14.2008 71.552155 12.815932
13.262796 71.36316 14.584933
36.159798 0.6301575 40.00093
34.910797 2.1021576 39.18893
27.968798 132.03215 40.48593
25.558798 131.48515 1.0279312
48.300797 93.42915 13.890932
45.916798 93.02915 14.423932
42.9368 97.90215 22.235931
42.301796 96.32315 22.72693
23.8758 113.93515 24.71693
24.725798 115.29715 26.62293
17.8328 119.97716 27.423931
17.515799 120.745155 29.57493
40.698795 69.14316 4.689934
42.214798 67.469154 5.6049347
49.222797 72.92016 2.996933
50.275795 71.31116 2.102932
43.834797 27.130157 32.16093
41.695797 27.003159 30.919931
34.1638 26.202148 29.700932
32.7888 24.49916 30.01593
1.3297958 35.191147 35.22193
54.636795 35.857147 35.412933
50.614796 37.145157 33.169933
49.247795 37.62416 34.787933
16.195799 109.76915 4.678932
15.8748 111.19415 6.3089333
20.552794 118.525154 6.1629333
19.439795 119.952156 4.5999336
6.6547966 49.520157 5.477932
6.190796 51.42015 3.9149323
9.0278 47.895157 38.09893
10.854799 48.872147 37.613934
8.391798 70.68015 10.411934
6.641796 72.164154 11.078934
53.9158 68.883156 6.312935
54.690796 67.744156 4.2859344
36.710796 45.85916 39.89693
34.3028 45.842148 40.143932
34.229797 45.16716 32.065933
36.009796 44.08316 31.28693
17.033796 71.12916 7.0879326
16.729795 69.60116 5.117935
12.160799 67.676155 11.894932
11.1318 65.718155 11.564934
24.531797 59.542168 5.027935
25.636793 61.479164 4.8849335
26.687796 65.70217 12.107933
28.1518 67.664154 12.573933
38.389797 71.96316 36.82593
38.985798 73.065155 38.66793
41.159798 64.786156 0.2679329
41.588795 64.15415 39.114933
0.29779434 48.79216 35.919933
54.707798 47.85115 38.231934
49.948795 52.386154 2.4279327
51.347797 51.615158 4.262932
48.945797 88.35416 17.160933
48.229797 86.259155 16.460932
0.68079376 83.47916 16.626932
2.4667969 82.81915 14.989932
0.9217949 100.83615 11.511932
54.195797 101.62615 9.397934
53.507797 110.38715 11.327934
53.525795 112.02615 10.174934
54.4428 10.48616 8.680935
54.361797 11.397156 10.496933
1.5997963 19.67015 9.383934
3.256794 19.622147 10.451935
22.581793 28.26715 8.606934
24.465796 27.177155 8.458935
25.329794 31.520157 15.787932
24.912794 32.69815 13.970931
37.7558 92.69615 19.129932
38.2618 94.482155 17.570932
46.155796 90.885155 16.330933
46.7698 89.06915 15.576932
50.685795 25.55716 35.745934
51.508797 26.928162 34.344933
46.284798 34.95616 37.47993
44.517796 35.44516 35.65393
54.073795 60.255165 38.511932
0.7417946 61.09516 39.49293
2.924797 63.94216 1.5129318
1.1087952 64.26917 2.5989342
40.556797 8.022156 15.218932
42.007797 9.705154 16.176931
39.775795 17.70015 16.953932
41.629795 18.692154 16.463932
42.864796 123.75216 4.9279327
43.086796 124.01516 2.871933
37.367798 117.42316 4.001934
35.523796 117.72816 3.0529327
9.248796 17.76616 26.989931
6.8147964 18.035156 27.624931
8.8958 10.776154 24.015932
8.1178 8.823151 24.769932
16.354795 77.49815 29.65093
16.411795 75.10216 30.59793
23.795797 70.732155 32.760933
22.044798 69.29416 33.982933
53.112797 14.609161 18.987932
0.05279541 14.089157 19.40393
50.318798 11.988159 14.471931
49.867798 11.022156 16.179932
34.367798 123.383156 20.502932
32.3668 122.940155 20.487932
33.416798 130.31615 17.216932
32.021797 131.67215 17.612932
13.133799 96.59016 7.001934
14.504797 94.357155 6.7949333
13.557798 86.745155 5.727932
11.525797 86.40716 4.6539345
40.076797 46.832153 21.579931
41.543797 46.56816 20.12593
40.334797 44.602158 11.537931
39.536797 42.788147 11.665932
22.936796 67.064156 1.4549332
23.015799 69.44515 1.1849327
28.204794 71.34916 36.22893
30.008797 72.73415 37.10593
18.955793 44.37416 20.390932
17.226797 43.25215 20.032932
12.4047985 42.035156 12.051931
10.912798 42.84915 12.816932
14.090799 25.161148 12.166932
13.024797 24.442154 14.335932
17.023794 26.010147 20.681932
19.216795 25.747147 19.721931
7.7698 101.744156 2.3209343
9.773798 101.26715 2.319931
15.571798 98.45715 4.621933
17.061796 99.330154 6.619934
35.342796 67.830154 0.13293457
