75.94641 37.956215 103.771835
61.720406 32.671215 94.10183
63.358406 31.199215 92.78983
52.459408 21.845215 89.88084
53.700405 20.075214 90.563835
13.404404 28.502214 19.352829
13.12841 30.248215 20.145828
3.8654099 29.754215 7.394829
2.1444092 30.418215 9.094833
60.733406 22.852215 32.430832
62.350407 23.951216 33.31483
66.346405 22.547215 32.82383
68.553406 21.901215 31.89183
43.881405 37.190216 6.9908295
43.536407 38.553215 8.930832
42.589405 41.089214 20.136826
42.930405 42.22122 22.161835
67.150406 10.748216 87.814835
67.650406 13.494216 87.44683
78.53641 17.823215 80.32083
80.88541 17.597216 80.56083
51.436405 36.658215 100.714836
51.733406 39.212215 100.16883
47.785408 40.241215 87.381836
49.312405 37.916214 87.75083
77.70141 4.973213 11.293831
78.47541 3.251213 12.879829
83.247406 11.6862135 4.5808334
85.109406 11.077212 4.3778305
70.082405 38.086216 99.661835
70.51941 36.097218 101.65283
64.98141 33.915215 94.92284
66.67641 35.114216 94.770836
11.632408 6.912216 106.12483
12.154404 7.973213 108.148834
17.19841 45.990215 6.602829
16.898407 44.156216 7.6658325
12.28141 20.182215 79.69683
14.512405 20.503216 79.75383
18.79541 7.5152154 86.40783
19.46341 6.0512156 84.07583
71.75741 6.069214 93.77883
72.55041 4.1532135 93.09683
80.98141 7.7412148 103.67284
80.21841 8.154213 105.730835
67.733406 22.559216 110.77983
68.847404 24.274216 110.33383
82.457405 23.085215 109.979836
81.36941 22.801216 108.43383
73.8764 36.978214 49.78683
73.956406 35.092216 48.98683
78.80841 25.640215 51.67683
76.49241 26.806215 51.92083
50.332405 9.657215 72.72683
51.23641 8.279213 73.509834
39.191406 9.173214 74.77583
39.660408 10.010216 72.675835
62.454407 16.514215 94.80783
63.703407 17.621216 93.39283
70.59141 26.173214 85.52583
70.46841 27.534214 87.82083
26.022408 26.701216 72.84883
27.267406 25.082214 73.84583
25.794407 20.317215 60.14583
23.741407 19.555216 60.36483
8.960403 17.895216 65.63283
8.952408 20.199215 64.411835
7.0644073 33.103214 64.37483
6.5854034 35.301216 65.050835
52.771408 31.709215 2.1658325
51.899406 30.496214 0.87483215
40.945408 34.328217 7.095833
41.901405 32.457214 8.548836
42.785408 42.614216 39.31883
44.509407 42.60922 40.87383
47.966408 36.916214 52.17683
50.045406 36.336216 50.770832
56.098404 32.979218 97.77983
54.295406 32.361217 97.993835
49.344406 22.774216 102.73783
50.504406 21.884214 100.718834
43.950405 19.216215 72.90883
42.887405 21.376215 71.81883
44.252407 25.311214 62.93283
44.381405 27.012215 61.83983
45.003407 39.823215 87.90183
44.418407 37.813217 87.675835
46.400406 26.321215 87.93483
48.352406 26.704214 86.88883
70.93941 18.906216 71.96283
69.997406 21.421215 71.08183
61.173405 26.813215 77.80783
59.281406 25.419216 78.07083
67.860405 6.5012155 49.21983
68.11941 7.5762157 47.21383
58.668407 17.796215 49.46583
58.824406 19.864216 49.05483
74.02141 46.002216 68.676834
75.00341 44.395218 67.10283
70.389404 33.440216 65.29683
71.15841 31.117214 65.58183
7.179405 31.988214 102.29083
7.690407 31.945215 100.51483
0.60240936 27.740215 90.37483
86.568405 29.314215 91.509834
22.293404 10.656216 72.12683
22.099403 13.286216 72.13283
17.284409 24.968216 72.565834
17.982407 24.019215 74.813835
46.239407 39.598217 37.04483
45.017406 37.422215 35.96583
39.608406 33.687214 45.30683
37.63841 32.855217 44.53083
31.443407 39.444214 80.65083
31.926407 36.737217 81.41483
37.237408 32.872215 89.64183
35.112408 33.210217 89.94683
39.22241 22.311214 10.328835
41.146408 22.038216 10.748833
38.790405 30.298214 16.40683
37.33941 29.184216 14.557831
78.98041 6.2502155 30.97883
76.80941 7.4122157 30.13183
70.30241 14.205215 38.08183
70.498405 13.964215 40.339832
44.713406 29.747215 60.67983
45.925407 28.232214 60.20083
39.210407 31.241215 47.88083
37.532406 32.391216 48.33383
33.237408 37.034214 51.513832
31.814407 37.553215 50.388832
35.412407 46.095215 56.48783
35.794407 1.6062164 55.37183
54.573406 24.226215 16.666832
56.058407 23.874216 18.43383
47.603405 24.889215 29.18283
46.414406 24.727215 27.076832
31.835407 25.643215 78.63683
30.878407 24.242216 79.97583
31.765408 33.477215 84.63083
32.984406 35.015217 86.064835
66.195404 9.723216 26.153831
68.24341 9.966216 24.53383
74.49141 7.3262157 28.605831
73.36441 5.7622156 27.733831
2.721405 29.196215 73.328835
4.7034073 29.701216 73.30283
85.24241 42.397217 72.19483
86.194405 44.543217 71.704834
48.282406 23.944216 85.58483
46.963406 25.442215 84.65683
50.801407 21.502214 70.11783
52.313408 20.218216 69.40283
3.0934067 36.884216 8.539833
5.4704056 37.081215 9.270836
81.84241 45.238216 6.338829
82.512405 43.135216 4.720833
65.86841 37.488216 52.80383
65.92541 35.589214 52.02283
59.141407 35.669216 40.52983
58.679405 36.519215 38.69783
17.79541 3.613216 88.25083
15.817406 4.331216 89.855835
9.87841 15.919215 83.97083
10.960403 17.297216 82.66083
3.8634033 5.178215 66.83083
4.092407 7.3852158 65.828835
7.62941 9.789215 53.03283
7.2584076 7.643215 52.96683
22.11541 30.371214 93.245834
19.898407 31.881214 93.92983
10.186409 34.455215 102.009834
8.736404 34.129215 99.492836
76.03741 39.352215 48.374832
76.67641 39.943214 50.48283
79.10041 42.092216 42.31483
77.23141 43.425217 40.624832
5.223404 4.515216 98.909836
6.0504074 4.9642158 96.86083
6.21241 17.002216 97.65483
6.4724045 17.073215 100.00083
37.730408 21.664215 54.15383
38.41641 20.128216 55.49883
47.157406 21.234215 65.26283
46.101406 22.530216 66.924835
60.944405 10.392216 54.14183
59.665405 10.359216 56.28283
47.464405 15.821216 50.92883
45.352406 15.190215 52.00583
18.777405 5.8962135 27.395832
19.732407 7.8042145 27.567831
10.849403 11.971213 35.68483
9.910408 13.137214 33.77483
28.738407 45.617218 79.80783
27.589407 0.34021378 78.55683
32.77741 4.746216 87.11083
34.337406 4.8992157 88.45583
80.71841 18.807215 78.190834
79.931404 21.081215 78.26683
69.278404 12.868216 80.83283
70.84941 11.996216 82.48683
53.094406 5.8702164 1.25383
52.304405 6.3722153 111.80583
39.878407 3.560215 3.2648315
38.066406 2.206215 3.6218338
16.493408 23.806215 86.714836
15.0974045 25.184216 86.15883
10.516403 35.009216 82.730835
8.72641 36.420216 83.85383
42.37541 11.879214 15.9648285
41.663406 10.609214 14.328835
43.148407 46.25522 21.580826
42.397408 2.2752151 21.333832
34.943405 12.674215 104.90483
35.760406 13.541216 106.47083
45.566406 17.239216 109.11283
45.468407 19.110216 107.29283
69.581406 11.709216 77.41383
67.63441 12.247215 78.79783
62.489407 23.018215 80.32383
62.608406 23.464214 82.64483
29.087408 34.789215 29.035831
27.341408 33.464214 29.914831
21.626408 33.727215 19.226831
20.261408 35.153217 20.46783
14.749405 2.376213 107.58483
16.430405 2.015213 109.551834
22.97541 8.275215 0.032829285
21.85041 10.104213 111.537834
54.224407 20.062216 94.105835
55.058407 22.004215 93.98883
65.06441 28.956215 90.117836
66.817406 27.932215 88.978836
44.128407 27.213215 92.325836
43.856407 25.112215 93.26884
52.672405 19.736216 96.758835
50.975407 20.028215 98.69583
65.67141 18.241215 100.05783
64.78341 17.841215 102.10183
64.63541 13.153215 1.8718338
62.903404 11.171216 2.1538315
54.841408 9.167215 98.99683
55.38241 11.289216 99.91683
47.726406 20.445215 103.66783
49.512405 20.666216 104.660835
66.971405 4.8632164 98.743835
67.206406 4.520214 101.299835
76.41041 44.600216 95.76683
76.098404 45.730217 93.83483
21.149406 11.296216 93.687836
21.524406 12.233215 96.16883
13.377403 19.739216 103.07383
14.909409 21.929214 102.64983
78.581406 45.725216 94.60284
78.88041 46.228218 96.97283
2.8244095 2.5302162 96.092834
4.7914047 1.8132133 97.854836
9.456406 16.937216 86.47183
8.743408 18.281216 88.44883
0.054405212 22.524216 77.827835
86.15941 23.973215 77.83483
64.22741 13.144214 67.43583
65.41241 10.624213 67.232834
56.038406 6.440216 72.68383
55.918407 5.280216 75.36783
74.17441 1.0572166 27.16283
74.82341 2.7692146 26.272831
84.567406 40.268215 27.66883
84.09341 38.536217 26.28083
1.523407 38.669216 89.23883
1.7984085 38.062214 87.231834
78.46141 36.020214 79.68283
77.92341 34.737217 77.62383
23.199408 26.401215 59.30583
24.632406 24.788216 58.84883
28.136408 32.780216 63.25583
28.421408 34.711216 64.299835
73.25241 17.771215 40.51483
72.28041 16.996216 42.02983
69.46441 8.692216 51.61183
70.48941 9.166216 53.89083
18.443405 45.390217 67.90483
19.928406 43.564217 68.82183
21.181404 3.4622154 68.58983
21.971405 4.150215 66.72183
81.083405 38.734215 63.722828
82.512405 40.410217 64.41083
3.4794083 46.219215 56.32983
3.249405 1.9342155 56.07783
75.74541 44.022217 44.707832
74.445404 45.111217 43.131832
71.12841 38.026215 49.51283
70.30241 35.704216 48.94783
14.46241 32.447216 21.604832
15.654404 30.956215 21.192831
25.260408 27.912214 30.785831
24.584406 27.974215 32.880833
48.800407 44.874218 90.11183
47.836407 43.653217 87.84983
44.390408 37.334217 81.86583
46.204407 37.647217 79.89383
72.569405 5.792216 61.090828
72.25241 4.344216 62.46483
68.581406 16.803215 67.22583
67.6264 17.434216 68.773834
84.39341 4.9252167 109.94583
85.13241 4.692215 107.90583
2.275406 38.861217 103.493835
4.3994064 37.509216 104.867836
42.803406 41.743217 70.14283
40.876408 42.747215 70.81283
49.72241 2.9102135 66.96483
51.50041 2.2222137 67.27183
3.1444092 25.890215 36.19283
1.1074066 27.152214 36.08583
83.57541 35.254215 38.69683
81.929405 36.149216 38.673832
49.738407 28.200214 82.28983
52.002407 28.566216 82.79083
46.605408 37.981216 86.01483
48.044407 38.637215 84.606834
67.14841 43.127216 26.535831
65.86641 42.685215 27.861832
53.031406 1.4772148 26.310831
53.614407 1.9302139 28.60683
11.979408 45.534218 78.72883
12.330406 0.20021439 80.315834
21.050407 37.869217 84.95883
20.721405 35.594215 85.90383
71.069405 5.157215 58.77483
73.74441 5.7952156 58.44883
76.25841 6.5572166 44.367832
76.764404 8.753216 43.86983
59.446407 31.336214 27.24983
58.196407 32.613216 26.254827
51.846405 27.551214 15.943832
52.621407 25.904215 17.063828
80.25841 45.713215 79.97683
79.38441 43.996216 81.12283
3.9874039 41.943214 82.68083
3.7054062 43.463215 83.74283
40.330406 15.416216 11.578835
39.862408 12.901216 12.342834
49.135406 18.481215 16.765823
51.099407 19.062216 16.729828
48.432407 38.744217 30.288832
49.824406 37.618217 31.76283
62.930405 40.013214 35.76083
63.645405 42.08222 35.98283
28.840406 0.015213013 9.311829
29.463408 0.18421555 11.245834
24.390408 40.707214 20.254822
25.671408 39.032215 20.160828
63.372406 19.733215 69.27883
61.380405 19.782215 68.11883
55.016407 24.500216 78.04283
53.403408 23.376215 77.43183
24.342407 31.188215 107.33483
22.764406 30.000216 107.232834
24.137407 15.115215 102.43584
25.933407 14.431215 104.106834
60.812405 20.064215 52.763832
61.004406 20.404215 55.24783
60.895405 32.731216 60.27283
62.613407 33.111217 61.55483
51.714405 22.932215 3.01783
52.74341 20.576216 3.1978302
50.883408 23.037216 14.14283
51.781406 24.643215 14.888832
67.75941 25.197216 3.5708313
66.07941 26.030216 2.3328323
56.304405 31.117214 112.28183
55.081406 29.686214 1.2908325
48.909405 22.992216 65.00583
50.103405 24.230215 63.13183
60.293407 29.993216 71.72083
60.116405 31.120214 73.71583
74.180405 38.291214 10.608833
71.87041 38.532215 10.084831
77.84141 46.110218 5.999832
79.68441 0.73721313 5.7628326
61.595406 45.176216 37.72283
63.374405 44.030216 38.17583
72.32241 3.3702164 27.94683
70.08841 4.275215 27.074831
45.068405 11.098216 42.72783
44.405407 9.188215 42.00783
47.59741 15.363215 28.611832
45.836407 14.550216 27.98183
33.364407 36.933216 36.845833
31.216408 36.096214 37.25183
38.786407 27.518215 44.76183
38.016407 25.505215 46.07083
48.939407 17.157215 72.33683
46.805405 17.200216 72.50183
41.410408 11.489216 66.09683
40.737408 9.743216 67.327835
57.449406 38.109215 87.299835
59.701405 39.120216 87.15283
54.266407 30.492214 80.75683
51.555405 30.827215 81.41583
31.561407 38.048214 32.62883
31.138407 36.562214 30.583832
42.990406 29.786215 28.85983
43.457405 30.565214 30.78083
75.22741 29.453215 86.32383
75.84341 27.179214 86.259834
67.067406 17.463215 87.62984
67.916405 15.859216 88.37383
39.078407 16.413216 98.15083
37.13141 15.171215 98.33884
25.995407 20.517216 90.83884
24.278406 18.601215 90.24084
76.04541 19.934216 19.359833
75.67541 21.979216 18.813828
68.332405 33.220215 20.008835
69.37041 32.523216 22.041824
7.842407 45.434216 24.704832
9.75441 45.874218 23.894827
11.952408 1.4572144 11.235832
13.487404 1.4012146 9.703835
13.124405 18.819216 56.67083
10.820404 18.344215 56.72083
15.1994095 17.833216 59.80383
16.68441 18.482216 61.19183
69.99341 32.654217 7.2528305
71.57441 33.660217 6.055832
67.52141 43.523216 110.76783
66.275406 43.875217 108.71183
34.253407 21.140215 78.18283
35.164406 19.428215 77.60083
33.067406 12.261215 86.60083
32.260406 11.077216 87.895836
31.600407 28.786215 78.20083
30.761408 27.608215 76.24083
27.935408 37.405216 66.43483
26.445408 37.627216 64.67183
65.039406 19.727215 31.809832
64.10241 21.702215 31.52683
66.486404 14.748216 20.124832
64.74341 14.286216 21.389832
60.204407 38.150215 13.22583
61.579407 37.651215 11.411835
54.717407 39.348217 110.26183
56.452404 39.992214 108.659836
40.510406 9.730213 77.704834
40.246407 9.348213 80.50383
36.60441 8.955215 73.76583
35.862408 9.292213 71.89283
12.037407 23.464214 85.84583
13.065407 24.368216 84.27683
15.06041 35.009216 91.76183
15.636406 36.870216 90.938835
37.751408 40.594215 63.21483
37.178406 42.475216 64.32383
35.903408 6.864216 57.20983
34.00041 5.530216 58.38883
65.28141 37.713215 55.29783
67.275406 38.481216 55.19783
73.67541 2.7342148 58.06683
73.61441 3.515213 59.86383
53.440407 6.6652145 97.145836
52.029408 5.3352165 97.35083
52.268406 0.29021454 87.84883
50.926407 0.48521423 89.67783
43.38241 14.934216 35.51083
45.184406 15.590216 34.658833
50.469406 12.530215 38.58583
52.929405 12.313215 37.80083
78.444405 18.251215 14.331833
77.997406 18.367216 16.726822
0.7984085 8.666216 15.657822
2.3124084 8.892216 14.717834
76.86441 40.058216 108.56983
77.74441 42.142216 107.16383
69.93341 5.676216 101.09583
70.09141 4.317215 99.13084
20.208406 0.2232132 25.476828
22.368406 0.081214905 25.052832
30.173407 0.7572136 17.423828
31.890408 45.969215 17.743835
69.65541 0.25821304 6.737831
69.96141 2.690216 7.9678345
74.16341 1.2952156 18.581833
75.07841 0.3272133 16.366821
17.444405 39.737217 68.88783
15.28241 40.068214 70.81183
6.0434036 0.006214142 61.32483
6.1284103 2.0242157 62.83183
1.2624054 10.838214 66.065834
0.090408325 9.2972145 67.58883
79.94741 1.1302147 71.188835
79.081406 1.4052162 73.32083
67.31141 29.466215 82.24283
67.15741 27.626215 80.89483
75.110405 18.799215 73.40683
76.736404 19.706215 73.31883
78.498405 2.5962143 79.83083
77.334404 0.78321457 78.54683
71.59941 6.704216 90.30283
70.19641 5.442215 91.70583
68.30841 39.513214 76.42183
70.25441 39.170216 77.93683
67.01841 7.044216 80.45883
66.834404 7.506214 78.02183
26.656412 34.392216 42.798832
25.03541 36.377216 41.99083
18.13041 34.382217 36.616833
16.167404 34.434216 37.35683
82.62141 36.462215 25.994831
84.29441 35.321217 24.548832
8.915405 29.740215 26.34683
9.280411 28.609215 28.36383
61.201405 5.985214 23.175833
60.015404 6.416214 21.522827
49.520405 4.475216 15.680832
49.123405 4.4382133 13.068832
3.6514053 0.6682167 92.661835
5.467407 45.692215 91.83283
7.8834076 8.879215 82.60383
7.3954086 10.650214 82.827835
54.279408 11.626212 92.67284
56.555405 12.038215 91.98983
58.919407 3.1282158 84.89183
56.275406 3.5002136 84.53583
40.008408 40.740215 66.33583
38.33941 39.099216 66.07683
38.785408 39.265217 77.00083
38.11741 39.261215 79.42183
39.335407 22.778215 81.97383
40.670406 21.671215 84.08683
37.408405 15.042215 93.05783
38.392406 12.892216 92.57383
26.807407 30.094215 9.067833
26.657408 29.388214 6.557831
22.605408 36.557217 109.55883
20.147408 36.985214 108.97583
74.82841 38.376217 38.436832
75.93741 36.788216 37.32483
68.8904 28.204214 30.84583
69.96141 26.470215 29.572832
37.871407 20.798216 27.132832
38.51341 18.819216 26.138832
50.276405 15.1582155 21.289831
50.258408 15.704215 18.897831
80.86341 8.124214 26.95083
82.23841 9.604214 27.361832
0.50740814 8.607216 18.678831
86.60441 10.4552145 17.92283
30.149406 31.716215 111.71283
30.030407 33.580215 110.36083
34.61741 40.838215 5.636833
34.92341 39.427216 7.522835
66.66341 19.917215 48.76783
68.3904 19.344215 49.71683
70.554405 6.1662154 44.65883
72.20041 6.0102158 43.01983
19.084404 6.532215 111.90383
17.46241 5.5172157 111.495834
19.121407 6.6652145 98.33183
18.16941 7.503216 95.76884
36.383408 35.385216 66.10083
35.61741 36.688217 64.51583
30.740408 27.982214 58.80883
28.744408 27.285215 59.43883
36.029408 40.936214 79.08383
36.300407 42.662216 77.86083
34.72841 38.531216 66.51683
35.81941 39.374214 64.65683
67.165405 24.495214 31.08583
65.14641 25.830215 30.84983
62.728405 24.542215 30.50283
61.557407 22.720215 29.601831
74.32841 20.966215 22.747831
73.07341 20.783215 24.567831
74.53241 20.184216 36.86483
75.14741 18.240215 37.97483
13.911407 40.115215 0.11483002
15.389404 38.523216 112.28284
7.4424057 35.420216 6.0648346
6.674408 34.918217 8.215836
66.319405 38.893215 78.54883
68.098404 37.896217 79.39683
67.64541 46.220215 89.702835
68.095406 1.1842155 91.41383
6.85141 8.921215 110.12984
5.709404 10.274215 111.67184
7.3784103 4.751213 9.362831
9.192406 4.2312164 9.217834
68.42141 7.3982162 98.47683
69.66941 6.7762146 96.95883
59.328407 4.9522133 97.79183
57.128407 4.678215 98.88783
32.130405 38.371216 84.54583
31.877407 40.042217 85.83183
43.677406 46.472218 92.90383
45.180405 0.44721603 91.27883
4.1144104 6.9912157 102.57484
5.6494064 6.9642158 103.78384
13.3474045 14.754215 105.90383
14.424408 16.371216 106.32383
74.46741 25.068214 89.091835
74.94141 27.424215 88.95583
65.60041 20.019215 96.30583
63.149406 19.207214 95.535835
23.502407 23.481215 74.91783
25.865408 22.646215 74.30383
26.190407 12.438215 66.53983
25.168407 10.451216 65.97383
49.064407 8.510216 76.27983
51.095406 9.668216 76.05883
53.622406 22.717215 80.91083
52.50741 24.614216 81.72183
45.651405 3.6762161 60.98383
44.909405 2.6242142 62.37783
37.780407 7.808216 68.63083
38.315407 8.406216 70.954834
23.067406 32.629215 91.85883
21.873405 34.057217 91.91983
19.242409 26.696215 82.07183
20.55941 25.053215 80.90783
71.803406 0.5512161 90.01483
73.00441 45.789215 90.77883
71.956406 40.502216 103.03183
72.16241 42.063217 104.77483
42.765408 35.216217 9.6278305
41.187405 36.649216 8.463829
30.919407 44.982216 12.820831
29.829407 43.445217 13.957832
54.127407 21.202215 47.221832
55.476406 21.272215 49.09583
46.948406 29.559216 50.01483
46.831406 32.003216 49.90183
75.10541 29.717215 33.845833
74.29841 28.768215 35.98983
74.71241 38.709217 41.971832
73.833405 40.137215 43.79983
3.834404 34.659214 103.231834
4.6924057 33.693214 101.785835
1.6354065 33.559216 89.28384
0.5894089 35.608215 87.74084
23.092407 24.185215 81.53883
25.800407 24.586216 81.19383
25.597406 12.674215 77.968834
25.978407 10.922215 78.98683
30.501408 31.740215 20.447832
32.390408 30.663216 21.704832
40.31941 30.704214 23.250832
39.491405 32.704216 23.164831
33.01341 12.000213 55.34583
31.683407 10.634215 54.80883
21.351408 5.9172134 62.17883
20.516407 3.6912155 60.88183
15.241409 35.595215 22.78383
16.299408 37.402214 23.983831
10.088409 36.203217 29.04783
8.366409 38.112217 29.666832
8.852409 10.237212 72.813835
7.5604095 10.064216 74.69583
10.621407 44.035217 76.674835
13.231407 43.904217 75.71983
45.168407 35.320217 56.30583
45.008408 36.034214 58.91983
52.599407 38.766216 56.86283
54.661407 39.510216 56.17083
83.09241 16.301216 77.606834
83.24241 16.182215 80.33983
6.1614075 9.888216 85.17983
5.966408 9.683216 86.99783
59.947407 34.721214 15.976822
59.795406 35.468216 13.838829
56.173405 33.408215 1.9438324
56.750404 34.012215 112.18083
39.575405 20.050215 11.8168335
39.226406 17.903215 12.634834
39.320408 23.439215 26.285833
37.495407 24.961216 25.507833
63.409405 4.876213 110.201836
64.7654 6.5592155 109.662834
65.237404 7.7412148 106.17284
63.651405 6.218216 106.90083
16.009407 33.870216 50.31983
13.654404 33.521217 51.98483
3.8554077 39.207214 42.75183
2.9644089 36.718216 42.91883
21.844406 25.378216 94.15583
21.055405 27.644215 95.229836
13.488403 23.688215 88.120834
13.08741 26.005215 87.800835
38.678406 41.557217 81.00683
39.058407 42.70722 78.952835
47.999405 6.8872147 78.29383
49.936405 6.030216 78.61483
19.538406 27.208216 90.97784
20.40541 24.971216 90.79383
12.318405 20.452215 86.35283
10.51841 20.151215 87.13583
42.964405 2.2082138 24.022831
44.594406 0.4672165 24.72483
43.549408 42.516216 36.75183
41.143406 42.580215 36.373833
33.449406 8.635216 65.24283
32.040405 7.0522156 64.54183
21.894407 3.282215 64.02183
19.874407 2.3192139 64.34783
85.85141 14.620215 44.82283
87.16941 12.820215 44.29983
2.898407 14.010216 31.052832
2.6904068 15.421215 29.608831
45.049408 20.403215 103.564835
42.61841 20.351215 102.76383
39.48541 25.767216 4.060829
40.502407 24.855215 6.065834
81.292404 31.616215 22.68083
79.458405 33.298214 22.800833
74.40741 38.813217 13.518829
75.20441 40.085217 12.537834
5.153404 15.487215 94.08483
4.5264053 15.176215 96.023834
77.35641 17.529215 98.284836
77.346405 16.523216 100.59583
37.44441 13.110213 103.19383
36.733406 11.476214 102.89983
31.115408 9.677216 90.410835
31.724407 8.369213 89.007835
80.83941 14.512216 84.064835
82.987404 14.662215 83.04283
5.2864075 13.399216 86.48483
7.3384094 12.125216 86.896835
77.347404 20.779215 24.893831
75.77141 19.181215 24.55483
67.209404 17.474216 35.609833
68.233406 16.125216 37.03683
40.843407 35.826218 49.20283
40.098408 34.126217 48.00483
45.028408 33.883217 36.27883
47.151405 32.706215 36.45583
44.126408 25.675215 65.82683
46.452408 25.369215 66.00283
50.117405 35.980217 70.61083
48.549408 35.854218 72.40883
60.401405 44.767216 52.46283
61.829407 44.053215 53.59983
67.71541 7.7222137 60.65083
68.35241 7.6012154 62.882828
59.964405 0.5662155 39.291832
58.133404 1.9272156 39.32883
47.001408 45.194218 40.61183
46.32641 44.773216 38.263832
77.862404 29.529215 84.00783
79.60341 28.786215 83.03283
1.9584045 33.447216 86.18683
3.72641 33.318214 87.15283
42.990406 0.31621552 49.207832
42.167408 2.4642143 49.51483
28.963408 6.803215 46.985832
29.701406 7.8002167 49.27483
62.689407 29.416214 77.94283
60.970406 30.550215 77.38583
59.862404 42.185215 72.70583
61.072407 42.409218 75.27583
53.143406 36.453217 107.76483
51.379406 37.535217 106.356834
53.851406 34.823215 1.4948349
53.680405 33.969215 3.5478287
44.869408 18.141214 104.89484
42.803406 16.942215 106.08383
52.186405 6.3292155 99.90583
51.644405 5.2042155 101.52883
37.793407 31.406216 103.93483
36.54841 31.333216 101.951836
29.687407 43.078217 99.44783
27.111406 42.823215 98.81184
54.844406 15.136215 35.166832
56.878407 16.114216 34.811832
54.442406 14.030215 20.319832
54.982407 12.083216 19.50983
21.85141 29.878214 8.704834
20.788406 30.139215 6.9558334
17.863403 29.563215 108.62483
19.002403 27.359215 107.756836
45.832405 40.329216 26.66183
45.680405 42.326218 25.732832
50.88241 3.4052162 37.22483
52.601406 2.060215 36.45483
84.29941 3.7712135 29.72883
82.90841 4.501213 31.587831
76.06541 6.770214 41.38483
74.53541 4.8132133 41.30083
33.029408 12.500216 9.556831
34.746407 10.671216 11.121834
37.448406 11.416216 23.22383
36.566406 9.322216 23.743834
40.060406 2.331215 6.1328354
38.245407 1.8492165 7.579834
28.932407 9.696217 13.507835
29.039408 10.241214 15.622833
30.261408 8.676216 41.93783
30.154408 7.5782166 40.22783
22.677406 6.5892143 31.67983
23.264406 4.414215 30.91283
38.037407 44.062218 102.688835
37.94441 41.672215 102.10284
37.198406 2.1772156 100.591835
38.384407 0.46521378 101.772835
67.11541 35.984215 77.88683
67.262405 34.406216 76.61483
63.347404 43.406216 69.06183
65.67341 43.538216 68.92883
76.54641 24.018215 87.357834
75.820404 22.456215 86.41083
74.96141 11.433216 92.009834
75.46741 12.226215 90.384834
9.862404 14.210216 72.80683
11.761406 13.163216 73.14083
25.408411 15.296215 72.912834
25.613405 13.633216 74.24683
44.565407 1.3942146 50.978832
44.01441 0.6192131 53.01783
38.072407 34.312214 50.83783
36.120407 34.369217 50.38683
70.39541 14.636215 17.18383
69.094406 14.805216 18.921831
80.04641 11.491216 27.21483
80.417404 11.877215 29.11783
53.161407 28.034214 0.12483215
54.528408 26.268215 112.063835
53.990406 20.733215 100.076836
56.036407 19.722216 98.65283
43.09041 44.567215 44.68983
41.466408 45.732216 45.12583
32.087406 34.976215 48.464832
32.973408 32.728214 48.09383
36.739407 42.026215 38.88783
37.246407 44.259216 37.71683
33.255405 6.2642136 41.34183
31.057407 6.3842163 42.353832
35.61041 37.125217 92.86083
36.800407 39.287216 92.63783
39.596405 1.1102142 95.660835
41.314407 1.8342133 93.786835
17.367409 4.687214 96.43383
19.11441 4.2572136 97.454834
26.708406 40.556217 94.66783
27.723406 40.200214 92.619835
59.453407 3.482216 69.66483
57.719406 4.6762156 69.22983
60.421406 15.988215 60.91483
58.663406 16.996216 61.75583
42.62541 36.196217 78.218834
42.209408 33.904217 78.11783
41.737408 22.521215 74.45783
43.926407 21.746216 74.33583
66.09941 23.173216 103.27883
67.15541 25.370214 103.826836
58.378407 27.310215 96.369835
56.054405 27.560215 95.30983
71.63141 44.488216 21.909836
73.68941 43.83922 21.444824
70.67441 43.007217 24.446829
72.13041 40.880215 25.17983
2.8594055 28.425215 48.76183
3.4704056 27.182215 50.68683
5.00441 34.937214 62.49983
4.6094055 37.072216 62.437828
17.026405 1.1412163 92.47583
15.748405 1.7322159 90.94283
8.165405 41.045216 83.688835
6.844406 42.581215 82.96583
51.494408 8.499216 95.69583
51.517406 10.579216 96.83283
42.566406 19.711216 99.049835
40.630405 20.502214 99.551834
5.459404 10.105216 107.38583
5.9744034 11.510216 109.17184
7.6274033 22.454216 3.4888306
7.0444107 21.695215 5.1578293
2.0574036 40.062214 109.15683
87.33541 41.605217 109.647835
83.38441 33.324215 8.102829
82.76741 31.010214 8.637833
16.214409 27.618216 18.36383
15.348404 28.258215 20.80783
21.638405 27.408215 32.464832
22.080406 29.128214 33.734833
11.825409 18.025215 5.9988327
10.887405 19.533215 5.438835
9.769409 10.168216 109.04583
8.136406 10.062216 107.285835
20.623405 30.806215 12.715836
21.415405 32.915215 11.924835
15.029404 41.895214 5.1588287
12.779404 41.520214 4.8358307
63.803406 39.994217 89.509834
64.20041 40.989216 87.53083
69.584404 32.590218 77.69583
67.18441 31.805214 77.61083
36.946407 27.248215 69.202835
37.11041 27.993216 67.07383
42.622406 36.697216 59.07283
41.786407 36.488216 56.55883
21.67141 38.688217 48.50783
21.524406 36.675217 48.90883
20.318405 29.625216 39.15183
18.65741 30.847216 38.46583
21.478409 7.5042152 15.912827
23.39441 6.3942146 16.343826
21.32341 43.953217 23.84883
20.959404 41.865215 25.13883
28.406406 12.967216 105.17983
29.293407 11.753215 107.062836
28.474407 2.6792145 2.87883
30.282408 2.527214 1.8018341
34.100407 8.813213 53.43783
33.101406 7.2972145 51.65083
44.490406 12.025214 48.72783
44.336407 14.0352125 49.91783
51.702408 35.777214 103.270836
50.549408 35.099216 105.18483
51.226406 23.664215 107.15683
52.890408 22.493216 108.13883
6.8194046 33.949215 11.012833
6.1544037 36.185215 11.875832
16.676407 30.833216 13.120834
17.861404 30.599215 15.326836
0.104408264 37.769215 105.08383
2.207405 35.808216 105.162834
0.46440887 23.725216 110.55883
1.9764099 23.651215 0.3828354
47.20841 44.988216 24.73783
46.12541 45.90122 22.760832
51.005405 46.176216 10.578835
52.815407 45.167217 9.079834
60.752407 0.017215729 12.584831
60.351406 2.0522156 10.830833
54.814407 9.699215 18.052826
54.050407 9.401215 19.79683
25.764406 8.114216 79.06083
24.14741 5.617214 79.71483
19.537407 8.470215 67.06083
20.700409 10.346213 65.31983
26.153406 16.370216 5.5128326
25.738405 17.043215 7.9678345
13.473404 19.581215 7.190834
14.219406 21.255215 8.677834
36.61841 31.470215 16.934832
36.274406 32.025215 19.112831
43.102406 38.315216 27.319832
43.50041 39.516216 25.624832
83.277405 44.954216 34.69683
80.88041 45.560215 35.39183
73.028404 43.232216 25.699831
73.88341 45.39422 25.292831
5.9414062 33.240215 47.707832
8.341408 32.777214 47.14283
15.104408 32.126217 59.98983
13.26841 30.728214 60.785828
84.72541 6.1352158 104.57083
86.553406 5.428215 105.07383
0.9424057 43.13722 94.440834
86.6544 43.79022 93.19283
45.496407 31.546215 32.727833
44.559406 29.675215 33.83483
48.712406 26.340216 45.14383
46.73641 26.415215 45.71783
39.766407 11.6982155 75.551834
40.623405 12.357216 77.34483
33.599407 8.563215 87.18283
34.342407 7.4142156 89.01783
58.133404 41.737217 14.894829
57.283405 43.840218 15.106834
49.998405 38.562214 27.854834
48.134407 39.033215 27.168829
77.264404 8.623216 58.30883
75.44141 7.6382155 59.25883
74.50941 18.983215 58.05583
75.65741 18.761215 60.21483
55.701405 21.350216 67.50083
54.085407 21.333216 65.70983
57.082405 35.291214 63.77283
55.355408 36.167217 63.69383
48.409405 10.797215 23.794828
46.712406 12.469215 23.489828
43.216408 20.389215 10.668831
41.566406 19.277216 9.896835
49.484406 20.995214 18.355831
49.803406 22.832214 16.920832
46.447407 27.391214 28.441832
45.497406 28.783215 29.611832
12.733406 25.514215 15.620834
13.825409 25.603216 13.598831
22.25441 17.039215 21.12883
22.247406 17.256216 23.682829
39.717407 23.045216 72.54283
41.176407 24.947216 72.62283
44.717407 34.448215 77.01583
45.160408 36.624214 76.69983
17.724403 35.444214 107.05983
16.22641 36.547215 105.74983
17.634407 1.0212135 101.56084
16.359406 3.1492157 101.089836
43.127407 15.319213 32.94683
40.95141 14.789214 33.03683
38.634407 4.824215 35.950832
39.637405 3.2372131 37.96383
81.011406 7.4452133 58.06783
79.35141 6.284214 58.58583
3.7154083 46.404217 62.576828
3.9564056 1.3802147 64.230835
78.6404 41.336216 93.173836
78.861404 43.659218 92.07183
2.1044083 2.8422165 88.64983
2.6934052 3.1952133 90.39083
64.18241 7.360214 27.46783
61.433407 7.5732155 27.145832
59.478405 6.4112167 39.26583
60.168407 5.143215 41.17283
7.6314087 1.2312164 31.618832
5.7604065 1.5522156 33.20183
82.92741 45.549217 37.89283
81.734406 45.250217 39.60083
84.74341 11.348216 44.35683
83.345406 13.225216 43.37183
3.35141 11.013216 32.082832
4.315407 8.860216 33.534832
16.663406 42.625217 73.31983
15.733406 43.108215 71.35983
9.93541 2.904213 76.09983
8.92141 4.383213 77.787834
61.085407 30.502214 96.15183
59.036407 29.792215 97.04383
59.641407 37.335217 106.49983
61.170406 38.299217 107.04684
68.38241 28.861216 5.5828323
70.179405 29.080215 7.485832
78.97441 20.450214 12.027832
79.40541 21.574215 14.013832
3.68441 42.13022 22.923834
5.164406 42.080215 21.590836
15.447411 33.910217 19.371826
17.535408 35.060215 20.239822
16.216408 41.024216 111.814835
15.674408 42.594215 0.58483124
23.256409 4.841213 111.62283
24.59141 5.798214 0.83083344
56.994404 28.918215 79.41483
57.641407 27.979216 77.66983
46.188408 32.901215 78.98683
44.623405 33.539215 79.92783
82.47641 28.861216 76.61083
82.13341 29.221214 79.134834
6.9984055 36.610214 80.938835
7.1314087 38.233215 82.19383
0.80340576 39.676216 41.33883
2.5764084 40.993217 40.874832
86.16841 1.7452164 30.397831
84.37741 0.7662163 29.258831
22.752403 27.367214 27.59583
23.055405 26.407215 30.125832
18.978409 16.358215 36.19583
17.819405 14.505216 35.152832
16.061409 46.04022 66.86683
17.441406 46.161217 65.16683
12.876404 44.966217 57.57883
13.429405 44.823215 55.08783
79.708405 18.582214 102.59983
78.11441 19.049215 101.494835
71.695404 27.583216 111.787834
73.55941 29.189215 111.62383
34.745407 4.037216 102.92783
34.61741 1.779213 101.53983
32.914406 2.3042145 1.0328293
32.426407 0.65221405 2.5488358
79.07141 23.685215 33.69983
81.10441 24.704216 33.46383
0.41540527 14.129215 32.95483
0.7434082 13.221215 30.25283
50.418407 25.148214 47.66983
51.707405 27.146215 47.00983
50.606407 26.553215 60.04983
50.656406 24.721216 60.71983
57.579407 33.231216 35.77883
57.758404 34.627216 37.03983
48.062405 42.469215 38.65783
46.227406 40.842216 39.35483
45.38941 33.200214 27.18283
45.232407 34.729218 25.47783
57.470406 31.886215 29.140831
57.183407 32.359215 31.326832
82.57241 7.390213 106.65683
82.45441 5.298214 107.57484
70.79341 4.8652153 4.0978317
71.48041 5.029213 6.492836
18.18441 22.948215 83.06283
20.049408 22.511215 84.02483
19.745407 9.263216 81.99683
21.054405 9.273215 83.71983
36.154408 4.6442156 2.190834
34.25641 4.3462157 1.7718353
35.053406 13.928216 7.652832
34.184406 14.781216 8.936829
18.160408 5.494213 91.93083
17.389404 6.5142136 90.85183
5.1514053 9.955215 89.452835
2.747406 10.295215 89.732834
49.921406 18.706215 1.5718307
50.537407 16.438215 0.47883606
38.57641 11.204216 107.604836
37.690407 11.896215 105.87583
4.4754105 22.390215 51.78283
4.4544067 24.552216 50.53383
3.1134033 17.554216 53.97583
2.0264053 15.938215 52.09283
2.2174072 8.238216 104.65083
3.035408 6.093216 105.092834
85.16841 1.586216 112.11183
84.09041 46.20722 0.22283173
59.986404 3.673214 7.9628296
62.011406 4.6132164 8.132835
62.935406 10.543216 20.224823
61.011406 9.450214 21.376831
79.220406 11.702216 106.048836
78.194405 10.070216 106.79383
66.90541 11.466216 0.98883057
66.96841 11.178216 3.1458359
6.7764053 9.120216 37.48983
8.077408 10.753215 37.54383
18.568405 10.021214 36.62783
19.736404 11.593215 37.65083
72.749405 28.880215 62.91383
73.45241 29.957214 61.35583
85.26041 38.550217 64.20683
83.47541 38.107216 65.48783
44.495407 10.839213 24.80483
45.622406 12.039214 26.972832
42.463406 6.3002167 38.860832
40.506405 5.5192146 39.57383
2.7404099 21.655216 91.77783
1.9304047 22.392216 93.81783
82.06041 11.963216 86.92284
81.92541 10.443215 88.825836
36.77041 36.041214 104.37483
38.837406 36.020214 105.57283
42.093407 43.441216 4.9818344
39.650406 42.493217 4.7368317
8.3214035 6.5352135 36.20583
6.6274033 7.3342133 35.30183
3.8334045 13.278213 28.059832
2.2034073 14.397212 26.133831
67.692406 16.986216 16.862823
66.88241 18.535215 17.686829
57.549404 23.585215 15.242836
57.636406 22.569216 17.148834
51.808407 3.7232132 28.965832
50.260406 3.763214 30.475832
39.837406 9.690216 24.030832
41.94441 10.0612135 23.435831
78.96241 37.765217 24.27983
80.22741 35.971214 25.143831
74.05141 28.244215 31.879831
74.53441 25.888216 30.862831
31.162407 40.381214 94.854836
30.476408 38.031216 95.26483
21.379408 35.511215 94.29183
22.338408 37.127216 92.353836
56.710407 44.26922 52.99683
58.373405 45.884216 53.82483
55.249405 7.730213 60.12183
53.864407 7.8062134 62.40183
59.436405 32.399216 44.930832
59.969406 32.242214 47.06483
60.251404 38.060215 56.36983
60.732407 39.158215 54.87683
80.89241 20.871216 80.704834
82.402405 19.624216 81.44783
3.1184082 26.657215 84.27083
1.3624039 26.958216 82.425835
60.161407 24.652216 81.08783
62.264404 25.897215 80.53383
65.62841 31.703215 90.14083
64.43541 33.227215 91.67883
5.5364075 38.420216 110.93083
4.8354034 39.675217 109.37683
16.276405 39.534214 107.896835
14.818405 37.679214 107.674835
34.74241 29.682215 80.38883
34.21541 30.577215 82.75083
26.671408 23.215216 86.77583
26.408407 22.065216 88.590836
70.77441 9.586216 81.56283
68.76041 8.245216 81.99083
68.89441 7.937214 92.57283
70.65741 9.108215 91.71384
43.517406 39.437214 22.131836
44.931408 40.393215 23.148832
56.475407 35.494217 15.532829
57.210407 34.991215 13.661835
35.931408 10.816215 90.87984
37.394405 10.129214 92.285835
29.325407 43.891216 93.729836
28.998407 42.388218 95.13783
15.246407 27.014215 72.68783
13.720406 28.263214 72.29083
6.9634094 33.826218 81.42983
6.4164047 34.563217 83.21283
19.92241 46.571217 8.775833
17.855408 46.162216 9.1918335
19.74041 6.9862137 20.353836
18.258408 8.747215 21.58583
66.39841 31.962215 15.689835
66.81641 31.271215 13.65683
63.225407 21.638216 8.105835
62.846405 20.753216 5.7948303
17.468407 33.262215 39.23483
19.596405 33.362217 38.29983
19.038406 44.759216 39.728832
17.330406 45.851215 39.35483
17.328407 17.245216 27.181831
17.40641 16.664215 29.782831
20.355408 27.823215 36.89383
22.127403 26.938215 37.555832
20.199408 2.5052147 45.32683
22.164408 3.6562157 44.66183
31.129408 45.905216 35.10583
29.737408 1.3472137 35.29683
39.316406 21.897215 97.11383
41.042408 20.635216 96.37283
45.462406 17.319216 89.36483
45.369408 15.2312155 89.99783
45.556408 4.338215 64.161835
45.065407 3.9972153 66.30683
43.323406 10.510215 75.982834
43.450405 12.445212 77.52083
64.070404 36.336216 30.85083
62.960407 37.888214 32.70983
68.098404 33.734215 45.24083
66.24441 34.739216 46.01583
72.86641 8.848213 78.78983
71.96441 6.7072144 80.31083
75.85741 0.082214355 91.381836
73.93441 1.2612152 92.204834
33.79841 38.803215 39.05383
33.03441 40.457214 40.05083
33.43041 1.2822151 51.02183
33.11841 46.535217 52.86683
82.89641 32.164215 13.30883
81.45541 33.588215 12.893829
80.34041 41.983215 5.67083
79.74341 43.629215 3.803833
7.2644043 18.817215 18.61583
6.7384033 20.365215 16.895828
84.915405 28.307215 19.655823
84.19641 27.935215 21.672821
7.388405 37.055214 27.185831
8.122406 34.894215 27.719831
1.2234039 40.860214 25.365831
86.81441 41.488216 26.365831
44.32641 45.703217 41.67483
43.892406 45.317215 39.34883
52.242405 7.190216 37.47983
52.198406 9.169216 37.58583
6.013405 2.652214 35.873833
6.188408 4.5612144 35.38583
0.56240845 45.643215 42.91483
1.0154037 43.733215 42.02383
27.053408 42.590218 79.74783
24.934412 41.034214 79.96083
14.891403 40.846214 75.28983
14.544411 39.989216 73.56083
6.3384094 24.138216 1.9888306
5.2584076 25.632215 112.356834
9.994408 39.532215 1.9938354
8.632408 39.652214 3.9968338
5.485405 12.825213 93.85083
3.6764069 12.884215 95.759834
10.395409 2.6482162 94.25183
9.733406 2.4192162 96.48483
42.984406 43.966217 25.420832
42.495407 42.063217 24.854832
35.85341 40.181217 37.33883
36.122406 37.979218 37.436832
34.751408 26.475214 41.610832
33.279408 24.641214 42.409832
32.252407 14.716215 51.93883
33.34641 16.133215 53.61383
55.731407 26.722216 80.08383
54.640408 25.435215 80.60983
57.470406 35.417217 89.83383
59.671406 35.901215 88.87883
14.701408 42.758217 54.06183
13.883408 40.172215 54.81483
5.28141 2.6352158 50.73383
4.1044083 3.3142166 53.24883
8.019409 16.989216 68.092834
10.345406 16.461216 68.202835
13.091408 16.118216 66.60183
12.622406 15.285215 64.59483
50.378407 14.887216 5.4988327
50.247406 14.393215 3.4468307
39.670406 6.2172155 1.9558334
38.385406 7.3202157 0.29682922
66.38541 17.304216 3.1678314
67.36941 15.342216 3.8108292
77.86841 15.430216 8.084831
80.194405 15.414215 8.427834
44.831406 26.138214 29.983831
42.697407 26.621214 30.31883
41.797405 30.999214 42.28283
40.241405 30.966215 44.14383
84.098404 29.775215 37.887833
85.42641 29.349215 39.01583
6.832405 28.330215 47.99183
4.8244095 26.762215 47.67883
12.752403 5.3462157 19.551832
14.361404 7.134216 19.642832
13.786407 12.4742155 32.14083
16.252403 12.699216 32.02383
66.862404 37.189217 30.59583
68.24241 38.847218 32.14683
76.319405 37.697216 23.744831
76.66841 36.449215 22.01683
26.915407 36.771217 19.828827
26.362408 37.346214 17.71083
23.422407 28.843214 10.902832
23.185408 31.183214 10.91983
37.359406 22.792215 77.674835
35.21441 24.039215 77.38683
43.195408 24.655216 81.968834
41.85441 23.322216 80.78583
55.359406 18.767216 64.88583
56.007404 18.717215 67.22983
53.769405 7.779216 73.87683
52.603405 7.5212154 75.87583
62.088406 7.7112155 109.85183
60.259407 8.670216 110.47583
60.279404 20.165215 100.606834
62.638405 20.142216 100.36584
54.983406 37.020214 87.79383
55.312405 35.375217 86.15483
54.303406 45.316216 80.47783
53.95841 0.82221603 81.02183
10.62841 17.516216 16.582825
9.216408 16.545216 17.99083
18.722404 14.875216 26.26483
17.08741 14.884215 27.552832
31.856407 31.647215 106.90283
33.678406 32.653217 106.36483
28.481407 44.895218 102.06883
28.758408 0.01821518 103.729836
79.41141 22.599215 25.87083
77.055405 23.497215 25.22783
67.19741 30.242214 23.017832
66.21841 29.645214 20.966831
61.970406 0.71821594 9.2298355
63.140404 2.4222145 8.615829
69.540405 39.742214 13.463829
67.610405 37.676216 12.460831
46.822407 32.802216 104.452835
48.151405 35.000217 104.06683
47.801407 35.744217 91.814835
48.600407 36.072216 90.08583
41.385406 27.396215 47.21083
41.26441 29.081215 45.88783
50.513405 35.791214 45.54283
53.020405 35.452217 44.94183
45.551407 35.511215 34.04383
47.613407 35.610214 34.82283
53.518406 27.018215 32.57983
53.271408 26.653215 35.06783
35.035408 31.499214 108.77883
33.558407 34.027214 109.036835
36.196407 42.872215 5.5028305
35.748405 44.916218 6.8968353
56.833405 32.736217 45.52883
54.85441 32.732216 44.99683
55.908405 28.260214 35.54383
57.505405 26.420216 35.34783
45.449406 23.248215 86.299835
43.817406 22.231215 85.36683
38.296406 9.085216 89.64283
39.956406 8.886216 90.70683
56.394405 2.7052155 82.134834
55.543407 4.121216 80.813835
61.619404 13.664214 72.94783
62.682407 15.746215 73.20783
19.062407 0.28621674 94.00383
19.073408 45.705215 92.45583
31.734407 2.4572144 88.60083
33.572407 2.779213 90.09783
11.799408 41.516216 76.74983
12.29541 41.599216 74.897835
3.3874054 2.836216 67.76683
2.061409 1.4032135 66.67783
84.93941 14.612215 60.26683
84.902405 13.229216 58.25983
87.108406 10.787216 47.92183
86.45141 10.1912155 45.97483
82.82441 19.515215 6.244835
82.567406 20.790215 8.273834
73.90541 31.919214 5.9438324
72.93441 31.954214 8.01683
27.695408 27.434216 32.353832
28.537407 24.995214 32.00083
37.467407 26.512215 42.26583
39.24341 24.731215 42.79083
21.300407 39.968216 68.53983
19.64441 41.092216 67.95683
12.7604065 36.352215 67.11083
12.219406 38.125217 65.57683
44.321407 30.584215 25.795828
42.877407 30.304214 23.404829
51.582405 31.321215 12.884834
53.331406 31.867214 13.436829
19.287407 14.662215 29.198832
19.940407 13.552215 31.01683
30.160408 5.9522133 31.744831
29.443407 4.484215 30.563831
32.557407 8.206216 39.21683
32.614407 10.522216 39.32583
19.776407 12.608215 35.16883
17.886408 11.703216 34.498833
65.206406 43.571217 106.412834
64.193405 42.926216 104.59483
51.952408 1.6902161 100.825836
51.943405 3.4762154 99.42783
52.211407 10.824216 35.26883
53.004406 12.377215 34.34183
55.731407 18.330215 35.005833
54.054405 17.487215 36.485832
32.85441 2.145214 38.44783
32.498405 3.777214 39.51283
27.842407 9.212215 45.36683
27.811407 10.227214 47.49083
54.664406 33.422215 110.45583
53.151405 32.852215 112.08083
44.087406 41.454216 5.1348343
42.666405 40.294216 5.2718353
75.43241 11.460216 98.63983
75.04941 13.557216 97.870834
65.96541 21.296215 100.854836
64.31541 22.267216 100.45983
47.186405 13.782214 49.23283
47.379406 11.4172125 49.28683
47.887405 2.093216 53.76683
49.396408 1.022213 53.52683
23.201406 41.461216 73.31983
25.263407 40.831215 74.08683
30.776407 44.67922 66.09883
33.044407 45.639217 65.09783
41.778408 2.0422134 52.66483
39.81941 0.7362137 54.11683
43.69441 39.064217 58.55583
43.574406 38.528217 56.29783
86.76041 37.310215 14.112831
0.71241 38.983215 13.21183
1.9464035 39.851215 111.78284
2.6154099 38.068214 110.633835
33.521408 25.274216 70.34483
31.208406 26.223215 70.19883
36.731407 23.274216 61.11783
38.434406 24.408215 61.71083
54.179405 15.760216 93.48983
55.048405 14.1652155 92.18183
64.636406 11.703216 86.147835
65.80941 10.435216 85.438835
83.97941 17.676216 69.772835
86.48141 18.272215 68.827835
8.808411 14.916216 75.411835
8.50341 13.084215 75.106834
69.556404 32.404217 4.519829
68.124405 31.294214 3.1018295
64.4044 40.810215 106.53883
62.635406 39.899216 105.328835
20.835403 8.782216 79.53883
19.215408 6.1832156 79.91883
9.457405 14.334215 79.82283
9.456406 15.961216 77.93083
8.634407 14.931215 36.367832
10.599403 15.471215 38.10883
7.6394043 10.763216 49.99583
9.141403 10.657216 51.07083
52.460407 36.108215 47.90083
50.616405 37.389217 48.10983
61.284405 40.761215 39.75883
61.604404 42.775215 39.46183
50.657406 2.7942162 9.55883
49.974407 2.6952133 7.0598297
40.991405 6.4672165 111.868835
40.476406 8.236214 110.773834
26.582407 43.067215 35.013832
27.051407 44.629215 33.16783
28.367407 36.494217 22.586832
29.594408 36.617214 20.778831
45.700405 18.397215 51.05483
47.346405 20.016214 51.87783
47.087406 16.418215 41.82583
46.059406 15.242215 39.80483
79.067406 39.643215 38.14083
76.97941 39.501217 37.17783
65.833405 38.537216 33.70883
65.48841 40.846214 34.01583
30.257408 38.084217 35.339832
28.762407 38.474216 33.55083
25.261408 37.375217 22.58283
24.406406 39.628216 22.912832
68.03141 36.429214 50.40383
68.625404 37.164215 53.06983
77.39341 41.648216 54.346832
78.12741 42.607216 56.42283
41.489407 26.070215 95.83183
42.202408 27.661215 94.59483
54.508408 23.829216 95.964836
53.818405 22.064215 97.47784
20.846405 2.7172165 30.94683
20.413406 4.692215 30.004831
18.840408 43.079216 26.08983
18.958405 42.770218 23.483831
80.61941 5.928215 28.840832
82.57741 5.1952133 28.407831
75.81041 45.508217 21.014832
74.387405 0.20921326 21.117832
27.542408 25.004215 58.66983
29.305407 24.995214 57.98583
25.723408 23.187216 48.423832
27.328407 21.938215 46.90183
74.08541 7.110214 99.367836
76.36741 8.474216 99.57183
84.956406 9.893215 89.12183
83.791405 8.568214 87.578835
10.598404 19.377214 84.54283
11.724403 20.060215 82.53583
6.68441 28.141214 73.93583
6.2014084 25.889215 72.80383
65.77041 34.097218 110.18483
63.721405 34.382217 109.16583
67.39741 25.601215 108.51083
67.318405 24.098215 106.647835
66.387405 10.122214 82.41083
66.71341 9.952213 80.037834
58.561405 5.697216 84.26883
56.635406 6.364216 84.78483
40.143406 32.163216 10.606834
42.075405 30.291214 11.26683
49.38241 29.475214 12.4038315
49.299408 31.369215 11.038834
9.831406 40.204216 81.04283
7.2244034 40.632217 81.06883
2.4644089 2.8272133 70.15683
2.8224106 4.7992134 70.29183
14.089409 43.136215 8.054832
11.801407 43.162216 10.022835
22.566406 35.213215 16.282822
23.538406 36.903217 17.512833
17.12841 44.310215 93.77583
17.487404 43.081215 91.41383
4.525406 39.784214 86.12183
4.3694077 37.269215 86.83583
84.430405 15.149216 56.61283
83.65641 16.682215 58.194828
85.29541 16.311216 64.44183
87.28441 17.262215 64.94383
29.574408 20.670216 26.96383
27.744408 22.077215 27.50683
20.874407 16.548216 38.94783
20.373407 14.0402155 38.033833
86.50541 2.9882164 73.29083
84.57841 2.8852158 74.12683
86.34141 13.790214 68.091835
1.4424057 13.172214 67.61783
60.979404 1.0542145 69.40083
60.593407 45.981216 67.51883
62.743404 33.027214 70.69283
63.961407 32.336216 68.47283
86.233406 29.246214 63.77983
86.345406 28.345215 65.99183
9.051407 35.921215 67.786835
9.62941 38.151215 67.21083
79.50641 13.047215 86.94183
77.790405 12.642216 88.536835
76.65941 15.854216 96.079834
74.19641 14.440215 95.14183
62.273407 20.567215 33.00883
60.240406 20.308216 34.77283
64.55041 19.196215 20.348831
65.707405 21.434216 20.805832
30.414408 21.512215 55.26983
30.853407 19.865215 53.48683
30.523407 10.074216 52.48683
32.689407 10.826216 52.28083
35.232407 37.814217 2.704834
34.526405 38.058216 5.2218323
23.538406 34.368217 13.29483
23.339407 36.753216 13.861832
71.775406 34.300217 52.75283
72.16941 33.044216 54.14083
75.08941 41.241215 65.51783
76.54541 39.841217 64.87283
55.38941 36.469215 109.80583
55.727406 37.426216 107.75083
55.080406 27.634214 97.968834
56.130405 25.235216 97.59883
9.398407 36.075214 64.397835
11.160408 36.991215 63.20283
15.585403 36.502216 55.71383
16.057404 34.589214 55.44683
23.51841 19.053215 48.37783
21.610405 19.145216 47.66083
16.811409 21.299215 58.03883
17.85041 19.182215 58.93383
77.99441 31.876215 105.45883
79.30741 33.447216 105.05683
85.42141 35.856216 96.37783
87.30041 36.531216 94.49084
51.036407 0.35921478 7.3548355
49.620407 45.245216 6.7598343
56.249405 34.049217 8.437836
54.343407 33.784214 8.804832
28.154406 36.630215 60.69783
27.802408 38.527214 62.062828
16.44941 38.963215 55.63483
17.07441 41.403217 55.09183
65.000404 9.608215 51.49383
64.581406 10.693215 53.44083
66.44741 9.432216 62.77583
66.89641 8.947216 64.74283
77.484406 41.638214 81.53883
77.5154 41.447216 83.938835
2.9864044 45.74122 85.58583
4.3614044 46.529217 87.244835
2.3644104 19.877214 57.73083
2.9614105 19.799215 55.83783
7.3924103 30.917215 60.82483
9.302406 31.776215 62.28683
24.02141 21.956215 92.08783
23.312408 19.977215 92.77983
22.65841 14.190215 94.218834
23.594406 15.187216 95.75283
36.122406 24.615215 69.25783
36.661407 22.256216 68.64383
25.259407 13.414216 70.82683
24.786407 10.862216 71.328835
34.021408 12.182216 89.37283
31.996407 13.2312155 90.65083
24.143408 21.811214 85.23583
23.901407 23.280216 86.76884
52.948406 5.7592163 23.285831
53.523407 4.296215 24.85683
54.635406 5.367214 34.88583
53.57641 7.822216 34.923832
11.2604065 28.790215 21.288834
9.775406 27.694214 21.330826
