71.29814 34.76683 15.345463
17.42514 22.583832 101.54746
19.06414 22.784832 103.06046
23.98114 36.289833 103.50146
24.096146 36.28083 101.30446
70.793144 12.187832 71.32746
68.12015 11.900829 71.85546
54.951145 10.043831 73.04046
54.113144 10.869831 71.26746
73.03414 19.136831 51.395462
72.82514 20.254831 52.966465
72.33115 24.903831 65.71246
71.80114 26.822832 64.43746
10.524147 41.666832 78.49546
8.821144 40.98183 79.47646
1.7611465 5.499832 80.63546
0.5441437 6.2268295 82.40846
86.65514 19.39483 67.19446
87.959145 19.128832 65.51146
85.916145 26.058832 65.87946
84.611145 27.820831 66.83146
14.029144 7.855831 6.986458
14.32814 7.09383 4.477463
15.000145 20.920832 2.279457
12.946144 21.956831 1.5824585
52.217144 43.61283 64.056465
50.346146 43.85683 66.015465
61.775143 45.123833 72.61546
63.781143 44.87683 71.88646
72.16214 6.734829 14.038463
72.43814 5.1298294 12.722463
82.75814 12.554832 8.478462
84.959145 12.213829 9.004462
72.16014 13.314832 75.94146
74.55014 12.717832 76.80046
70.39114 22.514832 70.88646
68.613144 21.261831 72.57746
65.932144 37.581833 57.179462
64.17815 36.53083 57.368465
53.109146 38.033833 65.48546
51.438145 38.46283 63.870464
47.052143 27.554832 21.305462
45.551144 28.932833 22.001463
47.315144 20.30783 17.661463
47.155144 18.901833 19.750462
1.3691483 1.9608307 19.065462
0.046142578 3.5678291 18.971462
10.488144 14.3588295 20.149462
11.006142 14.902833 17.786463
58.228146 3.7298317 94.06846
56.266144 3.8728294 95.63246
61.248146 11.617832 1.3054581
59.275143 12.335831 1.4004593
82.67614 35.671833 96.31946
81.58015 37.71783 95.18346
76.17815 36.213833 82.15146
76.56314 38.165833 82.01046
76.62814 14.54583 63.242462
77.82814 12.24683 63.488464
66.959145 10.930832 53.900463
65.89915 11.992832 52.192463
67.790146 2.852829 41.711464
69.623146 3.5788307 41.866463
79.28614 12.277832 41.026463
80.06715 9.966831 39.83346
49.168144 21.452831 37.830463
49.544144 23.263832 36.602463
52.376144 36.18483 37.31346
50.044144 36.74483 36.247463
29.269142 42.247833 55.225464
29.672142 42.22383 57.147465
39.129147 32.199833 56.711464
38.55215 31.307833 54.57646
16.687141 21.01283 33.581463
14.9991455 20.427832 32.053463
6.2071457 10.825831 35.523464
7.8881454 9.176831 36.92546
27.229141 41.84983 58.419464
28.228142 40.80283 60.029465
16.877144 41.43383 64.04046
15.78614 42.254833 65.69846
45.423145 5.7828293 41.198463
46.825146 7.7438316 41.981464
48.129143 19.679834 39.625465
46.523144 20.916834 38.976463
89.46114 42.29283 33.84746
88.56114 42.416832 36.219463
4.5551453 7.4748306 36.113464
7.165146 6.5518303 36.39046
63.667145 31.180832 92.14346
62.889145 30.524832 94.42046
73.19814 36.283833 101.52346
72.88314 38.53683 101.58246
25.794144 40.95383 23.810461
26.349144 42.84883 22.621462
29.090141 5.265831 28.986462
30.479141 7.3988304 29.026463
21.61914 36.81683 5.248462
21.198143 36.041832 7.335462
9.632141 37.721832 10.937463
8.389145 36.35183 10.344462
81.71314 32.72683 76.23346
83.737144 33.05683 77.44746
89.74414 42.51083 69.08846
89.74514 44.73283 68.32446
72.93614 18.66883 18.668463
71.66914 20.05083 19.735462
64.42715 30.677832 21.928463
64.84215 29.935831 24.226461
28.285141 24.83883 21.788462
28.07814 25.203833 24.372461
38.087147 14.395832 23.444462
36.136147 13.018832 24.096462
42.466145 46.61283 67.793465
42.388145 45.82983 65.56146
43.770145 41.887833 55.343464
42.711143 41.55683 53.301464
13.237144 5.0308304 92.42846
12.531143 6.7528305 93.68446
3.9561462 9.652832 102.86846
1.9021454 11.04483 103.06546
73.14514 41.666832 25.903461
74.57514 40.06683 24.760462
75.749146 28.817831 31.362461
77.83914 28.742832 32.57646
35.396145 21.785831 22.424461
37.594143 23.260832 22.218462
42.628143 15.366832 12.608462
41.333145 13.693831 13.212462
49.094143 21.112831 47.432465
51.518143 20.985832 47.491463
56.851143 23.177832 34.65346
59.296146 23.239832 34.78646
63.690144 8.89183 79.93646
61.593143 9.10183 80.37146
66.10515 18.679834 75.53946
67.21214 19.801832 74.41646
75.877144 38.28883 38.183464
77.53414 37.31483 39.68046
69.71414 29.782831 44.289463
70.013145 27.484833 44.166462
44.792145 41.83383 97.16746
45.899143 43.61183 95.50046
40.277145 3.7408295 1.5074615
39.144146 5.241829 0.28945923
11.598145 38.22283 49.638462
10.114143 36.02283 49.164463
2.3561478 46.56483 46.415462
4.540146 0.08383179 46.545464
7.8311462 36.07083 83.78246
7.607147 35.268833 85.89346
17.094147 25.238832 80.07046
15.990143 24.882832 78.46846
20.604141 10.708832 56.445465
20.642143 8.775829 55.339462
29.586143 46.48383 53.998463
29.266144 44.74483 54.854465
89.000145 33.199833 51.693462
91.01914 33.067833 52.104465
91.20214 45.58783 54.954464
89.60715 46.09983 56.594463
70.60715 30.736832 27.599463
72.64814 30.198832 29.421461
61.304146 25.046831 32.69546
60.959145 23.822832 30.608461
81.54514 1.5578308 92.43546
79.81615 2.1518326 93.628456
83.86914 44.53583 99.40946
84.334145 44.498833 101.42946
45.041145 44.77283 18.896461
44.554146 45.23783 20.944462
38.868145 46.19883 29.258461
39.231144 0.40883255 30.91146
59.578144 38.89183 7.9824624
60.965145 37.76083 9.171466
69.46815 31.065832 0.87545776
70.39514 31.807833 3.0894623
0.24914551 22.436832 8.892463
0.89914703 21.789831 11.163463
81.902145 17.407831 8.693462
82.31615 15.116832 7.3724623
56.563145 27.196833 5.0664597
56.638145 26.053831 6.728462
60.840145 14.746832 1.7374573
59.067146 14.703832 2.3524628
70.444145 15.53283 13.59846
68.12015 14.41983 13.572459
70.457146 11.513832 105.29046
68.00414 11.624832 0.3344574
0.03514862 36.166832 82.17146
91.611145 34.41183 82.95246
3.236145 22.808832 84.86046
2.078148 21.018831 83.80146
82.99615 46.18883 34.321465
81.39915 0.92583084 34.18046
72.96314 44.09083 39.539463
74.18314 41.99583 39.393463
88.26814 25.063831 36.648464
88.667145 27.051832 35.682465
3.0351486 17.068832 41.690464
2.7931442 15.534832 43.390465
52.569145 33.70483 26.515461
51.389145 34.942833 24.916462
58.159145 37.33683 28.534462
60.023144 38.192833 28.131462
56.584145 26.215832 55.907463
57.964146 24.432833 56.031464
58.303146 18.233831 45.31246
59.213146 16.288832 45.934464
23.614143 24.419832 63.173462
22.406143 24.106833 61.255463
22.611145 25.475832 58.821465
23.029144 27.466831 59.892464
54.079144 2.0028305 96.33446
56.190144 1.0518303 95.46946
50.132145 36.97283 90.73346
49.808144 36.018833 88.62146
52.763145 17.725832 82.60846
53.064144 18.271832 80.017456
63.092144 25.530832 83.88346
61.643143 25.130833 86.05646
59.855145 29.630833 96.52746
58.664146 31.575832 95.68546
58.143143 44.935833 96.14646
59.612144 44.783833 97.77346
88.95014 31.501833 53.960464
90.21214 32.82283 55.428463
89.19914 45.305832 52.640465
90.14214 46.64283 51.071465
76.74414 10.230831 89.62046
76.51015 7.36483 89.05146
65.32815 8.26083 89.80046
63.484146 9.84483 89.73546
8.629143 3.6468315 90.96846
9.171143 3.8878326 88.92246
6.071144 37.67083 86.83646
8.266144 37.64783 88.02646
5.231148 4.9248314 58.493465
4.675148 3.5718307 60.310463
0.34514618 37.78783 59.170464
91.276146 36.47583 60.371464
54.026146 39.116833 58.057465
54.434143 41.30083 58.391464
46.738144 4.42083 61.633465
45.585144 4.9978294 59.31946
28.624146 28.679832 67.13846
26.931145 30.144833 67.16246
26.459145 37.262833 59.904465
28.020142 38.651833 58.073463
82.63214 18.245832 54.226463
81.474144 16.486832 52.884464
80.624146 15.523832 43.110462
79.38615 15.322832 41.273464
14.782143 23.520832 45.227463
13.0251465 22.56483 46.040462
8.18914 11.787831 39.182465
6.276146 10.178832 39.638462
77.901146 45.24683 46.692463
80.06314 43.89183 47.68046
80.50614 34.16083 40.990463
78.80215 33.94683 39.651463
2.4591446 39.37083 7.052462
0.65514374 40.50383 8.022462
81.485146 34.386833 6.9674625
81.28314 31.969831 7.1984625
15.138145 24.649832 47.613464
17.810143 24.723831 47.243465
23.09314 34.27483 39.423462
25.000145 34.436832 37.81246
30.242142 27.832832 89.77246
32.835144 29.167831 89.90746
39.753147 28.143831 100.60946
39.477146 30.114832 102.46446
83.194145 21.308832 80.31346
81.24014 21.72083 80.92846
67.86814 20.687832 76.78946
66.845146 22.846832 76.89446
67.764145 34.43383 82.67246
68.71714 36.629833 82.87946
70.56114 46.55683 81.68246
72.37814 45.59883 82.78246
18.528145 5.194832 59.022465
19.760147 3.2698326 59.195465
20.13414 37.636833 56.255463
18.187141 36.85483 55.367462
18.678146 14.569832 18.653461
16.928146 12.945831 17.726461
14.322144 2.8228302 23.099463
16.770142 1.9198303 23.181461
34.564144 45.41783 73.02946
36.636143 44.18283 71.251465
46.162144 44.90583 74.55846
47.512142 45.048832 72.72046
38.783146 9.033833 82.517456
39.163143 6.8378296 82.75246
45.074142 6.2908325 94.24746
44.770145 8.08683 95.86346
30.60614 12.459831 66.51146
28.209145 12.925831 65.946465
22.513145 3.1968307 59.105465
21.777145 1.4738312 60.164463
81.87914 23.314833 34.307465
79.833145 24.289831 34.614464
76.61914 35.388832 36.90346
75.97614 36.91783 35.07746
2.9281464 3.133831 63.738464
1.7981415 1.8088303 64.68046
90.19714 5.263832 72.39346
89.113144 6.2908325 70.683464
26.796143 0.28282928 83.13546
25.429146 0.4818306 85.14846
35.57514 5.659832 77.503456
36.521145 4.1258316 79.21346
61.045143 8.362831 92.29546
60.946144 9.050831 90.33446
53.083145 1.5138321 87.95946
53.465145 0.71183014 89.97046
41.180145 30.759832 57.927464
42.389145 32.324833 56.961464
49.944145 26.294832 49.008465
50.155144 28.816832 47.891464
40.179146 24.965832 56.685463
41.819145 23.923832 58.181465
51.930145 20.608831 49.985462
53.000145 22.858831 48.987465
72.209145 36.54583 104.04146
73.988144 36.17583 105.48046
84.626144 44.650833 0.09146118
83.09014 46.46683 0.097457886
28.910141 3.456829 96.82246
26.782143 3.8918304 97.00446
20.06414 38.69083 95.58246
18.699142 38.44083 93.45546
39.447144 28.613832 37.86846
38.111145 27.530832 40.100464
38.886143 14.430832 39.457462
37.247143 14.7128315 37.696465
55.860146 29.701832 5.873459
53.770145 30.472832 4.7474594
52.423145 17.955832 3.1814575
51.912144 16.505833 1.4914627
80.62814 33.58083 12.427463
80.37215 35.004833 13.605462
84.528145 45.838833 6.8974624
83.17414 46.44783 5.0394626
31.557144 15.068831 52.632465
30.617142 17.192831 51.962463
33.933144 22.388832 39.09046
35.705147 20.41183 38.207462
80.72914 21.417831 101.49446
79.221146 21.134832 103.36146
81.82915 29.220833 7.1504593
80.04714 29.486832 8.992465
81.39714 11.647832 38.086464
82.416145 12.505832 39.56246
88.09214 22.378832 35.797462
86.10414 23.795832 35.579464
47.581142 16.192831 2.6364594
47.403145 17.774832 1.3514633
37.713146 18.957832 4.4394608
39.580143 17.973831 4.713463
80.15015 31.480833 40.094463
82.109146 32.12783 41.323463
81.49414 20.91183 35.69446
81.32514 19.052832 35.031464
39.141144 42.00083 32.259464
37.637146 43.992832 31.336462
39.373146 3.7268295 22.288462
37.019146 3.2158318 21.828463
50.971146 32.255833 75.75946
52.427143 34.36383 75.51946
42.361145 33.06983 72.83346
41.528145 31.916832 71.17646
70.252144 26.21383 7.6864624
68.97814 26.537832 9.193462
61.020145 28.204832 19.225462
60.087143 26.500832 17.754461
38.68015 12.773831 20.405462
38.35915 12.8378315 17.852463
26.825142 17.181831 13.907462
26.55014 14.815832 13.748463
26.588142 35.00783 102.80746
28.38414 34.547832 101.15346
28.21814 46.234833 92.34346
28.186142 0.7058296 93.75646
23.525146 21.382832 77.59746
25.25814 21.897831 76.67246
30.625145 29.851831 84.12546
32.303146 30.983831 83.03646
71.460144 27.664831 70.28746
72.61514 25.880833 70.08846
83.64314 19.261831 74.37646
83.57514 20.664831 76.47346
5.422142 20.707832 15.348462
7.135147 19.422832 16.098463
18.500145 29.401833 16.661463
17.82714 31.191832 15.075462
72.750145 1.970829 84.75946
74.38414 1.5118294 84.70046
79.027145 5.2288322 75.19546
80.83015 5.7108307 73.91946
39.444145 12.576832 49.012463
37.151146 11.777832 49.196465
38.124146 12.457832 42.672462
38.848145 11.69783 40.450462
23.295143 46.76983 17.829462
24.668144 47.17183 16.384462
25.470146 12.035831 13.586462
25.429146 12.275829 15.660462
66.85815 37.977833 38.72946
67.224144 39.99483 37.75846
74.82814 45.11383 46.521465
75.52114 45.05283 44.56246
19.944145 9.293831 44.052464
21.362144 7.249832 43.709465
27.769142 45.32083 50.335464
27.895142 45.14783 52.497463
84.389145 23.432833 75.95946
84.000145 23.128832 78.36546
82.59315 20.121832 83.16946
82.083145 22.705832 83.49946
23.990143 46.652832 80.53246
21.84214 45.75783 81.09946
13.760147 0.5048294 74.09646
11.822144 1.9218292 74.28746
41.543144 36.409832 35.900463
43.329144 37.957832 36.10446
41.970146 39.643833 50.240463
43.051144 38.25983 51.014465
87.50514 11.671832 10.365462
87.696144 13.621832 9.054462
86.70114 20.692831 21.272463
86.471146 20.097832 23.439463
17.740143 46.10683 22.358461
16.394142 0.12683105 20.430462
14.270142 44.40683 28.656462
13.450142 44.34183 30.722462
33.057144 36.22683 14.161463
33.893143 38.57883 13.647463
43.856144 33.740833 13.622462
42.810143 33.64283 15.368463
85.640144 46.32983 49.456463
87.555145 46.74383 50.973465
78.63414 3.3968315 63.182465
79.60715 4.7578316 64.55246
13.087143 31.259832 22.141462
14.552147 30.570831 23.260462
22.694145 39.44583 22.303463
25.09114 39.39683 21.703463
77.75814 21.986832 89.99546
80.153145 23.320831 89.82146
89.373146 21.497831 100.253456
90.416145 23.751831 100.97346
32.06214 45.011833 78.63446
30.547142 46.69483 77.29146
34.297142 11.332832 70.46646
32.52214 10.64283 69.19246
51.183144 7.3798294 25.360462
52.502144 5.5098305 25.976461
50.724144 46.44083 36.70146
50.319145 0.43783188 39.05546
29.599144 39.930832 41.606464
31.80114 39.86183 42.056465
39.009144 34.020832 33.321465
39.83315 32.43383 33.282463
35.46714 43.71583 10.261462
36.278145 42.51583 8.59946
32.20314 32.63983 0.05545807
32.27014 34.17583 104.11746
44.264145 13.882832 105.57146
43.593143 12.348831 0.8384628
42.792145 10.743832 10.532466
42.164143 12.257832 11.0054655
92.196144 42.158833 16.697462
1.9641418 42.102833 18.332462
0.98314667 45.94083 30.481462
3.484146 45.42083 31.076462
49.558144 43.693832 79.18446
46.882145 44.735832 78.70446
37.234146 34.69583 78.82246
38.138145 33.38383 77.93046
31.747147 7.444832 13.609463
32.66114 5.4268303 13.594462
26.053146 45.12883 17.856462
24.56514 44.46683 19.484463
88.73014 35.53183 101.19646
91.13214 34.56483 99.95046
10.267143 37.89783 97.41046
10.834145 37.881832 94.99746
69.45114 10.743832 75.85846
67.99114 10.94783 74.47146
61.039146 10.501831 86.92446
59.082146 12.298832 87.65646
45.073143 13.489832 35.206463
43.268143 14.228832 34.776463
40.416145 20.408833 37.783463
38.042145 18.860832 37.905464
88.20014 28.370832 13.592463
87.40814 30.557833 15.352463
91.55114 36.470833 22.117462
0.24814606 34.34883 23.689463
44.622143 18.301832 89.84046
44.173145 19.753832 91.18046
44.066143 10.0288315 97.91146
44.716145 9.3968315 100.11046
85.95515 1.9628296 77.42746
85.196144 47.20083 78.18746
71.17514 3.8638306 81.21546
72.348145 5.6138306 81.87946
47.590145 33.213833 9.414462
48.349144 32.70583 7.381462
38.123146 39.144833 104.58946
39.211143 40.741833 104.32446
41.043144 9.748833 0.95246124
41.644146 7.9488297 105.46046
31.082144 10.414829 100.97846
30.843143 11.022831 98.91246
66.42114 46.63283 36.307465
64.80814 47.14483 37.767464
66.15914 46.30283 51.783463
67.013145 44.65483 52.483463
63.498146 39.318832 89.78046
61.726143 39.02383 90.43046
60.969143 4.508831 92.85146
62.466145 5.555832 91.66646
81.165146 18.328833 42.966465
81.889145 17.455832 44.464462
2.113144 12.639832 40.478462
4.359146 13.533832 41.868465
40.065144 0.08683014 3.031456
39.620144 46.235832 4.5774612
50.010143 41.365833 1.2604599
51.793144 41.018833 2.5994568
4.720146 29.191832 74.42646
6.7041473 29.982832 73.44946
16.695145 38.24683 73.39646
16.293144 40.159832 74.23146
19.322144 22.237831 52.767464
21.99514 20.916832 52.971462
27.413147 12.364832 47.604465
26.613144 10.194832 48.343464
66.58814 7.272831 51.054462
65.49314 8.881832 51.686462
52.169144 3.8968315 50.247463
50.878143 5.63583 51.181465
22.462143 32.11983 89.21746
22.57814 31.934832 91.26246
12.922142 23.739832 93.28846
13.688141 22.745832 95.52646
52.673145 3.3638306 36.401463
54.537144 4.0898323 37.423462
58.162144 8.84483 26.803461
57.381145 10.820831 27.273462
71.778145 16.818832 104.15046
70.293144 15.138832 105.57246
63.844143 19.216831 10.697459
63.049145 21.313831 11.817462
55.408146 2.5978317 6.025462
57.053146 3.5118294 7.3754625
67.13315 44.12783 10.991463
68.35114 42.86483 10.1324625
19.116142 16.241833 71.155464
20.707146 15.660831 69.766464
20.673141 25.448832 62.934464
18.670143 25.959831 62.287464
88.43414 8.69183 80.47146
88.03614 10.853832 79.65846
90.59214 8.234829 73.82746
88.652145 6.678829 74.18546
9.347145 32.55783 9.11246
9.910141 30.464832 7.4464593
0.986145 39.68383 0.81246185
91.35314 40.07283 0.14945984
27.803146 40.77383 21.072462
26.206146 41.541832 19.693462
39.286144 45.31383 13.242462
39.418148 0.6258316 12.558462
3.3191452 0.0728302 52.719463
2.5891418 1.6988297 54.903465
2.5151443 35.492832 62.501465
0.49414825 35.997833 63.913464
0.9371414 18.386831 53.125465
2.639145 18.068834 54.313465
6.408142 4.4818306 56.235462
6.0351486 2.1778297 55.463463
39.414143 3.206829 13.532462
39.837143 4.897831 15.154463
42.688145 12.105831 4.3164625
41.401146 11.765831 2.7624621
81.28314 1.6828308 3.8154602
80.57915 3.7908325 3.7544632
87.639145 4.491829 96.95646
87.74715 5.569832 94.67546
43.741146 0.5638313 33.81246
41.318146 47.16583 33.31346
34.955143 3.4258308 40.581463
32.613144 3.784832 40.006462
65.458145 22.985832 80.09446
64.654144 21.775831 78.08346
67.37814 22.041832 69.81646
69.09214 20.342833 69.13446
36.611145 41.45383 104.50646
35.660145 43.46283 105.35746
46.695145 39.817833 4.597458
48.371143 38.36383 5.532463
58.352146 25.975832 15.741463
59.756145 27.458832 14.999462
66.29414 17.081831 15.090463
64.54714 16.47083 13.770462
69.77415 4.110832 12.733462
71.31414 2.654831 13.240462
67.20014 0.91083145 27.274462
68.720146 0.24583054 28.762463
47.761143 42.289833 4.1044617
45.675144 42.839832 5.4394608
37.153145 1.7578316 6.5374603
38.534145 1.3888321 5.0304565
36.814144 11.7788315 71.25646
37.169144 11.491829 69.00646
47.849144 10.932831 74.91546
49.188145 10.437832 76.58946
16.029144 21.60983 29.952461
15.28714 22.009832 27.914461
5.250145 20.267832 27.789461
3.885147 19.074831 26.676462
20.17614 20.325832 103.52046
17.49614 20.476831 103.378456
12.102142 19.810831 93.91646
11.637146 19.046831 91.52846
78.043144 14.335831 84.14846
79.93414 15.169831 85.70146
79.06214 1.8318291 87.33846
79.373146 47.159832 85.85746
22.276146 47.05683 1.043457
24.275146 46.81183 0.2544632
22.628143 37.519833 95.40446
24.059143 38.852833 94.05846
39.185143 32.527832 12.013462
38.448143 34.33683 13.412462
42.892143 30.650833 24.627462
44.201145 31.211832 23.012463
87.52515 44.86183 81.52246
85.48315 45.79483 80.52746
85.19714 4.8408318 92.82846
83.318146 5.860832 93.03146
69.38214 43.32383 16.201462
68.431145 43.66883 14.062463
69.37914 40.23683 3.5484622
69.45314 39.29483 1.0264622
26.253143 26.216831 64.40046
26.111145 28.46383 65.17046
20.319145 28.119831 61.55546
22.484146 27.503832 62.519463
0.32414246 42.68883 2.2274628
1.3411484 44.68783 2.0354614
82.43314 1.9868317 6.7834625
83.49214 0.2678299 8.687465
53.687145 3.699829 22.975462
54.351143 2.0308304 21.752462
65.11915 46.96583 30.631462
65.76714 45.416832 32.34846
57.414146 44.66183 39.379463
57.515144 46.254833 37.77146
58.272144 36.10483 32.301464
58.515144 33.630833 31.966461
10.598145 26.660831 104.45246
11.755142 28.096832 0.59046173
6.078148 40.56483 103.45646
5.9941483 40.664833 0.41046143
43.764145 7.081829 60.495464
43.194145 6.9648323 62.684464
56.167145 14.27383 69.64746
56.354145 16.765833 69.001465
46.880142 16.745832 104.61646
47.566143 17.628832 103.18146
54.748146 28.520832 100.12746
55.868145 26.551832 100.95646
46.501144 20.568832 22.776463
44.576145 19.990831 23.965462
43.700146 11.603831 33.816463
43.494144 9.763832 34.303463
83.11514 24.227833 31.176462
83.195145 23.417831 28.665462
77.445145 18.501831 19.729462
78.71514 18.988832 17.842463
18.042145 0.3928299 15.999463
16.900146 1.2088318 13.970463
26.59214 4.1988297 10.531463
28.695145 4.4038315 8.492462
40.420143 33.26783 26.909462
42.057144 33.59983 25.431461
50.772144 39.32283 34.886463
51.075146 41.42483 35.409462
19.747147 4.951832 53.675465
21.511147 3.6308327 53.203465
25.387146 42.421833 47.635464
26.937141 43.310833 47.716465
6.0721436 4.652832 63.233463
3.750145 5.4268303 62.389465
7.6991425 15.516831 65.404465
5.7451477 16.321833 64.60746
90.750145 27.688831 12.645462
90.21214 29.195831 10.675463
91.96214 39.025833 4.3004622
91.18614 40.80283 5.544462
76.90714 27.814833 98.22746
78.026146 29.811832 98.41446
88.541145 31.963833 104.16546
88.734146 32.99583 102.52746
24.082146 11.729832 73.92646
23.738144 13.362832 74.86146
26.749146 24.916832 66.93646
27.069145 23.816832 65.07346
85.69714 19.390831 70.27446
87.015144 17.34583 69.377464
89.10014 11.789832 77.05946
90.17614 10.160831 76.12746
41.827145 19.449831 6.484459
42.497143 18.901833 8.47346
52.177143 16.206831 6.833458
51.180145 16.694832 5.154457
81.140144 25.886831 31.752462
80.821144 26.104832 29.431461
70.29814 33.561832 22.435463
69.235146 34.03183 24.110462
45.652145 46.78683 71.44546
47.014145 0.49683 73.37646
44.004143 5.2338295 64.44446
42.366146 5.959831 65.47146
30.749146 26.995832 103.99646
30.320145 28.447832 105.44446
28.219147 18.662832 9.141459
27.658142 16.98483 7.8484597
71.82714 8.216831 50.479465
70.11414 6.341831 50.477463
79.24615 14.365829 55.993465
80.542145 13.998833 57.677464
78.16114 37.76083 27.094461
79.35314 37.117832 25.177462
71.33914 36.04383 20.652462
69.77515 35.08683 19.516462
68.96815 39.365833 71.16646
67.39915 40.075832 70.05046
76.64714 35.379833 68.27346
78.03214 34.977833 69.60746
46.692142 9.727829 77.40246
47.377144 8.220829 79.20446
37.229145 3.4398308 76.38946
36.181145 1.6418304 75.80846
10.418144 34.700832 20.004461
9.504143 37.45883 20.480463
4.635147 43.081833 17.681461
4.095146 41.200832 16.876463
51.789143 32.37883 7.965462
50.269142 33.068832 9.562463
59.075146 37.943832 15.446463
59.433144 39.97983 15.001463
62.076145 10.876831 58.703465
63.355145 9.123833 59.489464
61.138145 0.8138313 70.16146
62.930145 0.4228325 71.83846
44.016144 45.59383 69.72746
43.807144 43.95383 67.92446
37.331142 31.605833 71.58146
37.509144 30.226831 73.87746
43.318146 6.133831 97.03146
43.579144 3.8158302 98.01946
32.259144 0.45083237 91.06646
32.463146 45.074833 90.21346
28.35614 14.144833 96.08046
28.663147 12.04483 97.60546
19.213142 9.576832 89.04546
17.569145 9.953831 87.46746
38.65315 4.6118317 67.96746
39.44415 2.2878304 67.42346
30.66214 42.416832 59.870464
30.194145 43.122833 61.647465
87.02214 36.277832 20.884462
85.27314 37.617832 20.949463
86.957146 3.2148323 16.938461
88.349144 4.9468307 15.880463
84.48215 10.997829 31.462461
83.861145 8.466831 31.064463
2.3301468 0.14583206 32.491463
4.377144 0.8078308 32.14646
79.54714 16.528833 65.38246
77.45615 15.207833 65.68546
75.99314 5.932831 75.51946
76.431145 3.9348297 74.94046
34.11914 0.70283127 10.498463
32.319145 2.0048294 10.366463
24.282143 45.89783 13.852463
21.707146 45.679832 14.476462
6.7181473 34.776833 22.080462
7.028145 33.97283 24.399462
15.501144 42.589832 27.130463
17.275146 42.622833 25.580462
34.551144 33.85483 11.032466
37.018143 33.930832 10.887462
35.722145 29.758831 104.91446
34.071144 31.342833 104.56746
65.60314 0.76683044 95.94446
63.913143 47.082832 97.44246
65.65514 10.556831 104.70146
66.002144 9.612831 1.1014633
79.140144 47.08183 48.488464
80.377144 0.6348305 49.873463
85.82614 14.020832 51.612465
86.57514 14.779832 50.183464
85.25314 35.87083 97.84946
86.01914 35.02483 99.83346
81.91214 33.77483 4.3184586
81.52214 31.640833 4.4554596
44.854145 43.62183 35.787464
44.551144 41.519833 36.165462
46.203144 40.256832 49.495464
44.000145 41.22983 50.123463
10.077141 2.119831 44.733463
11.505142 0.44083023 45.347466
21.958145 40.81683 47.112465
22.012146 39.08683 45.564465
18.363144 18.219831 28.442461
20.319145 17.556833 30.063461
12.784142 7.0498314 30.453463
11.71714 5.874832 28.972462
55.390144 15.636832 62.322464
57.405144 16.158833 63.296463
61.878143 27.575832 60.935463
60.729145 27.136831 59.074463
37.648144 37.63983 82.07946
37.492146 39.55983 82.33346
43.947144 45.740833 88.42546
42.642143 43.82783 89.09346
20.791145 7.098831 60.033463
20.239143 9.110832 58.897465
9.983147 17.325834 56.873463
8.99514 18.781832 57.779465
51.737144 30.645832 64.51046
54.038143 30.544832 63.482464
50.852142 32.435833 50.367462
50.819145 34.00883 49.394463
20.191147 22.707832 40.549465
18.835144 21.772831 42.052464
28.628143 25.113832 51.703465
27.074142 26.994831 51.787464
84.804146 13.310829 80.83946
85.042145 10.952831 82.50746
72.26814 9.353832 77.34146
71.64514 11.442829 77.93646
19.159142 31.335833 12.579462
18.644142 29.27983 12.949463
10.321144 19.986832 7.3634624
8.55114 19.77983 8.622462
26.205147 7.0268326 30.464462
27.75814 5.01783 31.358461
36.938145 5.194832 27.699461
35.928154 3.1768303 26.774462
5.2711487 44.173832 104.26446
5.8721466 46.478832 103.13346
1.6571426 43.914833 9.981463
92.23014 44.679832 8.84846
30.102142 4.7718315 38.849464
30.46614 3.133831 37.11246
35.56314 42.56383 32.657463
37.242146 43.24683 34.102463
57.568146 45.91083 46.226463
58.837143 44.38383 45.023464
71.16114 46.68983 42.213463
69.83814 0.8308296 42.089462
49.965145 46.53883 19.705462
50.118145 44.43183 19.526463
56.328144 37.66283 8.991463
58.217144 36.51083 9.503463
66.43314 27.134832 95.38346
66.88014 28.185831 97.66046
65.02415 35.35883 90.05846
64.05215 37.240833 91.64846
40.922146 11.689831 38.634464
41.631145 10.307831 37.217464
33.072144 5.154831 43.948463
33.256145 3.3448296 42.864464
47.644142 38.57083 37.129463
48.467144 36.513832 38.415462
42.376144 23.744831 36.463463
44.042145 22.320831 37.749462
43.210144 36.46683 19.620462
45.038143 35.881832 20.164463
51.160145 27.703833 26.283463
52.934143 28.561832 26.96346
34.143143 27.270832 104.09646
34.346146 29.239832 102.69046
27.788147 22.707832 91.07346
28.32714 21.367832 92.61946
43.686146 19.874832 57.743465
41.943146 21.377832 56.601463
35.360146 24.106833 49.111465
35.394146 25.418833 47.491463
12.792145 25.651833 1.4034576
13.638145 23.927832 3.1304626
17.928146 34.69483 6.944458
18.271141 34.985832 9.500461
71.48114 37.298832 61.792465
73.111145 37.998833 62.992462
73.28114 45.14283 67.77446
72.78314 46.039833 65.75446
4.729149 6.256832 23.577461
5.9261475 8.365829 23.343462
14.428146 6.109829 15.189463
16.45314 6.944832 14.188462
19.06414 1.9878311 68.11846
20.96814 1.5738297 69.86446
27.280144 45.282833 74.47646
29.697144 45.200832 75.16246
9.563141 10.99683 4.7404623
11.346146 9.437832 4.473462
2.1381454 8.449829 10.440462
2.5451431 7.0408325 11.890463
57.414146 45.59283 100.03746
56.593143 43.69483 100.04646
69.916145 45.888832 99.91246
70.347145 44.88483 101.44046
19.111145 12.58683 41.642464
20.780144 13.8968315 42.559464
18.98014 7.33683 53.732464
16.861145 7.23983 54.210464
27.989143 0.41883087 77.05946
28.00914 2.4718323 77.87646
21.340141 8.48983 87.267456
21.35714 10.80183 87.67646
11.613144 18.872831 66.03946
10.428146 20.240831 64.96746
4.821144 29.641832 69.98546
3.927147 31.973833 68.933464
26.423141 1.9808311 75.11746
25.878143 0.7038307 73.47346
26.151146 45.32783 81.93346
24.874146 45.15683 84.02446
42.06815 8.292831 13.258463
40.58015 9.388832 11.748463
29.474144 17.283834 10.994462
28.868141 18.929834 12.716462
31.966145 28.898832 86.40046
32.404144 31.207832 85.75446
41.556145 39.77483 91.60046
41.787144 38.298832 92.85646
68.35715 16.072832 50.408463
68.77214 17.671831 49.230465
66.89214 27.174831 57.178463
65.69814 27.077831 59.090466
23.465141 28.147831 40.335464
22.958145 26.798832 41.862465
23.364143 36.172832 42.052464
24.016144 38.290833 42.374462
43.478146 39.888832 94.51346
45.319145 40.783833 94.55746
53.249146 32.96583 92.27546
50.683144 31.499832 91.62646
43.114143 29.631832 81.67446
45.178143 29.739832 81.85146
43.230145 21.764832 89.73146
42.150143 22.324831 91.21146
74.36714 19.271833 36.615463
72.98114 17.643831 37.228462
77.67214 6.423832 31.270462
79.79814 7.2408295 29.894463
17.640144 37.39683 97.70546
16.918144 38.75883 98.97746
17.310143 0.7528305 94.93846
15.771141 2.7428322 95.07346
22.532143 29.235832 18.984463
19.894142 29.802832 19.314463
25.57714 36.957832 26.374462
25.820145 37.29283 28.804462
4.821144 6.992832 40.137463
3.052147 5.8478317 40.468464
83.71514 5.2158318 36.606464
84.804146 2.9648323 37.00746
37.286144 45.59883 105.27546
39.034145 43.548832 104.92746
51.570145 42.26483 102.82646
51.383144 40.359833 104.52946
57.395145 13.935829 64.445465
56.260143 13.180832 62.218464
54.009144 0.40583038 63.397465
51.821144 46.303833 64.307465
48.151146 19.073832 88.78346
46.103146 20.351831 89.05946
58.599144 27.634832 89.61246
59.559143 25.745832 88.85746
15.323143 5.4508324 94.16946
17.000145 4.3018303 92.78746
27.399147 8.349831 101.22446
29.518143 8.543831 100.20346
35.058144 19.961832 35.387463
35.908146 21.888832 34.407463
44.571144 24.608831 25.426462
45.005142 23.474833 23.820461
7.512146 18.187832 94.06646
6.6931458 18.641832 95.82546
0.36214447 27.33883 102.96646
91.28614 26.999832 101.57846
20.868141 35.505833 96.33346
22.743141 34.89883 95.77446
13.472145 26.474833 97.67746
13.637146 28.747831 97.89446
55.138145 39.525833 33.572464
53.986145 40.902832 35.32646
62.101143 30.792831 43.143463
64.373146 31.252832 43.468464
23.390144 15.908832 41.935463
23.639145 16.700832 40.123463
22.31514 20.281832 39.38346
20.30014 21.509832 38.196465
9.524147 44.185833 34.578465
9.742142 46.56583 33.877464
8.372147 3.862831 42.128464
6.684143 4.367832 41.167465
32.320145 2.1158295 46.925465
30.530144 2.0698318 45.331463
25.385147 41.13383 42.982464
26.48214 39.534832 45.005463
3.4261475 37.37583 91.58246
4.069145 37.240833 94.03946
13.604141 1.2928314 91.58646
13.396141 2.4198303 93.22546
7.8821487 38.679832 90.72346
9.985146 37.20583 90.42646
17.219147 0.2548294 85.92646
18.32714 1.4118309 87.44046
57.206146 2.4348297 12.716462
56.852146 4.987831 12.670463
71.14314 9.444832 15.050463
70.30914 10.306831 12.616463
85.665146 4.249832 69.32646
84.94914 6.6778297 69.681465
84.279144 17.248835 71.96246
83.042145 18.505835 70.779465
40.625145 12.517832 16.164463
41.275143 12.952832 18.411463
45.227142 18.136831 10.061462
43.535145 17.635832 11.513462
80.445145 36.60783 39.290462
79.73114 38.707832 38.846462
83.96314 44.512833 51.392464
82.15914 45.75783 51.534462
3.3761444 33.09783 32.41046
4.347145 30.973833 31.953463
1.6641464 30.408833 41.738464
3.8301468 31.705832 40.987465
54.151146 33.62783 8.086459
54.024143 32.96083 5.921463
65.42114 41.25183 3.1974564
66.08914 41.31283 0.8364563
12.350143 10.171829 67.63546
14.59214 9.151833 68.01746
22.06514 12.859829 72.68246
21.60614 15.003831 72.68546
5.3381424 33.527832 41.774464
3.8191452 33.35783 43.341465
90.56615 0.10083008 44.256462
91.55215 1.0678291 42.876465
66.361145 26.026833 7.395462
68.140144 26.859833 6.291458
68.14614 41.352833 6.7904587
66.67314 42.21583 7.156456
50.148144 33.92783 84.45546
50.861145 34.95983 85.94446
58.753143 28.427832 94.08746
59.839146 28.672832 92.48146
28.711143 37.48183 27.021461
27.790146 39.254833 28.728462
40.033146 36.60483 33.185463
40.41515 38.31383 34.331463
59.659145 1.35783 58.001465
57.918144 1.3058319 58.020462
57.897144 11.73983 66.20346
57.059143 11.640831 68.09246
27.905144 37.798832 41.186462
29.574142 36.36183 41.362465
33.032143 26.180832 44.357464
33.281143 26.652832 46.586464
23.538147 35.435833 6.1154633
24.976143 34.07683 5.518463
23.50914 44.64083 4.826462
21.907143 44.52383 3.4534607
44.391144 42.16083 66.029465
46.273144 42.025833 67.66046
50.317142 32.04483 71.06246
49.185143 30.100832 72.66446
66.34215 44.15483 88.94846
65.16914 43.61883 87.24146
61.218143 6.841831 82.14946
60.679146 9.120831 82.739456
22.610146 0.7738304 4.7764587
23.539146 1.345829 2.8414612
25.649147 11.083832 4.147461
27.213142 11.796829 2.781456
26.84214 22.932833 55.078465
25.54914 22.33883 56.762463
19.142143 34.54283 56.175465
18.16114 34.395832 58.500465
32.974144 28.586832 68.86646
33.973145 26.58883 69.195465
34.469147 13.531832 72.46746
36.41315 14.302832 72.41946
62.208145 24.823832 59.598465
62.069145 22.906832 59.520462
66.609146 14.241832 69.82846
67.29414 15.211832 71.65746
15.945145 44.978832 68.21246
16.56514 45.20583 65.76946
11.908142 39.03783 58.638462
10.74614 37.23283 58.151463
87.89614 0.9288292 44.867462
88.04614 46.416832 45.378464
75.084145 45.658833 39.713463
73.416145 46.69383 40.620464
21.323143 36.72683 86.12646
20.112144 34.505833 85.56446
9.428146 37.019833 81.24946
10.49514 37.923832 79.21246
19.541145 45.338833 2.3034592
17.183144 45.47383 2.8544617
17.16214 8.62183 97.22846
14.614143 8.2978325 97.46846
64.127144 44.720833 53.754463
62.249146 43.526833 52.870464
58.305145 47.07083 55.536465
60.474144 46.88983 54.558464
88.513145 31.255833 49.993465
90.22714 30.679832 48.128464
90.52515 19.138832 48.457462
88.821144 18.05783 49.511463
90.82915 3.9928322 64.87846
91.98014 2.1838303 63.290462
87.96114 11.60083 56.072464
87.207146 13.664829 55.185463
81.45615 8.068832 35.100464
83.07214 7.749832 36.768463
70.28915 7.166832 33.36946
68.18314 5.249832 33.871464
26.316147 27.684832 70.63846
27.73214 28.803831 69.67046
34.52114 29.988832 81.30546
35.139145 31.386833 82.51446
45.047146 22.282831 92.91246
43.475143 22.957832 94.05246
32.042145 15.308832 92.97246
32.430145 13.374832 91.88546
58.842144 28.113832 6.847462
58.499146 30.238832 6.051462
63.717144 39.367832 12.430463
62.016144 39.56383 14.058462
10.84314 28.763832 97.01646
8.975143 28.27983 96.46646
9.81514 25.488832 85.38646
12.127144 26.330832 84.99746
60.037144 44.27483 55.292465
62.279144 43.553833 55.681465
59.877144 45.82083 68.46746
61.458145 45.17583 70.099464
39.736145 1.3638306 15.233462
39.415146 3.4178314 17.332462
51.823143 1.338829 20.860462
52.801144 0.07183075 19.277462
71.029144 33.269833 17.936462
69.04814 32.51583 18.859463
76.360146 27.217833 29.019463
74.998146 25.205832 28.478462
32.698143 37.275833 41.516464
31.84114 36.89083 43.365463
37.49815 29.969831 34.107464
36.093147 28.884832 33.004463
65.85314 45.685833 26.923462
64.374146 45.157833 28.437462
54.875145 45.91183 19.854462
55.652145 45.97583 17.765463
74.01914 35.35483 15.255463
74.38314 35.27983 13.054462
77.92815 0.50382996 11.061462
77.36714 1.0468292 13.419462
19.553146 0.19083023 20.640463
18.362144 46.401833 18.479462
19.296143 43.43483 6.374462
20.724144 45.46283 5.9874625
55.905144 15.372832 72.11146
56.407143 17.478832 73.10346
61.518143 12.459832 60.840466
63.088146 14.658832 61.116463
38.451145 33.77983 81.23346
40.570145 32.64683 81.41946
43.292145 41.173832 90.23146
44.127144 40.96183 92.03646
87.24314 21.389832 89.38446
89.276146 22.481833 89.15746
87.779144 33.004833 81.71546
89.30315 35.317833 82.50946
9.520142 22.964832 79.20646
8.215141 21.897831 80.79246
5.7071457 12.946832 73.29646
7.595146 11.996832 72.96246
23.609146 40.638832 19.758463
22.944145 38.76783 17.491463
11.087143 36.14983 14.439463
9.066147 36.17583 15.591463
15.237144 3.4468307 16.260462
15.038147 1.87183 18.185463
17.25814 35.706833 11.903462
15.376144 34.30083 11.860462
17.422142 18.526833 32.059464
19.451141 19.325832 33.081463
29.920143 16.689833 29.458462
30.163147 18.268831 30.85246
36.536144 45.31383 75.26146
38.378143 0.104831696 76.19246
51.359142 1.652832 80.25646
51.338142 46.13383 79.89446
57.484146 11.917831 30.24146
56.720146 9.957832 29.823462
46.287144 3.5708313 37.867462
44.907143 5.779831 38.442463
70.01614 24.001831 9.553462
71.556145 22.299831 9.50146
61.732143 13.074832 4.0524597
63.568146 11.937832 3.0514603
86.984146 32.13483 96.36246
85.583145 33.89783 95.63446
77.487144 21.907831 94.33346
78.42014 19.68983 95.21246
70.040146 1.633831 84.45746
69.821144 3.3748322 83.75246
66.86915 43.533833 72.26146
68.95415 41.97483 71.77346
63.571144 2.2948303 38.811462
65.20515 3.666832 40.161465
61.728146 15.823831 44.176464
61.278145 13.82983 45.568462
77.94215 25.341831 91.00246
78.47814 27.203833 89.91746
67.98315 31.627832 83.00546
68.14915 30.349833 80.52046
58.608143 2.3538322 70.41246
57.824146 0.59482956 68.91246
47.545143 46.78283 76.54346
48.756145 44.596832 76.40146
18.42414 2.430832 20.511463
16.774147 3.2148323 20.404463
20.600143 6.4838295 28.586462
20.585144 8.151833 29.899462
22.681145 12.885832 15.126463
21.576141 13.159832 17.183462
17.81314 21.486832 25.854462
18.178146 21.117832 28.09546
46.154144 30.965832 91.80546
47.948143 31.122833 92.84546
57.629143 28.795832 97.69546
57.885143 27.720833 99.56446
49.762142 19.706831 41.621464
47.856144 18.441832 42.825462
58.110146 14.104832 42.983463
58.403145 13.818831 45.217464
54.739143 38.54283 104.69946
55.715145 39.818832 103.36146
69.430145 36.574833 1.534462
68.874146 37.42483 3.1814575
71.69014 4.4108315 48.854465
72.46815 5.701832 47.121464
82.43914 16.682833 49.675465
81.22914 18.275831 48.432465
88.04714 3.26783 21.692463
90.00514 4.7648315 22.195461
9.42514 5.473831 27.767462
9.143143 6.867832 29.120462
57.127144 27.610832 30.105461
58.672146 28.199831 28.323462
64.37115 38.37183 37.267464
65.179146 39.66183 35.259464
41.139145 19.761831 68.44246
43.004143 18.35983 67.80946
49.937145 26.554832 65.37046
51.142143 28.161833 65.59346
26.05014 19.089832 10.846462
24.598145 18.180832 12.499462
10.699142 17.755833 9.074462
10.097145 18.913832 11.130463
19.500145 24.715832 49.426464
19.53714 27.285831 50.239464
20.641144 39.707832 52.019463
22.649147 39.554832 52.642464
7.766144 4.8238297 3.4764633
8.727142 6.654831 2.798462
89.95515 9.408833 9.577464
89.12115 10.428829 8.019465
83.889145 32.58583 43.155464
84.85614 33.70183 41.920464
85.693146 0.12882996 40.135464
85.77314 0.38682938 38.09046
13.405144 41.75083 49.675465
11.225143 41.89983 48.567463
13.233147 36.817833 37.31346
16.054146 36.46683 36.567463
18.928146 28.406832 29.671461
17.240143 29.447832 29.277462
19.066147 35.984833 40.842464
19.20314 36.90383 39.24446
75.166145 2.5388298 17.149462
74.49715 4.6378326 17.356462
73.29914 16.658834 20.695461
74.96915 17.432833 19.814463
54.900143 2.852829 34.954464
55.553146 0.5648308 35.983463
53.620144 34.85183 29.946463
55.477146 35.00183 32.00846
18.878143 42.28683 79.72146
20.394142 41.70483 78.51446
32.09214 41.09983 78.12946
32.733147 42.87583 79.91746
25.235146 25.297832 26.363462
25.026146 24.180832 24.343462
24.18914 10.628832 27.808462
21.729141 10.795832 28.473461
2.1681442 16.950834 50.667465
3.4571457 16.173834 48.473465
6.4491425 3.3848305 44.096462
7.1831436 1.6918297 45.419464
49.821144 33.55283 89.83046
48.216145 32.84783 90.99846
37.282143 31.137833 84.49846
37.938145 31.336832 82.29246
18.917145 3.3498306 26.582462
19.24414 3.8048325 29.197462
22.157143 40.60883 27.524462
22.084145 38.276833 27.319462
9.622147 38.34283 51.441463
9.791145 36.03083 51.814465
1.210144 35.21083 59.138462
0.33914185 34.58083 61.292465
91.124146 6.006832 19.161463
91.74114 6.9418297 20.954462
3.861145 19.660833 20.933462
5.7071457 20.579832 22.584463
24.435143 5.4798317 38.471462
22.89714 3.9998322 39.248463
25.00914 37.71883 39.93746
23.576141 36.86283 38.810463
25.729141 8.72583 2.9114609
27.37114 9.119831 1.5024567
36.642147 14.34483 3.3774567
38.049145 15.867833 3.921463
3.0801468 45.456833 17.571463
2.0211487 44.92083 19.622461
89.20515 42.18983 30.79346
91.11514 43.89283 30.233461
72.16214 40.804832 63.980465
72.46815 40.518833 61.182465
66.39915 2.6938324 54.546463
66.96214 4.0808296 53.369465
25.393143 31.994833 91.489456
24.48114 33.38383 93.06546
30.151146 46.01583 89.54446
31.49614 45.97583 87.82446
18.67514 32.046833 17.562462
17.345146 31.566832 19.340462
23.603142 42.081833 22.711462
23.236145 41.61883 25.060461
19.964142 5.874832 91.19446
20.486145 5.0238304 89.11146
21.028145 44.366833 85.15546
19.502144 42.685833 84.23046
23.264145 26.960833 20.165462
24.320145 25.707832 21.723463
19.574142 25.993832 26.903461
17.444145 26.970833 27.755463
58.693146 44.02283 16.361462
57.185146 42.81983 15.134462
50.616142 0.05083084 5.5224624
50.572144 44.89983 5.6094623
5.6081467 23.685831 83.56146
4.557144 25.135832 82.28246
5.908142 35.32683 91.22946
7.1741486 35.69483 89.89646
13.270142 18.311832 54.58346
15.21714 16.988832 53.673462
28.569145 14.459832 52.705463
29.976143 13.439832 50.969463
72.473145 33.845833 103.67746
70.292145 33.96883 105.44946
57.040146 35.957832 105.09846
56.174145 36.652832 103.15746
71.279144 43.275833 20.158463
72.540146 43.21183 18.618462
73.363144 42.61883 21.553463
73.14514 40.52483 21.892462
60.294144 18.097832 91.74646
59.959145 20.173832 92.29746
62.132145 29.211832 91.31046
60.881145 29.396832 89.40046
24.948143 7.928829 0.5524597
26.936142 7.12883 105.45846
30.589142 46.41283 97.83746
32.122147 45.67483 99.00046
5.6811447 46.27283 33.97946
7.353142 0.017829895 35.339462
15.27314 40.73683 42.649464
17.336143 40.91183 42.884464
43.937145 23.186832 64.31746
44.136143 24.117832 62.223465
54.507145 22.886831 53.193462
56.957146 23.082832 53.798462
15.78714 25.123833 64.03246
16.559143 26.742832 63.724464
18.432144 26.506832 53.053463
18.334145 24.628832 51.746464
35.457146 45.68383 30.003462
36.69315 0.59083176 30.534462
32.59314 47.20583 44.027462
31.074142 1.4618301 42.857464
62.495144 12.894832 32.310463
62.678146 14.971832 31.754461
50.227142 19.353832 26.245462
48.608143 18.140831 25.816462
22.586143 21.566832 100.94046
22.09314 20.292831 98.93146
12.290146 9.713832 96.84546
10.447144 8.440831 97.76546
51.285145 11.951832 50.399464
52.279144 13.71283 50.561462
63.930145 10.466831 54.035465
64.78414 12.50983 55.447464
4.2991486 29.211832 34.575462
6.411148 30.704832 34.38346
4.472145 17.947832 36.006462
2.863144 18.820831 37.16046
70.748146 41.69683 22.627462
71.24414 38.58683 21.852463
60.324146 36.39283 30.229462
59.097145 34.73183 29.446463
21.07714 6.3098297 55.638462
21.599144 6.8798294 57.503464
27.973145 15.81783 55.122463
29.669144 17.066832 54.906464
57.178146 31.412832 33.623463
56.238144 33.150833 34.39646
52.869144 31.417831 47.436462
53.189144 32.923832 48.940464
81.99214 10.937832 41.678463
82.196144 12.853832 42.121464
89.472145 2.673832 43.683464
87.72514 2.048832 42.249462
2.302147 36.25883 88.81946
3.736145 37.70183 88.52246
3.8151474 0.71382904 91.92246
2.033142 2.3338318 91.99746
67.319145 43.55283 25.83146
67.81615 42.880833 23.910461
66.17314 33.14783 22.933462
67.734146 33.20483 21.710463
13.366142 2.4858322 2.9044623
12.053146 0.5028305 2.8574624
3.946144 44.713833 11.5994625
4.1121445 42.18783 10.572462
10.518143 33.92683 34.89646
8.993141 34.46183 37.107464
7.118149 46.365833 43.978462
9.2721405 45.50083 44.907463
69.373146 32.768833 44.178463
67.84315 33.36183 42.803463
68.00915 32.018833 30.503462
68.38314 33.56583 29.060461
29.160141 11.185829 21.545462
29.179146 12.083832 24.178461
34.902145 14.971833 35.89646
34.765144 16.800833 37.72946
51.670143 45.91083 84.24746
50.107143 45.32183 86.02646
49.495144 34.616833 81.39746
47.805145 34.24583 79.31046
30.517143 9.292831 92.02646
30.229141 10.887833 90.89746
29.722145 1.5218315 89.35146
28.026146 0.7378311 90.19546
81.64714 6.39283 7.7004623
81.66014 6.3378296 5.0504622
69.653145 1.3628311 11.549462
71.46114 0.17583084 12.128463
72.75814 32.52483 2.2014618
73.194145 33.32983 0.3794632
73.45515 21.913832 100.67246
72.87215 19.80083 101.07246
80.81414 31.556833 78.43946
80.10214 33.777832 80.00446
82.01814 24.200832 88.05046
81.041145 22.575832 86.29446
33.094147 22.942831 0.02645874
32.323143 23.908833 103.57946
30.321144 19.76283 93.90646
28.722145 19.903831 94.94346
16.096146 17.22783 80.93346
16.256142 15.168832 81.28646
12.969147 16.967833 67.195465
15.03714 17.832832 66.29946
65.96114 44.102833 96.54946
63.962143 44.37183 97.84346
63.164146 33.457832 90.489456
61.759144 32.034832 90.23646
4.264145 18.108831 29.376461
5.4801483 19.515831 30.461462
4.425148 29.205832 41.748463
3.1921463 27.931831 43.516464
14.451141 41.914833 78.26646
12.909142 42.838833 79.30646
6.4191437 39.87083 80.68246
6.3621445 37.14183 80.96646
78.78214 38.803833 34.836464
79.00814 36.548832 34.121464
68.986145 43.34283 27.91146
67.84114 45.006832 28.692461
64.53715 41.70283 37.711464
64.41914 40.82183 39.894463
50.754143 38.457832 38.19546
49.316143 38.74483 39.811462
44.417145 28.753832 99.12146
46.787144 27.743832 99.88546
52.685146 39.41783 102.24246
53.607143 40.907833 101.11246
14.296143 20.544832 25.913462
16.027145 19.81483 24.363462
23.535141 11.7388315 17.985462
25.420143 12.293832 18.549461
78.970146 40.35083 84.43946
80.75914 41.46583 84.68746
0.0001449585 33.902832 85.45946
92.13114 31.820833 86.04746
90.38114 39.40583 78.60446
90.17214 38.01483 79.90246
4.3171463 31.231833 72.28746
5.6341476 32.59283 71.80446
90.915146 37.43383 66.27246
88.99114 37.756832 65.02046
84.43614 26.162832 72.39446
85.57514 26.609833 74.54746
5.0071487 15.880834 52.233463
5.226143 17.017832 50.113464
15.566147 9.089832 45.137463
17.420143 8.249832 46.683464
77.208145 1.777832 66.77046
77.64514 3.1378326 65.64746
74.583145 15.030831 65.014465
72.403145 14.578831 64.06746
58.317146 31.755833 61.493465
56.693146 30.408833 62.673462
68.06715 24.942831 63.604465
69.21815 26.965832 63.200462
70.10014 16.503832 19.747461
69.666145 17.935831 21.612463
57.927143 23.024832 17.194462
58.408146 24.603832 18.245462
78.887146 32.48283 4.4414597
79.14414 34.770832 4.762459
83.66214 41.874832 100.11746
85.69014 40.23083 99.54746
43.564144 14.2908325 84.39746
43.397144 11.847832 85.42746
33.751144 5.834831 92.36046
33.712143 4.2218323 94.04646
88.501144 40.491833 104.63946
90.166145 41.62683 103.83746
89.36814 33.69183 96.59646
88.14614 34.39983 97.99546
18.572144 22.736832 31.930462
20.242142 22.292831 33.27946
30.59214 29.007832 36.950462
29.552147 30.701832 35.804462
78.57514 36.41283 54.218464
77.04714 36.088833 55.44446
84.07514 30.491833 65.09146
86.19814 30.919832 66.21746
39.271145 38.74383 100.45746
37.256145 39.71183 101.65246
35.546143 33.041832 100.71346
35.455147 30.896832 101.06246
76.585144 37.24583 70.35746
77.72914 38.42683 71.75446
86.78114 44.19783 76.21546
86.35114 44.393833 78.29846
23.271141 39.08383 49.262463
24.415146 39.55983 47.336464
29.70414 27.773832 50.440464
31.644142 26.932833 51.146465
42.477146 23.83883 8.36346
42.999146 22.101831 7.2454605
55.261143 26.125832 1.0294571
55.168144 27.884832 105.19446
27.35614 20.025831 75.30646
27.945145 21.68283 76.23246
21.497147 34.893833 75.61946
20.03614 33.39983 77.20946
69.60214 8.998833 104.19046
71.77314 7.8758316 103.95946
67.49114 8.112831 92.01446
65.793144 7.6398315 93.36246
84.39714 38.60083 26.549461
85.027145 38.16283 24.391462
80.77014 35.71983 18.090462
82.373146 34.01683 18.841463
34.656143 8.859829 24.28646
36.624146 9.620831 25.069462
41.428143 13.424831 36.38946
40.427143 15.328832 37.447464
56.602146 13.979832 99.45346
57.086143 14.820832 97.38446
61.742146 3.6048317 95.27346
64.39915 3.1238327 95.30446
75.00514 12.89283 101.01646
76.30114 13.868832 99.42346
92.05114 13.34383 103.56846
91.96214 15.181832 101.69846
18.270142 3.1608315 16.295462
17.794144 3.904831 14.400462
12.212143 13.361832 12.839462
12.270142 12.714832 14.922462
68.75514 45.254833 83.33946
67.15614 44.56483 85.10846
65.613144 38.20283 76.33546
66.14414 38.17783 74.24946
19.48214 17.428831 42.368465
20.763145 19.451832 41.443462
31.10714 26.300833 48.343464
32.75614 25.315832 49.18046
38.263145 29.868832 31.41146
39.107143 32.034832 30.626461
42.868145 38.57783 22.539463
41.083145 38.464832 20.642462
22.361145 46.52483 83.51946
23.574142 1.0818291 82.91946
28.06514 6.95483 73.61846
26.20214 8.7978325 72.78646
19.275146 17.997831 73.72246
18.73114 19.107832 71.38446
20.95214 23.109833 78.62346
20.769142 20.940832 77.00546
16.840141 20.586832 40.225464
18.760147 19.568832 39.466465
9.863144 10.059832 30.332462
7.804146 11.417831 30.354462
11.521141 25.104832 47.733463
13.367142 25.438831 49.623463
2.3971481 32.10183 51.847466
0.5231476 31.417831 50.678463
81.17114 9.549831 31.221462
82.10614 9.522832 33.193462
86.376144 20.593832 25.895462
85.583145 22.288832 27.851461
52.918144 44.53583 4.4624557
52.929146 46.79083 3.7634583
60.755146 3.0848312 98.95846
61.470146 1.1548309 97.78646
