52.787903 41.48099 4.7261963
54.3209 39.402992 5.4832
47.903904 28.09299 9.0662
49.488903 25.994991 8.648193
61.0829 29.670992 16.938194
60.2349 28.008991 17.124199
59.9789 21.032991 17.3022
61.2149 19.594992 18.3022
67.7199 33.59899 0.79919434
65.7209 33.11499 109.1102
60.003902 23.709991 108.4382
59.4739 21.590992 107.8602
61.2439 13.806992 9.036194
59.2699 14.085991 9.020195
60.378902 9.727993 20.837196
61.9169 10.66399 21.567207
10.321899 21.05199 4.364197
9.0839 21.751991 6.4081955
2.4449005 11.797993 14.434196
0.044898987 11.118992 14.184196
89.144905 8.9339905 106.5252
88.839905 10.3279915 108.0262
81.8699 8.317989 9.843201
81.1479 6.7929916 8.239197
5.072899 40.387993 98.6792
5.4809036 42.784992 97.2432
11.370903 34.845993 92.5892
11.451904 32.958992 93.8522
67.3439 27.126991 95.6202
66.1239 28.404991 96.6882
58.3319 24.47199 106.6212
56.932903 25.524992 107.3852
70.4539 45.94199 41.4942
71.5279 44.414993 41.2962
83.2619 4.7899895 44.7212
83.6629 5.6629906 47.2402
66.2609 34.77299 98.2692
66.6219 35.63399 96.3282
79.1509 39.43499 102.1532
78.7599 41.04299 103.7302
32.8319 44.51799 74.3812
31.816902 44.71099 76.3952
41.300903 42.761993 84.2582
42.871902 41.929993 85.8102
62.189903 19.715992 63.7792
62.891903 21.52399 63.535202
73.770905 20.22899 63.2302
75.853905 20.465992 63.0022
4.5478973 5.8439903 87.5222
5.169899 5.6489906 84.919205
4.0478973 13.089993 76.490204
2.6288986 10.966991 77.5062
73.1119 11.80999 76.9952
75.601906 11.31699 77.4272
82.7309 10.305992 79.1102
84.809906 10.72599 79.212204
64.6369 38.180992 64.8622
63.2769 38.96999 63.4852
57.0159 3.062992 71.0242
57.9179 3.7169914 73.1572
26.590904 38.588993 45.723198
24.660904 36.713993 44.8142
15.478905 38.825993 43.3822
15.425903 40.935993 43.188198
24.592901 45.38999 99.6662
26.021902 44.965992 100.6662
38.0119 41.145992 102.8892
40.315903 41.25799 101.7832
56.155903 9.375992 91.1892
58.023903 9.437992 91.0802
57.0979 12.813992 97.6032
56.440903 10.707993 97.1622
1.4719009 44.950993 27.496208
1.1389008 45.89999 25.638206
80.532906 5.4739914 27.061195
80.3749 7.102993 25.0252
54.2309 13.26099 93.476204
52.927902 12.152992 92.3692
47.2279 46.16399 99.3072
46.8609 45.082993 97.1902
70.3329 40.643993 65.7762
69.0809 40.01699 64.0652
75.101906 4.7719917 57.3822
76.1919 4.2459908 55.4462
28.833902 40.701992 97.3292
27.274902 40.50399 99.2622
34.490902 2.081993 108.3772
35.1439 4.5849915 107.9662
58.002903 10.23299 41.215202
57.7649 7.8249893 39.993202
48.361904 45.638992 39.34321
49.531902 45.23799 37.399208
3.5939026 38.012993 108.866196
2.3139038 36.235992 107.3002
81.5159 39.776993 0.036193848
79.823906 39.708992 2.282196
65.1929 37.10799 62.1362
66.7769 36.53799 60.5932
67.23891 24.640991 56.1102
69.5289 23.890991 56.2152
49.5269 38.144993 52.327198
49.371902 37.58599 49.6662
59.0839 35.393993 46.6862
57.7089 36.93499 45.7462
68.86491 0.16199112 97.0402
70.3319 1.5809937 97.4182
69.8879 7.4009895 92.212204
71.3859 6.741993 90.7132
31.914902 28.36099 22.363197
33.001904 29.48999 24.640205
31.039902 20.042992 33.153206
32.120903 19.199991 34.632195
53.167904 44.42599 52.0352
54.0849 42.755993 50.8902
57.5569 8.609993 46.8402
59.4299 10.258991 45.9962
30.427902 45.548992 33.211205
31.617903 45.35699 35.283195
39.6799 4.387993 42.342194
39.6319 4.680992 44.491196
53.6259 13.140991 99.0252
53.863903 11.645992 97.1852
52.662903 43.59299 95.9022
52.8679 43.116993 93.6992
37.147903 34.513992 25.489204
35.344902 35.401993 26.239204
29.181902 45.74599 16.5392
29.222902 45.227993 14.282196
66.43391 34.48899 92.1912
66.2169 36.00299 90.7772
64.44691 37.381992 83.266205
64.0659 38.180992 81.4022
46.6029 18.46099 28.253197
45.073902 16.98199 27.860207
42.655903 30.42999 27.455208
43.239902 32.24699 26.705208
69.1649 23.38899 17.124199
69.7099 21.510992 17.860199
57.8959 24.28799 24.688194
57.4649 23.26399 22.840202
52.514904 43.173992 91.0882
53.390903 41.645992 89.447205
41.6039 37.02399 82.7712
41.6529 34.58599 83.4572
75.1679 45.79299 49.8752
76.5819 0.6859932 50.0032
73.7229 40.41299 41.0422
72.854904 39.98199 38.8632
74.701904 0.95199203 51.9812
74.8199 1.8109932 54.0672
65.132904 40.617992 58.8972
65.5709 39.14099 60.160202
54.940903 21.853992 48.3712
53.8559 19.937992 47.2622
56.1389 9.85899 44.3312
57.969902 11.410992 43.9222
25.233902 23.30199 76.1322
27.761902 23.38799 75.5212
31.141901 31.834991 67.5522
32.587902 30.29799 67.3842
52.0769 13.512991 88.9712
51.8189 14.171991 91.072205
44.9579 18.949991 86.7702
44.5539 16.49999 85.3282
49.342903 43.05699 105.8402
49.202904 44.025993 108.0642
43.225903 9.152992 105.6312
41.382904 8.41399 104.3352
35.898903 7.6769905 48.8942
36.8899 6.1339912 49.7442
39.231903 39.98199 51.4032
37.098904 39.103992 51.5492
65.6679 15.984993 10.8862
66.894905 14.491993 9.534195
61.927902 19.805992 107.046196
63.0399 18.14299 106.4462
25.854902 44.50799 2.7591934
26.430902 45.89199 4.6891937
24.987902 34.54599 11.0392
27.052902 34.833992 12.516197
58.4289 29.09699 35.562202
59.4149 27.862991 37.778206
57.948902 22.673992 44.251198
57.260902 22.33599 46.898193
7.0559006 12.3279915 44.877197
7.179901 14.297993 43.1812
85.2639 10.870991 37.320198
84.562904 8.856991 37.123207
7.759903 22.265991 86.6372
6.9969025 23.129992 84.7352
88.215904 30.87899 83.6112
88.1559 31.95199 86.1182
71.58691 2.675991 25.2322
71.757904 0.7769928 24.0942
79.059906 39.826992 20.486198
79.8159 38.714993 19.155205
29.534903 42.541992 109.1262
29.497902 42.05099 1.7421951
42.148903 39.63299 2.657196
41.3469 39.867992 0.8231964
22.369902 31.06899 84.3292
24.941902 30.22899 83.6522
20.250902 40.43499 85.1602
20.059902 42.55199 85.6852
56.6449 19.056992 53.7292
58.342903 18.066992 53.1232
59.6239 17.65999 56.4692
59.9739 17.23199 58.7472
59.795902 8.071991 23.188194
58.747902 7.463993 21.4692
67.171906 11.06699 16.375198
65.7069 12.303989 15.4081955
43.7709 27.51699 92.2162
41.724903 26.40999 93.1132
38.703903 13.291991 90.0372
37.3189 11.680991 88.6432
16.094902 27.469992 1.6031952
14.856903 29.54799 2.9101944
14.071899 35.74099 100.1312
11.816902 36.604992 100.4582
23.999903 1.5369911 80.5512
25.976902 0.98799133 81.3242
34.981903 11.223991 79.6392
34.115902 13.4079895 78.8352
53.1579 42.722992 74.489204
55.086903 42.76699 73.1222
66.0379 3.53199 71.7762
66.7749 5.93499 72.7732
57.1649 13.717991 109.3312
54.774902 13.147991 109.1892
52.809902 17.37799 14.168198
52.2629 15.31699 14.305199
44.510902 16.31199 63.4972
45.016903 17.361992 61.3932
45.497902 18.02799 66.2702
43.501904 18.590992 65.1882
87.6949 21.642992 26.476204
87.6979 22.945992 28.338203
77.3989 17.135992 33.1632
76.71191 17.196991 34.977196
76.9149 23.52699 2.1201935
76.2339 22.326992 3.9641953
69.7049 15.567991 8.336197
69.87791 17.71799 10.126198
31.448902 4.182991 38.198204
30.680902 2.5079918 36.654198
34.5129 9.653992 26.515205
35.614902 8.765991 24.909203
66.16991 1.6019936 33.239204
66.324905 1.1879921 35.181206
77.156906 10.727993 30.6072
75.8979 12.374992 29.645195
0.23190308 7.083992 86.9072
2.379898 7.68499 87.2622
4.523903 17.257992 77.586205
4.7749023 15.999992 75.9602
81.3839 6.2529907 78.9912
81.6119 3.6929893 78.712204
70.1219 5.1319923 74.1742
68.1769 5.849991 75.3592
84.9539 29.46799 86.5192
84.19791 30.87099 87.9542
78.2589 39.75099 89.4022
80.213905 40.553993 88.1942
77.05791 6.963993 99.6632
76.0829 7.765991 98.4312
68.9029 0.54299164 107.4722
66.8839 45.583992 107.5102
70.1529 1.102993 92.1682
70.8619 3.0039902 92.615204
64.9589 45.805992 98.1922
63.6939 44.853992 99.7022
24.047901 2.44199 57.3302
23.999903 0.21399307 56.7532
20.475903 40.83799 67.7512
18.957903 42.69599 66.9122
82.7659 28.14899 31.2472
84.46191 29.12099 31.875206
5.157898 30.24999 38.6482
4.4099045 32.05999 39.597206
51.1859 15.034991 36.119194
49.5269 15.491991 35.229195
47.5209 17.069992 45.977196
48.427902 16.543991 48.033195
19.9189 15.9789915 93.7092
17.9879 15.916991 93.572205
22.102898 21.62799 102.4352
23.352898 22.153992 104.267204
56.0899 12.228992 99.9822
55.2069 11.262993 101.4782
65.3749 2.5949898 106.1122
66.174904 2.090992 108.283195
31.589901 28.64499 85.0012
31.118902 26.57999 84.2782
31.492903 34.01599 88.5192
32.6819 33.25499 90.4082
40.056904 30.84399 3.6271973
38.2359 30.15599 5.240196
41.8869 21.15899 12.612198
43.272903 20.998991 14.035194
31.810902 45.19799 28.620201
29.983902 46.05099 29.776207
20.058903 5.5169907 26.520195
19.540901 5.61499 23.864204
88.8789 42.45499 62.6282
88.3859 40.34199 62.8932
80.754906 42.64199 51.5652
79.964905 44.839993 51.3052
45.6179 34.840992 43.3312
47.6739 33.68399 42.5202
57.829903 29.31899 45.2812
58.357903 31.23199 44.4562
76.44791 2.4219894 63.9042
74.882904 0.29299164 64.1382
80.535904 0.37299347 52.9632
78.686905 1.0419922 52.0272
27.428902 0.98799133 13.884193
27.824902 2.3449898 11.782196
39.426903 3.3579903 7.445198
39.468903 4.904991 8.8821945
78.8579 43.89999 67.4022
76.462906 44.31699 67.4122
75.5419 41.847992 76.5232
77.0399 43.756992 76.6352
16.241898 7.0539894 10.989197
15.468903 8.749992 9.607201
13.094902 6.6509895 108.0752
14.853905 6.0569916 106.5342
40.385902 32.005993 81.1772
41.764904 32.29999 79.5282
45.883904 42.97699 75.295204
47.487904 42.866993 76.6062
19.315903 0.3279915 83.2032
21.5569 0.0309906 84.1762
20.910904 4.144993 95.8542
21.759903 2.2329903 96.2152
50.118904 42.436993 65.5952
50.2849 40.32799 66.5052
49.176903 0.11199188 69.1802
49.329903 2.5149918 69.9232
79.28091 26.65299 31.471199
76.976906 26.28499 32.4672
76.1949 28.03799 47.439194
76.8449 30.005991 48.423195
36.2829 38.89899 28.3592
33.7999 38.05999 29.321205
27.755901 0.88599396 19.602196
26.830902 45.921993 18.098198
62.691902 45.91299 107.8132
64.282906 43.86299 107.9552
77.1799 44.999992 1.334198
77.019905 0.4759903 2.5271988
5.101898 14.770992 24.738197
4.5009003 12.69899 25.6782
4.7489014 12.064991 40.405205
6.7958984 13.494991 40.116203
57.4019 5.741993 3.9391937
59.050903 6.69899 4.850197
55.467903 19.457993 7.766197
53.926903 20.320992 7.812195
29.862902 39.748993 93.1252
28.364902 41.11599 93.9672
27.572903 5.46999 100.601204
30.022902 5.21299 100.5182
89.3469 31.220991 5.3681946
1.4399033 32.48799 5.4911957
11.452904 33.05199 15.297195
11.6119 31.681992 16.737198
58.009903 30.09299 6.2501984
60.0679 29.52799 7.334198
68.2319 20.17699 6.355194
69.3009 18.18799 7.2182007
16.7359 17.456991 91.350204
18.6809 17.921991 91.7182
23.872902 20.685991 78.4642
22.706902 22.501991 77.865204
40.833904 24.767992 94.9692
39.614902 24.848991 96.8072
38.847904 37.33799 98.2002
39.8809 39.395992 99.0602
46.8459 42.93999 71.0972
46.6239 45.11599 71.7492
50.509903 8.236992 70.6122
49.195904 7.868992 68.7242
5.9228973 4.6869926 1.860199
7.4019012 5.6869926 0.32219696
14.995903 43.825993 0.7281952
14.337898 41.71699 1.0112
75.491905 3.590992 9.6362
73.851906 1.734993 8.869194
67.434906 43.789993 19.868202
65.631905 44.48399 20.199196
36.503902 1.9119911 27.884193
37.948902 0.12799072 28.781197
34.0909 7.106991 41.0642
36.023903 7.6909904 41.686195
59.760902 36.67799 79.1962
60.585903 35.64099 76.9562
51.493904 36.018993 67.9132
50.786903 37.65699 67.8482
63.6819 25.813992 64.351204
61.828903 26.730991 63.5412
63.9929 34.71199 53.5112
66.3279 35.53899 53.7702
13.940903 40.741993 20.453194
14.136902 42.61499 19.437202
4.5618973 43.62799 12.725197
3.4139023 45.28799 11.604195
14.017899 34.48399 97.5712
13.619904 32.34399 98.2152
20.448898 34.707993 107.129196
21.769897 33.49399 108.4442
31.310902 36.597992 34.776207
32.5349 37.194992 36.0642
33.615902 36.89199 48.092194
35.787903 36.756992 48.224197
31.406902 12.299992 75.3702
30.324902 14.118992 73.7162
28.634903 5.25399 83.4462
26.478903 6.616993 84.3242
8.226898 26.118992 50.0042
9.313904 26.57999 52.0282
17.489899 37.46999 45.4822
16.980904 39.734993 45.5122
84.6679 23.201992 85.7892
85.8009 24.72499 84.7832
2.9139023 17.49299 87.9882
3.8759003 19.129992 88.2512
58.7789 28.584991 80.3832
59.3399 28.494991 83.0942
63.8809 28.470991 92.2212
65.464905 28.17699 93.7322
82.0419 19.59399 89.0812
80.1659 20.629992 90.156204
89.3189 28.30899 97.0522
1.8199005 27.899992 97.1072
62.017902 34.935993 31.824196
60.328903 33.291992 31.588203
60.6739 32.00199 21.6502
59.8839 31.366991 19.792198
38.5769 27.966991 42.6102
40.002903 26.602991 41.341198
44.4099 21.48599 52.8432
46.6719 22.784992 53.6002
64.34991 6.034992 6.841194
65.963905 6.1839905 8.336197
61.684902 1.1889915 18.789207
60.4119 45.93299 19.669197
16.906898 2.708992 63.5742
17.4319 2.602993 61.1292
7.032898 9.146992 56.7812
5.983902 11.116993 56.7652
2.7268982 28.25399 4.0331955
1.6499023 26.15899 4.0932007
4.969902 28.95899 99.7072
3.2418976 29.91999 98.3842
53.4359 16.44399 94.573204
52.399902 18.47899 95.365204
44.8889 24.21199 85.9392
46.0629 25.95199 87.462204
5.7538986 24.63799 100.3682
6.1988983 26.75299 99.3842
7.511902 23.65599 108.3842
8.457901 22.910992 0.5921936
40.793903 7.798992 48.6292
39.0259 7.8559914 49.313198
44.007904 8.478992 48.9362
44.842903 8.675991 46.6852
34.869904 9.604992 88.4212
33.432903 8.258991 88.0122
33.2369 17.250992 78.5762
31.088902 17.12899 77.2492
80.924904 38.89199 61.0922
82.395905 38.032993 62.8672
0.22290039 42.03599 59.7112
89.7469 43.971992 59.1052
43.279903 37.09999 8.030197
41.2629 37.720993 6.9761963
34.2789 33.59199 7.5781937
32.098904 33.763992 7.0942
82.7769 1.2959938 42.0672
83.519905 2.8059921 40.090202
74.7519 38.38399 32.884193
73.4879 39.277992 31.043205
79.976906 17.215992 104.7012
79.4839 16.743992 106.8482
84.254906 21.163992 9.711197
85.5689 23.72499 8.4461975
34.142902 31.96899 4.751198
35.5399 31.123991 6.0392
37.065903 17.254992 3.2291946
37.586903 17.049992 5.423195
4.266899 9.922993 0.46619415
4.5679016 8.640991 107.8652
5.544899 22.78799 102.1802
5.221901 21.91399 100.0812
81.104904 17.178991 46.9882
79.7509 19.39499 47.3962
67.73991 15.783991 43.1532
67.323906 14.087991 41.4342
48.176903 41.77399 67.6332
47.4369 39.498993 67.7292
43.003902 27.956991 73.0212
41.6799 26.41299 71.7422
39.514904 28.073992 92.5962
41.3749 28.858992 94.031204
46.093903 41.984993 95.1522
44.656902 43.31399 94.1942
53.5959 9.661991 82.5472
54.2209 7.5619926 83.3442
46.229904 42.59399 82.7482
46.0139 41.42799 84.6532
68.684906 2.8429909 43.6252
69.6369 1.7599907 45.077198
63.537903 3.3179893 58.2362
61.490902 3.3439903 58.0392
61.9519 42.98399 99.0132
63.731903 41.729992 100.392204
69.0949 39.270992 88.0422
67.923904 37.81399 89.1952
36.4079 0.4169922 54.4842
37.718903 1.097992 55.9562
34.411903 9.870991 66.3862
35.7709 11.8019905 66.0082
39.440903 40.859993 96.7892
37.037903 41.37899 96.7342
34.0129 5.805992 101.6182
31.739902 5.981991 102.2152
45.674904 40.30799 16.128197
43.438904 39.36499 17.610199
46.828903 44.067993 29.898201
47.585903 46.23799 28.845207
51.058903 10.85199 108.2492
49.251904 12.911991 107.5592
47.4089 17.033993 12.629196
45.5959 17.686993 12.479195
29.404902 2.0529938 2.7571945
29.314901 46.37899 3.4201965
35.773903 9.161991 9.153198
34.8459 10.64299 10.515198
64.6079 14.616993 42.5292
66.08591 12.915993 44.2542
63.3349 4.7009926 46.7912
62.6129 3.6089897 48.1962
18.997902 29.029991 20.715202
21.572903 29.93799 21.246208
21.900902 43.74099 22.986198
24.024902 44.900993 22.587196
41.933903 6.4759903 46.3712
42.3389 5.118992 44.9722
40.983902 45.82399 53.7712
43.112904 0.6799927 53.8322
87.0839 46.298992 55.3512
85.7259 1.6299934 54.4742
3.9309006 6.793991 57.7012
5.2209015 8.5779915 58.4902
17.275902 23.094992 35.9972
15.802902 24.286991 35.338203
7.3879013 32.15399 40.2212
7.858902 31.990992 42.620193
32.218903 15.457991 12.625198
34.5329 14.867991 10.8312
41.357903 25.33299 4.4951935
39.835903 25.056992 2.346199
12.4599 29.71099 67.8082
10.180901 29.616991 67.7092
10.343903 21.56899 61.8212
8.7789 20.852991 62.8012
13.643898 33.53099 17.116196
13.7558975 35.56599 16.550194
26.884903 33.907993 15.512199
27.9609 33.901993 17.641197
78.645905 6.106991 97.4742
79.715904 4.347992 96.7202
69.4949 0.024993896 99.6242
67.6069 45.43499 100.364204
74.7939 29.50399 107.1362
74.8439 27.511992 106.2882
62.1589 22.70799 107.0022
62.7019 21.687992 105.3182
1.9358978 3.0269928 83.0662
3.8679047 3.9219894 82.1752
11.628899 2.3869896 75.6512
12.4589 2.9679909 77.2862
45.368904 7.2669907 69.4192
43.952904 9.201992 68.8892
41.529903 11.85899 61.9412
43.170902 13.743992 62.2642
69.9029 18.368992 38.1312
70.174904 20.859991 37.6382
72.8909 27.12199 49.8672
73.9719 28.976992 49.4792
47.1099 22.743992 13.173195
49.002903 23.98899 13.711197
48.4089 24.411991 26.623207
47.828903 22.812992 28.071205
38.9709 34.96099 50.6942
39.398903 37.12299 51.5962
37.364902 28.285992 60.5502
37.731903 27.74299 62.8962
31.237902 36.80899 65.4262
31.294903 38.727993 64.9852
35.6439 43.651993 55.0282
37.8399 44.50999 54.1942
24.617903 19.598991 106.9092
25.380901 20.657991 104.9282
32.0839 29.22899 2.0621948
30.830902 31.16299 2.9751968
16.7809 38.93399 1.5792007
16.851898 37.589993 109.0892
20.506905 4.87899 104.1942
18.808899 4.4009895 103.364204
62.142902 10.63699 83.4572
64.269905 12.207993 82.4842
71.4689 18.514992 77.4932
70.491905 19.873993 75.892204
38.071903 27.375992 97.7022
35.919903 28.556992 96.6672
30.142902 38.75999 95.7512
30.099901 38.408993 97.5852
69.00291 32.30799 12.436195
71.1489 30.997992 11.652199
67.3349 18.990992 11.840195
65.1509 18.85799 12.512199
64.5819 2.1129913 36.8222
64.33591 46.37599 37.4282
53.3609 0.8389931 48.6222
53.662903 2.9679909 49.0582
17.1109 39.77899 68.7372
17.6549 41.78699 70.3212
20.873901 34.02199 65.8732
21.267899 35.485992 64.1682
16.267899 4.005993 102.4512
16.244904 6.2359924 103.5232
15.232903 14.76099 92.7892
14.267899 16.931992 92.4002
77.7729 6.8469925 21.2622
77.2169 7.821991 19.299202
71.3579 19.098991 18.576195
72.421906 21.01699 18.782204
88.3089 15.939991 11.640198
0.23190308 17.44099 12.440201
11.344902 22.49999 15.924194
14.023903 21.292992 16.374199
76.0519 34.20599 32.743202
76.756905 36.44699 32.894203
82.1549 27.514992 27.444206
83.78091 29.004992 28.712196
12.332901 8.2219925 34.037193
13.603905 6.8069916 34.9002
12.482903 0.11199188 48.196198
14.5439 45.86999 46.8752
2.580902 18.784992 16.4292
2.160904 17.805992 14.5102005
12.914902 13.424992 9.3172
11.331902 11.26199 8.354195
19.4739 8.20499 26.397194
18.809898 8.141991 28.351204
20.3349 1.439991 22.222206
21.562904 0.1499939 20.814201
63.4709 39.17699 103.448204
62.857903 37.11999 103.8792
56.3479 41.513992 98.656204
57.1959 43.06499 99.9572
33.2619 28.879992 96.7222
32.0199 30.58999 96.4862
40.023903 32.39299 83.7162
39.0269 34.097992 83.3442
19.233902 12.25499 77.252205
21.509903 11.986992 78.2172
18.908897 3.1149902 73.7762
17.552902 1.3679924 73.0502
17.1129 23.457993 31.618202
18.401901 22.90699 33.647194
14.898903 11.71199 38.863197
14.410904 9.534992 39.653206
20.671898 28.27399 10.323196
21.580902 26.77399 11.9461975
11.726898 25.786991 17.847198
12.317902 23.472992 18.238197
44.231903 14.977993 60.1482
45.5699 13.284992 58.7582
48.181904 19.49599 52.3122
49.160904 21.20499 53.8442
52.4159 43.930992 19.015205
51.3749 44.70499 20.793205
41.5699 44.381992 16.237198
41.563904 45.811993 14.319199
1.3609009 41.26499 47.7612
1.8069 42.886993 48.7602
10.137901 0.0049934387 38.8752
11.960899 1.0969925 37.6262
77.406906 30.52099 22.044197
78.93291 30.831991 20.446205
0.8788986 34.77499 21.286201
3.1649017 34.05299 21.515205
46.974903 40.88599 40.670204
46.4649 41.60199 38.944206
42.295902 45.68999 29.4822
44.7689 45.28199 28.518196
60.557903 11.605991 33.8592
59.1809 11.796991 32.589195
61.085903 22.31899 37.179207
63.092903 22.53099 38.013206
26.736902 30.279991 100.4562
25.995903 28.272991 100.5792
36.737904 26.70799 1.3121948
36.656902 28.313992 3.383194
22.106903 17.031992 31.202202
20.299904 16.806992 29.919197
19.732903 28.466991 23.382195
20.693901 30.41999 23.904198
30.956902 43.21899 36.4112
30.983902 41.20299 35.944206
33.543903 43.87599 30.715202
33.9999 43.463993 28.366203
50.191902 43.19199 40.849205
51.675903 44.831993 41.537193
62.934902 3.0369911 35.160194
63.600903 2.2729912 33.018196
80.160904 11.66399 77.3682
78.518906 11.25499 76.6332
75.5819 0.31399155 67.1742
77.5089 1.0159912 66.0492
5.608902 44.99799 7.1222
4.3719025 0.33799362 5.735199
83.589905 5.2599907 12.878197
83.838905 7.9319916 12.028198
35.7499 29.945992 68.4182
35.3679 29.622992 66.2042
46.154903 40.16799 62.2982
44.0889 40.79599 61.5752
37.793903 23.02099 95.0992
38.292904 22.712992 97.4362
46.243904 16.692991 103.0072
47.1929 15.166991 104.1162
35.7279 26.174992 45.8252
37.836903 25.04799 47.1532
43.6929 24.390991 56.7882
41.229904 23.851992 56.6462
73.48891 16.76399 77.3662
74.4869 18.27099 75.6772
82.296906 28.609991 73.1372
80.5969 29.78499 71.9442
52.2979 26.508991 90.1542
52.287903 28.16299 89.0762
48.9509 40.21799 94.1462
47.1799 41.64299 92.5342
33.7629 24.27099 42.7432
36.272903 24.77099 43.473198
43.997902 15.770991 49.3322
46.023903 15.049991 50.9462
49.737904 25.70499 31.292198
51.0959 26.382992 33.203194
48.8199 29.73299 43.6522
50.740902 28.750992 44.726196
19.106903 28.785992 44.964195
17.496902 27.84999 44.171196
23.060898 26.59399 37.562202
21.463898 25.59299 37.278206
42.503902 31.00399 83.7272
42.9169 32.58499 82.1372
51.612904 40.51699 78.211205
51.362904 42.02499 76.6872
15.288902 6.51099 19.988197
14.912903 7.0659904 17.8582
13.991898 46.46899 7.3591995
15.976898 1.326992 7.619194
31.462902 26.028992 55.5132
32.7159 26.69499 54.2062
31.870901 15.697991 55.3102
30.820902 13.8279915 54.2282
76.8709 43.935993 70.1742
78.96091 44.255993 70.0982
83.37891 7.7649918 77.8802
84.089905 5.9599915 78.0842
81.6359 45.16899 9.160194
84.2599 44.52199 9.8592
4.068901 5.673992 3.3641968
4.078903 7.56699 1.6151962
58.7279 14.01199 48.5502
58.6319 13.391991 50.3852
54.2979 1.0589905 53.4832
53.078903 0.46699142 51.119198
6.238899 8.130993 48.9542
8.591904 7.349991 49.0182
87.7369 45.234993 50.2062
86.9909 46.402992 47.945198
83.4979 24.05499 48.8972
81.757904 23.63899 49.9652
80.3769 23.107992 63.653202
82.16991 22.307991 64.7842
21.914902 45.50199 96.9842
20.023903 0.35799026 97.4872
14.357903 37.984993 88.3152
16.716904 37.804993 87.4272
54.892902 22.734991 8.422195
54.6509 23.970991 6.3992004
60.3889 16.46199 9.713196
60.7149 17.355991 12.019196
2.058899 13.154991 26.3012
1.7509003 10.82999 26.868202
86.284904 3.2859917 35.901207
85.8499 4.708992 37.751198
85.2199 3.4999924 42.091194
86.3159 2.828991 40.257195
8.150902 1.3849907 37.304207
9.749901 1.4989929 36.128197
13.253899 39.43499 9.085197
15.123901 38.866993 9.449196
18.253899 40.187992 22.547203
19.645905 42.11299 23.075203
57.0279 28.157991 102.5422
54.5369 28.26699 101.1722
56.6389 39.73199 96.3022
58.6109 40.708992 97.0702
86.6279 6.3659897 91.655205
88.1399 5.4109917 93.4702
87.4559 10.905991 105.3262
85.8859 12.208992 105.9142
77.8279 42.833992 47.4632
76.8609 40.840992 46.5712
80.6129 32.82899 54.3432
82.9689 32.33599 53.6842
32.9029 30.671991 58.8632
34.377903 28.741991 59.2682
42.766903 34.930992 51.8242
44.8329 35.49799 51.4482
8.328903 20.75699 90.9462
6.6988983 20.069992 89.4112
14.196899 24.89299 87.2302
14.574898 26.379992 85.8432
61.100903 30.76099 4.0631943
61.696903 28.646992 5.129196
73.98891 23.288992 2.1401978
75.046906 21.386992 0.5291977
46.948902 3.7829895 15.229195
44.809902 2.7729912 15.227196
39.926903 15.465992 14.201195
40.024902 13.015991 13.596199
79.0389 25.50399 62.0442
79.1639 27.264992 62.556202
89.1799 29.56299 55.3812
88.3979 27.41699 55.7482
48.1669 18.590992 78.8442
48.7559 16.17199 79.3602
52.196903 10.994991 85.1632
52.840904 8.876991 85.5612
74.531906 16.44099 47.7162
74.1639 14.44199 48.5922
62.710903 8.498993 48.2992
62.4719 6.3539925 49.0342
50.1179 1.0059929 66.6112
48.871902 1.6269913 64.6762
50.6379 36.35599 61.8692
50.309902 34.393993 61.0482
0.4389038 13.423992 16.698196
1.7388992 11.451992 17.550194
88.0679 10.45499 16.4572
87.6919 12.425991 15.3852005
22.847902 17.48299 96.2892
22.854902 16.32299 93.906204
32.744904 7.500992 92.0912
31.277903 6.335991 93.3582
18.889902 15.098991 23.869194
19.240902 16.63899 22.216194
26.089903 25.72599 16.0522
28.779902 24.986992 15.672195
8.3209 23.348991 102.7792
8.411903 21.278992 104.142204
19.470901 27.730991 106.9322
18.4589 29.476992 107.9922
32.6099 27.86799 16.293198
31.027903 26.407991 16.221199
43.821903 27.67299 15.391197
42.4709 29.34399 16.041199
7.485901 37.574993 67.7722
7.9628983 36.52399 69.6832
85.8609 34.50999 77.9732
85.34991 32.464993 78.9722
14.256905 3.083992 37.3272
12.983902 4.34499 35.735207
8.366898 1.7499924 23.847206
7.4029007 3.5359917 22.9822
63.9089 13.12299 20.5122
65.159904 12.303989 22.4412
73.881905 20.82899 28.518196
73.420906 20.408993 30.779198
83.0429 16.326992 13.341194
82.2309 15.529991 15.146194
75.2659 25.213991 19.712196
74.50291 24.17999 21.032204
17.941902 13.035992 64.1532
16.744904 14.667992 63.0482
12.076904 19.50499 61.0982
9.137901 19.090992 60.8412
69.4449 29.601992 92.128204
68.990906 31.677992 93.031204
83.4179 34.824993 92.6892
84.61391 36.19899 93.7352
44.997902 4.4409904 49.6202
45.3199 6.854992 50.4372
47.740902 8.8209915 62.4802
48.0139 11.091991 63.3642
80.9169 17.04099 100.8072
82.393906 18.741991 100.6792
83.4139 29.545992 102.3592
83.5259 31.79799 103.1642
46.1239 21.19099 15.328194
45.910904 19.60199 14.397194
38.135902 13.10799 24.858208
37.288902 11.08699 25.562202
83.0699 18.73199 61.6902
81.9409 17.907991 59.9192
76.1119 23.170992 50.6532
74.7489 25.195992 50.5812
70.743904 4.5519905 23.227196
69.4949 3.0199928 21.896202
60.7899 12.26799 25.475197
59.9119 12.216991 23.078194
36.4299 16.603992 35.705208
33.9569 17.55199 35.993202
27.083902 13.856991 44.157196
27.136902 11.717991 44.7502
77.97491 29.782991 51.0862
76.991905 31.34299 51.876198
68.7789 35.32399 53.730198
68.0259 36.416992 51.7342
22.058903 38.116993 98.3062
20.438902 40.076992 98.3752
26.917902 40.069992 92.0742
28.127903 39.65699 90.2692
59.2519 8.076992 89.141205
58.6099 8.02599 87.2332
53.585903 42.013992 84.7842
53.056904 41.936993 82.6172
79.0249 39.666992 74.5072
79.8909 37.72599 76.0822
73.26691 36.604992 84.5382
74.769905 38.69099 84.7962
73.3279 20.17299 107.8022
74.9549 19.407991 106.4942
83.3879 29.281992 2.2641983
84.2619 29.08999 0.28219604
58.9089 39.34899 104.4562
58.169903 41.164993 104.3462
62.8389 36.590992 9.351196
62.086903 34.60799 8.521194
6.4119034 40.19899 107.0632
6.217903 38.93999 109.0902
6.398903 41.70399 13.596199
5.9348984 39.84899 14.6632
23.915901 21.675991 99.0572
23.804901 21.809992 96.8732
35.5769 22.67699 96.7332
35.4009 24.737991 97.4382
74.6259 12.325993 100.6452
72.5539 11.043991 101.2132
64.4389 13.75399 105.7722
62.746902 13.160992 104.1812
42.413902 27.282991 40.7922
40.9099 29.40199 41.461205
36.626904 33.86599 28.322197
36.454903 36.28799 29.049202
43.8259 22.462992 1.2901993
45.7989 21.536991 2.8432007
38.604904 12.856991 9.9422
38.247902 11.142991 8.305199
12.502899 30.74999 83.8992
11.127899 29.13499 83.4372
1.8289032 38.71099 82.3322
1.5289001 40.66899 83.0942
87.9469 20.257992 44.5812
88.5409 21.493992 42.620193
2.8388977 19.032991 36.672203
3.9239044 17.31199 37.268196
71.1809 39.907993 32.860207
70.505905 38.55099 31.4972
62.4179 32.173992 23.987206
60.5019 31.369991 24.836205
82.0679 9.3209915 49.6712
83.4449 8.158993 49.5522
6.596901 7.6489906 51.6532
7.377899 9.665993 51.8042
20.228905 19.713991 53.6142
20.6949 20.715992 55.3772
15.856903 32.01899 58.5902
15.544899 33.699993 60.4532
15.503899 9.285992 78.9002
17.396904 8.09499 78.9112
18.966904 4.1019897 64.1322
19.354904 1.621994 64.7102
44.2489 38.547993 109.1402
44.715904 36.58099 0.7921982
53.2989 28.03499 105.6992
51.808903 26.00999 105.2272
46.1579 5.3179893 71.2342
44.716904 3.543991 71.4142
35.198902 44.71099 71.6052
33.031902 43.998993 70.5062
72.770905 43.942993 49.5072
72.32191 46.032993 48.8562
63.6549 45.881992 58.9042
62.0329 0.81599045 59.0072
79.8439 43.89699 109.1932
79.80791 42.66199 2.2521973
82.48891 9.30299 2.0621948
81.2029 10.333992 3.435196
32.5409 7.623993 57.098198
30.849901 6.932991 56.1402
27.683903 43.60199 55.3152
25.707903 44.693993 55.5962
86.9359 40.45499 39.0602
85.8929 39.70599 37.1002
86.4459 38.095993 46.1992
87.380905 38.50799 47.9602
0.53790283 33.25899 23.765205
0.94989777 34.546993 25.681206
78.8629 34.22699 33.992195
79.493904 34.810993 36.299202
18.0169 12.373993 41.4432
15.594902 12.182991 41.3602
9.374901 19.848991 52.2572
7.6759033 19.491993 53.5452
57.4039 16.15799 58.2422
55.6039 15.481991 57.5832
58.5199 2.8939896 60.4672
59.031902 4.0239906 58.6432
14.774902 13.402992 67.4712
15.364899 12.71999 65.4012
3.9459 17.430992 62.2282
4.021904 19.03799 60.7492
25.246902 8.103992 86.3672
27.700903 8.97599 84.9352
34.4499 10.51099 91.7862
36.446903 10.599991 90.9402
19.921902 38.09499 23.963203
21.449902 39.178993 25.6352
28.099901 41.64899 34.560204
28.503902 42.87699 36.412193
14.228905 11.730991 12.3852005
12.548904 10.575993 11.376198
4.2248993 16.564991 21.349205
6.396904 16.571991 22.5402
36.897903 33.505993 47.9442
37.1519 31.716991 48.0082
38.524902 24.899992 59.3572
37.267902 25.64299 60.7962
36.058903 14.567989 66.3682
37.722904 13.890991 65.3312
35.933903 13.46199 76.9712
34.190903 12.896992 76.2472
59.509903 33.26599 8.813194
57.6939 32.005993 8.105194
47.800903 27.34399 11.697197
48.9429 25.595991 11.295197
78.6529 42.38499 74.2042
79.80791 42.784992 76.3402
87.8559 4.79599 80.8252
88.2079 3.1469917 82.2932
14.803902 29.007992 84.6642
14.665901 27.47599 82.6802
20.276901 36.409992 79.4672
19.313904 36.95999 80.877205
27.946901 28.347992 13.6632
29.355902 27.934992 11.291199
35.577904 15.396991 15.003197
37.794903 14.731991 16.133194
80.962906 8.998993 22.716194
83.3589 9.64999 22.280205
2.1828995 7.305992 26.519203
2.3579025 5.3259926 28.047203
34.752903 15.813992 76.6362
32.295902 15.857991 74.9702
39.973904 24.250992 64.2212
39.195904 24.265991 62.2222
88.2079 23.986992 63.8672
88.519905 25.727991 62.5132
4.2019043 34.539993 57.2482
6.801903 35.249992 57.9532
8.841904 20.385992 57.7482
9.591904 19.68699 56.0442
19.622902 17.227991 48.8622
21.114899 17.227991 47.3172
57.843903 42.71099 53.6342
58.6939 41.206993 53.9112
69.423904 45.52999 45.2622
70.2359 44.48799 43.8782
12.187904 39.62899 36.146202
14.643898 39.511993 35.944206
21.304901 4.2479897 35.994194
21.609901 4.644993 33.942207
41.271904 43.94899 86.8402
40.1379 43.28599 88.5222
30.005901 6.439991 85.8562
28.484901 7.201992 87.6652
40.204903 20.16499 101.9812
41.092903 18.963993 102.739204
33.7419 9.203991 94.1852
32.0049 8.863991 94.9442
59.6339 23.79799 19.789207
56.9859 24.324991 19.770195
51.424904 21.378992 7.6072006
51.779903 23.726992 5.874199
47.6109 44.18499 103.3952
49.467903 45.972992 103.2972
50.933903 12.616993 103.6942
50.6649 11.431992 105.5542
89.3169 36.88499 51.4462
1.7238998 35.991993 51.4472
7.179901 41.48399 44.1102
7.4869003 39.29399 42.7032
26.998901 21.774992 13.652199
28.224901 23.688992 12.6492
34.1469 13.531991 8.448196
34.9239 11.493991 7.8491974
69.3729 40.102993 36.5512
68.6549 38.443993 35.132195
63.9159 26.619991 35.755196
62.676903 25.03099 36.126198
66.519905 43.061993 33.9802
67.3579 45.17099 34.397194
75.7229 6.423992 26.198204
76.9729 4.7309914 26.047203
34.9149 0.7919922 2.7021942
35.851902 0.2069931 0.5071945
34.676903 36.24099 0.4651947
35.773903 36.81399 2.3001938
47.619904 40.96699 59.9892
45.361904 40.22699 58.6952
40.445904 28.40299 59.5762
38.731903 27.755991 58.0682
31.343903 36.159992 49.5102
29.497902 34.96299 51.0172
32.753902 44.610992 62.3352
31.394901 45.49799 63.6392
31.682901 7.583992 24.699196
33.8319 7.7949905 23.358208
37.5489 10.162991 11.529198
36.489902 11.69199 12.365196
61.066902 35.53199 48.5162
61.191902 37.82099 47.8142
74.7589 41.485992 44.3792
75.6349 39.52199 43.3912
49.240902 37.30199 106.5032
47.051903 36.777992 106.6202
48.0119 24.840992 101.641205
49.822903 23.82899 101.5432
60.079903 25.55599 86.5282
61.705902 23.890991 85.6092
61.357903 11.214992 91.5532
61.6459 9.046991 90.9512
23.159903 5.9599915 99.7212
24.681902 6.769993 101.2512
17.836903 12.419991 108.2092
18.354902 10.127991 107.7402
0.6489029 10.506992 104.4702
0.95090485 8.276993 104.2642
89.2609 6.484993 90.5222
0.81890106 5.7429924 89.2302
84.2759 27.070992 70.2872
85.4859 25.21899 69.8062
76.507904 15.862991 64.2702
75.0929 16.182991 65.837204
79.9729 29.237991 31.271202
78.699905 30.118992 32.541206
70.757904 37.87099 28.6652
73.0419 38.479992 28.514198
20.729902 37.353992 48.5982
22.567902 37.11999 49.2612
31.066902 29.192991 57.1772
30.019901 29.476992 59.0572
31.610903 42.66299 72.7502
30.180902 43.36399 74.600204
18.880901 44.116993 71.1342
17.095901 45.089993 69.8362
37.622902 23.459991 40.084206
37.892902 25.991991 39.794197
41.933903 33.15599 28.750206
43.8259 34.35599 28.399208
28.287903 17.693993 51.3012
26.583902 16.536991 52.438198
32.0349 11.178989 54.8652
30.793901 10.33099 56.3732
16.003899 15.661991 66.6792
14.967903 16.964993 67.5282
14.952904 16.23899 71.5552
16.3349 16.000992 69.5322
55.7309 44.575993 5.119194
56.328903 42.86999 5.4132004
65.1819 38.69099 12.129196
66.80791 38.46699 13.7612
50.7969 21.57999 51.7902
49.979904 23.663992 52.6912
51.434902 31.307991 60.9252
53.1459 32.47799 61.8832
22.939901 7.0659904 62.8602
22.582901 5.894993 60.6772
20.336903 15.306992 52.0622
21.585901 15.965992 50.1782
47.695904 32.58799 19.475197
47.572903 33.762993 17.230194
54.128902 42.414993 20.322197
53.092903 43.67699 22.201195
72.84991 18.84699 5.7892
73.7349 19.170992 7.9721985
72.575905 30.46199 16.799194
71.7729 30.720991 19.018196
47.919903 9.916992 70.5582
50.119904 10.99699 71.7862
61.2689 16.41299 61.5852
59.0489 17.319992 61.4572
29.338902 4.4829903 74.8172
28.646902 2.4169922 73.8722
29.904902 40.04299 67.1622
31.877901 40.540993 67.9012
42.382904 29.95899 78.5522
43.0889 31.13799 77.2022
56.1439 37.44799 75.5652
54.6029 39.200993 75.9492
78.6529 5.2499924 24.008202
79.6369 4.8139915 22.089195
88.2749 40.23399 17.626198
86.5129 39.34899 15.974197
36.920902 26.67699 94.9362
36.126904 27.68099 92.8282
42.139904 25.927992 83.4272
43.106903 25.546991 80.8902
55.6579 28.50999 0.23019409
57.217903 26.77399 0.29419708
49.918903 17.432991 104.142204
49.871902 14.968991 104.6532
6.7729034 19.083992 92.3852
6.3899 16.978992 92.7162
4.1968994 9.821991 97.2842
5.2709045 7.4739914 98.351204
55.031902 45.27299 20.735207
57.6319 44.85699 19.353203
66.672905 43.82199 22.524208
68.032906 41.82199 21.980202
14.046898 36.91399 95.8442
12.983902 37.95399 97.7472
8.766899 42.838993 99.7762
6.575905 44.24799 99.2772
10.5299 31.365992 55.4202
8.975899 31.879992 56.8062
12.115898 35.679993 68.8152
12.482903 37.38999 67.7842
56.5159 25.06599 68.8472
58.7689 25.486992 69.5132
59.5419 37.94699 75.3542
61.3459 40.019993 75.4262
54.1479 23.12799 23.700203
55.4049 21.08799 23.102196
49.406902 10.325993 16.619194
51.460903 9.255993 16.341194
29.420902 38.84199 48.8692
31.133902 39.99099 48.0872
29.744902 4.6769905 40.0792
29.109901 6.956993 40.8182
55.2139 21.154991 73.2302
55.5059 23.14499 72.2562
54.2079 30.143991 65.2172
55.4659 32.16099 64.1732
78.89291 40.69099 62.2382
78.21091 38.43499 61.4532
73.755905 34.70599 63.3892
75.9569 35.881992 63.0902
38.432903 30.42299 44.603195
37.6379 32.46299 45.033195
35.6599 37.16899 31.573204
35.113903 39.85699 31.295204
63.9029 8.312992 73.9132
66.1339 8.62299 74.072205
75.0269 14.439991 68.2362
74.97591 14.02499 70.3892
63.4649 21.476992 19.584206
61.842903 22.688992 18.4562
65.562904 35.617992 16.086197
64.8449 36.979992 14.800194
15.874901 42.37699 47.711197
16.683899 44.51499 47.8752
22.2229 41.102993 37.1332
23.145905 40.07399 35.256203
80.6539 10.119991 31.287193
81.465904 9.049992 33.296196
70.2879 3.9159927 40.8552
70.9189 4.08799 42.799194
27.062902 23.060991 73.0952
24.619902 22.879992 73.5302
24.709902 26.095991 60.4662
23.103903 26.18799 58.8382
76.160904 15.1109915 103.4632
77.7319 16.820992 103.2362
71.311905 14.824991 100.4912
72.8619 14.027991 101.3452
85.0639 35.623993 96.7132
85.4269 37.62099 96.3412
86.741905 30.976992 89.1222
85.3339 32.012993 90.1122
53.5339 46.054993 18.120193
55.8349 44.86599 17.000198
56.3969 40.755993 8.131195
56.9499 40.11499 6.0971985
47.766903 19.01699 103.864204
48.419903 18.26999 101.7542
49.083904 25.67999 92.4662
48.225903 24.74599 90.1292
34.363903 23.362991 40.2192
33.488903 25.126991 38.94021
33.8529 32.58499 27.539207
35.050903 30.939991 26.370201
88.7629 15.627991 106.407196
88.131905 13.70499 105.9262
4.5699005 14.731991 93.2322
3.8508987 15.835991 91.9252
29.429903 10.488991 42.488197
29.230902 9.582993 40.237206
16.513903 8.3279915 34.030205
16.747902 6.1349907 34.824196
2.8808975 44.44899 4.8331985
1.6828995 46.29499 4.2241974
85.9669 39.22599 105.6452
83.4299 38.47599 104.8592
78.9009 14.883991 77.5882
79.228905 13.222992 79.5702
74.12891 9.75499 86.8202
72.7309 8.679993 88.808205
17.896902 17.16699 62.5972
19.150902 16.536991 64.2842
26.304903 20.05599 73.5042
28.228903 19.470991 73.3172
4.0618973 18.698992 92.4812
2.6168976 17.946991 90.7462
83.3179 16.57299 99.434204
81.451904 15.275991 98.127205
69.3159 31.914991 89.8462
70.0829 33.657993 89.1212
77.3729 30.174992 77.6642
76.71191 27.796991 78.8442
81.4289 40.30099 103.7642
81.6409 39.46099 101.5962
85.812904 1.8279915 93.5702
85.0699 0.22899246 91.7362
78.6089 24.09999 6.652199
77.588905 24.650991 8.6632
68.3189 18.993992 14.323196
68.8209 21.420992 14.512199
59.760902 30.907991 39.8742
61.1679 32.262993 41.244194
68.185905 44.02499 36.796196
68.2229 46.28799 37.703194
22.076902 20.62899 75.9792
23.815903 19.279991 75.7962
20.293901 12.838993 65.7252
19.199902 14.477993 66.0622
26.960901 40.90499 17.102196
27.178902 39.16799 17.230194
32.106903 32.019993 25.604195
34.377903 32.152992 24.061195
57.0499 40.839993 87.7832
56.4239 41.11499 85.4852
65.2049 3.9429893 87.877205
66.545906 6.0089912 88.5982
45.5969 44.83699 14.593201
43.792904 44.46299 14.248199
53.5419 40.110992 7.9651947
54.9449 39.276993 9.765198
89.2169 3.6379929 84.7362
0.47890472 1.7239914 85.2102
85.645905 35.10199 91.1192
83.87791 34.67699 89.8022
9.676903 3.229992 55.737198
11.5569 3.1539917 57.0642
8.0839 39.610992 65.990204
9.4099045 39.97399 67.6232
2.3498993 39.534992 17.9972
0.71790314 40.84199 19.110207
89.0979 6.8089905 15.334198
0.28490448 8.709991 16.187195
51.946903 12.717991 33.172203
49.990902 12.80999 34.9022
49.503902 46.353992 30.8442
50.2289 45.21699 32.252205
12.565903 5.6959915 80.5702
13.309898 5.8579903 78.3382
5.6669006 15.11499 73.3732
4.9228973 15.341991 71.2872
63.093903 43.35199 60.3272
61.7619 45.08599 60.7742
54.4709 3.9679909 70.9182
55.6329 5.944992 70.9202
69.7319 2.5449905 3.610199
69.965904 4.9759903 4.1981964
78.0559 3.6739922 104.337204
78.436905 3.300991 102.2052
7.8479004 28.59699 97.4362
7.509903 27.58599 95.0192
12.538902 35.87699 87.8682
13.199898 35.978992 90.2412
30.556902 31.51099 6.6782
29.032902 31.56899 8.410194
24.975903 18.917992 3.5711975
24.500902 19.53799 1.7591934
47.7209 18.12799 75.8442
48.494904 20.02399 75.2972
40.417904 13.984991 83.142204
38.419903 14.846992 83.8682
24.683903 15.165993 85.4322
24.504902 17.734993 86.2772
28.761902 13.800991 95.558205
30.823902 13.488991 96.8382
52.668903 41.179993 52.5782
51.1729 39.80799 51.6472
43.9929 35.32899 48.7402
45.9999 34.47499 48.9612
89.424904 19.511992 33.438194
0.70690155 21.581991 31.840202
9.382904 27.90899 33.631203
9.731903 29.404991 35.098198
27.5429 37.60599 92.2272
27.966904 36.92599 90.252205
15.211899 34.02299 87.1112
14.885902 32.130993 86.3932
38.722904 31.29899 24.194206
39.340904 33.415993 24.752205
39.8539 42.525993 28.804207
39.8539 44.58799 28.2062
80.129906 8.98399 53.5482
82.1079 7.6859894 54.0152
1.794899 16.439991 60.2512
2.3609009 15.270992 61.6632
25.826902 43.11599 98.4162
24.664902 41.51699 97.711205
25.469902 5.863991 88.5192
26.619902 5.2739906 86.7382
46.424904 12.980991 15.1321945
48.2839 14.24099 16.3182
55.128902 13.38699 26.858208
56.5419 11.527992 27.861198
76.8489 26.91299 75.7302
75.101906 26.45499 74.1082
71.32291 22.38899 61.6092
73.9119 22.26699 60.8752
19.522903 41.86999 36.063194
20.5419 40.011993 34.994194
22.882904 32.73999 28.251198
21.919899 33.45999 26.411201
2.108902 36.178993 57.7812
2.5839005 38.50099 58.5622
89.0669 40.58499 49.8682
86.9779 41.17499 48.9552
33.9639 1.7669907 29.023201
31.590902 1.5819931 29.758202
21.116901 5.61499 29.126198
21.136902 6.932991 31.351204
12.064903 24.79499 34.090202
10.244904 24.72499 33.155205
6.104904 17.73299 35.160194
3.8528976 19.20399 34.263206
52.1239 35.797993 54.1702
52.5209 35.62899 56.619198
60.3769 31.90999 48.7632
61.6059 32.832993 50.4492
13.908897 25.76999 45.1092
15.573898 26.48899 46.4882
24.7099 18.949991 52.5482
26.899902 19.587992 53.959198
5.9019012 33.36399 20.777199
5.365898 32.173992 22.425194
19.7939 35.52399 24.809196
20.039902 33.039993 24.558205
12.302902 30.54199 14.1912
12.368904 30.185991 12.218201
12.9879 22.357992 1.8521957
10.897903 22.88799 2.4021988
12.312904 19.79799 101.1592
11.866898 22.159992 100.7722
11.788902 24.538992 90.6632
10.836899 25.188992 88.7242
10.564903 24.208992 51.4292
10.100899 24.195992 49.2222
10.818901 12.343991 41.4872
10.780899 12.220991 43.5782
0.06690216 18.840992 39.578194
0.75090027 20.81199 38.3292
83.34991 25.896992 29.618202
81.573906 25.939991 29.869194
0.893898 23.116991 62.542202
2.8108978 22.774992 62.3902
4.497902 20.00299 77.252205
6.3539047 21.973991 77.128204
83.1219 45.373993 35.528206
81.4029 44.040993 34.743202
74.129906 38.798992 25.671196
73.3879 39.59899 23.618202
62.323902 13.194992 64.6892
63.2149 12.789989 62.6722
69.059906 18.512993 61.8982
68.3069 21.175991 62.1352
19.373901 1.0219917 57.5092
17.843903 46.109993 56.1322
16.853905 41.05999 66.2952
16.8889 38.51699 65.5192
64.19791 40.85799 19.708199
61.8769 41.11999 20.905205
58.7639 35.53199 11.041199
60.5909 35.03699 10.610199
3.8238983 13.074989 71.6732
5.1599045 11.37999 70.2442
15.011902 1.8749924 70.6692
17.322899 1.3289909 70.2532
30.671902 37.12099 91.3722
30.151901 34.79499 90.7592
25.065903 38.14099 97.6792
26.249903 39.534992 96.4802
71.409904 19.820992 60.5572
72.4959 18.16999 61.9542
76.743904 17.10099 50.7412
77.1769 17.44399 48.952198
82.3849 14.866993 61.4332
84.62791 15.438992 63.1702
87.8339 5.9739914 72.4282
88.5519 7.98999 73.4202
60.982903 19.60699 67.2602
60.8049 17.486992 67.2852
48.521904 16.380993 74.0682
48.0769 13.783993 74.2502
74.031906 42.35699 78.9582
75.4859 43.972992 78.8262
79.4529 42.26799 86.0942
78.6249 43.73899 87.4562
21.341904 25.532991 42.4702
19.633904 26.48899 43.3452
12.9709015 23.212992 36.200203
11.088898 22.029991 35.672203
68.463905 18.437992 105.4572
67.854904 15.965992 105.1502
67.656906 5.2079926 2.1781998
66.699905 5.3709908 3.9021988
34.656902 9.50399 100.5422
34.2719 8.23399 103.0392
33.4859 14.915993 4.7621994
35.531902 15.0329895 6.3302
33.233902 36.020992 68.4242
32.5499 37.979992 67.8142
40.7829 31.57699 71.6472
40.875904 32.66899 73.6312
30.508902 29.814991 98.489204
29.104902 30.602991 97.1852
29.982903 24.31199 85.2092
28.688902 26.45099 85.4782
1.5139008 44.173992 29.9282
3.1359024 45.026993 30.5792
10.019897 36.12099 22.4412
11.672897 37.72499 21.766197
13.0318985 36.013992 34.534203
12.4189 37.894993 34.1932
5.5349045 46.21299 32.097206
4.1039047 0.9309921 31.3722
47.869904 6.387993 49.0132
48.7699 4.6059914 49.3942
48.690903 5.8959923 62.3972
48.8819 5.6229897 64.3672
21.732903 14.744991 89.2862
22.755901 16.74599 87.9492
22.429901 26.22899 82.8542
21.214903 28.278992 82.7972
51.787903 20.32999 72.2812
53.140903 22.39199 71.6182
54.1959 18.14199 59.1732
56.2929 18.654991 57.5712
61.9849 10.499992 31.905205
63.4189 8.776993 32.825203
75.7479 14.964993 32.554207
76.6489 13.313992 31.967201
60.371902 17.17699 106.6202
58.7419 18.247992 105.2062
49.591904 19.91599 5.6362
48.4989 22.236992 6.173195
32.6949 38.41899 71.6822
33.7419 37.381992 73.5072
41.9239 44.15699 80.8182
44.177902 43.304993 81.1432
65.4979 21.45099 61.9752
66.046906 23.525991 60.2292
59.627903 26.99599 47.9022
60.037903 27.94499 46.0902
19.617903 6.319992 101.8262
21.737902 6.5469894 102.2882
30.179901 9.269993 100.170204
28.066902 9.540993 99.7072
47.5059 24.379992 7.883194
47.016903 26.216991 6.4701996
42.486904 34.665993 1.3231964
41.7839 34.76699 3.1751938
13.1339035 2.2629929 49.6192
12.451904 4.373993 48.5242
9.2519 10.044991 49.3432
6.9869003 10.69199 49.3572
36.730904 31.52699 22.643196
36.202904 29.358992 23.987206
29.156902 21.105991 15.089195
29.245903 19.011992 14.7742
78.615906 22.333992 82.9712
76.6619 23.005991 83.4262
70.9579 20.445992 90.5962
70.2479 21.639992 92.8472
31.024902 9.23299 18.463196
33.1459 8.53199 18.3312
27.316902 3.203991 7.074196
25.096903 3.3109894 6.7571945
6.5659027 41.03799 74.6502
5.3739014 39.053993 74.1862
4.0989 24.97499 77.3392
6.8279037 24.984991 77.2502
3.3559036 2.9269905 26.836205
2.9758987 0.8109932 26.904198
2.622902 36.671993 25.351204
3.1369019 35.59299 23.536201
84.9809 35.985992 80.2102
85.9149 37.92799 80.5502
80.94791 43.95299 89.2152
81.3889 45.35899 91.3712
6.1268997 5.203991 58.9182
6.9029007 7.4529915 59.8022
2.0789032 8.228992 67.1582
89.645905 7.5329895 68.5812
40.731903 26.49599 62.2982
40.2769 28.692991 62.1292
45.613903 32.51799 56.6062
45.904903 29.834991 56.0762
54.7989 42.49399 27.792198
56.9799 42.539993 28.728203
69.1819 43.541992 28.056206
68.8849 44.171993 26.055199
20.928902 41.96999 82.4522
20.090904 44.206993 82.502205
22.406898 38.12599 78.2512
20.4869 39.03099 79.2422
33.072903 12.929991 18.856194
34.5009 14.269991 17.324196
39.7359 15.847991 26.348198
40.1719 15.646991 28.673195
39.857903 33.81399 47.8142
41.816902 33.721992 49.3142
47.404903 35.201992 55.0372
49.558903 36.05999 55.4242
9.885902 28.55599 93.3262
10.839905 26.604992 94.7232
21.4449 20.730991 97.6292
20.5979 18.897991 97.476204
81.4679 38.29299 16.3592
82.0969 39.59999 17.713196
75.479904 5.7549896 20.740196
74.12891 5.2809906 22.573204
78.200905 6.3939896 54.7402
80.674904 5.196991 54.8102
82.825905 40.71099 63.3492
80.5779 40.96699 64.3382
36.7639 13.723991 80.545204
38.726902 14.046991 80.4142
43.979904 26.26799 74.7712
45.6319 24.814991 73.8882
78.9959 22.365992 87.7562
76.7789 22.515991 88.517204
70.755905 21.29799 78.2702
73.2209 22.102991 78.2912
84.284904 12.168991 2.395195
83.463905 14.105991 1.5291977
87.0159 18.541992 11.314194
85.2929 17.970993 12.736198
1.9709015 37.768993 29.125206
1.5519028 39.47499 30.768196
89.2529 36.852993 20.406197
0.9328995 38.75499 21.144203
38.668903 20.19399 103.9502
36.4079 20.907991 102.4952
27.311903 16.531992 98.7902
27.818903 16.08699 96.8732
10.332901 2.2789917 50.7572
10.533897 1.8429909 52.8952
7.8629 34.687992 55.0942
8.895905 32.88999 53.827198
50.7419 15.80999 29.9432
48.836903 16.675991 29.8032
49.836903 5.2859917 22.4412
51.315903 6.041992 21.4262
76.381905 37.23699 24.561195
76.3449 36.88599 22.401207
77.868904 26.851992 24.007195
77.8759 25.00399 25.658195
56.524902 16.213993 52.7312
55.864902 15.7029915 54.7572
62.5899 12.956993 59.2672
64.2189 11.74099 60.2062
67.8039 8.347992 83.6742
69.5649 9.24799 81.6642
71.7219 8.279991 85.1772
69.9529 7.4219894 85.7222
29.059902 39.631992 62.9432
29.693901 40.81699 64.3482
31.623901 45.151993 67.9352
33.0149 46.518993 69.2092
1.5048981 43.97699 78.2872
2.9159012 42.71999 80.2712
13.074898 3.0949898 81.9992
15.297897 3.1649895 81.6112
6.016899 0.8999939 19.9282
7.967903 1.7939911 20.7322
12.599899 7.6039925 16.037193
13.7509 9.264992 15.161194
5.1308975 19.785992 52.6402
3.4179 21.154991 50.5862
87.9569 29.02699 52.3512
0.19589996 29.143991 52.2432
69.9159 23.407991 37.1632
70.130905 23.04099 34.977196
77.507904 33.262993 37.1782
78.1089 31.268991 36.914207
8.162903 4.602993 17.5522
8.485901 6.6509895 19.059196
13.974899 7.5479927 31.6932
15.731903 8.750992 31.335197
24.949902 30.58399 60.3502
25.375902 29.018991 58.7802
24.482903 35.67799 47.7502
25.728903 37.421993 48.4622
68.226906 46.47699 19.501198
69.659904 1.8019905 19.489204
77.1789 40.22399 10.155197
76.0839 40.50199 8.201195
57.906902 5.2759895 69.6992
59.7779 6.229992 70.8502
66.546906 40.82799 72.1322
64.8619 39.840992 73.4832
73.21191 39.687992 82.0412
72.3729 39.74699 84.3882
69.700905 3.0079918 89.947205
68.8899 4.5479927 89.2052
56.7019 41.277992 31.348198
55.0639 39.768993 30.634193
