68.56437 9.655899 52.621838
68.06837 12.210899 52.247837
36.388367 39.707897 86.71384
36.637367 38.195896 88.56783
48.433365 32.946896 89.620834
50.165367 33.6359 90.94684
2.8613663 26.219896 73.008835
1.1343689 26.759895 72.26784
83.17637 29.755896 78.32484
81.88637 28.945896 80.18684
32.517365 3.7029 7.633837
33.892365 5.9169006 7.154841
47.724365 4.6918983 9.158839
48.48237 2.9628983 9.889834
84.09537 19.852896 10.649837
81.820366 19.676895 11.287837
81.78737 26.532896 22.435839
81.18837 29.050896 22.395838
26.786362 35.451897 69.146835
27.585367 37.061897 68.00384
28.589365 38.667896 54.76284
30.27337 41.054897 54.62084
19.185364 42.785896 17.28084
18.301369 42.811897 19.164835
7.4933624 41.590897 21.236834
5.2393646 42.282898 21.549837
86.22237 20.677896 62.00984
86.47237 22.270897 63.233837
6.488365 33.238895 66.51383
5.7113647 34.9419 65.13583
36.838364 8.490898 18.674837
34.779366 7.2709007 19.484835
26.754364 3.5878983 25.68883
24.531364 3.2468987 25.124834
83.32537 36.973896 65.45884
83.23237 35.339897 63.70184
86.836365 48.541897 63.839836
86.97837 47.8629 66.12383
4.907364 48.324898 74.133835
5.5663605 0.8139 75.31084
0.81036377 10.442898 67.97383
87.89837 9.511898 67.33283
16.235367 22.088896 90.092834
18.540367 22.782896 89.312836
19.331367 31.837896 96.979836
21.000366 33.0879 98.29183
17.014366 0.51390076 88.54183
18.015366 1.4748993 86.841835
12.4793625 3.643898 76.68384
14.048363 4.950897 75.437836
21.101364 36.330894 100.40584
22.421364 37.093895 101.494835
24.586365 43.539898 6.798838
21.702362 42.793896 6.7898355
69.67937 25.147896 103.76884
70.696365 23.418896 102.43384
78.34037 20.402897 93.28184
77.37037 21.551897 91.50083
67.683365 16.624895 55.04084
68.264366 14.623896 54.37684
68.864365 3.6658974 56.60684
67.72137 2.6918983 58.20884
26.866365 7.9708977 79.25484
26.645363 6.5839005 80.86384
19.748367 14.242895 76.563835
17.888367 12.845896 75.75083
87.973366 3.7528992 61.586838
86.59737 2.504898 62.718838
6.3213654 41.938896 61.73184
4.773361 40.811897 61.31984
88.05337 31.329895 35.34383
87.65037 30.060896 33.17783
83.181366 39.284897 24.480837
81.05237 38.796898 24.547838
80.91037 19.898895 7.32284
79.851364 19.892897 9.066836
80.43536 31.741896 8.2888365
79.542366 33.0739 7.3348336
43.34037 31.274897 63.004837
42.32837 31.775896 64.94884
41.654366 18.945896 64.40384
40.48237 18.059896 66.440834
51.872368 45.347897 19.248835
51.168365 45.8379 17.10184
44.139366 39.943897 21.723833
42.504364 40.236897 23.40684
42.863365 1.2979012 82.61284
41.70037 48.7999 84.21384
51.783363 40.412895 82.67184
51.681366 42.453896 83.04283
36.479362 3.1539001 57.99384
37.349365 3.492897 60.227837
43.639366 0.09790039 60.99384
42.05037 47.463898 60.50084
30.271364 34.194897 85.51083
31.27337 32.3519 85.40383
28.699366 20.650896 89.52583
29.34337 18.751896 90.633835
0.443367 38.569897 101.15183
0.43036652 36.564896 103.176834
81.278366 29.719896 4.51784
80.52237 28.020897 5.246836
83.66037 11.936897 79.76684
81.698364 12.391899 80.37283
80.806366 25.764898 80.28883
79.48537 27.115896 79.75384
29.111368 47.9489 30.144838
30.08037 46.5109 31.176836
32.997368 42.662895 40.72983
32.402367 43.791897 42.785835
35.344368 19.050896 31.06383
36.548363 21.262896 30.69684
40.140366 31.029896 21.258837
39.682365 30.493896 19.189837
11.547363 37.860897 53.67284
11.085365 39.252895 55.47184
22.465363 46.694897 54.43184
20.378365 48.4189 55.141838
51.002365 45.658897 27.146837
52.917366 44.594894 28.848833
57.89937 47.2379 17.761835
58.73137 48.852898 18.957834
54.20437 32.169895 7.3278375
55.644363 31.609896 8.555835
46.45337 22.884895 5.939837
44.358368 22.483896 6.302836
34.460365 4.7019005 3.620837
34.049362 6.6529007 4.135836
48.366364 9.846897 6.7858377
49.225365 8.225899 6.048838
85.83237 39.724895 48.28484
84.91037 39.899895 45.865837
5.9223633 30.683895 48.05784
7.9323654 29.640896 47.35584
59.762367 27.666899 63.92384
60.63537 26.203897 65.43084
59.18737 11.651897 63.580837
57.16137 11.685898 65.01584
4.6753616 32.211895 0.5898361
3.3483658 29.720896 0.62283325
0.443367 42.003895 103.58784
2.5953674 42.864895 104.21983
59.338364 17.911898 11.662837
59.138367 15.274897 12.193835
49.963364 6.488899 9.901835
49.792366 7.6548996 8.49084
49.013367 30.313896 54.27284
50.808365 28.931896 53.712837
54.49637 21.372896 49.03384
56.642365 21.776896 48.768837
72.29837 40.183895 36.12383
74.169365 40.531895 35.309834
82.32537 29.521896 40.154835
82.78537 28.762896 37.640842
65.52637 12.131901 82.07284
64.96637 10.0429 82.370834
75.52637 12.990896 91.745834
76.795364 11.307899 92.42284
32.877365 39.699898 16.14084
34.197365 39.713898 17.79584
23.123367 42.568897 26.050829
21.843369 43.774895 24.554834
33.66136 20.302896 32.947834
32.096367 18.800898 32.139835
27.659365 11.555901 42.773834
25.618362 10.301899 43.021835
57.598366 30.702896 6.722834
56.267365 33.305897 5.9408364
64.197365 29.354897 102.71084
64.695366 28.597897 0.48983765
13.496368 17.905897 3.68484
15.178368 16.868898 1.8028362
3.7893677 13.5268955 99.58484
1.9803696 12.928896 101.19183
40.262367 23.350897 35.30884
41.725365 22.039896 33.93384
48.005363 24.426895 21.172838
46.129364 24.735895 19.43484
87.75037 36.271896 58.82184
0.87636566 35.404896 57.380836
0.0643692 21.869896 55.720837
86.41437 21.392897 54.90284
55.13237 10.164898 63.997837
56.77437 8.872898 64.90684
60.762367 46.812897 64.51083
62.78637 47.7099 64.325836
54.219368 48.277897 53.97184
52.948364 46.220898 52.719837
49.071365 41.001896 41.954838
50.765366 39.673897 41.253838
3.653366 41.400898 38.88184
2.2293625 39.935898 39.79284
12.484367 35.063896 47.34084
11.876366 32.556896 48.358837
57.544365 29.766895 21.951838
56.166367 28.893896 20.735834
48.00937 22.551897 15.689837
46.749367 21.039896 15.526835
13.198364 25.851896 101.04183
11.236366 25.516895 100.174835
6.4493637 20.948896 91.90584
3.969368 20.196896 90.93584
19.162369 18.103895 75.28084
17.922363 15.950895 76.10284
11.356369 21.227896 87.801834
12.980362 23.166899 88.98683
33.416367 0.8218994 12.233836
31.665369 1.3469009 11.498836
22.751366 6.4249 21.036837
22.640366 4.4068985 22.743837
41.18937 23.139898 94.69183
39.088364 22.009897 94.242836
44.21637 22.093897 93.67983
45.293365 23.734896 94.40283
32.02337 30.476896 37.238834
32.867363 32.465897 37.53583
44.962364 25.889896 38.893833
46.42637 25.656897 37.25983
84.573364 1.532898 100.49783
83.63537 48.235897 100.83484
76.974365 40.9979 92.065834
74.809364 40.4909 92.99184
4.740364 18.723898 47.99584
6.542366 20.220896 47.322838
15.0433655 16.355898 46.635838
16.436363 17.813898 46.01584
86.182365 48.8729 14.580836
87.22137 0.47589874 12.416835
5.115364 11.400898 12.53284
4.792366 12.365898 10.398837
2.5523605 0.4709015 10.475841
2.6343613 48.4139 8.346835
5.3313675 6.787899 101.65383
4.4653625 8.782898 101.967834
75.570366 25.307896 61.49984
76.920364 23.657896 61.87084
70.81837 25.953896 52.40484
68.42337 26.304895 51.794838
48.875366 14.707895 52.88784
47.001366 13.661896 51.962837
43.62037 27.151896 46.63984
45.574364 27.830896 48.253838
85.545364 25.579897 38.596836
85.42437 23.800896 37.385838
81.542366 19.708897 26.943834
81.19337 17.654896 27.074831
15.367363 41.541897 36.38184
14.063362 39.787895 37.760838
11.040367 39.029896 23.736834
9.327362 39.635895 23.129839
28.444368 8.942898 88.426834
29.50937 10.858898 88.14384
19.571365 17.342897 88.00284
20.429367 19.544897 87.19684
1.2833633 16.357897 68.42883
1.7403641 14.898897 70.94183
85.85737 7.0209007 68.40483
86.37537 5.4029007 69.995834
62.356365 35.1089 89.19784
64.33337 34.8379 89.83383
71.071365 23.934896 85.80283
69.56037 22.635897 84.17284
49.52337 31.414896 86.59583
50.697365 33.232895 87.43083
60.49437 32.838898 96.25384
60.41237 33.6779 98.54384
28.645365 22.999897 62.832836
30.116365 24.118896 62.76484
35.059364 28.788897 52.878838
33.813362 26.828896 52.67384
52.59337 41.309895 95.718834
53.331367 41.664898 94.00484
49.847366 30.480896 92.92883
51.056366 30.910896 90.732834
86.309364 10.992897 77.98383
85.10437 9.670898 77.938835
79.350365 4.999897 84.176834
77.78737 3.898899 83.04784
30.749369 10.429897 72.397835
31.374369 10.586899 70.36083
40.206367 15.719896 72.91983
41.544365 16.948896 71.54784
4.594368 1.782898 26.47484
5.6963654 1.450901 24.437838
18.966362 48.325897 25.796831
17.533363 47.4759 26.678835
48.48037 2.5419006 68.93083
49.456367 4.6259003 67.232834
61.152367 9.120899 74.93083
60.211365 10.011898 76.97784
45.292366 39.473896 38.905838
42.795364 40.711895 38.123837
46.21537 28.541895 45.32184
47.768364 28.779896 46.85384
17.890366 24.369896 104.02583
18.897362 26.199896 102.97183
19.098366 28.543896 11.709834
21.229362 28.555895 12.429835
11.931366 21.575895 48.27884
10.343369 22.533895 50.04184
9.023369 11.677898 54.157837
10.843369 10.094898 54.05784
49.476364 8.0019 82.522835
49.269363 9.812901 83.326836
44.094368 17.213896 71.745834
43.96737 19.169897 73.24084
67.26337 7.5458984 73.148834
68.82837 8.274899 71.91583
75.37437 5.016899 83.315834
77.335365 7.0548973 83.08684
30.40037 21.551897 19.620836
28.47037 22.165895 19.042833
22.335365 14.205896 22.00384
20.625366 15.560896 23.282839
14.952362 1.5948982 53.92984
14.357368 48.4949 54.06984
17.194366 44.7669 66.967834
19.368362 44.366898 66.174835
59.13437 23.381897 56.32784
61.115364 24.915895 55.03684
62.42637 38.316895 51.84784
60.42437 38.384895 51.27784
8.361366 7.8998985 89.492836
6.185364 7.9398994 88.19383
1.1653671 17.865896 95.10184
2.3163605 18.665895 93.47183
4.344368 29.806896 3.1338375
5.7203674 29.457895 1.4418335
13.800362 40.599895 3.0168407
13.106369 42.025898 4.340838
12.919365 38.192898 82.93083
10.493362 38.482895 83.99084
10.896362 2.532898 84.896835
8.858368 3.4808998 84.61584
77.11637 2.3978996 25.84984
76.50937 1.2859001 27.597826
68.60337 11.310898 25.581835
67.31937 11.0219 24.000834
29.74837 43.771896 82.57284
31.462366 45.0779 82.00083
31.333368 8.446899 73.98383
33.422363 8.245899 72.592834
35.626366 34.386898 18.107836
37.240364 32.2959 18.48884
46.750366 31.994896 7.455836
49.154366 31.748896 8.460841
47.169365 15.615896 88.40684
48.733368 16.221895 87.18584
61.233368 14.637896 91.50384
62.50837 15.780897 90.01684
22.536362 43.131897 86.785835
23.732368 42.963898 84.67184
27.949366 4.136898 80.287834
29.14937 5.935898 79.83784
4.794365 41.186897 57.88984
6.5673676 42.882896 58.13384
13.534363 32.775898 61.816837
13.428368 31.644896 63.685837
19.909363 45.2819 26.08684
21.171364 44.470898 27.581835
27.58037 47.5989 27.932833
25.991364 0.0868988 28.356829
78.724365 13.614897 50.59684
79.29837 12.1549 52.330837
70.86037 5.3308983 59.24584
70.503365 2.8879013 58.664837
4.4483643 4.9638977 59.655838
5.497368 6.3759003 59.52084
5.690361 48.617897 52.88484
5.7413635 1.3988991 51.426838
27.295366 12.834898 47.393837
28.425364 14.396898 47.684837
19.213364 17.997896 45.82184
18.690369 18.173899 48.162838
88.49237 33.839897 23.866838
85.65037 34.3309 23.417833
86.975365 26.170897 33.089832
87.41137 27.726896 34.68883
85.251366 24.579897 58.17384
84.015366 25.926895 59.880836
76.931366 33.909897 50.45184
75.70837 32.114895 51.232838
30.709368 36.584896 18.360834
32.081367 34.813896 19.740839
27.436365 22.632896 21.589838
29.425364 21.085896 22.134836
7.886368 11.2859 64.701836
9.801369 9.689899 63.853836
11.358368 0.85290146 70.84683
11.548363 1.8308983 72.911835
26.198364 29.076897 70.24883
27.128366 31.122896 70.66983
19.589363 42.625896 68.744835
17.201363 43.130898 69.200836
88.49737 36.719894 54.98184
87.279366 35.193897 54.40184
1.1653671 47.9349 51.808838
2.7253647 48.214897 53.851837
4.0733643 17.421896 87.924835
4.7753677 16.547895 86.62383
88.59337 22.668896 77.78883
87.891365 23.484896 75.563835
37.798363 24.074896 93.51784
38.483368 25.493896 95.31983
48.39737 30.402895 88.75284
50.519363 29.113895 88.72384
83.475365 14.482897 26.482836
81.75937 15.412897 24.947832
78.793365 2.2489014 21.62884
78.52037 1.8098984 19.381838
80.41237 21.993898 26.199831
79.17337 21.410898 24.109835
79.12337 18.849897 11.65784
78.79637 17.369898 9.863841
78.95437 11.129898 28.072832
80.76037 11.360897 29.914827
83.059364 2.5028992 24.589838
82.61737 0.93590164 23.195833
19.722366 1.6389008 70.59683
20.501366 2.5639 72.48783
27.505365 9.247898 75.17184
26.91437 10.1269 73.47684
22.076363 48.422897 27.190828
20.092361 0.44889832 27.81383
15.714363 6.9608994 34.98383
15.185364 8.726898 36.65584
36.53737 34.933895 0.7998352
37.451363 36.971897 0.68483734
49.317368 38.366898 5.2068353
50.01037 37.222897 2.9878337
35.743362 9.020901 91.45984
34.92637 7.2798996 89.83684
36.491364 47.7879 82.14484
35.596367 46.2809 80.29784
62.634365 1.3848991 90.26083
64.50537 1.1068993 89.896835
73.948364 47.7589 91.022835
72.14537 48.1139 90.09583
57.042366 48.9069 94.64983
56.17437 47.9679 92.61384
60.919365 44.524895 87.036835
59.81237 42.951897 86.090836
13.098366 47.902897 70.50384
12.776367 46.6429 72.383835
18.358368 40.004898 78.896835
20.217361 38.724895 79.91583
37.50836 13.223898 75.37884
38.067368 13.555899 77.75384
46.642365 5.2299004 84.25584
46.71437 4.317898 81.88983
27.88737 40.120895 84.33383
26.315369 39.520897 83.14484
22.689362 47.194897 71.537834
23.950363 45.3849 70.51984
24.480362 7.8008995 38.616837
24.195366 8.363899 40.677837
24.197365 48.011898 50.039837
23.694366 47.665897 51.87084
33.889366 38.694897 65.74783
35.05036 36.880898 64.32284
41.042366 30.322895 55.572838
40.876366 28.095896 55.84084
66.042366 39.280895 29.27283
67.100365 38.048897 30.664827
80.75837 39.104897 27.276827
79.91637 37.030895 26.911837
13.250366 22.813898 21.83784
12.860367 22.859896 19.051836
3.7633667 18.933897 21.341837
2.0793686 18.501898 19.524836
15.252365 32.048897 96.88883
13.173363 32.605896 97.18684
10.047363 37.845898 1.6038387
8.437363 36.385895 1.3518372
49.670364 37.067898 89.82484
51.655365 36.425896 91.33884
58.348366 48.2379 91.19784
60.264366 46.679897 92.17084
55.042366 4.5989 78.09783
55.279366 5.9249 75.94583
44.88237 5.381901 76.077835
44.13537 5.0408974 78.15383
72.53237 43.525898 2.7728374
70.265366 43.946896 3.1978405
63.954365 3.103897 7.788836
61.651367 1.6498985 8.362834
73.54137 13.505896 5.4838357
75.89737 13.021898 4.861834
82.07837 24.907896 103.67084
79.59137 25.468897 104.18384
61.652367 26.543896 84.17983
60.182365 24.919895 84.80784
64.85637 19.913897 92.90784
66.50437 19.741896 94.37684
21.482368 32.780895 57.478836
21.822365 34.909897 56.75184
20.086365 45.901897 60.32784
21.574364 46.373898 62.148838
18.155365 2.2209015 99.15083
20.050362 2.5578995 98.91583
22.904366 14.693895 0.44683838
22.961365 15.466898 2.4428356
56.500366 47.7409 99.53184
57.309364 48.1979 101.784836
49.903366 2.8418999 7.5678353
50.38237 5.228897 7.4388375
80.653366 7.3339005 26.490831
78.35437 5.697899 26.58983
68.169365 8.663898 18.58784
68.38637 8.179897 16.287836
84.44337 22.171896 96.98984
82.99737 23.953896 97.96284
77.112366 23.090897 87.10983
75.89637 21.471897 87.41583
83.95837 33.769897 88.33283
82.724365 33.218895 90.58083
76.45537 25.018896 85.395836
75.38337 26.416897 82.995834
8.466362 6.280899 41.266838
10.665367 4.631901 41.933838
2.7343674 44.017895 38.779835
2.5663605 45.0589 40.95583
59.404366 36.507896 24.40684
57.52137 35.595898 24.024836
51.851364 44.437897 23.924837
53.02037 46.215897 24.117838
54.237366 44.399895 71.200836
55.415367 43.507896 72.70583
60.47837 38.185898 67.98683
63.033363 37.862896 68.90684
73.94437 29.727896 50.337837
75.390366 30.147896 48.81284
68.35537 23.598896 39.81484
69.41637 22.643896 37.525837
21.105362 43.391895 37.22884
20.489365 43.198895 39.656837
16.223366 2.0349007 50.51284
14.476364 4.072899 50.04884
59.211365 12.805899 76.495834
60.48137 12.358898 74.44583
58.09137 22.998896 78.57083
59.597366 24.749895 79.843834
11.194366 28.216896 30.579836
13.204369 27.503897 29.805834
5.195366 32.870895 26.577837
6.6023636 34.232895 25.751833
33.13336 34.507896 68.94884
33.306366 35.166897 66.87783
24.181366 30.966896 57.68284
25.838364 29.965897 56.301838
66.63237 25.692896 54.926838
64.67337 25.553896 54.43184
61.275368 33.752895 44.178837
62.249367 35.638897 44.19584
18.280365 34.473896 71.37683
18.741364 36.746895 70.39183
8.903366 34.442898 67.62483
11.098366 34.242897 66.49084
60.568367 12.106899 66.48883
60.095367 10.017899 65.51784
66.962364 4.1189003 61.103836
68.56837 2.9569016 60.817837
76.599365 38.494896 93.87483
75.18637 36.742897 92.37984
77.44237 28.562897 82.951836
76.01337 28.691896 81.37984
2.2843628 33.8519 34.53084
2.5103607 35.074898 36.012836
13.030365 37.979897 40.878834
12.289368 38.675896 42.98884
52.319366 23.824896 70.65483
50.902367 25.772896 70.11684
52.226364 18.505896 59.60584
50.54837 17.007896 59.31384
64.321365 41.199898 24.99283
63.084366 40.762897 27.13083
52.569366 44.407898 32.09084
52.462364 43.498898 33.91083
51.502365 25.812897 100.33784
52.22937 26.904896 98.56783
52.155365 39.949898 98.50083
50.985367 39.718895 100.745834
6.5253677 30.030895 14.231837
4.5333633 29.879896 13.100841
88.13837 32.864895 7.883837
1.8953629 34.109898 7.3058343
53.128365 17.499895 50.969837
51.30237 17.763895 52.20184
42.488365 26.951897 53.78384
41.251366 25.622896 55.601837
15.504364 43.023895 4.505839
15.177368 43.088898 6.623835
16.011368 7.039898 11.371837
16.081367 9.541901 10.5388365
59.908367 15.435896 79.60883
60.918365 14.743898 77.95683
70.49837 12.308899 68.40383
70.28337 10.203899 69.76283
41.165367 6.1078987 54.720837
43.27437 4.7448997 54.66184
48.60737 13.138899 61.588837
48.094368 15.242895 59.99984
13.076363 3.6469002 83.79283
12.726364 3.8908997 81.661835
21.141365 45.1019 85.30784
20.846367 43.104897 83.61584
50.650368 13.690897 95.506836
51.69037 13.332895 93.53284
58.588364 1.3759003 93.42284
60.444366 0.39590073 93.535835
36.455368 24.820898 97.20683
33.811363 23.964895 97.26684
23.213364 18.417898 104.44784
22.124367 18.745897 102.57484
36.917366 1.9908981 1.5798366
37.974365 3.2678986 3.1528347
47.445366 43.641895 6.040835
48.211365 42.078896 6.5828347
60.937366 41.762897 72.01583
62.891365 41.316895 72.188835
60.298367 43.008896 81.965836
60.907368 41.597897 83.84583
18.385368 28.898895 43.408836
16.788368 26.983896 42.747837
25.547363 23.799896 47.699837
27.618364 25.448896 47.86184
42.170364 11.8069 53.02984
40.01037 12.3069 53.78384
28.040369 12.0089 53.329838
27.281366 10.123898 55.04384
75.612366 46.2179 58.811836
74.54637 45.7109 56.747837
83.52137 42.438896 46.40984
82.34237 40.798897 46.59084
15.757362 44.846897 84.300835
14.901367 43.955894 86.02583
1.8953629 49.2099 87.592834
3.919365 2.0578995 88.19984
44.865364 34.210896 55.96084
45.48237 35.7269 57.891838
45.14637 47.012897 58.740837
46.364365 48.736897 57.18284
27.061365 26.772896 31.432833
24.637367 26.744896 30.678835
14.121368 22.874897 30.496828
13.971367 25.103895 30.89583
62.611366 46.9049 102.440834
63.134365 45.0039 103.800835
55.609367 42.260895 99.242836
55.53737 44.610897 99.39184
81.51137 44.8649 61.866837
81.337364 46.9059 62.420837
84.82437 3.8788986 67.508835
86.68637 3.030899 68.66383
44.12037 38.641895 64.74184
43.50737 36.521896 65.42983
47.68737 33.0179 77.36384
48.615364 31.102896 77.25284
58.658363 9.2729 62.747837
59.95337 7.1329 63.421837
59.681366 1.1418991 55.48184
57.38237 0.8218994 54.50284
66.70237 39.004898 50.70884
67.70837 37.461895 49.66684
66.72737 36.225895 37.781837
67.65937 35.389896 35.933838
31.340364 0.29389954 56.885838
29.439363 48.999897 57.087837
20.224365 47.5929 67.08583
19.592361 46.6479 65.036835
74.933365 38.139896 8.584834
76.69137 39.335896 9.3008375
75.78637 1.5199013 15.466838
76.06737 1.9398994 17.843836
54.25837 6.8059006 45.86284
56.280365 6.990898 46.448837
49.747368 2.0819016 56.837837
51.711365 0.43090057 57.427837
37.793365 49.047897 12.945834
35.875366 1.0909004 13.54684
38.93937 12.645901 18.75384
41.102364 11.985897 19.708834
87.08937 21.395899 11.524837
87.389366 19.818895 9.437839
8.939362 15.399897 9.336841
8.329369 13.522898 8.525836
84.78737 4.5289 64.72083
84.36937 6.8978996 65.50283
74.65837 7.634899 71.950836
71.92637 8.018898 71.731834
19.613365 44.6159 34.73984
19.376366 47.095898 34.67583
25.425362 48.811897 44.72383
24.976364 46.4419 44.429832
62.913364 25.186895 32.38683
65.15937 25.098896 32.23383
62.721367 21.868896 22.775835
62.919365 23.776896 20.440836
9.239365 10.1819 12.44984
10.995369 8.9939 11.971835
10.609367 45.332897 10.764834
10.296364 43.446896 12.287837
67.792366 6.9468994 34.548832
69.38637 6.7379 33.06284
67.09637 47.443897 25.266832
65.60237 47.0109 23.636835
64.87237 10.974899 22.799837
65.21737 12.905897 23.594835
62.939365 23.628897 29.026827
61.766365 23.213896 30.784838
11.200363 2.7678986 79.78983
9.648369 0.37989807 79.15484
3.153366 40.184895 81.71983
3.780365 38.786896 83.021835
4.746361 27.268896 13.026835
6.2743607 27.352896 14.760837
85.20437 19.690895 18.574839
84.61037 18.235895 19.992838
30.222368 21.455896 64.092834
28.877367 19.917898 64.58784
33.974365 6.9599 62.183838
33.82836 5.7588997 64.47183
63.340366 6.3568993 46.005836
65.698364 5.8188972 46.74284
71.639366 48.929897 36.87784
69.77637 0.087898254 35.53684
43.376366 2.4109 99.76283
44.93937 1.7969017 98.229836
45.55137 41.742897 95.563835
43.638367 40.418896 94.67783
54.305367 17.912897 96.17783
55.77137 16.327898 97.19483
58.512367 18.668898 82.56084
59.005363 16.725897 82.617836
3.1303635 12.721895 84.339836
2.3903656 12.638901 86.29584
79.50737 19.480898 88.41383
79.29937 19.449896 90.575836
51.837364 41.752895 32.178837
50.09037 41.158897 31.18883
62.025368 38.486897 26.151827
61.101364 36.025898 26.318834
4.750366 10.046898 83.76884
3.4703674 10.9589 82.36183
87.19337 9.497898 75.51083
86.184364 11.294899 74.37183
5.6263657 30.531897 22.873835
4.988365 30.280895 25.426836
0.42736816 36.305897 34.81484
87.98537 36.190895 36.699833
83.376366 44.677895 44.699837
84.09037 46.403896 45.484837
4.7623672 43.136898 53.91884
6.6073685 42.299896 53.74484
43.08937 30.045897 2.4648387
44.75737 31.059896 0.8698349
49.560364 39.861897 97.10284
49.37137 41.726894 99.03983
10.312363 10.7939 10.102839
9.397362 12.477898 11.023837
20.669365 17.505896 10.770839
21.249367 15.644896 11.916835
34.480362 36.076897 32.96384
33.292366 37.950897 34.13883
34.080368 41.688896 43.155838
32.696365 41.830894 44.679832
45.82837 3.5158997 66.34783
47.164368 4.865898 65.67184
56.36937 2.8389015 55.72484
58.180367 3.6088982 55.05084
28.380365 7.9239006 85.342834
28.66337 7.219898 83.40383
41.80137 5.8059006 81.42983
41.685364 4.2488976 79.35284
45.570366 14.214895 90.25184
45.03637 12.720896 92.00284
33.375366 12.680901 92.29183
34.472366 11.4799 90.87984
69.63037 19.740896 39.50684
68.70337 20.849897 40.73184
70.85537 12.432899 46.893837
69.80137 13.301897 48.13284
7.7713623 7.4659004 30.539827
9.7033615 7.3578987 31.312838
20.140366 3.4948997 22.254839
20.775368 2.2359009 24.616838
64.48637 7.3619003 73.563835
64.35337 6.6078987 71.70783
56.337364 1.7598991 72.897835
55.144363 0.51789856 74.45683
5.473366 33.933895 10.707835
3.0143661 34.077896 11.154841
3.1243668 35.575897 102.62383
4.4723663 36.685898 101.37583
60.018364 41.104897 54.96484
58.31337 42.154896 54.052837
69.10737 1.0069008 56.25584
68.668365 2.0819016 54.28384
74.072365 33.852898 49.649837
73.99537 36.0039 50.51984
63.316364 36.363895 58.622837
62.941364 37.785896 60.13284
18.252365 5.721897 38.72083
16.568367 4.4848976 39.16184
5.2413635 10.1399 39.117832
3.6123657 11.245899 40.372837
62.667366 39.884895 31.072832
64.31637 41.137897 29.78084
69.39937 45.790897 40.949833
70.820366 47.714897 39.374836
69.904366 23.247896 13.72684
70.17237 25.093897 11.956836
76.086365 35.444897 20.590837
75.809364 33.565895 21.93284
27.032366 43.136898 46.365837
28.49737 41.269897 45.32884
25.259369 29.032896 41.755836
24.650368 27.549896 39.99284
45.38137 23.100897 14.010837
43.85537 21.505896 13.400836
41.334366 27.422895 25.070833
42.434364 28.559896 23.818834
20.520363 45.3519 6.4128366
21.702362 46.713898 5.5878396
18.423363 9.780899 8.766841
17.253365 11.295898 7.875834
42.71537 12.1339 35.47083
44.477364 10.2099 36.05283
50.67537 5.634899 24.71284
49.821365 6.9228973 22.814837
72.48637 43.993896 78.33884
73.42937 42.737896 76.60184
61.142365 46.644897 70.71284
59.765366 47.8079 68.86484
30.849367 1.2569008 8.454837
29.418367 0.2798996 9.651835
20.996368 5.141899 19.019838
18.838364 6.190899 19.754839
81.82937 5.9948997 42.42384
81.25637 6.339897 44.407837
2.1303635 1.8418999 50.676838
3.3003616 1.5718994 52.89784
35.137367 29.880896 82.01183
36.572365 31.274897 83.256836
43.71437 22.261896 90.33283
45.60437 23.188896 91.36384
17.562363 11.134899 34.678837
17.490364 9.822899 36.94584
16.435364 16.164896 49.023838
15.936363 15.3028965 51.25684
7.663368 45.4459 55.287838
5.871361 44.218895 56.03484
83.85737 1.8228989 59.193836
82.90137 1.9808998 57.10684
8.071365 48.879898 74.632835
9.744362 47.861897 74.062836
2.2153625 38.291897 72.020836
2.0513687 40.396896 70.69383
17.417366 2.4398994 37.833836
20.170364 3.747898 37.982838
31.197367 0.2798996 30.63283
33.234367 0.83190155 30.330828
62.732365 15.300896 96.32284
62.306366 14.659896 98.64284
67.67237 28.465897 97.854836
69.25537 29.306896 99.840836
68.835365 37.208897 33.872837
69.85837 35.495895 34.35384
78.18737 31.893896 43.61384
80.58137 32.215897 42.91783
74.56337 18.126898 52.51984
74.34137 16.066896 52.47184
70.44037 21.767897 64.521835
69.85937 20.505896 66.62283
26.596367 23.315897 44.976837
23.999367 23.808897 45.087837
15.747368 28.888895 44.48084
13.657364 30.688896 44.505836
39.086365 7.1868973 52.99584
40.599365 5.025898 51.843838
41.70237 4.6459007 38.53684
43.16337 3.1189003 38.155838
76.959366 38.207897 65.78384
77.17537 40.552895 66.10084
88.153366 39.580894 71.523834
0.2783661 41.256897 72.38783
49.042366 12.064899 92.787834
47.09337 10.585899 92.509834
59.362366 7.1889 87.55683
60.17337 8.1129 85.74184
45.101364 6.7068977 103.08884
43.755363 6.2138977 101.384834
33.984367 12.561897 102.27683
34.970367 11.8619 104.578835
23.180367 27.442896 35.431828
23.822365 28.725895 33.816837
21.860367 40.480896 38.615833
22.584366 41.842896 40.80483
30.431368 28.700895 15.416835
30.903368 30.907896 15.525836
18.480362 39.040897 19.53184
17.528366 38.267895 17.29584
50.088364 9.5019 3.6278408
50.893364 10.961899 5.9008355
51.294365 24.159899 102.38583
49.34337 24.756899 102.48483
21.965363 12.3629 10.882838
21.406364 14.435896 9.61584
28.179369 23.698896 16.040834
26.833366 23.895899 17.80884
62.664368 30.644896 39.838837
64.09137 29.165895 39.886837
70.20737 35.944897 48.775837
69.38337 36.160896 46.540836
26.95537 44.361897 55.156837
26.737366 43.551895 52.78384
14.983368 37.073895 48.685837
14.586365 36.200897 46.45984
75.141365 12.3969 97.85084
73.389366 12.225899 99.41884
84.77137 9.9669 2.1008403
84.31937 8.907898 4.60084
53.306366 26.550896 50.45084
54.741364 27.603895 52.351837
59.416367 36.412895 42.984837
58.043365 37.912895 43.345837
7.000366 20.877895 86.64983
5.7653656 20.576897 84.83383
14.441368 26.013897 77.87684
15.698364 27.056896 76.83784
12.347366 3.0009003 50.86084
13.650368 1.2248993 51.57084
10.532364 38.287895 50.900837
9.583366 37.166897 48.79384
81.74837 32.403896 5.901835
83.73437 33.008896 5.571841
87.97237 43.344894 8.479838
1.0953674 43.201897 6.7148385
48.568367 9.8839 9.857837
47.13237 11.426899 9.331836
56.206367 19.286898 6.991839
57.66237 18.274897 5.397837
35.07937 1.8288994 55.60384
35.12037 0.32889938 54.34284
35.044365 6.671898 42.025837
36.710365 6.4638977 41.04384
0.48336792 0.6128998 48.38884
86.59637 1.1109009 47.991837
80.32737 48.8639 59.698837
79.83337 46.916897 60.079838
75.42737 3.3819008 100.259834
77.973366 2.1799011 101.28084
87.35437 8.041901 1.3328323
0.53136444 7.700897 0.34383392
71.73037 9.9249 102.74683
70.46737 10.398899 100.59483
71.61037 0.33390045 101.159836
73.49637 1.6999016 100.45783
66.17137 9.2859 15.597835
64.34537 9.504898 16.922838
62.334366 22.453897 14.71384
59.638367 23.194899 15.016841
59.24437 37.166897 12.022838
57.09037 37.796898 11.807841
51.24337 0.7649002 12.136836
51.430367 1.7338982 14.277835
63.981365 2.6408997 101.99184
62.183365 3.9638977 101.758835
66.89537 6.051899 89.383835
65.22837 7.4298973 89.60883
21.431366 14.495897 38.338837
20.858368 14.150896 40.38284
21.011368 15.479898 50.79084
22.844368 14.549898 51.921837
31.578363 7.275898 61.24384
29.517366 5.9599 61.227837
36.372368 8.712898 49.470837
36.504364 10.842899 49.573837
9.388367 10.302898 1.7428386
10.533363 9.141899 104.26383
17.691368 4.421898 97.466835
20.279366 4.2398987 96.785835
48.405365 1.5048981 37.838837
49.04837 3.3878975 38.933838
48.418365 3.2588997 51.74484
49.92337 2.9278984 53.27184
36.220367 5.9389 57.128838
37.278366 6.273899 59.39684
41.068367 5.7089005 57.99484
39.49637 5.9169006 56.684837
52.971367 33.133896 56.246838
55.039368 32.8029 56.14084
61.615364 37.386898 48.30784
60.943367 39.409897 47.809837
85.365364 28.593895 38.530838
86.30237 30.515896 37.68984
1.0923691 32.276897 50.67584
87.92437 30.565895 50.47884
21.871368 26.292896 79.40584
19.115364 26.999895 80.17983
15.2933655 18.775896 88.770836
14.373367 17.024897 88.798836
20.552368 29.309896 34.020832
21.618362 27.330896 33.07584
16.891365 24.082895 34.596836
17.179367 25.657896 36.099842
74.54937 47.534897 77.31983
76.39337 47.963898 79.37483
86.710365 46.6829 85.300835
86.921364 44.320896 85.065834
44.904366 0.09889984 88.37283
46.10437 48.646896 86.534836
53.456367 40.691895 84.662834
54.213364 42.993896 85.54584
37.61936 8.046898 76.20583
37.41237 7.9239006 74.03983
45.126366 15.389898 67.61383
47.28637 16.382898 67.98383
5.296364 33.7539 94.26483
5.2113647 31.368896 94.76483
4.6143646 20.308895 87.51183
2.3503647 19.947895 88.38084
63.68536 11.196899 20.458834
62.484367 9.350899 19.15684
48.80037 2.7328987 21.679834
48.296364 4.8698997 21.645838
47.486366 18.638899 82.52683
48.47937 17.592897 84.38883
47.81537 17.185896 94.883835
46.835365 15.290895 94.72083
73.266365 29.733896 98.58584
75.13737 29.509895 100.742836
85.86837 31.666895 93.88084
85.405365 33.942898 92.98683
59.414368 29.415895 83.398834
58.78837 31.186895 84.04183
50.93637 25.695896 76.078835
52.38537 27.649897 74.71983
12.635368 12.1889 31.444826
10.777367 11.0499 30.971834
12.940369 6.2468987 17.981836
14.8283615 5.1749 18.51584
35.423363 41.578896 46.89084
36.714363 41.969894 49.010838
37.963364 1.6838989 56.233837
38.665367 3.3308983 56.49484
54.21437 12.882898 63.88284
52.792366 12.970896 62.086838
56.458366 12.530899 73.00283
54.858368 11.3969 74.966835
18.295364 7.1728973 34.71584
18.936363 7.544899 36.91683
24.843369 2.7499008 27.759829
23.094368 1.775898 26.67084
48.708366 0.839901 59.25284
46.74537 0.77690125 59.38384
45.586365 11.440899 53.441837
44.609367 13.601896 53.13384
0.08136749 44.361897 81.161835
86.75537 43.692898 80.522835
80.70337 8.3199005 78.97283
78.72737 6.9529 78.340836
84.667366 9.627899 42.281837
86.91537 9.316898 41.437836
77.96437 7.0668983 41.72484
77.45637 9.374897 43.184837
13.539368 44.778896 10.92084
13.234367 44.734898 13.030841
9.4533615 45.7459 22.869837
9.383362 47.471897 21.982836
53.95337 44.488895 83.01584
52.462364 45.6629 81.83183
47.775368 4.5858994 72.44884
45.514366 4.124897 73.23583
74.67437 43.961895 91.01584
76.83237 44.399895 90.68584
71.32437 35.560898 79.37884
69.253365 35.665897 80.30784
0.22936249 0.19789886 54.899837
87.42337 48.979897 52.893837
2.5923615 42.835896 56.52084
2.6393661 41.411896 54.52284
53.95137 1.8978996 53.79984
52.23237 2.0699005 52.17984
56.516365 42.759895 43.31484
58.957367 41.949898 44.011837
68.668365 21.896896 86.576836
69.099365 24.006897 87.87283
62.988365 31.659895 95.993835
62.748367 32.940895 94.590836
48.781364 37.199898 38.48584
49.70237 37.281895 40.746838
47.777367 30.162895 51.71084
47.279366 29.350895 49.97984
17.081367 32.466896 99.74983
17.991364 33.812897 101.591835
21.946365 37.133896 8.0508375
20.186363 38.400898 8.702838
45.81337 16.209898 58.95984
43.48037 15.4278965 57.68784
39.27037 23.934896 52.156837
38.970367 25.339895 53.845837
48.032364 2.1758995 87.287834
46.54737 1.7999 89.28883
46.308365 4.636898 101.771835
47.305367 3.2299004 102.76383
35.42536 26.907896 50.24484
36.628365 26.631897 48.76484
36.257362 24.088896 36.79284
35.428368 26.176895 36.09684
2.0513687 16.830896 22.783838
0.92536926 15.023897 22.491838
3.9813614 12.928896 37.083836
5.834366 12.6469 36.28284
36.428368 11.0149 87.59984
38.335365 11.5919 88.54584
35.223366 22.971895 93.88084
35.471367 24.583899 92.19183
59.074364 5.221897 104.216835
60.185364 7.412899 104.34483
54.818367 11.331898 8.049838
52.769363 10.7509 8.068835
43.029366 19.998896 91.90183
41.380363 21.065897 92.15684
36.033363 27.276896 82.103836
34.597366 25.717896 80.884834
42.346367 3.1848984 102.562836
43.514366 4.447899 103.96084
51.352364 41.510895 102.74983
51.876366 40.466896 104.12183
48.706367 18.121897 39.50984
49.540367 17.806898 42.20084
41.461365 9.443897 46.77284
39.015366 9.142899 48.366837
66.600365 44.429897 5.40684
65.69137 46.589897 5.175837
71.127365 4.3199005 12.875834
69.822365 5.7439003 14.355838
5.3993607 27.335897 74.12583
5.5503616 25.356897 73.660835
4.549362 13.209898 80.90283
2.3693619 12.931898 80.26584
42.91137 34.992897 59.497837
42.73037 35.039898 57.732838
43.50637 44.8289 61.906837
44.14737 43.295895 63.232838
66.56637 6.6548996 15.251842
66.89737 5.0919 13.676837
72.85137 2.558899 14.9258375
74.264366 4.0478973 15.876842
73.99137 45.4599 1.2568359
75.06637 42.748898 1.9918392
82.24137 3.7038994 2.9528377
80.05437 4.0839005 2.9988353
12.994362 24.685896 63.172836
11.684364 25.790895 64.548836
5.2713623 17.947895 71.286835
7.386368 17.179895 70.09983
47.308365 12.176899 23.079836
47.570366 14.352896 23.845835
38.917366 19.691896 32.584827
40.671364 19.750898 33.997837
44.681366 18.550896 69.256836
44.225365 19.954895 70.59783
49.997368 30.801895 67.839836
51.003365 29.417896 68.83684
26.131363 22.800898 63.63884
26.350365 20.309896 63.864838
27.949366 11.350899 71.54784
29.211367 9.2999 70.49783
65.21437 8.6959 27.750826
66.65237 8.953899 26.53583
65.00737 7.9669 19.222834
66.33337 9.0919 20.371836
0.9183655 18.201899 99.107834
87.35337 17.755896 99.85883
80.65837 16.943895 100.606834
82.280365 17.071898 98.82284
85.16037 40.774895 22.60184
85.12537 43.029896 23.217836
0.8353653 44.7179 12.014834
1.5623627 45.9759 10.332835
69.38637 20.532896 13.276835
70.02737 18.340899 13.801837
57.784367 15.879896 23.326838
59.126366 15.271898 24.902834
60.305367 28.842896 66.40283
61.780365 28.363895 67.660835
64.84337 41.024895 70.43183
66.98637 42.000896 71.61283
32.455368 43.112896 31.374834
33.351364 42.532898 29.32384
36.89937 39.918896 18.480837
36.56537 37.720898 18.491838
43.43937 35.958897 21.55884
44.846367 33.8589 21.147837
54.81137 32.178898 24.713839
57.08937 32.786896 25.86484
88.26337 33.526897 85.78084
88.10537 36.2479 85.29484
76.42637 34.478897 78.33584
74.91037 32.953896 78.91683
37.671364 16.448896 73.92184
35.604362 15.306898 75.26584
37.393364 23.453897 77.339836
36.358368 24.046896 79.40584
39.958366 16.432898 59.775837
37.78837 16.825895 59.28584
35.455368 12.116898 72.520836
35.27437 10.051899 72.82384
55.096367 8.977898 77.356834
56.350365 7.5598984 77.867836
60.240364 0.98389816 88.68384
60.03637 1.2168999 90.40083
39.38437 43.007896 17.82384
38.915367 42.400898 15.748836
48.07637 45.7679 9.0128355
49.09037 44.083897 8.480838
40.693367 48.152897 15.850841
43.041367 48.4479 15.016841
50.87037 48.2099 24.731836
49.406364 47.790897 26.524828
81.126366 14.255896 50.96484
81.92737 13.216898 52.977837
5.924362 9.357899 57.02984
7.2693634 9.9589 58.679836
17.630363 19.829897 90.24084
18.502365 17.598898 90.67284
23.447365 12.4739 100.02483
21.335365 13.020899 100.29283
69.26937 10.220898 48.43084
67.642365 8.527901 49.80084
77.889366 3.4908981 43.253838
78.765366 1.3469009 41.773838
9.531364 11.393898 66.90684
11.272362 11.676899 65.47584
11.945366 6.6988983 74.64184
13.855362 8.682899 75.32484
38.014366 27.519896 51.38084
38.43737 28.095896 53.50084
28.114367 35.433895 52.70284
28.304369 33.401897 53.07684
79.834366 13.824896 30.921831
81.70437 13.833899 29.565828
1.5353699 13.547895 40.459827
1.8583679 15.4018955 41.34984
48.75637 13.494898 98.701836
46.887367 14.846895 98.49184
37.755363 13.884897 103.30283
35.896362 14.507898 103.965836
31.26237 42.393898 80.271835
31.063364 44.792896 79.19283
22.729362 2.0219002 70.674835
21.813362 0.082901 70.28184
10.998367 3.5578995 29.575838
10.062363 2.1239014 30.848833
0.4793625 45.9249 38.391834
87.93037 43.873898 38.372837
3.690361 44.491898 9.109836
4.1233673 45.9599 7.5818353
13.013367 5.3559 14.9898405
12.192368 7.238899 15.37984
63.57336 39.842896 66.093834
62.971367 40.837894 64.11184
64.31937 35.942898 64.479836
66.17837 34.120895 64.59884
81.69437 6.5219 95.438835
80.77737 8.428898 94.759834
82.531364 7.2849007 2.9218395
81.52237 8.172897 4.12884
37.931366 44.313896 77.52683
36.749367 42.663895 76.243835
48.824364 37.005898 83.12684
49.614365 34.612896 82.59783
50.308365 41.200897 34.58083
49.709366 43.913895 33.46883
45.761368 1.6968994 33.818836
46.23137 4.171898 34.58083
86.32437 41.576897 97.64983
87.58037 40.528896 98.882835
84.32737 2.4838982 103.58484
84.532364 4.636898 0.53983307
9.682365 10.3759 6.0518365
8.730362 10.948898 7.89284
85.61137 6.7558975 3.2688396
84.240364 4.9379005 4.095835
53.852364 19.535898 39.181828
54.943367 19.555899 41.016834
54.878365 7.058899 36.418842
55.471367 6.617897 38.37383
46.80237 21.337896 80.870834
45.02037 19.783895 82.59783
46.502365 33.160896 84.89284
48.862366 32.0599 84.00584
68.418365 41.903896 3.5158412
66.65737 42.946896 2.0398357
64.85237 34.499897 7.774836
66.04137 36.626896 8.383838
88.22237 21.318895 100.19784
87.87137 19.982897 102.465836
12.122368 19.905895 4.7098336
13.394363 21.823896 4.0188394
33.741364 42.150898 82.107834
34.63437 41.343895 83.41483
47.483368 35.7479 88.60883
48.404366 34.442898 86.61684
17.196365 11.921898 72.770836
16.811363 11.6409 70.912834
15.424362 48.1089 65.771835
17.318367 47.574898 66.61283
56.64537 35.283897 10.492839
56.573364 35.533897 8.424838
47.253365 31.573896 4.6438394
45.594368 30.857895 3.5348384
59.822365 11.623898 32.48084
58.61737 13.384897 32.58884
47.54737 18.639898 37.07883
47.205368 20.625898 36.98984
0.7173691 46.2949 73.341835
88.167366 47.631897 74.03284
6.5073624 5.329899 84.21983
6.070366 5.067898 86.645836
29.82937 42.878895 85.13783
28.15037 42.186897 86.22684
28.127367 40.477898 94.730835
26.611366 40.478897 95.980835
35.122368 19.123896 0.52583313
33.402367 19.528898 104.106834
37.87137 20.718897 102.63883
35.60637 21.061895 103.40784
14.937363 16.212896 58.11884
14.458366 14.627897 56.475838
25.097366 11.913898 53.99584
25.480362 12.1889 55.85684
52.678368 38.290897 2.7188365
53.043365 38.279896 0.22383118
47.45437 27.312897 102.648834
44.984367 27.126896 102.99184
76.28437 30.398895 23.618837
75.02237 29.257896 25.80884
65.08837 37.6089 26.816835
66.36537 39.419895 25.82184
79.739365 46.0169 40.50684
80.95037 45.074898 38.880833
87.13737 48.792896 38.454838
86.00837 1.6039009 38.764835
37.13537 23.472897 103.84583
38.10737 22.993896 1.3428345
41.931366 25.783895 2.9618404
43.29837 27.374895 3.2258403
1.1143646 10.095898 104.04183
2.032364 11.414898 1.2988358
82.473366 17.643896 8.399837
81.43637 16.286898 9.570834
72.13437 7.6078987 35.92484
73.987366 8.617897 37.122837
72.265366 12.890898 49.22884
73.27337 14.197897 50.497837
1.1803665 30.648895 54.79384
0.9393692 32.375896 53.35484
8.968369 31.904896 62.795837
8.963364 33.5459 63.86184
59.906364 39.393898 71.15183
62.135365 38.495895 71.52783
68.933365 40.593895 76.65584
71.56937 40.592896 76.78284
0.43436432 14.849897 66.39484
0.7363663 16.518896 65.43184
85.96837 9.7719 59.642838
85.21637 8.0128975 60.81484
17.052368 45.3489 35.78084
15.258362 46.5159 36.28084
3.3733673 46.4689 43.076836
2.0793686 47.859898 42.087837
55.336365 4.5248985 44.561836
55.821365 3.2608986 43.34284
44.86937 42.2339 39.253838
44.60437 42.792896 37.16884
82.639366 19.891895 5.0598397
82.032364 21.960896 4.3138375
4.2793655 27.024897 104.48984
5.7863617 26.611897 1.6788356
60.386368 1.5499 12.194835
61.775368 2.707901 13.153834
66.57537 43.889896 22.437838
67.98537 42.299896 23.22484
21.722366 24.479897 13.544841
23.267365 26.107897 12.638835
30.20437 33.074898 6.262835
30.15037 32.852898 8.32384
27.91437 27.761896 16.358835
25.916367 27.820896 15.829837
15.2933655 24.252895 18.548838
16.641365 22.141895 19.074839
42.75837 47.104897 37.22984
42.38137 48.499897 38.49484
44.20137 41.784897 42.317837
45.943367 40.896896 41.74284
44.584366 4.096897 52.67284
45.57737 3.9438972 50.59784
40.86937 45.8489 39.47484
42.09137 43.921898 40.44384
29.464365 28.402895 70.19683
32.222366 27.780895 70.61684
40.55137 20.092896 75.84884
42.222366 21.102896 76.29784
72.697365 9.065899 0.6938324
72.00037 10.8689 2.1198375
69.80237 13.883898 11.638835
69.20137 15.319899 10.290835
75.61037 48.1409 87.49883
74.03437 46.701897 88.05583
74.22137 36.231895 78.01884
74.06037 37.434895 75.77683
82.862366 40.462894 26.825838
84.18937 42.361897 25.916826
83.48037 44.471897 39.377842
84.39837 46.3579 38.531834
21.741364 29.881895 31.24283
21.575363 27.886896 30.450838
9.741364 25.309896 21.89284
9.869362 24.310896 24.102839
10.602364 43.351894 5.2898355
11.778366 44.531895 4.0098367
5.0353622 8.232899 1.1628342
6.218361 9.614899 2.5938365
85.16237 26.519896 66.48984
85.41337 28.859896 67.04584
5.8213654 35.693897 67.61484
6.7853622 38.1229 67.258835
11.961365 41.114895 21.23984
11.093369 38.603897 20.908838
20.071365 36.172897 12.2398405
21.038368 38.212894 11.661838
74.11137 47.9879 101.827835
72.917366 47.0109 100.19283
84.640366 3.3518982 93.69183
85.27537 3.0769005 95.981834
46.28437 20.673899 66.231834
45.333366 18.601896 65.39184
51.20337 16.530897 56.70384
51.39637 14.371897 56.426838
51.77137 23.787897 73.648834
49.428368 23.420897 73.493835
49.585365 8.433899 78.08383
51.942368 8.621899 79.464836
83.933365 39.069897 20.275835
83.88837 41.169895 19.797838
86.81337 36.012897 9.05984
85.85437 34.2819 7.755839
71.931366 20.089895 68.36283
71.32937 21.940897 68.52883
82.237366 25.241896 78.15383
82.63037 27.079897 77.950836
79.947365 2.3658981 13.770839
80.43536 2.0269012 16.139833
84.421364 0.82089996 18.00284
82.39937 2.1338997 18.493837
16.083366 12.4068985 78.369835
14.105362 10.635899 79.03883
7.002365 18.373896 87.092834
9.062363 19.104898 87.47584
28.973368 10.991898 45.04984
27.105364 10.7169 45.44484
26.230362 46.7939 50.84684
27.74837 45.583897 51.433838
88.45537 5.245899 68.25283
0.8203659 3.044899 68.38783
2.4703674 12.582897 67.12583
0.58036804 11.954899 65.75283
80.515366 23.980898 3.4378383
78.806366 24.769896 1.955836
71.639366 14.096895 99.50484
71.81537 13.928896 97.06983
43.136368 20.648895 35.87084
44.36937 19.545897 37.253838
38.752365 24.101896 48.901836
39.209366 26.204897 49.267838
41.783363 28.685896 78.30683
42.878365 27.673897 76.95883
35.813362 35.586895 68.467834
36.977364 37.074898 67.54083
25.652367 14.157896 36.72684
26.348366 16.416899 36.376835
32.63336 11.420898 38.44884
31.05337 10.763901 39.23383
31.216364 28.400896 82.83283
28.749369 28.898895 83.43584
31.26137 39.852898 73.25584
31.999369 41.822895 74.51884
36.642365 48.886898 78.08383
37.724365 46.852898 77.41683
41.75637 39.441895 66.051834
40.613365 41.135895 64.45683
50.196365 33.376896 74.51183
49.53537 34.874897 76.04484
39.574364 36.166897 67.51884
41.110367 35.345898 66.52783
18.511368 24.236897 61.44584
16.271362 24.613895 61.64684
15.176369 18.803896 49.50084
15.218369 19.762896 47.288837
80.76937 32.796898 65.01283
79.82537 34.633896 66.62683
67.06137 28.377895 70.46083
67.72937 27.796896 72.61684
50.430367 40.781895 7.3868356
48.95337 39.524895 7.9408364
39.54737 36.069897 16.01584
39.45037 36.726894 18.43384
37.364365 20.928896 62.00084
37.443367 21.423897 59.317837
32.018364 27.532896 65.22784
32.070366 26.033895 67.77783
29.991365 26.239897 81.772835
30.880365 27.317896 80.425835
23.452362 19.049896 74.828835
22.022362 17.400896 74.353836
68.53837 38.073895 12.895839
68.74837 40.212894 13.647838
73.044365 35.336895 22.171839
73.15137 33.162895 23.292833
47.14837 2.5728989 80.03384
45.128365 1.150898 80.02483
54.55237 46.519897 73.383835
55.764366 47.257896 74.90283
31.686365 27.077896 94.242836
32.541367 25.979897 95.97684
35.213364 35.506897 103.187836
35.53837 35.843895 101.04784
23.204369 25.657896 37.734837
20.612366 25.794895 38.15284
22.827362 17.655895 50.171837
24.383362 18.246897 51.233837
55.52137 43.354897 81.18684
53.406364 42.880898 80.161835
48.416367 42.078896 70.675835
48.545364 42.643898 68.134834
56.164368 18.995897 37.91283
57.763367 19.067896 36.990833
63.552364 11.6568985 27.205828
62.77337 10.6399 29.001833
39.223366 6.495899 38.38384
38.849365 4.5818977 37.99184
36.73137 44.359898 42.840836
35.752365 43.148895 44.826836
3.2763672 38.780895 97.74184
2.120369 40.699898 98.06983
88.58337 0.9089012 93.745834
87.96537 2.0998993 95.42284
64.89537 3.0388985 10.352839
63.262367 1.6189003 10.422839
66.514366 41.855896 6.394839
66.70737 39.825897 5.6558404
46.233368 1.8418999 55.97284
48.015366 1.1039009 54.713837
39.66037 43.101894 44.14684
38.435364 41.113895 44.872837
58.38537 4.386898 12.926837
59.721367 6.4278984 12.92184
59.026367 17.949896 8.049838
60.136368 19.036898 9.5508375
59.32837 29.052896 57.96784
58.624367 27.801895 59.57184
49.96737 33.176895 58.29184
47.95137 34.1639 58.302837
65.88337 5.1168976 51.60684
67.19437 6.1848984 53.266838
78.570366 7.532898 45.178837
78.253365 5.9379005 44.34784
37.46837 33.299896 6.720835
36.345367 35.348896 5.2948403
37.94137 44.7809 15.12984
36.63437 47.061897 15.17184
53.555367 29.421896 70.60084
53.07637 27.348896 69.52983
53.59237 15.569896 76.62183
53.36837 14.030895 74.89184
10.510368 35.812897 21.57384
10.989365 34.810898 23.563837
20.651367 45.7609 22.231836
19.906364 46.984898 20.659838
3.7893677 48.8089 50.260838
2.4563675 47.679897 48.78484
12.2063675 37.953896 48.026836
13.053368 38.855896 49.809837
86.709366 33.929897 12.013835
88.518364 35.450897 12.258838
5.3883667 38.821896 23.291834
6.5863647 39.111897 21.612833
50.379364 1.7229004 24.175837
49.53437 2.183899 26.412828
50.405365 5.4748993 37.796833
52.706367 5.718899 37.66184
29.30337 41.671898 70.21083
27.20437 41.730896 70.19784
30.433367 5.1988983 65.704834
30.877367 7.110897 66.70883
78.21237 28.903896 103.020836
79.72237 27.230896 102.301834
1.1943665 36.186897 100.287834
2.214363 36.518898 98.214836
36.950363 41.163895 94.912834
38.889366 43.001896 96.15884
48.000366 38.674896 91.47384
47.60537 36.994896 93.34984
56.21837 44.902897 78.912834
57.82837 44.685898 80.03184
61.530365 48.1009 86.71284
62.735367 46.0379 85.81184
70.044365 24.817896 54.79284
71.91037 25.479897 55.121838
61.712364 25.436895 63.253838
61.737366 27.152897 62.054836
49.291367 17.204897 17.997835
51.963364 17.848898 18.30884
44.545364 21.301897 10.704837
45.09237 21.463896 8.7018385
71.21837 27.965897 95.77883
73.433365 28.169895 94.74184
81.50037 21.636896 97.13783
81.87137 19.713896 98.33584
30.560366 47.160896 55.442837
31.292368 45.583897 54.66784
30.425364 36.968895 67.88883
30.255365 37.804897 69.81883
72.34037 48.4409 54.163837
71.67337 1.0028992 55.037838
82.42637 2.4738998 54.525837
84.878365 2.5489006 54.830837
69.64337 36.275898 77.01483
70.223366 34.551895 75.86684
60.594364 27.191896 70.46384
57.833366 27.058895 69.770836
9.504364 28.509895 78.69183
8.466362 26.348896 78.37283
88.018364 31.504896 88.22684
87.557365 30.792896 90.32484
23.339363 3.391899 67.842834
23.324364 5.7509003 66.28883
17.316368 4.4828987 74.204834
16.992363 5.707897 75.83884
25.160362 34.1989 9.107837
24.700363 36.842896 9.370837
32.37137 48.3779 8.554835
34.423363 48.2269 8.139834
9.460365 5.037899 49.373837
7.7743683 5.9449005 50.704838
1.8403625 17.657896 43.18984
0.4543686 16.061895 43.366837
37.230362 4.7608986 31.28084
36.026367 6.572899 30.304827
25.102364 10.294899 37.306828
27.171366 11.1129 39.126835
33.670364 42.970898 78.40183
33.853363 42.935898 76.353836
31.223368 5.511898 68.65283
30.09437 6.9939003 69.507835
19.057365 31.797895 59.184837
17.744362 30.107895 59.357838
6.0693665 39.916897 55.08584
5.235367 38.739895 53.178837
