31.407639 82.399086 26.488945
8.985638 67.46009 4.6479454
8.16264 66.70209 2.118946
3.9926376 61.083088 5.016945
2.1476402 60.119087 3.7829437
13.316639 8.500092 13.308945
14.846639 9.373093 11.797944
20.36464 10.577087 12.476944
22.251638 11.997102 12.495944
44.93964 62.516087 15.9499445
46.762638 64.05309 15.965944
48.297638 65.26809 7.0799446
49.30164 63.795086 5.7919445
7.640639 11.931091 28.805944
8.493639 11.9731 30.838945
14.165639 5.7131042 30.932945
15.646639 7.615097 31.192945
8.03064 15.580088 9.158943
6.861641 17.551088 9.889946
1.1766396 21.617088 7.1769447
0.40063858 23.438087 6.502945
30.403639 102.679085 29.734945
29.153639 104.11509 31.584944
26.991638 96.694084 31.801945
25.036638 95.885086 32.352943
47.30064 78.26609 11.854944
48.542637 79.789085 11.447945
47.244637 87.39609 6.8729444
49.035637 86.96009 6.1169443
32.48764 24.198088 27.070944
30.926638 25.397087 26.547945
25.778639 17.985088 22.481945
28.078638 17.295088 22.055944
28.228638 81.75109 15.841945
30.001638 82.750084 16.457945
25.134638 89.59309 17.374945
23.672638 88.80109 15.858945
29.504639 117.39609 24.338945
28.203638 117.89409 22.112944
20.83364 120.34809 22.440945
21.212639 121.27109 24.041945
13.146642 50.308086 26.858944
13.12264 51.759087 24.694944
7.1076393 51.53909 24.191944
5.4876404 52.202087 23.213943
38.85664 47.559086 20.469944
36.94764 49.03309 19.192944
32.83064 46.885086 12.428945
31.126638 47.06009 14.372945
6.9876404 107.23909 38.990944
6.56464 109.28309 39.945946
3.56464 116.109085 1.4209442
1.4976387 116.61809 1.4229431
49.040638 83.899086 24.021944
47.854637 85.65909 25.283945
44.263638 89.77009 28.747944
45.487637 91.56009 30.017944
45.61464 24.901089 20.683945
46.30764 26.695087 19.419945
40.25464 28.371088 13.969944
39.707638 26.104088 15.204945
25.592638 7.55809 11.805944
26.933638 6.7001038 10.498944
32.21364 9.515091 13.048944
32.666637 11.687088 13.208944
50.43264 52.698086 10.686945
49.214638 54.051086 11.726944
53.21764 58.59509 16.193945
0.5146408 60.286087 16.429945
9.304638 26.113089 35.856945
11.022641 24.739088 36.889942
7.087639 19.429089 30.795944
7.290638 18.848087 28.866945
50.51864 32.876087 6.2349434
48.18964 31.723087 6.778946
42.07664 34.31609 6.9289436
41.09064 36.13009 5.955944
47.82164 118.319084 28.556944
47.972637 117.69609 30.868944
53.964638 121.72409 33.181942
54.09464 121.79409 35.454945
21.126638 68.75609 3.2949448
20.858639 67.07209 5.052944
15.104639 64.39709 0.47094345
14.716639 65.69009 39.645943
12.360639 123.41209 40.128944
13.281639 124.95209 38.967945
9.828639 0.6860962 40.493946
8.147639 1.3800964 0.041942596
25.070639 11.219101 39.298943
25.811638 8.793091 39.933945
20.080639 5.362091 33.599945
21.719639 5.491104 31.132944
40.69064 79.25109 35.639942
39.269638 77.67209 36.994946
46.798637 72.21609 35.851944
48.027637 73.75309 36.362946
33.291637 26.657087 1.6079445
35.80964 27.493088 1.2739449
36.84864 33.514088 5.722946
38.33164 35.13509 5.886944
22.713638 13.302088 14.934944
22.643639 15.260088 14.238944
16.41264 20.428087 16.082945
15.740639 19.414087 18.233944
11.5796385 122.93809 15.717945
11.593639 124.833084 17.296944
16.54064 123.46309 25.676945
17.94764 122.041084 25.567945
27.543638 48.601086 4.144943
27.832638 49.64309 2.7229462
27.785639 52.896088 37.085945
28.03864 54.36609 38.525944
32.66264 91.44909 5.8959427
31.990639 89.38409 6.0709457
32.28064 88.11409 38.638943
30.702639 86.20309 38.050945
53.896637 108.87709 34.944942
53.020638 109.78009 33.574944
45.84964 105.66909 35.029945
44.445637 105.71609 33.668945
40.49464 120.983086 38.708942
41.33464 119.24409 38.363945
46.94864 116.31509 40.795944
48.770638 116.37609 0.97094345
46.548637 35.23509 32.151943
45.931637 35.88509 30.360945
43.53064 42.10209 27.368944
42.71164 41.06809 25.314945
47.46864 100.055084 35.552944
45.457638 100.60309 35.531944
39.71564 98.20109 0.9979439
39.32264 95.74409 1.1689453
49.812637 39.95009 23.643944
50.014637 37.55309 23.373943
0.19963837 36.104088 30.480946
1.5796394 33.68309 29.861944
41.22964 78.107086 20.841944
38.98864 78.16009 20.026945
35.04264 70.011086 17.968945
33.88064 70.84709 19.602943
0.45663834 57.69909 3.1739426
0.7926407 57.606087 0.88594437
46.118637 57.085087 39.522945
47.23464 54.634087 39.600945
38.54664 45.455086 14.913944
38.29964 43.257088 14.061944
31.748638 38.65009 13.313945
30.41364 37.53109 14.935945
11.139642 125.635086 3.870945
10.966641 123.972084 5.3419456
6.31464 117.666084 1.6739426
4.832638 117.17409 3.507946
18.970638 5.063095 31.086945
19.651638 3.0621033 31.514944
20.262638 129.43509 23.904945
18.692638 0.43510437 22.879944
40.78564 23.862087 39.517944
42.251637 22.120089 39.280945
41.21764 19.017088 4.552944
40.98164 17.351088 5.898945
18.289639 66.64009 24.883945
17.299639 68.358086 23.903944
17.751638 69.08909 15.538944
19.192638 68.22609 14.184944
12.654639 34.37909 5.3349457
14.314639 36.15809 4.6839447
12.279639 38.90709 37.982944
12.633639 40.398087 39.481945
44.98964 58.863087 17.696943
44.08064 60.69309 18.557943
41.68464 56.113087 25.806944
39.637638 56.16609 25.848944
52.868637 78.00409 4.257946
50.99064 79.180084 4.0159454
46.92864 82.496086 38.043945
46.99764 83.79809 39.796944
43.54364 116.11609 18.130943
42.59564 117.277084 16.146944
40.381638 121.413086 10.404944
41.74664 122.27209 9.431945
52.50964 2.3251038 9.745945
49.96064 3.267105 10.245945
50.84964 1.6611023 18.472944
52.74064 2.2621002 19.173944
30.008638 128.4681 28.631945
30.660639 127.55709 26.705944
38.41764 129.01208 28.277945
40.22764 130.2201 28.933945
31.883638 59.043087 11.588944
29.713638 59.94909 11.326944
23.674639 63.514088 14.286944
23.69464 61.826088 12.856944
14.125639 127.375084 25.890945
14.401639 128.2101 28.120945
15.073639 5.615097 23.761944
16.46764 7.4730988 24.627945
48.22464 103.62809 18.972944
50.04564 103.98109 20.120945
0.76364136 98.11409 15.354944
53.46264 97.582085 13.992945
2.6536407 125.055084 22.965944
0.30363846 124.860085 23.250944
47.041637 125.33409 19.051945
48.58064 123.41708 18.224945
5.045639 77.92109 37.359943
4.2376404 76.90709 39.666943
4.826641 76.276085 6.158943
5.7136383 74.29209 5.735943
33.17064 116.10409 5.4709435
32.42064 118.372086 5.0069427
36.82264 120.997086 37.643944
38.48264 119.94609 37.109943
26.134638 35.17809 28.948944
26.289639 37.49009 29.916945
30.594639 44.808086 28.687944
29.720638 45.63009 26.860945
51.311638 52.493088 7.842945
50.042637 50.550087 7.9429436
45.889637 52.323086 0.35094452
46.84364 54.15209 1.0899429
29.731638 47.31809 7.4199443
30.243639 49.669086 8.174945
37.12764 52.733086 8.614944
36.27864 54.77509 8.511945
42.35164 15.970088 16.101944
44.451637 15.199088 17.351944
49.894638 17.084087 20.557943
48.42564 16.688087 22.263945
46.25964 17.925089 23.233944
47.971638 18.046087 24.819944
47.25964 21.110088 30.976944
45.54564 22.395088 31.549944
33.346638 93.20109 36.993942
31.423637 92.33409 37.811943
27.028639 94.50509 2.1919441
27.598639 94.847084 4.441944
32.98464 96.60109 21.749945
32.554638 97.08809 23.836945
24.37164 93.288086 25.288944
23.643639 91.96109 23.336945
31.52464 70.024086 5.535946
32.52864 71.996086 4.104946
37.922638 64.621086 3.2469444
39.89364 64.46609 3.3009453
44.688637 36.384087 15.488944
44.74764 36.00309 18.178944
49.070637 28.562088 18.885944
48.16464 27.464088 17.407944
35.964638 57.358086 4.464943
35.94864 56.04609 5.8599434
28.110638 55.39509 1.3729439
27.164639 53.64509 0.0929451
0.8726387 24.647087 29.881945
2.4056396 26.630089 29.605946
5.3086395 27.260088 38.273945
7.0236397 26.633087 37.290943
21.20464 41.89209 18.637943
20.054638 42.224087 17.172945
28.096638 43.39909 15.344944
29.508638 45.001087 14.997945
47.05064 88.37709 2.332943
47.061638 87.07209 3.8669434
47.62064 78.04609 6.014946
49.88564 78.499084 6.5259438
16.94064 105.86909 32.344944
15.126639 107.02009 33.073944
17.03364 111.318085 40.133945
18.272638 111.71609 1.2259445
45.792637 25.245089 24.480946
46.375637 25.776089 26.754944
52.26864 30.477087 21.303944
54.202637 30.723087 21.592945
20.620638 9.326096 27.453945
18.695639 7.9151 27.491945
23.484638 3.1530914 21.284945
21.396639 3.96109 20.679945
20.52464 93.24209 18.711945
21.106638 91.527084 17.282944
17.421638 84.66909 12.836945
17.383638 82.97509 14.395945
6.934639 103.25509 26.278944
8.530639 102.49409 24.688944
13.076639 107.98709 27.259945
15.324639 108.11309 28.019945
0.49863815 1.61409 7.3269424
1.5816383 130.70808 5.9429436
3.2576408 2.019104 0.1629448
2.5946388 1.8110962 39.289944
4.5816383 3.841095 30.072945
3.5956383 1.8840942 29.324945
1.1996384 129.15009 28.169945
2.1686401 127.456085 27.301945
16.095638 48.573086 31.913944
16.71764 47.38009 30.129944
9.640639 43.02709 27.653944
8.4146385 44.68509 26.591944
54.46964 91.29409 5.7449455
54.376637 90.096085 7.689945
8.37064 85.389084 8.227943
8.83564 86.17109 6.394943
49.09264 40.29609 9.461945
48.098637 41.611088 8.096943
49.471638 40.38509 40.495945
51.14964 39.79709 39.657944
11.83764 11.692088 25.166945
11.04564 11.236088 23.053944
6.5516396 14.832088 16.053944
5.670639 12.518088 16.715944
40.51064 55.222088 10.419945
39.39364 53.01909 9.922944
46.751637 52.70009 11.043944
47.12164 54.842087 10.463944
11.477639 64.28609 13.544945
9.449642 63.812088 12.740945
3.6216393 68.73809 12.177944
2.776638 70.28209 11.115945
13.028642 64.42809 2.0859451
12.492639 64.260086 40.778946
6.6906395 57.35209 1.3169441
7.680641 55.479088 0.119945526
25.421638 58.56109 26.625944
26.325638 56.965088 27.394945
26.554638 50.827087 25.273945
27.013638 49.217087 26.420944
16.95764 64.41609 23.630943
15.479639 62.736088 24.265945
14.163639 54.233086 21.102943
13.520638 53.42809 22.542944
19.414639 94.541084 38.328945
21.272638 95.207085 39.345943
21.566639 86.39109 2.8219452
20.903639 85.055084 1.1499443
26.648638 30.882088 4.8979454
28.062637 30.915087 3.554943
35.20464 27.752089 6.1509438
37.52864 27.557087 5.6099434
5.493641 72.91909 20.663944
7.2166405 71.79609 20.327944
6.764641 66.97509 22.508944
4.6856384 65.247086 21.907944
17.196638 39.215088 14.852944
19.448639 39.30209 14.879945
24.623638 32.80909 17.509945
23.710638 30.918087 16.806944
45.81664 123.040085 6.4609447
45.01764 123.61309 8.271944
46.21964 126.08409 15.2259445
47.83064 126.94009 16.685944
27.799639 24.478088 32.541943
28.815638 24.388088 30.506945
23.63164 16.642088 30.188944
24.005638 14.939088 29.378944
21.869638 16.871088 23.571943
21.79164 15.104088 24.815945
15.102639 11.190088 25.228945
14.225639 9.548088 25.223944
37.57964 38.20709 26.472944
37.89164 36.279087 26.153944
44.52564 37.307087 32.593945
45.390636 39.25309 33.051945
11.17064 46.47809 37.742943
10.395642 46.863087 40.100945
10.072643 54.592087 0.76794434
9.665638 53.482086 3.1899452
34.742638 68.27109 12.853945
34.089638 67.04709 14.726944
32.930637 60.467087 9.399944
32.80764 61.968086 7.7119446
12.62164 21.734087 26.678946
12.922639 19.163088 26.308945
5.9976387 18.752089 20.544945
6.1076393 18.515089 18.171944
9.785641 126.79709 2.0199432
8.517639 126.55709 3.3029442
3.1226387 120.513084 1.9609451
1.0746384 121.40409 1.8849449
18.584639 102.402084 30.243944
20.278639 101.87009 29.399944
15.285639 95.90709 23.421944
14.261639 94.57409 25.139944
53.55864 68.36609 9.3389435
53.313637 69.72209 7.1769447
50.104637 76.221085 3.7429428
48.08664 76.19709 4.226944
50.05264 43.507088 28.681944
51.60164 45.225086 27.590944
48.76164 53.480087 30.263945
49.832638 54.376087 28.257944
11.897639 106.860085 4.5309443
10.302639 106.22309 6.0989447
10.181639 107.53509 13.276944
10.813639 107.51509 15.405945
48.09364 80.18809 30.463945
46.145638 80.25109 30.664944
41.73464 77.31009 23.607944
40.652637 79.179085 24.144945
34.96764 66.97109 17.610945
35.97564 65.17609 16.347944
43.33064 60.327087 15.901945
43.05164 58.07509 16.073944
13.411639 50.828087 6.6769447
14.501639 48.479088 6.500946
23.33264 46.920086 3.4659424
23.578638 45.084087 4.854946
44.158638 97.50109 2.8699455
45.64164 97.94709 0.92194366
41.92464 103.64009 5.507946
41.680637 105.872086 5.235943
10.937639 127.35509 26.496944
11.648639 126.260086 25.037945
10.432639 118.61709 21.437944
12.006639 119.427086 20.104944
49.853638 71.74209 35.330944
51.938637 72.43609 34.782944
50.22564 74.16009 26.088945
50.58164 76.732086 26.720945
53.40764 1.7010956 30.504944
51.464638 1.0751038 30.246944
48.53264 4.914093 24.041945
46.376637 4.0550995 22.837944
16.41264 59.997086 5.585945
16.696638 59.132088 3.7359428
14.712639 61.34609 36.342945
13.616639 63.101086 35.961945
43.901638 24.475088 22.790945
42.70464 26.083088 22.267944
35.54364 22.568089 26.160944
34.70664 22.443089 28.479944
38.805637 119.34809 27.530945
37.32364 119.706085 28.713945
31.551638 115.76909 22.784945
32.08364 113.317085 22.845943
22.99264 55.737087 32.802944
21.008638 56.001087 32.801945
14.968639 50.33109 35.391945
16.39164 48.820087 34.698944
20.713638 26.303087 22.425943
22.394638 27.097088 24.087944
26.173637 33.24609 19.930944
24.269638 34.530087 20.196943
45.263638 64.97509 18.749945
43.33564 63.812088 18.111944
36.59864 63.563087 24.166945
36.03164 62.620087 21.904943
49.069637 69.37609 24.887945
47.909637 69.35309 26.895945
52.605637 68.28409 34.238945
0.14863968 68.13109 34.627945
14.801639 47.35309 14.183945
16.63164 49.176086 13.364944
21.140638 51.386086 19.039944
20.89964 49.01209 19.297945
26.324638 56.53309 30.083944
24.184639 55.69909 30.538944
20.57664 47.854088 31.885944
18.984638 48.872086 31.616945
23.29864 6.1871033 7.5699425
25.563639 6.666092 8.013943
25.914639 11.975099 0.7479439
27.424639 13.409089 1.2399445
52.848637 50.53209 9.705944
0.2646408 50.536087 10.179945
5.6746407 44.00509 10.840944
6.111641 42.036087 9.698944
22.83264 20.831087 21.729944
20.78864 22.138088 22.155945
17.20064 17.540089 29.731945
17.45864 18.941088 31.530945
25.762638 87.58509 28.736944
27.474638 88.345085 27.597944
31.70864 87.67409 35.868942
31.785639 89.96509 36.224945
2.7676392 21.591087 1.7709427
1.6236382 23.053087 0.2859459
48.68264 24.555088 2.0449448
46.908638 24.356089 3.646946
47.229637 3.8970947 1.7899437
46.32264 4.393097 40.765945
39.422638 1.7471008 36.342945
39.87764 130.5011 36.238945
14.553639 30.580088 22.738945
15.071639 28.751087 24.085945
16.400639 22.763088 17.936945
17.118639 21.103088 19.475945
33.93864 28.488087 18.866943
32.14364 28.276087 18.170944
28.747639 27.987087 26.995945
30.821638 27.983088 26.960945
6.0656395 5.763092 28.962944
4.2786407 7.0081024 29.604944
2.5566406 10.9151 20.858944
1.151638 9.7341 20.506945
51.972637 8.932098 16.622944
53.494637 8.5290985 19.107944
52.07264 9.062088 26.752945
49.770638 9.750092 26.129944
38.520638 40.11009 24.931944
40.64664 39.27709 23.825945
43.66364 38.703087 16.670944
45.53664 39.161087 15.590944
25.745638 31.151087 15.007944
26.684639 29.748087 14.072945
32.46264 34.01109 12.550944
32.09364 36.08009 12.501945
21.425638 64.29909 39.838943
22.071638 66.49809 39.544945
19.85764 73.28509 35.533943
21.004639 74.56409 36.856945
29.25364 49.628086 28.565945
28.44464 47.91609 28.177944
22.422638 43.384087 32.137943
20.66364 43.953087 32.435944
27.624638 118.677086 3.3679428
25.63864 119.03609 2.7399445
21.012638 122.789085 7.5709457
18.86064 121.21809 7.688946
33.26864 92.63009 34.22394
33.69664 90.56409 34.119946
33.75564 96.57109 27.210945
35.12864 96.07709 24.769945
53.97564 113.96009 15.309944
0.61964035 113.52109 13.798944
3.8576393 107.969086 9.195945
3.2546387 108.09309 7.2639446
39.52464 32.708088 26.837944
38.66764 33.66409 25.357944
35.42764 28.437088 21.264944
35.48164 26.441088 20.285944
16.84664 9.173088 15.7589445
17.337639 11.565088 15.173944
9.901639 15.066088 12.341945
8.892639 12.855088 12.470944
0.97964096 70.552086 5.8229446
0.35464096 72.11809 4.500946
50.16164 76.497086 8.390945
49.688637 77.652084 10.244946
5.8716393 120.11309 31.069944
3.4356384 120.25509 31.599945
1.44664 122.124084 23.342945
54.63464 121.41909 21.905945
49.38664 114.04609 27.879944
51.37964 113.82309 28.909945
5.00264 114.913086 26.751945
4.698639 113.08509 28.174944
30.528639 22.388088 35.946945
31.217638 24.441088 36.095943
34.84264 26.502089 28.026945
33.471638 28.507088 27.502945
40.52464 71.98809 8.197945
39.03864 71.95409 6.521946
33.80764 78.14609 4.660946
34.85764 80.11809 4.2639427
24.60764 15.709088 26.034945
22.90964 16.363089 27.058945
24.60364 25.912088 28.728945
24.47264 26.825089 26.652945
1.6076393 59.607086 18.945944
54.201637 59.857086 18.923944
52.888638 51.294086 21.891945
52.297638 49.40909 20.335943
3.7556381 24.431087 28.170944
2.2736397 23.016088 28.386944
52.812637 17.091087 23.073944
54.23464 15.744088 21.666945
23.554638 0.42010498 1.7119446
23.43364 1.7281036 0.21394348
18.58964 3.766098 35.633945
16.581638 4.509094 35.45994
8.874639 92.886086 14.7919445
8.630639 92.39709 16.789944
12.987638 87.762085 22.592945
14.171639 86.07409 21.279943
18.17664 21.527088 39.943943
18.484638 19.341087 40.357944
20.480639 14.948088 5.660946
22.01764 13.536088 5.492943
12.701639 9.826096 0.82894516
12.745639 11.738098 1.9099426
14.424639 7.5751038 9.995945
14.236639 5.945099 8.945946
28.182638 30.236088 16.407944
26.95164 31.191088 17.871944
22.36764 24.217089 21.467945
22.949638 24.565088 23.241943
24.866638 108.40809 2.844944
24.428638 105.94809 2.8419456
32.32164 102.693085 1.6899452
32.87564 104.45309 0.018943787
30.845638 75.19209 6.396946
31.214638 77.14109 6.103943
22.886639 79.69508 7.1309433
22.348639 77.43209 7.1199455
30.548637 18.044088 33.534943
31.549639 19.579088 35.313942
33.14364 20.730087 1.5819435
32.62064 22.447088 2.9689445
43.971638 130.8021 32.583942
42.791637 0.8871002 34.107944
46.215637 6.7310944 38.282944
44.94864 7.0990906 40.399944
6.8296394 13.979088 11.305944
5.6926384 15.579088 11.533944
53.11364 12.299088 7.8129444
53.72564 9.939088 7.460944
41.75964 111.872086 27.879944
40.91464 111.430084 29.457945
49.819637 113.52309 31.149944
48.458637 115.246086 30.192945
50.71064 93.40709 0.8719444
52.40764 93.20909 2.2289429
3.4756393 86.65509 1.981945
3.69664 86.89309 3.7679443
17.740639 5.4060974 21.572945
16.993639 7.4230957 21.900944
21.525639 10.651093 15.303945
19.629639 9.166092 14.729944
51.388638 114.236084 15.992945
51.05264 113.708084 17.883944
46.57364 113.899086 23.533945
46.944637 115.18209 25.133945
24.731638 71.86509 19.984943
25.254639 73.73809 19.408945
29.048637 80.85109 18.552944
31.330639 82.04809 18.783945
38.908638 60.800087 4.620945
39.27164 61.941086 2.3299446
47.047638 63.550087 2.842945
47.348637 62.340088 4.476944
36.339638 24.968088 17.847944
34.32464 26.284088 16.886944
39.06464 30.106087 12.297944
39.72364 28.283087 10.704945
37.87164 84.95309 16.960943
39.429638 87.011086 15.980945
40.37364 85.74109 24.167944
41.71164 86.32609 25.836945
38.00464 58.274086 24.330944
38.25564 56.987087 23.026945
35.12064 57.327087 16.421944
32.92164 58.79609 15.891945
8.047638 99.78709 25.173944
9.193638 100.32409 23.568945
6.541641 103.29609 15.014944
7.23864 101.32409 14.484944
8.694641 58.28309 17.592945
10.63664 58.377087 16.272943
5.1456413 53.28909 14.148945
4.430641 52.980087 11.519944
23.918638 20.961088 19.241943
24.934639 20.257088 17.159945
33.339638 24.114088 18.471945
32.76864 26.146088 19.868944
1.5826378 65.63209 34.95994
3.269638 66.46409 34.893944
4.1056404 67.80309 3.2069435
4.8466377 69.38809 4.181946
15.200639 81.857086 1.5229454
13.877641 83.32809 0.37494278
5.8136406 84.13409 4.434944
6.52964 84.11609 6.254944
32.48864 123.89409 11.343945
33.45264 121.456085 12.001945
29.12864 116.095085 6.9439445
29.779638 117.82209 5.5449443
14.658639 120.066086 8.8579445
16.48964 120.00609 7.828945
20.95164 114.247086 5.469944
20.59064 112.164085 4.1739426
36.51864 2.487091 13.896944
34.85964 2.067093 13.030945
30.973639 1.7590942 6.1339445
31.532639 3.4561005 3.9059443
43.362637 123.416084 16.538944
42.58664 125.623085 16.795944
38.05764 130.63309 14.306945
40.05164 0.97109985 13.717944
40.97564 121.91708 22.712944
39.443638 122.48909 24.154945
31.612638 122.22609 23.421944
30.917639 121.07409 21.763945
46.38564 65.34109 5.2069435
44.401638 65.82609 5.325943
41.82864 70.56809 4.726944
40.589638 72.09209 4.1309433
52.422638 73.70009 40.035946
51.55764 74.36609 0.9229431
47.237637 69.01309 39.542942
45.089638 69.386086 40.254944
26.199638 31.780087 38.818943
26.755638 31.789087 36.919945
27.081638 24.180088 35.218945
24.869638 22.890087 34.759945
41.74664 76.78209 10.879945
43.40064 76.30909 11.745944
40.78564 69.75409 18.070944
38.92564 69.77209 17.659945
7.111641 35.076088 18.515944
8.37764 37.222088 18.527945
5.7466393 43.577087 13.275945
6.77264 44.279087 14.632944
15.699639 105.972084 29.934944
16.470638 103.330086 29.053946
10.613639 97.580086 27.472944
10.182639 98.92609 26.502945
29.845638 124.33409 30.317945
30.735638 122.67009 31.749945
25.150639 117.068085 26.761944
24.834639 115.094086 28.675945
50.894638 26.538088 33.34194
53.01764 26.829088 32.288944
2.2396393 27.412088 39.812946
0.30664062 28.536087 39.967945
49.02464 25.342089 30.453945
51.36564 26.153088 30.086945
47.55164 33.044086 26.755945
47.841637 34.82909 25.990944
21.804638 71.51909 4.571945
20.290638 70.49809 5.360943
12.903639 70.92809 1.2259445
14.682639 69.26909 1.2409439
21.466639 38.12409 25.871944
23.563639 36.96209 24.313944
18.46864 30.114088 27.444944
18.723639 28.953087 25.688944
54.271637 75.43409 3.0979462
54.270638 75.25509 0.63794327
8.11264 72.28409 1.8289452
10.19164 72.25509 1.0979462
20.601639 41.52409 33.989944
21.99664 39.82409 34.847942
19.43764 33.22009 36.290943
19.14864 30.786087 35.954945
51.111637 60.53409 28.566944
49.97464 60.837086 30.248945
43.11464 61.89309 33.933945
42.590637 64.13009 34.072945
34.520638 98.74509 22.420944
34.92664 100.275085 23.610945
41.013638 104.38209 28.524944
43.173637 103.63409 27.010944
11.721639 50.517086 4.5389442
12.165639 48.391087 5.1959457
9.544639 40.50309 5.9189453
9.654639 40.64409 8.104946
17.06864 32.701088 38.353943
18.594639 32.328087 40.757946
23.889639 27.375088 3.2869453
23.525639 27.738089 5.007946
44.56764 87.87909 4.1549454
42.62264 88.32109 4.6999435
41.339638 94.900085 2.625946
41.631638 97.275085 3.1049461
32.07064 11.079086 35.904945
32.66864 12.038102 33.95294
27.263638 12.143098 28.217945
28.467638 10.806091 26.630945
28.793638 48.890087 24.406944
27.001638 47.79609 22.960943
23.41364 39.708088 25.156944
23.276638 39.598087 23.091944
23.200638 104.45109 16.381945
23.508638 104.67109 18.260944
28.53164 109.750084 22.398945
28.099638 108.45209 23.539944
7.123638 77.277084 12.445945
6.9616394 77.777084 14.928945
6.3296394 86.220085 15.253944
5.1746407 87.28309 13.437944
36.45264 47.398087 36.487946
36.74064 49.549088 37.252945
46.70464 49.015087 36.401943
47.070637 46.50509 36.107944
5.184639 3.3350983 1.257946
5.2616386 5.93309 0.7959442
7.670639 6.8571014 10.415943
9.535641 7.9510956 9.929943
19.10464 43.49609 21.168943
19.90564 44.19209 19.160944
16.861639 50.70009 21.864944
16.629639 52.941086 20.971945
30.827639 23.807087 9.467944
29.692638 21.880089 10.174945
26.484638 18.853088 15.186944
24.75664 16.929089 14.6669445
31.266638 123.25709 34.623943
30.220638 125.04409 34.916943
23.486639 125.22809 31.901945
22.66964 123.92309 30.016945
30.541637 4.6810913 22.946943
30.720638 6.3090973 22.670944
33.28264 13.209092 21.785944
33.72664 15.006089 23.088943
20.48964 94.35609 11.336945
20.64264 94.88209 9.285945
20.199638 86.04509 5.8449445
18.761639 85.000084 7.308944
28.893639 72.177086 7.9699445
26.960638 72.816086 9.182944
24.084639 63.51309 11.025945
25.46564 61.952087 10.720944
5.677639 75.39709 21.491943
7.465641 75.89609 19.990944
6.8386383 84.90509 19.850945
6.2446404 85.52909 17.804945
17.81264 86.263084 29.771944
15.799639 86.554085 30.061945
15.225639 92.139084 34.954945
16.30564 93.64309 35.974945
11.473639 8.909103 25.585945
12.486639 7.7080994 26.454945
10.944639 0.9100952 28.987946
11.015639 130.9291 30.636944
25.12164 71.58909 13.830944
25.015638 71.55009 15.668944
30.931639 66.68909 19.885944
32.58464 68.524086 19.376944
49.90064 54.154087 24.211945
50.71864 56.57409 23.538944
46.26864 62.205086 18.470943
46.945637 62.996086 20.099945
38.96864 24.544088 35.823944
39.08064 25.484087 33.948944
44.90564 23.589088 28.883945
43.93464 24.558088 27.016945
18.236639 64.497086 20.339945
18.52764 62.53309 19.943945
12.270638 57.03909 18.141945
10.375639 56.247086 19.171944
34.69564 23.065088 1.646946
32.85264 24.288088 0.64494324
37.881638 23.024088 34.103943
36.929638 22.820087 31.879944
30.20164 42.119087 16.313944
31.852638 43.361088 15.621944
35.14664 45.39409 22.474945
36.464638 44.660088 24.107944
13.192638 74.80509 25.221945
15.375639 75.64509 25.098944
16.44764 83.59009 23.661943
14.367639 83.94609 23.595943
22.69764 62.35909 20.607944
23.834639 63.105087 22.087944
23.858639 61.07509 27.085945
25.776638 61.49909 27.131945
27.026638 3.591095 30.725945
27.526638 1.7760925 31.563944
19.825638 1.9040985 33.940945
18.981638 0.19909668 32.793945
7.2896385 46.250088 10.760944
7.533638 45.36609 12.453944
11.429639 49.667088 8.156944
10.882642 47.726086 7.6759443
20.950638 74.20209 26.190945
23.387638 74.32909 26.869946
27.791637 81.191086 26.957945
29.01064 80.92209 28.848944
25.36464 115.85509 12.106944
27.71564 116.331085 12.491944
30.478638 109.830086 14.910944
31.919638 108.39409 16.082945
40.77264 79.07309 33.096943
42.980637 79.597084 32.295944
42.236637 83.57609 24.770945
44.06564 83.86909 23.019943
49.83764 2.8871002 1.6009445
49.348637 1.4310913 0.5059433
49.12164 124.85309 2.4049454
48.50564 122.94508 1.1009445
3.3156395 21.996088 17.305944
4.4476395 20.337088 16.740944
9.96764 25.655088 15.717945
11.88564 26.129087 14.641944
46.222637 2.3210907 19.445944
48.784637 2.0350952 19.873943
45.17764 126.971085 24.126945
44.47464 125.499084 22.585943
5.514641 100.861084 26.092945
6.705639 100.71309 27.458944
2.05764 102.90709 34.659943
0.1756401 101.552086 34.226944
28.862638 126.05809 27.937944
26.759638 127.36809 28.593945
25.26764 2.8600922 28.067945
23.810638 3.1100922 30.060946
24.706638 95.58709 11.677944
24.644638 97.524086 10.767944
26.97964 101.443085 16.755943
25.14564 102.635086 17.028944
36.519638 54.364086 21.285944
34.01864 54.28209 21.609943
28.485638 51.821087 26.971945
28.63564 52.95009 28.679945
36.84864 38.31809 9.143945
35.24564 39.50309 8.386945
27.44464 37.169086 10.360945
26.551638 39.47509 10.524944
7.337639 86.443085 3.8999443
6.305641 86.84209 1.7169456
9.393642 86.705086 34.602943
8.574638 88.513084 34.272945
0.9446411 101.01709 37.235943
1.0586395 103.388084 37.330944
3.2196388 106.50809 5.0659447
4.144638 108.31109 4.7069435
8.703639 128.58609 17.528944
11.240639 128.45808 17.158945
17.57264 129.0981 22.718945
18.390638 127.50709 23.771944
20.481638 123.16009 26.206945
22.344639 123.63409 25.677944
25.059639 127.32709 30.735945
26.120638 129.70709 30.625944
25.172638 14.243088 13.770945
26.734638 15.522088 13.098945
20.712639 16.312088 7.9609447
20.01064 15.689088 10.062944
2.7146378 51.841087 14.085944
1.4806404 52.493088 15.528944
49.354637 51.555088 13.513945
46.882637 51.198086 13.691944
27.232637 3.1390991 11.953944
26.957638 2.690094 9.819944
32.25464 7.8181 6.4309444
31.464638 8.370102 4.4399447
48.71864 103.56509 35.991943
51.290638 103.77209 36.299942
53.58664 104.60009 2.7549438
52.86464 103.36209 4.974945
21.64864 92.10109 33.311943
21.573639 91.14409 35.640945
19.098639 84.583084 32.843945
18.136639 84.052086 31.060946
2.0376396 105.88009 21.469944
0.47964096 106.483086 19.626944
5.37764 99.98009 15.708944
5.260639 97.57309 16.329945
2.70364 10.689087 36.211945
1.6756401 10.8741 37.640945
51.89164 8.425095 30.243944
52.04464 10.542099 29.252945
25.49964 92.139084 30.053946
25.306639 94.55809 29.960945
16.43764 92.88309 25.874945
15.412639 93.65609 27.898945
46.271637 82.94609 35.427944
45.48964 84.608086 36.111942
42.195637 87.79709 28.337944
39.83364 87.08709 28.152945
9.297639 82.98709 23.692944
9.883639 84.013084 22.140944
10.898639 75.26709 20.223944
12.642639 74.038086 20.797945
4.3836403 62.535088 21.591944
2.559639 61.49209 21.060944
5.5516396 55.53409 25.662945
5.2666397 53.155087 25.713945
26.540638 41.495087 20.369944
24.452639 42.661087 19.872944
23.709639 50.24809 19.972944
24.863638 50.805088 21.737944
1.6666412 99.12609 0.13394547
1.8736382 98.34809 1.9209442
1.1766396 105.19508 6.314945
1.7396393 106.04208 8.116943
21.626638 12.496095 7.8869443
22.39864 9.98909 7.7549443
31.044638 13.152101 10.673944
29.870638 12.336091 12.673944
22.35364 64.91709 3.2879448
20.793638 64.17409 1.9049454
17.987638 57.41509 1.6859436
18.97264 55.02709 1.8109436
47.181637 42.85809 39.284943
45.415638 41.979088 37.906944
45.79464 46.091087 30.858944
46.08164 46.273087 28.692945
22.931639 13.127091 32.901943
21.439638 11.132095 33.112946
16.601639 11.9021 39.065945
15.592639 9.94809 40.095943
14.455639 52.597088 1.9469452
16.736639 53.537086 2.9079437
23.93764 50.15009 0.6969452
25.387638 51.250088 39.999943
47.92064 74.67809 15.892944
49.040638 76.18209 15.328944
1.6876411 72.80909 11.625944
2.2546387 75.11309 11.568945
13.531639 72.32809 14.395945
14.740639 71.68409 13.102944
9.338639 75.57009 5.8369446
9.001639 77.205086 7.104944
8.983639 21.474089 0.6709442
8.922638 22.314089 39.285942
3.30064 16.898088 38.739944
1.5916405 18.036089 37.401943
27.954638 51.33909 4.811943
26.000639 52.036087 3.4759445
20.476639 55.65909 4.4809456
18.258638 56.48409 4.5769424
29.786638 32.67709 20.112944
29.733639 34.67909 21.889944
34.144638 40.792088 21.559944
36.09364 40.48209 22.311945
47.63664 13.72609 13.8509445
47.89864 11.304092 13.018945
46.292637 5.0881042 19.980944
48.681637 4.5980988 20.726944
15.144639 126.32008 10.693945
16.33264 125.68108 12.695945
13.768639 118.82409 17.555944
14.464639 120.07209 19.236944
51.52364 90.98809 32.240944
50.43264 92.86709 32.150944
48.521637 90.986084 40.391945
45.979637 90.08409 0.46194458
14.005639 14.683088 21.742945
16.236639 15.591088 21.842945
21.36764 18.796087 20.459944
22.859638 17.892088 21.454945
16.279638 86.29409 6.143944
17.869638 86.94609 4.693943
12.571639 94.014084 5.4339447
12.9476385 95.90809 6.8039436
35.94064 101.180084 37.515945
36.40664 99.05009 36.650944
31.627638 98.067085 2.7989426
31.610638 100.20109 2.3089447
34.81964 95.83609 19.556944
33.096638 94.998085 19.102943
32.82664 100.524086 13.598945
32.49564 102.524086 12.623944
13.684639 108.18809 18.631945
15.926639 108.22909 19.627945
19.43764 106.41109 22.377945
19.783638 106.74409 20.513945
7.333641 97.73909 18.194944
7.3486404 95.67609 17.403944
3.6576385 90.13409 24.060946
1.5876389 90.665085 22.845943
12.187642 36.31109 32.416943
11.64964 36.21309 30.197945
2.7716408 34.71309 31.953945
2.3606377 37.21209 31.638945
41.33864 90.899086 30.880945
41.51664 92.137085 32.429943
47.582638 87.777084 37.508945
47.69964 86.12909 36.385944
20.706638 28.394087 28.260944
21.90664 26.646088 28.940945
14.367639 24.521088 29.442945
14.356639 21.912088 28.911945
20.390638 56.419086 9.8579445
19.922638 58.25509 8.9499445
13.815639 61.628086 6.9119444
12.121639 62.036087 5.4119444
42.401638 12.188088 28.472944
41.43564 12.732088 26.789944
36.59064 17.316088 23.230944
36.36664 14.901088 23.150944
45.993637 60.469086 8.990945
48.202637 59.837086 8.581944
53.56564 65.68109 11.960944
0.2666397 66.21109 10.339945
12.183639 127.83609 2.1009445
11.838639 128.1731 0.5609436
12.235639 3.3430939 0.59194565
10.205639 3.3090973 40.310944
38.08764 89.73009 34.242943
38.08164 88.57809 32.246944
42.207638 81.372086 36.902943
40.60864 80.90509 38.232944
32.52864 64.20209 35.668945
31.940638 61.788086 35.408943
38.144638 60.571087 31.783945
39.41064 60.057087 30.157944
23.217638 41.85809 4.844944
23.34764 43.34409 2.9739456
26.05164 35.39409 0.21094513
26.95864 34.17109 39.534943
41.374638 10.845093 32.660942
42.36464 9.852097 34.078945
41.44264 9.8250885 26.788944
41.860638 7.9830933 25.681944
51.36664 111.750084 1.2819443
50.61664 114.06409 1.1999435
2.7706413 111.79509 37.739944
1.6086388 111.26609 35.945942
41.38464 10.591095 24.146944
41.64964 11.102097 21.965944
43.145638 3.9481049 21.978945
42.368637 2.091095 21.299944
42.02164 120.886086 36.019943
40.29264 119.554085 34.732944
41.09564 114.275085 28.297945
40.811638 115.929085 27.463945
24.92364 64.70809 38.801945
23.65564 63.009087 40.169945
23.75364 57.371086 34.832943
25.396639 56.265087 33.631943
46.547638 45.729088 5.2329445
48.382637 44.806087 5.499943
53.596638 42.35909 8.305943
53.44864 40.689087 6.9589424
11.874639 130.79208 36.190945
10.880639 1.042099 34.672943
8.511639 5.5061035 39.525944
7.0956383 6.9431 39.246944
12.518639 81.35609 32.618942
14.668639 81.80009 33.449944
21.45864 80.59109 36.356945
23.24264 79.664085 35.465942
23.908638 107.39409 0.24694443
25.706638 107.50409 39.262943
32.617638 111.25309 39.961945
34.180637 110.77309 37.945942
20.75664 86.35409 29.000944
20.088638 86.60209 31.495945
21.035639 82.94709 37.603943
18.796638 83.05109 38.403942
1.7516403 77.59809 22.668943
54.54564 78.43609 21.339945
4.0426407 85.123085 23.374945
5.330639 83.64009 23.662945
47.285637 7.9521027 25.788944
48.81764 8.066101 23.951944
51.80764 14.936097 21.504944
50.81064 15.47609 23.327944
9.472639 59.44209 9.003944
9.100639 57.646088 10.888943
13.443639 54.663086 3.882946
13.997639 56.611088 3.8859444
30.758638 35.299088 25.237946
30.740639 33.48209 24.086945
26.179638 28.468088 27.812944
26.403639 27.401089 29.862946
13.417642 105.052086 34.580944
12.013642 104.58809 35.871944
3.1556396 106.000084 33.825943
3.1956406 107.665085 35.196945
45.112637 13.444093 12.738944
45.290638 11.104095 12.295944
41.20464 6.212097 12.302944
39.01064 5.46109 12.444944
42.792637 118.26609 8.369946
40.53864 117.205086 8.943943
41.30764 116.62709 0.4809456
39.55964 116.984085 39.939945
9.932644 116.914085 19.664944
7.764641 117.082085 19.215944
7.0636406 114.85409 11.405945
9.028641 113.84009 10.664945
10.466641 29.595087 34.83494
9.474644 27.745089 33.676945
4.4716377 29.088087 25.883945
2.8886414 29.852087 27.415945
28.353638 97.80109 4.794945
29.06964 99.56209 3.4589424
28.992638 105.72709 10.4379425
26.429638 105.56309 11.024944
16.931639 26.740088 10.495945
19.151638 26.968088 10.6409445
18.988638 23.561089 6.8079443
20.78064 22.874088 7.966944
28.829638 8.538101 23.904945
30.118639 9.0750885 22.401945
32.235638 3.4241028 18.859943
32.00764 3.4860992 21.056944
2.729641 12.296088 6.8319435
4.3316383 11.379088 6.4359436
2.7756386 19.020088 0.91594315
4.885639 19.609089 0.20594406
6.8086395 70.48709 32.439945
8.26564 72.00709 31.442945
5.116638 73.59209 24.834944
4.146641 75.79609 23.812944
24.58364 104.18709 26.630945
26.164639 102.96009 25.791945
33.644638 105.82109 22.202944
34.20264 103.997086 21.813944
32.144638 78.40409 2.6599426
30.858639 79.70209 4.127945
27.764639 86.30709 3.4289436
29.736639 85.94809 1.6099434
54.50564 35.523087 20.213943
2.0116386 34.95609 19.954945
8.025639 39.30309 23.516945
8.729641 42.01009 23.494944
50.646637 59.667088 33.393944
50.06464 61.80309 33.419945
47.85164 65.90409 40.343945
45.540638 65.31809 40.649944
3.2826385 49.925087 16.110945
3.797638 52.030087 17.147943
11.96264 54.208088 18.546944
12.5706415 52.528088 19.928944
43.55264 12.737092 16.474945
43.646637 11.349091 14.463944
40.777637 4.1371 17.296944
40.61864 2.58609 16.063944
31.87864 122.75109 14.869945
33.839638 122.32809 15.560945
37.82264 116.31009 19.040945
37.54464 115.58909 16.879944
43.749638 1.9100952 23.942945
43.35064 130.91109 25.075945
44.49664 127.316086 17.079945
43.299637 128.52809 15.368944
50.355637 93.74309 17.746944
50.03664 95.580086 17.387943
42.92664 96.50209 22.972944
41.526638 95.57609 21.588943
3.1136398 26.764088 11.222946
4.6126404 26.818089 8.896946
8.52364 20.826088 3.6909447
6.1676407 20.254087 3.1269455
49.06764 110.73109 4.8349457
49.94864 108.74109 5.1639442
48.94164 101.80909 3.370945
47.730637 99.78709 5.2679443
28.261639 79.13209 13.159945
29.639639 81.09909 13.647944
35.776638 82.67309 17.072945
34.22064 84.02009 18.603945
31.40664 40.18309 5.110943
33.02564 40.064087 3.743946
37.922638 36.50509 40.175945
38.07264 34.195087 39.798946
44.589638 96.289085 5.2889442
45.82264 95.10409 4.136944
50.744637 88.804085 7.1619453
51.973637 91.221085 7.9919434
21.719639 42.19709 36.305943
22.459639 40.668087 37.529945
28.492638 35.84409 34.120945
27.522638 36.238087 32.425945
10.363639 70.511086 2.903946
8.036639 70.27709 3.9249458
11.774639 65.86209 9.399944
12.501638 66.50009 11.866943
27.402637 98.08509 1.6479454
25.671638 99.46409 0.8349457
24.623638 104.484085 36.70994
24.89964 105.804085 34.978943
52.24864 13.418088 29.665945
52.23964 13.989088 27.631945
4.16164 12.129088 31.765945
2.5006409 11.186088 32.652943
51.67164 2.516098 21.536943
53.465637 3.1250916 21.730944
53.53864 7.1051025 28.208944
54.21164 6.7510986 30.139944
34.15664 74.78609 37.482944
35.15564 73.06509 36.691944
40.22264 67.44409 35.512943
39.57464 66.18709 37.680943
26.609638 36.863087 24.172945
28.78864 36.52509 23.883945
33.00464 43.132088 22.405945
32.512638 45.189087 21.832945
32.29364 120.151085 34.166943
33.79664 118.78209 33.382942
32.006638 125.25609 28.078945
31.325638 125.15609 26.152945
37.547638 96.30909 3.3069458
36.908638 96.804085 5.507946
43.50964 98.13109 7.549946
45.53764 98.75209 7.0469437
38.98164 55.912086 1.9429436
38.68564 55.821087 40.411945
40.43164 62.86009 35.027943
41.35264 64.35409 36.397945
37.01564 54.662086 12.652945
36.28764 56.814087 13.896944
30.331638 55.362087 16.131945
28.684639 53.94909 16.933945
48.65664 129.39009 17.588943
49.708637 0.067092896 16.275944
52.03264 123.24209 17.333944
53.95564 121.94709 16.895945
9.194639 108.971085 24.727945
11.390639 107.68108 24.373945
12.177639 106.429085 17.332945
12.268639 105.02808 15.546945
35.07064 122.56109 7.0369453
36.062637 124.31309 8.162945
39.32864 0.06109619 3.278946
41.40564 130.9121 2.5459442
12.366639 36.812088 7.1309443
10.763642 37.876087 7.558944
7.323639 32.550087 8.809944
6.930641 30.417088 9.466945
52.97764 31.135088 6.3909454
0.3306389 32.18409 6.453945
3.205639 29.979088 39.670944
5.4386406 29.751087 39.852943
51.374638 99.73809 2.0259438
49.86564 99.25309 3.8319435
52.66164 100.637085 12.2139435
0.21763992 101.719086 12.019943
0.5356407 129.44809 11.586945
0.9406395 130.5591 9.942945
7.73164 3.0610962 9.905945
9.577641 1.8780975 11.030945
10.230641 59.63709 29.801945
11.554639 60.785088 27.716944
7.81464 54.194088 24.526945
8.137638 53.573086 21.775944
20.379639 63.634087 16.482944
20.928638 62.794086 14.292944
19.89964 68.10509 7.5249443
21.245638 69.73909 7.7889442
13.070639 96.58509 12.807944
12.301639 94.65809 13.795944
12.040639 87.83409 10.7329445
11.681639 85.71309 9.456944
9.969639 112.331085 35.237946
8.241638 113.49009 33.704945
9.402645 120.191086 29.606945
7.708641 121.86209 29.931944
5.6886406 86.413086 32.557945
4.684639 84.64009 32.784943
7.3436394 81.554085 25.654945
7.5326385 83.86409 25.515945
43.028637 70.15209 21.109943
42.50464 72.42309 20.489944
41.992638 78.722084 15.458944
42.73264 78.57609 13.349944
22.408638 70.32709 23.880945
20.73264 71.73109 24.783945
20.11464 73.38909 32.863945
21.429638 71.69409 33.720943
18.938639 127.29609 11.855945
21.18764 126.568085 11.950944
19.500639 127.11909 21.033945
19.192638 125.123085 22.017944
35.16864 127.32709 1.0799446
34.06964 129.1791 40.771946
32.10264 7.2041016 0.16594315
30.261639 7.1080933 1.693943
23.39564 67.68309 37.022945
24.665638 68.24209 35.760944
29.634638 74.54109 0.038944244
30.365639 75.607086 39.676945
50.69964 110.28409 28.941944
50.512638 108.07909 28.767944
47.103638 102.34109 34.050945
44.818638 103.06509 34.287945
35.39864 28.243088 25.229944
35.81564 29.221087 26.653944
44.07364 29.988087 25.766945
45.299637 31.165087 27.164944
37.41764 95.61609 19.483944
37.67864 96.54609 17.630943
42.76864 100.96209 22.494944
42.278637 103.16909 23.474945
8.295639 76.20009 34.128944
9.795643 76.32309 32.773945
9.826641 77.28009 24.992945
10.017643 75.65609 22.735945
24.80864 125.85509 10.090942
25.282639 124.34209 8.628944
29.816639 128.8691 5.0699425
30.342638 130.1151 3.2699432
21.119638 92.01609 21.345943
22.43064 91.163086 20.223944
21.247639 83.69909 15.861944
21.914639 81.89109 17.102943
0.37763977 21.935087 16.840944
1.354641 23.002089 15.528944
51.679638 28.314087 19.116943
53.779636 28.087088 20.288944
4.517639 47.50609 30.627945
2.93264 47.889088 32.170944
6.073639 40.58909 36.847942
8.011639 40.966087 38.553944
34.937637 90.68309 36.978943
37.46864 90.40509 36.945942
43.51664 85.62809 37.987946
45.666637 86.13409 38.875942
26.475637 27.743088 5.1879444
26.425638 28.629087 7.4449444
29.455639 30.059088 13.918944
30.668638 29.132088 16.064943
36.74564 32.049088 26.769945
35.19164 33.07309 26.001945
29.106638 33.85809 32.146942
27.252638 32.257088 32.877945
24.53864 90.30709 25.200945
24.825638 88.52009 26.447945
16.28464 87.39709 25.692945
15.315639 88.71809 23.955944
17.775639 42.06109 15.3909445
15.871639 42.43509 14.048944
8.965639 44.260086 17.132944
7.474639 45.705086 17.602943
38.137638 85.735085 25.364944
39.62564 84.73709 26.755945
34.929638 79.91009 33.041943
33.93264 81.87709 33.548943
39.37864 55.875088 29.587944
38.42564 55.719086 31.813944
36.21764 52.23509 36.401943
33.67564 51.889088 36.425945
40.041637 2.0791016 29.371944
42.269638 1.0960999 29.724945
50.05364 4.869095 30.816944
51.680637 5.238098 29.474945
14.395639 65.24909 24.445944
15.180639 67.13709 24.781944
9.794639 69.63709 32.006943
9.034639 67.65809 32.265945
20.915638 26.415089 26.264944
19.36464 26.494087 24.765945
14.637639 28.030087 26.607944
16.43664 28.435087 26.712944
50.214638 13.743089 31.366945
51.610638 14.245088 32.743942
46.278637 11.36409 37.951942
43.92564 11.204086 37.307945
49.69064 100.510086 33.45994
50.24764 101.121086 35.310944
53.34364 97.60309 1.0939445
52.459637 95.78509 1.3809433
9.283638 18.218088 4.4689445
10.485639 16.704088 3.2679443
7.8016396 11.885088 9.772945
9.756641 11.132088 10.708942
52.88064 45.104088 25.099945
52.430637 46.677086 24.056944
2.5556412 50.90209 19.549944
0.4976387 50.726086 20.208944
42.78164 125.872086 12.204945
44.69964 127.386086 13.068944
41.89264 3.1031036 7.736944
39.99364 3.0560913 9.505944
42.26864 93.43609 30.163944
44.431637 94.10209 30.030945
48.833637 100.42109 30.968945
49.48264 98.07809 31.009945
12.587639 116.00209 9.4759445
14.240639 114.71309 8.963944
9.568639 111.43409 11.620945
11.110639 112.30109 12.069944
51.28064 75.59009 16.785944
52.700638 76.081085 18.330944
3.2466393 69.38909 21.253944
2.0186386 69.93209 23.302944
53.41364 40.195087 25.788944
53.401638 42.613087 24.920944
2.9526405 40.99809 18.368944
3.0026398 42.90109 17.672945
37.02964 54.890087 3.3359451
36.21364 53.573086 1.6369438
38.03664 46.74109 2.009945
39.020638 45.08209 0.04294586
52.87964 63.72809 16.524944
51.44864 62.23409 16.733944
45.054638 59.556087 13.662945
45.049637 57.615086 13.244945
3.519638 84.86609 40.746944
3.2676392 83.650085 38.814945
11.706639 82.02909 35.384945
11.637639 80.163086 34.896942
41.18164 120.17609 19.384945
41.464638 121.42309 17.308945
36.68864 121.57609 9.218945
38.51764 122.89509 9.363944
50.680637 27.629087 0.14894485
50.311638 26.720087 1.9999428
1.7516403 26.753088 7.0109444
2.5616379 28.267088 8.118946
41.90664 129.1321 4.8179436
43.59964 129.67609 3.4759445
50.97564 4.018097 6.4189453
52.73164 2.6161041 7.1309433
53.60164 113.03209 31.230946
53.672638 112.33809 33.312943
51.75464 120.54609 36.384945
50.61664 121.73109 38.574944
24.036638 33.08809 40.124943
24.396639 33.557087 0.92894363
17.320639 35.681087 3.3199425
16.532639 34.72609 4.999943
20.84064 106.91708 7.5639443
21.188639 105.73809 10.134945
22.227638 98.511086 9.528944
22.179638 96.42509 8.064944
48.44964 10.514099 28.375944
49.51664 8.7901 28.895945
48.473637 3.5601044 34.857944
50.529636 4.020096 35.309944
7.3656387 4.686096 26.783945
8.326641 5.4060974 24.654945
1.1076393 4.891098 19.596945
2.658638 6.05809 18.496944
39.70964 45.899086 12.428945
40.91264 44.490086 14.276944
48.66264 41.86409 11.458944
49.83664 43.11709 9.573944
35.76164 67.85109 34.945942
34.77164 67.17609 36.674942
33.01664 64.57809 2.365944
31.418638 64.59009 1.2049446
33.17664 42.773087 25.546946
34.92764 42.064087 24.319944
35.83164 40.11709 33.634945
35.214638 38.19109 33.764942
5.427639 111.32609 38.47394
7.0446396 112.06109 37.201942
6.304638 120.07609 37.944942
7.677639 121.845085 39.127945
33.687637 0.99609375 17.792944
34.48664 1.3350983 15.852944
32.10064 125.024086 13.715944
30.388638 124.96209 15.282945
22.02464 17.154089 33.148945
21.407639 18.549088 34.840942
25.18064 14.971088 0.97294617
24.04864 13.172088 1.8859444
49.395638 14.183088 11.8579445
49.47464 16.412088 11.772944
3.8606377 17.584087 16.238945
4.330639 15.910088 17.396944
33.04964 46.45009 29.335945
31.625639 45.25609 30.991945
27.655638 50.786087 35.460945
26.755638 52.10309 33.967945
18.243639 85.122086 21.924944
19.57664 84.260086 23.645945
26.581638 85.18209 27.857944
28.535639 83.859085 27.536945
4.186638 45.772087 39.388943
3.6526413 44.835087 0.19794464
7.9496384 47.39309 8.054943
8.948639 45.53209 8.2139435
44.86364 34.41409 27.463945
43.62064 32.910088 25.934944
40.20664 35.944088 18.254944
40.936638 33.502087 17.991943
40.33864 12.284088 30.521944
41.10464 13.836088 31.918945
40.48764 22.199087 32.774944
39.34964 24.131088 31.475945
24.293638 103.222084 2.6559448
23.859638 101.42509 1.7309456
15.270639 102.11609 5.2189445
15.223639 104.05709 6.401943
48.723637 69.70909 37.642944
47.201637 69.108086 35.455944
48.695637 66.74109 27.856945
47.70464 65.36009 26.099945
15.671639 56.030087 1.7419434
14.929639 54.40109 40.882946
12.323639 60.44209 35.261944
10.526639 59.502087 34.20294
22.693638 55.390087 1.9469452
25.122639 54.420086 2.514946
31.048637 59.04109 8.153946
32.73864 57.767086 8.281944
50.42164 30.445087 10.653945
50.512638 27.892088 11.0749445
42.66964 25.531088 7.9309444
40.99764 26.427088 9.009945
2.583641 11.594101 40.544945
1.0606384 12.720094 39.798946
50.311638 5.516098 2.5519447
51.855637 4.7100983 3.8489456
8.84864 10.55809 25.238945
8.754639 8.020096 24.503944
3.1386414 8.658096 19.013945
2.1856384 9.669098 16.944944
1.6596413 40.731087 28.783945
2.1936378 39.91309 31.335945
9.739643 39.668087 30.027945
10.265641 42.091087 31.401945
53.17764 31.723087 9.134945
54.230637 32.855087 10.580944
50.667637 32.72709 18.748943
53.10064 32.87109 20.078943
40.200638 32.40909 15.555944
39.50164 30.063087 16.404943
30.916637 32.99809 14.599944
31.820639 35.33909 14.967944
47.84264 6.2220917 2.8009453
48.50464 5.7780914 5.4339447
42.673637 10.354095 7.0319443
42.436638 11.225098 4.5609436
11.26764 103.067085 2.9659424
9.826641 104.54309 3.943943
3.3926392 100.34309 39.489944
3.4926376 101.89209 37.600945
0.8366394 22.517088 9.976945
54.438637 22.539087 11.7919445
46.658638 21.600088 10.593945
45.69264 22.783089 9.444944
31.928638 77.68909 38.624943
31.816639 79.54409 36.855946
35.88464 84.55608 1.2749443
37.07464 82.998085 2.1789436
29.784637 57.00509 30.438944
28.077639 57.632088 31.863945
27.677639 66.31809 31.369946
27.726639 67.10009 33.673943
41.19464 30.933088 30.799944
40.68964 32.67009 29.402945
37.66364 36.61609 36.263943
39.13564 35.65709 37.634945
42.03764 33.633087 3.962944
40.35964 32.919086 2.811943
39.39364 27.598087 37.839943
38.05964 25.723087 38.015945
50.146637 81.944084 27.384945
50.16364 79.33909 26.870945
43.819637 81.749084 21.209944
42.306637 80.73709 19.370945
51.51864 51.622086 3.5069427
53.144638 50.323086 3.193943
1.69664 42.794086 2.1849442
1.9296379 40.62209 2.8349457
33.02564 103.22309 36.674942
33.17464 101.68809 38.784943
30.157639 93.91708 36.074944
31.426638 94.706085 33.997944
32.72564 24.281088 7.681946
31.310638 25.888088 7.5139427
26.947638 27.392088 2.698944
26.275639 29.589087 1.7969437
19.29464 57.74209 34.444942
20.400639 59.22109 33.439945
22.257639 67.20709 34.274944
24.549639 67.57509 33.157944
37.72264 42.12109 16.638945
39.04564 39.99809 16.221945
34.73264 36.828087 12.901944
34.985638 34.67609 11.739944
2.387638 0.36009216 19.802944
1.3676376 2.3511047 19.023945
6.436638 4.5260925 12.115945
5.568638 6.139099 11.594945
34.15064 101.04809 21.087944
33.25364 102.51809 19.587944
35.99364 107.05009 13.148945
37.09164 107.859085 14.973945
53.35264 65.76909 34.72394
