24.892624 63.962257 14.532539
34.68362 57.485256 56.463535
33.072624 58.992256 55.757538
34.430622 65.93326 54.654537
34.482624 66.26926 52.135536
33.344624 54.601257 5.995537
32.559624 52.97826 4.2735367
40.74362 52.482258 1.3585358
40.122623 51.34226 71.761536
38.677624 38.030262 65.60253
38.08462 36.016262 66.83853
31.888624 40.25526 64.45454
31.243624 39.92326 62.320538
15.694622 32.90626 4.010536
15.967623 34.93426 3.4525375
19.654623 40.778263 5.213539
22.027624 39.721264 5.2975388
12.572622 43.24426 7.1335373
13.782622 44.179264 8.911537
11.476623 50.67426 6.314537
9.684623 50.093258 7.294533
13.836622 27.072264 34.57154
12.291622 28.706266 33.638542
11.055622 29.805265 26.522537
9.642623 28.479261 26.07154
0.5266228 29.640265 18.82254
0.7126236 30.281263 16.543541
5.589622 28.492262 12.696541
7.9326243 29.846266 12.83754
14.491622 14.136261 66.90453
14.058622 12.156265 66.82053
18.196623 14.663261 72.00754
19.299623 12.893265 1.0065384
31.050623 9.906265 19.958542
31.050623 12.705261 20.29554
23.451624 14.101265 18.26854
23.812624 16.02626 19.080544
13.604622 64.81126 35.59754
12.915623 63.088257 36.95954
7.2006226 60.788258 38.870544
5.813623 62.53626 39.92654
5.177623 60.77226 16.193542
6.7606225 58.79926 15.681541
2.1816225 58.124256 12.204536
2.1226225 60.309258 12.001541
25.887623 26.479261 0.9005356
25.513624 28.090261 2.0755386
22.168623 28.320265 9.141533
21.684624 26.765265 10.296539
41.800625 41.821262 64.57554
42.465622 42.516262 62.54754
41.039623 47.24326 56.795536
39.068623 48.11526 57.364536
20.056623 9.405266 66.778534
20.537622 10.546265 64.790535
15.340622 5.9842606 64.89754
14.260622 7.848259 65.498535
33.100624 14.672264 10.904541
35.41262 14.257263 9.989532
40.985622 10.695259 12.414543
42.711624 11.669266 13.746536
42.276623 17.321259 48.486538
43.073624 16.05626 49.959538
48.012623 11.017265 50.169537
49.004623 10.908264 52.494537
20.948624 3.4802628 60.335537
19.232622 3.4932632 58.764538
14.819622 3.8152618 54.752537
13.833622 5.178261 53.141537
8.735622 13.528259 16.05954
8.472623 11.546265 17.78154
3.8046227 8.05526 12.541542
3.9676225 6.007263 13.701538
19.493624 10.497261 9.812538
21.461624 11.726265 10.968536
22.415623 19.037262 12.33754
23.312624 19.721268 9.887535
23.688623 4.1072617 43.420536
21.894623 5.4182587 41.912537
15.359622 3.650261 38.861538
14.543622 5.2842636 39.868538
25.002623 58.963257 15.016541
23.279623 58.402256 16.616539
23.263624 65.90726 20.901543
23.790623 64.71126 23.11454
26.236624 39.68526 11.925537
24.790623 39.141262 10.622543
27.540623 39.40726 3.663536
26.363623 37.141262 3.5215378
11.304623 55.865257 56.51354
12.9056225 57.908257 56.591537
15.162622 51.823257 58.843536
15.113623 50.25826 60.196537
42.46662 57.894257 6.193535
44.07062 58.26526 5.328537
48.06362 58.164257 2.3445358
49.33462 58.82826 1.1755371
29.723623 35.46426 61.490536
30.205624 34.432262 59.141537
37.871624 33.055264 59.580536
39.110622 31.984266 60.484535
10.581622 10.9602585 26.646538
10.887623 10.534264 28.84954
7.0426226 12.019264 34.43454
5.1266227 12.741264 34.08854
47.819622 67.16526 71.92253
46.944622 68.68926 71.274536
44.048622 5.8712616 0.90953827
43.436623 6.039261 3.4185333
1.666622 65.01526 2.0315323
1.6066245 67.44126 1.4255371
49.627625 69.33126 68.61754
47.883625 67.37326 68.85354
10.770622 52.018257 35.305542
9.6816225 54.40426 35.914543
15.069622 58.26626 39.89654
14.9316225 60.364258 39.330544
28.061623 69.242256 12.444542
26.216623 67.78826 12.25354
30.586624 61.760258 13.14254
32.192623 60.984257 14.346542
11.712623 68.65226 4.710533
12.414622 66.34026 4.979538
5.684623 63.735256 4.495537
3.8236225 64.367256 3.6745377
11.908623 60.907257 65.71654
10.522622 62.352257 65.76054
9.730622 57.013256 71.09354
8.706622 55.81226 69.32453
9.970623 50.64326 60.990536
11.988623 52.17726 61.918537
17.945623 50.943256 67.11954
17.116623 51.73426 68.790535
35.094624 28.846266 64.76954
36.05062 29.035261 66.59354
35.715622 34.016262 71.46453
37.376625 34.26826 70.22954
11.891623 11.256264 60.67254
12.690622 12.039261 58.744537
10.411623 13.143265 51.02054
9.663623 10.731262 50.677536
24.465624 58.462257 60.355537
23.795624 58.579258 58.538536
30.265623 55.30626 54.947536
31.379623 54.06126 56.417538
37.082623 22.200264 56.65154
36.81362 20.673264 58.709538
34.678623 25.59226 63.94454
32.61162 24.98026 63.759537
40.670624 61.956257 11.122543
42.113625 61.52226 12.727539
47.342625 65.31626 13.885536
49.004623 65.89726 12.787537
4.086624 34.363262 0.2585373
5.702621 34.24426 2.1545334
3.6136243 27.670263 5.554535
4.288624 27.359266 7.8725357
50.697624 38.50526 5.2405396
49.741623 37.528263 3.6215363
49.915623 42.48126 1.9145355
49.505623 44.72826 1.2425385
37.88962 58.025257 62.320538
37.406624 58.47926 60.17354
43.061623 61.817257 59.90154
44.505623 61.066257 61.710537
3.9116209 31.905264 58.028538
4.751621 32.88126 56.413536
5.398624 39.88026 56.347538
3.6416242 41.038258 56.920536
4.6756206 40.594257 16.579536
3.690624 41.35426 14.96254
2.1076238 36.90826 10.363541
0.40462112 36.07626 8.756538
19.189623 41.418262 7.858536
20.172623 42.92326 7.2185364
24.069624 44.569263 2.6525345
25.807623 43.375263 1.7595367
36.550625 2.7062607 5.1455383
34.93962 4.56826 5.0035324
35.922623 12.132263 3.3335342
38.001625 12.920265 3.5215378
20.067623 28.223265 3.8625336
19.468622 30.673262 4.451538
24.527624 35.13426 6.4685364
27.218624 35.30826 5.363533
43.826622 27.864264 55.63154
43.288624 27.530264 57.677536
49.37562 24.44026 57.96454
0.36462402 24.66226 57.559536
41.955624 25.937262 55.830536
39.962624 26.313261 57.157536
33.539623 30.44026 58.042538
34.07062 31.44126 56.052536
7.650623 50.54826 34.768536
7.5506225 52.62326 36.30454
4.6026225 51.699265 43.158535
6.1336226 52.379265 44.404537
38.883625 44.82226 4.578537
38.484623 47.139256 5.707535
32.75962 50.47526 5.4285355
31.596622 51.402256 6.738533
38.937622 11.223259 40.13854
40.614624 12.336266 39.34754
43.217625 13.54126 32.87754
41.671623 14.41526 31.131538
42.140625 44.057262 67.93453
43.371624 43.098263 66.388535
49.230625 38.16226 70.98853
50.84162 38.62826 69.32854
48.085625 50.04526 13.44754
49.145622 48.67126 14.32254
2.211624 51.640266 18.005539
3.6826246 50.05026 19.381538
46.872623 26.30026 66.667534
45.307625 25.641264 65.094536
45.173622 18.58326 65.90753
44.047623 17.468262 64.38554
27.235622 7.6112595 48.035538
28.959623 8.403259 46.720535
30.526623 13.381264 41.102535
29.378624 14.514259 40.18754
4.7086215 29.403265 37.495544
6.0646243 28.737265 35.55654
50.728622 24.709265 34.50654
50.972622 24.715261 36.539543
0.5816231 17.892258 3.5335388
50.251625 17.607262 2.1435394
46.664623 12.219261 2.3375397
45.280624 11.698265 4.4875336
0.19262314 3.8782654 41.668537
49.75762 4.655266 40.574535
0.35762405 11.26326 40.990536
0.24062347 13.528259 41.476536
6.518623 11.909264 61.310535
4.9216228 13.201263 61.586536
50.47962 11.49926 61.238537
48.241623 11.8502655 61.871536
19.400623 57.193256 16.983543
18.236624 55.288258 16.96254
19.637623 56.35626 23.00454
21.183622 56.38326 24.552536
37.642624 54.795258 58.229538
36.46662 55.47826 56.684536
41.914623 59.985256 52.795536
42.484623 59.46726 50.78454
47.017624 30.184263 8.910538
47.765625 28.71826 7.213539
41.616623 32.695263 5.7845383
40.649624 34.42226 4.670532
23.705624 5.3432617 39.218544
24.665623 5.882263 37.424545
24.054623 68.74026 33.94554
24.722624 68.85726 32.06254
26.765623 32.774258 69.24654
24.772623 32.19826 68.43954
27.387623 26.503263 63.744537
27.259623 25.446264 61.907536
49.557625 59.103256 65.92254
49.089622 56.72226 65.70154
1.9006232 50.552258 66.18754
1.3326224 50.199257 64.03153
30.411623 20.372269 6.8535385
31.794622 22.165268 7.6835327
39.475624 23.646263 8.269539
40.013622 21.598267 8.931534
43.170624 28.894262 68.10153
43.624622 27.277266 67.275536
37.987625 22.474266 70.19953
37.55662 22.685265 72.250534
39.039623 4.6572647 15.708542
39.739624 3.459259 17.472542
43.573624 9.397263 15.582542
42.166622 10.533264 16.422539
25.573624 57.693256 36.65354
26.407623 57.644257 34.576538
28.386623 64.81626 36.174545
27.187624 65.99926 37.03054
36.144623 43.78626 34.97354
35.364624 46.06126 35.63054
33.48862 50.707256 41.212536
34.802624 49.91026 42.711536
40.673622 44.07626 55.04854
40.48662 46.19726 54.36654
46.652622 50.57426 54.479538
47.447624 49.49526 53.086536
24.571623 46.875256 14.97654
26.038624 47.430256 13.1675415
29.294622 53.239265 17.068542
32.047623 53.187263 16.90654
33.116623 34.52126 22.18454
33.658623 33.75326 20.130539
34.248623 26.629263 23.284538
32.761623 25.08026 23.111542
36.13962 42.98926 2.1175385
37.101624 42.38226 0.0035324097
38.971622 36.094257 71.10253
40.996624 36.982258 71.70153
23.126623 24.567266 49.894535
24.158623 24.105263 51.635536
23.885624 28.531263 56.366535
24.812624 28.59126 58.602535
14.940622 30.484266 14.519539
16.488623 31.087263 15.581543
22.718624 29.304266 11.412537
22.878624 30.847265 10.162537
32.01662 24.181267 5.8625336
31.475624 23.597267 3.7735367
35.27162 20.448265 71.17153
34.684624 18.217262 70.64353
8.313622 14.099258 0.5015335
6.755623 14.751259 71.60654
11.601623 18.218262 67.264534
13.084622 20.260262 68.025536
16.819622 44.346264 8.892532
15.753622 43.802258 10.925537
18.628622 49.233257 14.68354
20.030622 50.652256 13.810539
18.684624 3.490265 70.42254
16.564621 3.5452652 70.57754
10.909622 1.3852615 70.51753
9.144623 0.5662613 71.399536
28.173624 50.441257 56.699535
27.806623 49.26926 58.380535
28.169622 44.301258 53.88754
29.819624 42.51926 54.34554
21.724623 1.7192612 17.286537
21.633623 4.34626 17.716537
23.143623 7.6072617 9.937538
21.009623 8.391266 10.175537
34.664623 31.834265 31.482544
34.07762 31.795263 33.74254
34.555622 37.67426 37.54354
33.769623 36.54526 39.56954
37.711624 53.219257 42.692535
35.741623 52.283257 42.841537
31.025623 53.55026 39.88854
28.965624 53.948257 40.19354
24.853622 39.223263 65.415535
25.771624 41.124264 65.38454
25.244623 43.874264 71.665535
25.668623 46.055256 71.594536
17.844624 26.058264 70.887535
16.780622 26.34426 68.96854
23.729624 24.714262 63.95054
23.193623 22.501266 64.16254
43.39662 26.796263 1.0435333
41.44562 26.49626 2.516533
36.65362 32.498264 1.5735397
37.66062 34.372265 2.2165375
28.768623 8.3352585 7.5115356
30.043623 9.4982605 6.0865326
26.805624 15.712257 4.7655334
27.853622 17.08326 3.3015366
21.978622 58.006256 2.151535
23.263624 59.832256 1.116539
29.040623 60.64126 6.210533
30.066624 59.558258 7.891533
19.137623 11.532265 5.8675385
17.194622 10.646263 4.6955338
19.569622 4.101265 0.5805359
17.082623 3.9912643 0.9495392
10.203623 64.62826 46.900536
11.574622 65.15326 44.893536
6.6096225 1.6182632 42.275536
8.094623 2.7382584 40.751537
24.435623 68.617256 21.03054
25.762623 67.26526 19.89154
23.593624 67.17526 12.953537
23.816624 69.31626 12.54454
28.394623 45.22626 14.062538
26.308622 44.46226 14.0655365
29.886623 38.388264 14.081543
28.306623 37.88426 12.55954
14.574622 35.307262 65.82654
14.533623 33.39826 66.708534
10.354623 33.15626 0.15353394
7.9226227 34.10226 0.3785324
19.320623 52.395264 64.77054
19.856623 50.692257 65.21153
14.718622 48.151257 62.294537
14.025622 47.32426 60.30454
19.559624 22.885262 11.231537
17.636623 21.696266 12.094543
15.816623 26.100264 17.762543
14.326622 25.708265 19.62954
11.877623 27.512266 59.383537
12.644623 25.797262 60.167538
14.517622 24.768263 68.00553
12.802623 24.491262 68.37853
20.713623 26.174261 1.8855362
18.803623 25.521261 1.2335358
18.646624 19.669266 71.06554
20.222622 18.247261 71.11954
14.270622 61.95126 53.689537
13.974623 62.07726 55.90154
20.363623 59.34726 56.93654
21.342623 57.45226 57.079536
21.089622 63.45926 10.279541
21.413624 65.05926 12.241539
18.894623 1.6692657 16.22454
18.648623 3.0262604 14.324539
45.858624 57.14026 18.076538
47.621624 58.227257 17.690536
49.286625 59.540257 10.924538
51.05662 59.697258 11.471542
25.551622 32.38026 9.474533
27.093624 30.740263 9.739532
28.461624 30.48126 0.98753357
29.524624 28.38326 1.0375366
30.962624 53.940258 7.1865387
30.107624 53.232258 5.044533
26.189623 54.76626 70.79854
25.864624 56.832256 70.749535
8.316623 39.998264 15.3305435
6.5356226 41.793262 14.825539
5.6606226 36.87926 8.380539
3.2136226 37.859264 8.029533
17.443623 23.625267 37.655537
18.114622 23.095268 39.701538
23.200623 22.399261 44.71454
25.281624 22.322266 43.61054
37.416622 32.23126 46.797535
36.91062 30.686262 47.773537
32.64662 25.029264 45.431538
30.786623 23.990265 47.40254
4.4886227 37.167263 71.830536
6.8166227 37.36426 0.22653961
8.183622 37.152264 7.3205338
9.527622 35.584263 8.393539
7.3756227 28.320265 24.513542
8.539622 29.835264 23.631538
13.580623 27.93926 18.29554
13.840622 29.64726 16.981537
16.878622 8.146263 27.277542
15.970622 7.4042587 25.617538
9.940622 7.4352646 28.622543
9.307623 4.660263 28.091537
0.8906212 0.5622635 30.93254
1.5596236 68.09526 29.703537
47.600624 1.473259 24.72554
49.874622 1.8102646 23.69654
12.223622 42.333263 9.958534
10.445622 43.038258 8.795532
11.058622 49.918262 12.464539
10.107622 50.42226 14.588539
7.8226237 45.456264 34.21454
6.794624 44.88326 35.707542
1.6586226 50.234257 39.82854
51.017624 50.040257 38.801544
27.228622 59.98626 64.33653
26.841623 62.565258 64.23753
33.138622 66.86626 65.71754
33.269623 66.70926 63.726536
11.946623 42.66126 69.71253
10.926622 43.88426 71.39854
11.462623 47.41026 1.7705383
10.632623 47.751263 4.007538
15.386622 10.378265 7.7535324
14.402622 11.9752655 9.015533
16.650621 18.802261 11.014542
15.041622 20.236267 11.931541
1.437622 0.6982651 0.9715347
0.35962296 1.8492584 2.9965363
48.767624 6.9462585 3.352539
48.460625 8.815262 2.5115356
31.694624 23.941261 25.304543
33.67462 23.197266 26.848541
30.193623 15.27626 25.506538
30.940624 14.718262 27.14154
32.23062 58.053257 0.43053436
33.102623 57.50226 2.0475388
38.878624 55.57526 69.874535
39.697624 54.50126 71.51553
5.7466226 52.99826 56.323536
6.4386225 51.18626 57.792538
8.641623 44.35626 55.50654
10.147622 44.42026 57.243538
5.6686206 68.76226 26.44854
3.2016218 68.465256 26.51854
51.379623 64.62426 20.37954
48.559624 65.53626 20.965538
46.79962 37.42226 14.15554
46.554623 39.54926 15.046539
1.6726226 43.39326 14.768539
0.8166237 44.32526 13.061539
2.1006238 39.35026 51.711536
1.548622 37.833263 50.257538
50.476624 32.208263 56.428535
0.010623932 30.436262 55.419537
6.407623 35.404263 70.89353
6.136623 33.47726 70.51853
1.4386214 37.835262 65.79754
1.2206229 39.054264 67.57854
46.879623 15.77726 70.74354
47.095623 18.16426 71.49153
45.012623 23.460266 2.9145355
47.14662 24.345266 2.241539
15.223622 40.349262 44.601536
15.993623 41.207264 43.240536
15.930622 44.373264 38.904537
15.540623 42.331264 39.000538
10.638622 11.518265 22.189537
12.446622 12.227264 20.757538
9.315622 16.101265 17.231537
10.359623 18.22026 16.205544
45.740623 65.86126 18.550537
46.957623 66.08926 16.638542
46.027622 2.9062653 13.366539
44.676624 4.1732635 12.319542
49.94562 8.570259 19.625542
0.34062195 10.2222595 19.778542
0.010623932 15.38726 14.467537
51.248623 15.579262 12.356537
51.39662 52.54026 1.566536
2.7086217 52.27326 1.7785339
7.7656207 54.00226 70.818535
8.888621 52.22426 69.483536
40.870625 58.511257 41.120537
40.72962 60.844257 40.653538
42.317623 66.52926 45.661537
43.881622 66.55126 44.580536
49.225624 22.042267 50.500538
48.364624 23.161263 48.964535
1.8586234 29.055265 49.341537
3.0996244 28.77426 51.46454
32.173622 36.065258 23.940536
33.31462 37.459263 22.785538
30.676622 44.107258 23.525543
29.179623 44.053265 21.509537
13.775622 48.695263 1.8355331
13.162622 48.775257 3.9425354
20.767624 46.52226 7.899536
20.555624 48.832256 8.989532
3.1376226 17.141258 71.346535
5.2336226 17.090263 71.64053
7.736623 22.947266 68.17354
7.3396225 24.497267 67.05054
28.697624 18.532265 0.18553925
27.194624 20.168266 71.15753
34.586624 22.112267 68.92153
34.491623 21.261269 66.85253
44.982624 20.986267 62.314537
46.018623 20.679268 59.86754
1.454624 21.481262 61.456535
2.7156217 23.573265 61.726536
3.8536222 10.05426 58.858536
4.7606235 12.176262 58.759537
5.162624 15.482262 54.286537
4.980621 17.114258 53.50554
33.163624 22.512268 44.989536
33.636623 20.158264 44.435535
28.506624 17.336258 42.132538
27.740623 19.622269 41.563538
42.69562 7.4332657 58.738537
42.568623 8.900261 57.224537
48.922623 10.120262 59.387535
50.79962 9.3732605 59.602535
8.946623 3.0082626 51.504536
8.128622 1.0222626 52.593536
3.7076225 67.49026 46.807537
3.0056226 68.30126 44.73554
0.39662248 3.9702606 68.37154
0.23462278 2.0462646 69.86854
7.9296227 68.55026 69.791534
9.519623 69.22426 68.83453
6.3296227 47.177258 4.3415375
5.196623 45.844257 4.3695374
4.5276227 45.19826 68.927536
5.207623 44.622265 67.080536
6.5946226 65.55326 30.96154
4.4486227 64.40526 31.07354
5.254623 57.317257 31.578545
3.3656225 56.49526 31.179543
48.815624 1.7152634 70.31354
47.454624 1.4332657 69.068535
43.568623 7.315262 68.595535
43.358624 9.320259 68.399536
13.816623 33.109264 44.309536
13.776623 33.554264 42.001537
13.840622 27.891264 38.586536
12.196623 27.331266 36.89554
6.7386227 46.08626 49.792538
6.1666226 47.85326 50.92954
2.9196224 47.723263 58.085537
3.7196226 47.304256 60.322536
2.0686224 7.3142624 68.46754
0.14862442 6.537262 68.264534
46.509624 11.505264 70.13254
46.550625 13.059265 69.136536
3.7336233 6.809265 31.509544
2.112621 6.924263 32.75654
0.8326225 0.6062622 33.816544
0.7906227 68.16826 35.536545
33.340622 10.044266 70.07954
35.06362 10.621262 71.46654
30.979624 6.9532623 4.9385376
31.872623 7.33226 6.6725388
6.1086226 68.94026 57.710537
6.8776226 1.1452637 58.223537
12.672623 2.5652618 62.33954
14.102622 2.1822586 61.30554
4.2406235 12.237259 71.81053
3.0566213 10.174263 71.123535
0.95262134 8.394264 4.7735367
2.032623 8.91626 6.993538
8.144623 62.871258 45.292538
9.731623 62.02226 46.057537
11.848622 61.50226 53.95654
10.646623 63.32126 54.530537
30.219624 50.204258 55.065536
31.719624 51.48926 55.593536
37.773624 51.826263 51.67154
37.719624 51.932266 49.52754
21.772623 43.80026 1.5855331
20.469624 42.390263 2.5595322
13.691623 43.61626 71.89453
12.752623 45.098263 0.52053833
29.219624 33.82326 63.896538
30.140623 35.84026 64.12054
31.413624 36.55026 71.678535
31.892624 39.206264 0.12453461
36.849625 44.640263 9.24054
38.286625 45.31426 7.8055344
40.949623 49.46326 12.396538
40.04262 50.31126 14.352539
11.482622 8.34626 47.104538
9.961622 8.788261 48.195538
3.3536224 13.364265 46.101536
3.7336226 14.657265 44.780537
35.527622 12.574265 28.013542
34.065624 11.397263 28.648537
29.478622 5.0742645 26.841537
31.323624 4.0662613 27.951538
19.532623 37.22726 2.0685349
19.699623 36.083263 0.15653229
18.284622 28.770262 70.87054
19.027622 27.986265 0.08353424
51.397625 61.21626 42.39554
50.24362 59.747257 43.216537
4.142624 54.67526 43.063538
3.7596242 53.34926 41.262535
50.873623 24.406263 67.180534
1.6496238 23.286263 67.178535
3.487621 19.269264 62.820538
5.7916217 19.216263 61.720535
12.986623 51.197258 1.9385376
14.993623 51.407257 1.6065369
20.840624 54.574257 4.729538
20.594624 56.872257 4.304535
7.8706226 33.038258 56.601536
7.320623 34.750263 56.170536
4.545623 38.280262 62.387535
3.0426226 36.663258 62.800537
38.998623 8.612259 41.399536
40.130623 10.129265 42.243538
39.32762 7.0762634 48.474537
40.207623 5.325264 49.489536
37.944622 23.851265 3.0705338
39.082623 25.17726 1.4775391
37.52862 31.505262 70.331535
38.657623 32.111263 68.48254
44.384624 13.593262 57.737537
44.87562 14.68026 59.559536
43.451622 11.297264 66.15453
45.765625 11.518265 66.85053
35.575623 17.252258 67.679535
36.22962 19.028267 66.60153
40.739624 23.359268 63.347538
42.416622 24.795263 64.469536
31.472624 16.173264 40.372536
31.568623 17.676262 41.92254
32.004623 13.44326 48.261536
30.310623 14.351265 49.440536
40.819622 58.948257 38.07354
38.800625 59.624256 37.51554
36.12562 58.963257 32.912544
34.73662 59.38326 30.661537
40.42462 59.173256 70.163536
40.19562 60.18826 67.92654
35.89162 59.579258 63.80454
35.26662 61.21026 62.383537
29.737623 57.777256 59.722538
30.780622 59.47926 57.847538
29.455624 65.54826 54.99854
27.320623 66.34826 54.148537
36.614624 33.459263 66.097534
38.560623 32.136265 65.91054
40.784622 34.150265 59.431538
40.812622 35.91026 58.473537
29.019623 53.16926 69.19653
29.522623 54.87026 70.50253
36.91062 55.89426 67.40653
36.427624 56.933258 66.07554
46.557625 60.081257 65.54353
48.015625 60.88926 63.949535
49.864624 68.16826 63.924538
0.85562134 67.12226 64.180534
11.457623 68.93526 7.335533
9.920623 0.3652649 8.950539
10.509623 3.3802643 15.506538
11.863623 2.1572647 17.09954
35.61162 36.19726 55.413536
37.351624 36.53626 56.342537
37.085625 38.763264 63.210537
38.824623 39.79726 63.299538
32.339622 21.552261 55.362537
31.766623 22.438263 57.368538
33.589622 27.645262 62.785538
33.447624 29.60726 62.18054
39.636623 54.45826 38.211536
39.57062 56.07726 39.48554
44.679623 56.20026 45.008537
46.110622 54.68726 46.480537
26.384623 58.54926 66.62054
27.670624 59.329258 67.68854
30.391623 62.109257 1.4685364
30.950623 60.25826 1.5835342
9.805622 16.948257 28.606537
9.724623 17.506264 26.069542
6.6406226 12.52626 22.355537
8.320622 12.576263 20.927536
29.053623 57.41726 15.677536
29.450623 56.12726 17.158539
36.631622 56.374256 18.478539
37.227623 54.121258 17.481537
11.667623 55.27826 70.39253
13.401623 53.91026 69.80154
17.185623 51.815258 0.3365326
19.182623 50.43626 0.18353271
43.622623 39.49126 9.058533
43.140625 40.583263 10.939537
36.187622 42.221264 11.576538
35.62562 42.361263 9.424538
25.010624 48.623257 63.206535
26.043623 50.66226 63.876537
22.777624 55.005257 67.68353
24.468624 54.99426 68.623535
41.441624 31.450262 48.683537
39.274624 31.882261 48.721535
39.529625 39.12026 53.419537
37.401623 38.64826 54.21454
37.232624 49.92226 68.872536
34.86862 50.76726 68.58553
31.444624 48.766262 3.3335342
29.859623 48.38026 1.613533
11.494622 23.902267 3.3975372
12.757623 24.024261 4.9125366
17.264624 27.308264 7.588539
19.434624 27.557264 8.387535
30.949623 10.296265 47.463535
31.341623 8.542259 48.657536
37.640625 6.1372604 51.085537
37.800625 5.6912613 53.261536
24.677624 67.15726 55.218536
26.409624 67.37626 56.850536
27.913624 62.05626 61.803535
25.530622 60.385258 61.913536
17.716623 5.563263 68.678535
16.886621 4.839264 66.847534
19.202623 1.8312607 61.674538
17.882624 1.4892654 60.023537
29.555624 59.527256 45.665535
30.229624 57.95226 46.533535
32.499622 52.337257 43.15954
30.927624 51.45926 41.814537
36.442623 14.486259 1.9345322
34.347622 13.655266 1.2695389
30.969624 21.138268 4.1715393
29.785624 21.477264 2.3245392
17.001623 12.591263 66.28253
18.150623 12.028259 64.35253
21.697624 16.24926 60.23554
21.379623 15.226265 58.05554
4.100624 18.218262 44.570538
2.192623 19.801262 44.88154
46.902622 18.742264 46.646538
45.378624 19.580261 45.25654
14.261622 42.75826 67.61854
13.940622 41.223263 65.85454
16.702621 35.50626 71.652534
16.919622 36.26726 1.1905365
23.231623 14.44326 30.721542
23.697624 12.534264 32.16854
24.610622 6.9392624 34.77854
23.081623 5.329262 34.305542
2.7186227 10.289261 68.16154
4.6466227 9.293259 68.75854
12.124622 10.806259 65.50453
12.101623 8.700264 66.788536
51.364624 34.95226 61.382538
49.821625 33.63126 62.762535
2.362621 28.957266 66.957535
0.124622345 27.887266 67.358536
34.117622 48.779263 66.74354
35.53662 48.99126 64.90553
42.488625 46.455257 66.166534
44.016624 46.82526 64.46754
40.878624 18.35926 38.845543
40.309624 19.352264 36.980545
43.821625 25.604261 39.23654
45.691624 25.571264 37.76854
15.560622 66.62726 6.646538
16.890621 65.03626 7.769539
22.021624 2.525261 9.951538
24.146624 1.7842636 9.1265335
21.310623 39.34226 65.110535
19.640623 41.497265 65.49254
20.556623 39.85526 1.2315369
22.453623 40.204258 2.455536
25.511623 35.07426 9.650536
26.518623 35.39626 8.020538
30.435623 38.044262 3.9985352
30.322624 36.47826 2.736534
16.929623 30.045263 7.0555344
18.784622 30.077261 7.3485336
22.984623 35.81426 10.616539
23.918623 37.070263 9.084534
39.964622 43.265263 8.177536
40.74362 44.64326 6.5695343
43.38962 38.69826 6.3645325
44.881622 37.47626 6.826538
17.202623 32.720264 68.56354
17.161623 33.53426 66.56154
17.791622 38.72826 62.14454
17.566624 40.09226 63.921535
46.114624 17.801262 62.320538
47.095623 19.141266 64.06053
3.369621 16.940262 63.917538
4.291622 15.936264 61.55554
20.936623 8.116264 7.4525375
18.995623 9.3352585 7.3535385
13.321622 4.2032623 5.257538
13.543622 2.7462616 4.5395355
8.2476225 34.565258 53.09554
9.879622 35.50326 53.02654
12.654622 29.45426 56.289536
11.192622 29.586264 58.130535
16.363623 9.3352585 66.610535
17.733624 8.072266 67.73154
23.590624 9.629265 69.17254
22.063623 10.882263 67.71754
23.446623 6.19326 66.554535
24.106623 4.2362595 66.80653
30.809624 7.695259 68.78654
32.456623 7.589264 70.20953
33.27962 57.07826 30.635536
34.936623 56.451256 32.08454
34.109623 49.073257 32.412544
32.708622 47.949257 33.967545
15.255622 32.92026 61.352535
15.179623 33.181263 63.449535
17.004623 29.512266 68.19953
15.814622 28.959265 69.54854
23.372623 41.414265 56.113537
23.481623 42.10526 58.237537
29.942623 42.28626 63.119537
30.227623 44.234264 63.51354
27.688623 28.221266 16.218536
25.758623 27.59426 17.40554
21.691624 24.36926 11.663536
23.560623 23.496262 11.612541
17.755623 26.368261 59.064537
18.975622 25.418264 60.76354
16.179623 20.519264 65.693535
14.029622 19.557266 65.73254
15.8726225 22.412262 59.04054
17.234623 20.858269 59.12454
13.116622 14.675262 60.209538
11.352623 15.052261 58.204536
11.955623 9.549263 51.948536
12.017623 9.645264 49.948536
17.289623 12.191261 44.566536
19.174623 11.784264 44.662537
4.5086226 49.126263 67.03554
6.1156225 47.30926 68.11653
4.3366227 48.76826 3.3315353
4.1456227 51.03326 3.8705368
17.143623 61.225258 69.17354
15.188622 61.628258 69.65854
9.331622 60.25726 2.7205353
10.225622 59.463257 4.5535355
35.58462 16.198257 7.7085342
33.40562 16.459259 8.57354
30.816624 13.0622635 10.150543
29.066624 11.258263 10.076538
8.793623 28.243261 69.28053
9.0236225 30.418264 68.970535
12.728622 33.041264 62.571537
11.364622 31.77226 60.635536
17.893623 54.90326 64.610535
19.575623 55.38826 66.12853
22.488623 55.67526 70.875534
23.319624 57.454258 71.65953
19.508623 49.60426 51.91454
20.852623 48.24026 52.900536
15.384623 42.94926 52.28354
14.061623 43.91126 50.79854
10.548622 53.20126 71.69953
9.9646225 51.19526 1.1355362
10.974623 55.517258 5.6315384
11.922623 54.67226 7.545532
15.295622 26.473265 71.16953
13.161622 26.976263 70.802536
12.438622 32.07526 1.5445328
14.116622 33.89226 1.0395355
24.488623 9.310265 66.553535
25.118624 8.098259 65.34254
28.776623 12.796265 61.04054
31.017624 12.188263 60.157536
39.51462 9.489265 57.549538
40.992622 11.20826 57.584538
37.37562 15.612259 51.960537
39.224625 16.238258 51.72854
34.23062 59.57126 69.56554
31.906624 59.366257 70.497536
31.530622 58.47226 61.754536
33.847622 58.55726 61.736538
18.043623 19.524261 8.645538
17.009623 21.428268 8.010536
10.706622 16.547264 6.4025345
10.601623 15.988258 8.582535
42.956623 50.66726 2.5105362
42.70962 50.08426 0.2585373
45.444622 53.78026 67.430534
44.177624 54.308258 65.54854
16.100622 60.79426 66.40854
13.986623 60.124256 67.567535
8.9646225 55.41826 66.43854
10.279623 54.04226 67.887535
12.346622 64.39926 48.228535
14.537622 64.99526 48.699535
14.887622 56.27726 50.468536
15.364622 56.82726 52.736538
30.886623 48.03626 57.470535
32.658623 49.176258 56.32554
37.981625 52.106262 58.184536
40.110622 52.227264 57.022537
3.5686226 40.277264 53.989536
5.839623 39.760258 53.15154
10.965623 43.75626 54.426537
13.017622 43.28526 53.744537
15.572622 30.239264 49.696537
15.235622 28.806265 51.473537
13.968622 26.49626 55.524536
13.346622 27.014265 57.204536
8.218622 27.535261 36.633537
7.7046227 29.553267 37.802536
9.343622 28.596266 45.63854
9.408623 30.747267 45.858536
12.301622 31.015265 46.275536
13.901623 31.156263 47.789536
17.258623 35.15626 53.525536
17.433622 33.234264 54.70654
43.770622 0.09426117 58.04754
42.544624 0.91625977 56.675537
36.519623 4.056259 55.646538
38.434624 4.7762604 55.663536
50.608624 65.94026 53.337536
50.40362 63.73726 52.271538
50.800625 59.512257 57.952538
0.6886215 58.048256 57.431538
9.874622 48.44826 65.275536
8.360622 47.59126 66.775536
14.664622 51.280262 71.32053
16.276623 49.861256 70.84154
35.989624 45.569263 1.4735336
37.121624 44.84226 72.206535
29.654623 47.482258 69.53454
29.964622 47.83926 67.17254
42.402622 45.483265 26.371536
40.921623 46.14626 25.745537
38.77162 45.972263 34.025543
37.721622 47.53426 34.650543
22.341623 36.246258 65.29453
24.704624 36.054264 65.653534
26.521624 31.562262 58.500538
27.219624 33.613262 57.815536
18.676622 52.566257 38.419537
17.892622 54.268257 39.723537
22.284624 58.263256 42.649536
23.421623 58.32126 45.427536
1.0826224 18.831268 71.50253
49.983624 18.957268 72.110535
45.455624 24.529264 72.262535
45.871624 26.923262 72.095535
6.057623 37.181263 66.65553
8.438622 36.996258 66.34154
13.344623 35.721264 63.259537
13.774622 37.69826 64.068535
31.478622 37.07726 43.769535
33.09962 36.900265 42.619537
38.828625 41.460262 45.281536
39.437622 43.60226 46.100536
11.752623 45.918262 61.224537
12.856623 44.14626 62.171535
8.776623 39.946262 66.41853
10.5896225 38.718258 66.721535
42.117622 63.97426 61.495537
43.261623 65.38026 63.480537
50.468624 66.43126 60.347538
51.219624 66.25226 57.86754
12.744622 45.690258 64.388535
13.459622 47.35226 65.87054
17.877623 47.68726 71.19054
19.149622 49.42326 70.00253
49.510624 39.169262 47.04154
51.107624 39.43926 48.268536
46.794624 42.529263 51.77654
45.641624 43.67326 52.737537
39.630623 53.54926 50.376537
38.435623 54.608257 52.190536
32.864624 56.25726 54.607536
33.930622 54.48826 55.774536
45.545624 10.773262 18.40554
43.538624 11.801262 18.57354
45.203625 17.354263 13.233543
46.856625 19.108269 13.707542
22.357624 33.39626 48.151535
22.859623 31.519262 49.537537
28.361624 27.894262 49.698536
28.826624 27.255262 51.691536
40.415623 0.46526337 62.487537
41.658623 68.437256 63.16654
47.474625 68.35826 59.05454
49.151623 0.7162628 58.753536
38.909622 2.8572617 47.531536
38.829624 4.910263 47.070538
37.06362 5.9602585 40.606537
36.14662 7.712265 41.018536
41.168625 40.02026 48.56954
39.198624 39.914265 47.222538
38.426624 34.860264 45.806538
36.845623 34.43526 44.786537
45.379623 35.428265 70.16853
47.115623 34.65926 71.707535
48.255623 36.22926 6.2975388
49.322624 35.16226 7.941536
29.533623 0.37026215 9.982536
27.695623 68.52326 9.447533
31.472624 2.2582626 3.866539
33.41862 2.384262 4.5955353
33.337624 69.50526 49.472538
34.442623 68.26926 50.091537
37.241623 65.57126 52.440536
36.777622 64.65526 54.72054
12.051622 31.714262 4.4945374
10.292623 30.41126 4.0575333
4.657623 34.57826 9.181534
5.2136226 33.112263 11.007538
35.41262 33.001263 48.344536
34.23762 31.528265 49.593536
37.048622 33.442265 56.792538
38.592625 34.39326 57.37454
31.704624 51.933266 19.273537
29.441624 51.640266 19.30854
27.054623 44.61526 18.881538
25.377623 43.36926 20.063538
19.115623 13.392265 32.036545
17.949623 12.403259 30.576538
21.780622 18.76226 26.577538
23.728622 18.61126 27.569542
30.648623 67.83826 67.25453
32.193623 68.71926 67.77154
31.572624 4.13826 0.988533
33.218624 4.4032593 2.8605347
30.251623 36.346264 52.60954
31.071623 34.93826 51.632538
31.086624 28.21626 50.42954
33.208622 28.472265 50.83954
49.390625 2.186264 49.443535
47.934624 3.8262634 51.118538
49.443623 5.553261 58.015537
50.381622 3.2102585 58.973537
23.568623 7.553261 54.628536
21.998623 6.2112656 54.285538
21.689623 1.3272629 58.724537
19.980623 69.29726 59.344536
44.670624 15.364258 69.206535
44.235622 13.80426 70.85754
36.488625 12.93026 71.95953
34.795624 13.24926 70.819534
47.872623 10.628265 65.42354
47.141624 8.233261 64.87953
48.42462 1.1782608 64.32453
49.795624 0.20126343 65.914536
45.77162 44.982258 55.75654
43.798622 45.75826 57.237537
42.345623 39.986263 61.93054
42.793625 37.37026 62.174538
21.105623 56.873257 37.389538
22.323624 55.30526 37.033535
25.136623 52.32526 43.543537
27.243624 52.00726 43.71454
6.5816226 30.659262 70.60153
8.252623 31.562262 71.50754
9.208623 26.071264 3.6035385
9.084622 24.490263 2.1315384
35.650623 65.48226 61.476536
34.151623 67.50426 61.094536
30.323624 69.38026 56.071537
31.719624 67.80826 55.17254
20.977623 60.66826 43.655537
22.586624 61.749256 45.11754
24.868624 65.11426 39.654537
26.115623 63.77826 38.059536
42.380623 1.1562653 69.87753
43.16062 0.87226105 67.859535
44.78562 7.809265 66.069534
44.001625 9.1872635 64.34953
36.675625 25.652266 66.27054
34.37762 26.82826 66.540535
32.36162 28.770262 1.6125336
31.643623 29.983267 0.36253357
22.929623 10.841263 60.177536
22.540623 10.009262 58.294537
14.153623 9.622261 60.19454
13.511622 9.295265 57.632538
29.296623 3.7812653 31.21054
28.665623 3.0262604 29.01754
22.572624 68.54026 27.71254
22.370623 67.79426 29.860542
41.275623 44.29626 43.349537
41.968624 46.234257 42.192535
39.050625 49.860256 48.340538
38.762623 48.818256 50.458538
15.065622 49.62926 22.451538
16.422623 48.00926 21.36354
14.922623 42.595264 18.369537
12.861623 42.07426 18.65554
21.575623 30.66226 36.577545
19.954622 29.964262 34.87954
21.431623 33.48026 27.792542
19.947622 35.260258 28.33754
25.029623 20.297264 67.625534
23.708624 22.176262 67.12953
22.825623 26.179266 0.056533813
21.889624 27.852262 71.72353
36.523624 16.297264 19.481537
35.373623 18.02826 18.783539
38.062622 24.445265 18.033539
37.332623 26.306265 19.202538
20.669622 38.982258 42.989536
22.262623 38.456264 45.004536
20.425623 35.333263 51.405537
20.388622 33.459263 50.297535
23.644623 44.44926 56.556538
21.606623 43.999264 55.497536
17.365623 50.025257 58.919537
17.595623 51.765266 57.537537
6.5316234 3.6252594 56.955536
6.5956225 2.3102646 55.079536
1.8856238 5.422264 50.544537
1.9916228 3.8802643 48.578537
13.458622 11.254265 63.241535
14.006622 12.981262 64.22954
18.964622 16.122261 58.098537
17.204622 15.956261 56.293537
23.783623 2.7182617 70.63554
23.356623 2.4442596 0.3175354
25.443623 9.491264 71.97353
27.270624 9.337265 70.750534
45.719624 65.74126 53.58254
43.814625 66.29726 55.031536
40.925625 1.584259 49.502537
38.94562 2.9272614 50.340538
26.009623 58.894257 44.755535
27.261623 60.22926 46.491535
24.719624 64.21326 51.841537
23.153624 62.36326 51.710537
19.907623 57.275257 63.982536
20.431623 57.770256 61.649536
20.593624 51.240257 58.071537
19.682623 49.91126 60.28354
16.361622 38.362263 43.400536
14.425622 37.262264 44.664536
16.393621 40.458263 51.008537
14.143622 40.818264 50.64454
40.412624 43.112263 69.68954
39.99362 41.474262 68.36253
33.837624 42.23026 65.04653
33.511623 43.528263 63.046535
15.430622 21.386269 39.459538
17.051622 20.723267 41.66654
14.592623 21.708267 48.434536
14.708622 23.161263 50.053535
10.029623 14.905258 2.927536
11.095623 13.204262 1.4605331
16.985622 17.620262 71.62054
16.567621 18.494263 69.580536
33.51462 1.6542587 63.264538
32.219624 0.47425842 61.343536
26.444624 65.53026 64.71654
24.725624 66.80626 64.00553
15.318623 65.15426 60.27054
17.463623 66.77526 59.198536
21.637623 63.991257 52.891537
23.473623 65.00426 54.31254
32.283623 67.77226 51.400536
31.077623 66.45426 52.953537
30.376623 62.43826 45.33254
32.569622 62.714256 44.876537
18.486624 59.49526 46.951538
18.604622 60.218258 44.648537
11.563622 60.54426 44.616535
10.881622 58.540257 43.750538
14.283623 42.67526 57.816536
12.8986225 44.49426 56.613537
12.204622 49.080257 59.128536
12.222623 51.35326 59.31954
49.80662 37.79926 28.140541
0.5136223 38.31126 28.025543
48.946625 44.57426 31.297539
50.659622 45.848263 31.330544
21.579624 27.49526 57.23554
20.105623 27.813261 58.877537
14.666622 30.681265 58.17254
13.8656225 31.025267 60.274536
32.520622 34.694263 27.265541
34.93862 35.18626 26.71354
37.245625 28.126265 22.400543
39.554623 28.49526 23.255539
27.889624 39.99226 1.0515366
27.783623 37.667263 1.2805328
24.770624 35.06026 68.39153
22.554623 33.876263 67.80054
40.60462 11.356262 60.614536
39.404625 9.313263 60.182537
38.855625 2.070259 63.496536
39.789623 1.924263 64.95454
4.0356226 8.808266 33.26754
5.6596227 9.520264 34.053543
4.6786227 4.3242645 39.825535
6.5306225 4.5712585 41.520535
11.230622 61.462257 62.717537
9.547623 60.08326 62.273537
7.2646227 53.156258 59.69354
8.774623 52.14126 58.831535
29.974623 57.359257 52.764538
31.201624 57.992256 50.750538
37.270622 61.92326 53.719536
38.721622 63.09826 52.17354
10.748623 10.08326 19.11454
12.138622 8.223259 19.765541
10.575623 1.9232635 19.494537
9.261622 1.5992584 20.548538
22.425623 0.8332596 48.514538
22.622623 2.0502625 46.611538
15.841622 4.5122604 50.127537
16.339622 5.9652634 51.83254
9.008622 64.75026 67.47553
10.334622 66.72426 68.30653
14.216622 68.88526 61.934536
14.632623 68.14026 59.946537
36.423622 52.732258 45.501537
36.603622 54.04426 46.904537
33.21662 59.09726 45.120537
34.78062 61.101257 45.220535
22.255623 55.62426 1.1145325
23.256624 55.35826 3.0875397
27.064623 47.95026 0.8875351
25.856623 46.627262 2.3085327
15.744622 57.290257 42.475536
15.117622 55.08326 42.486538
17.165623 50.614258 41.80454
14.830623 49.151257 41.480537
4.1916227 7.769264 60.326538
5.9946227 9.280266 60.322536
12.816623 7.170265 60.61054
12.491622 6.7182617 58.308537
12.726623 10.674263 17.304543
13.397622 12.372261 18.193542
10.992622 15.81826 11.384537
11.303622 14.022263 10.272537
9.620623 6.2842636 69.262535
11.065622 8.042259 69.122536
10.0306225 11.56826 3.4985352
8.461622 12.615265 3.4565353
9.861623 45.416264 65.35554
9.633622 46.75626 63.257538
3.6306226 47.126263 65.77953
1.3296226 47.594257 65.95354
50.823624 8.42926 50.090538
49.308624 8.2252655 51.67954
4.132622 7.5022583 57.347538
4.6686206 5.9612656 58.400536
47.602623 5.1922607 27.286537
46.023624 6.4462585 25.78154
47.801624 13.840263 27.329536
46.360622 14.315262 25.455544
18.296623 8.803261 34.385544
18.526623 8.903259 36.732544
12.992622 10.141266 41.88654
13.770622 11.297264 43.38854
50.502625 6.3422623 60.543537
0.9806212 7.695259 61.295536
5.665622 6.5402603 66.71153
4.144623 5.7082596 68.75453
31.302624 47.82326 53.911537
29.645624 47.01826 53.702538
26.293623 45.65626 46.428535
28.800623 45.541264 45.955536
44.55662 45.90826 28.43554
45.232624 47.70326 29.442543
47.02862 52.90326 25.819542
47.752625 54.49926 26.93554
1.310623 13.061264 33.89054
2.810623 13.273262 32.30654
49.791622 13.861259 25.453537
50.380623 15.403259 24.26654
1.817623 63.034256 41.014538
0.8846245 62.301258 38.901543
7.0176234 65.60226 36.22854
7.1076236 67.75226 35.386543
1.6756225 4.178261 3.3565369
3.6556225 2.7522583 3.4385376
8.300622 2.9672623 70.38254
10.553622 3.9812622 70.93353
14.9976225 53.005264 40.750538
15.658623 51.563263 39.475536
11.2146225 45.58626 38.20054
9.255623 46.10226 37.638542
21.284624 63.66826 2.4445343
21.805624 61.45126 3.0015335
23.536623 63.977257 10.186539
24.796623 65.46826 11.139542
23.181623 41.19826 64.32554
21.585623 41.718258 63.15954
23.622623 49.305256 61.00654
22.774624 49.67326 58.446537
11.611623 34.496258 9.451538
13.026623 34.888264 10.922539
17.150623 32.774258 13.064537
17.953623 33.274258 15.215538
14.495623 32.73926 13.203537
14.848622 33.982258 15.553543
9.541622 36.042263 20.164543
9.310622 35.75626 22.261543
20.992622 16.47226 52.036537
22.323624 14.751259 50.962536
21.742622 11.330261 44.77754
23.719624 11.451263 42.456535
44.586624 17.425262 60.058537
46.767624 18.170258 59.18054
42.75762 16.608261 52.773537
43.122623 19.235268 52.265537
22.002623 10.737259 55.863537
21.561623 9.334259 54.093536
23.313623 9.164261 48.046535
22.480623 6.6022644 47.782536
4.281623 63.96026 47.019535
6.0746226 65.35126 47.218536
11.607622 68.04126 50.551537
13.093622 66.34426 50.451538
11.801622 55.016266 51.597538
9.554623 54.251266 52.606537
12.909622 46.432262 50.607536
11.811623 44.80026 51.840538
39.786625 44.67126 48.536537
41.540623 44.53626 47.650536
47.269623 48.820263 49.30554
46.576622 51.19926 49.379536
49.335625 43.75526 57.028538
50.405624 42.290264 58.359535
49.919624 37.998264 62.076538
50.914623 37.79626 63.995537
3.251621 44.16126 50.017536
4.627624 45.34126 48.330536
4.674621 40.43626 43.667538
4.9286227 40.167263 41.497536
0.4606247 47.59226 58.660538
1.0136222 46.789257 60.828537
2.501621 39.430264 63.50654
1.1106223 38.135258 61.494537
34.392624 49.18426 46.675537
34.929623 46.86626 47.539536
38.27162 47.279263 52.653538
38.454624 48.31026 54.60354
2.5576246 29.540266 56.695538
1.9816245 30.118261 58.602535
1.579624 27.029264 64.74354
2.8926237 25.567266 66.24254
17.892622 29.96826 46.56954
19.901623 30.632261 46.484535
23.041624 31.78726 40.618538
22.641623 30.336264 38.896538
17.039623 26.042265 36.273544
16.289621 27.769262 34.273544
15.027622 28.50826 27.19654
16.631622 27.420263 26.297539
25.712624 44.99126 52.919537
24.424623 43.25426 54.17954
18.767622 39.35326 53.74854
19.737623 38.222263 55.425537
47.369625 6.615265 29.521538
44.983624 6.2882614 30.284538
42.008625 6.1922607 36.776543
44.044624 6.337265 38.068542
18.450623 55.09926 25.301537
17.215622 55.20226 23.784538
11.226623 50.116257 23.943542
9.699622 51.574257 25.064537
11.804623 61.54826 60.058537
10.598622 62.71626 58.14554
9.266623 68.87726 54.662537
11.245623 69.29226 53.112537
6.4816227 37.69826 51.247536
6.6096225 36.40726 53.635536
3.9286225 30.923262 48.959538
2.5536227 31.108267 47.793537
45.638622 32.86526 62.17354
47.095623 35.08726 63.309536
42.123623 36.848263 64.706535
42.266624 39.220264 64.67053
45.38962 55.490257 48.970535
45.001625 53.482258 48.692535
38.640625 51.29326 46.00654
38.040623 50.61126 43.803535
4.012623 34.954258 21.842537
5.6076226 36.66026 21.330544
10.248623 40.330257 26.790543
8.779623 39.81326 29.162537
39.905624 34.89726 41.56154
39.311623 33.17026 43.36754
42.677624 27.418264 45.736538
41.281624 27.659262 47.169537
2.3316228 41.35126 38.275536
0.18762207 40.96126 38.227535
49.94562 48.87026 41.149536
49.855625 48.446262 43.29854
42.483624 25.368261 29.513542
40.907623 24.796263 31.135544
42.379623 27.478262 37.844543
44.347622 27.877264 37.677544
12.118623 64.66426 19.360542
13.775622 66.07726 18.694542
15.749622 68.53526 26.566544
16.581621 0.9172592 26.414543
44.961624 61.867256 36.326538
45.671623 59.27126 36.04854
40.513622 56.450256 30.830544
38.023624 56.742256 30.289543
4.0736227 54.44526 52.965538
5.2006226 54.99926 54.500538
11.021623 56.33526 53.973537
13.028623 57.388256 54.038536
27.890623 15.418259 27.46054
26.646624 14.771263 28.87954
28.302624 6.563263 29.289543
29.563623 7.1002655 31.204544
40.519623 39.12826 69.34054
41.076622 39.807262 71.34154
44.640625 45.13226 2.052536
45.05662 46.38426 0.2605362
47.068623 36.64426 49.497536
48.86162 35.026264 49.661537
44.946625 30.234266 53.563538
42.914623 30.262266 54.337536
46.871624 8.557259 46.264538
46.221622 10.395264 45.372536
40.090622 15.446259 47.068535
40.562622 15.3122635 49.478535
39.722622 42.359264 29.859543
38.50062 40.470264 30.64254
37.088623 44.92126 24.985542
35.296623 45.48026 23.888542
3.6356237 12.535263 42.773537
3.0366209 11.297264 40.584538
3.647621 3.9132614 45.102535
4.898624 3.650261 43.245537
32.770622 14.316261 60.590538
31.429623 14.595261 61.699535
31.081623 11.56926 68.486534
29.630623 9.868263 69.39554
2.7486227 58.338257 49.945538
3.5576224 60.19626 49.129536
10.151623 55.865257 49.607536
11.332623 55.108257 48.533535
13.869622 60.59126 25.524536
11.427623 60.573257 25.092537
11.192622 55.41726 22.970543
9.414622 53.899258 23.732536
33.61362 67.02726 48.015537
34.43262 67.01426 46.06954
41.881622 68.20226 47.606537
43.547623 67.07926 48.726536
22.301622 18.854263 46.017536
24.676622 19.616264 45.559536
27.790623 14.649261 49.130535
27.597624 12.714264 50.239536
6.814623 28.910261 46.898537
5.0556226 30.150267 46.535538
4.912623 32.47726 40.154537
4.190623 34.150265 41.324535
21.672623 25.409262 47.41654
22.454624 27.669264 46.84654
25.389624 30.860266 41.357536
26.925623 29.02426 40.29854
47.21662 30.250265 13.341537
48.645622 31.100264 11.287537
50.547623 25.804266 15.159538
50.262623 26.56426 17.442543
19.346622 1.9182587 26.72554
18.065622 4.0262604 26.552536
20.211622 8.3502655 32.485542
19.955624 10.72126 31.72554
46.615623 58.651257 50.552536
44.963623 59.73726 51.40154
46.478622 55.83526 59.19454
45.107624 54.23026 59.440536
33.718624 16.295258 50.830536
35.143623 14.320259 50.987537
37.810623 8.8122635 50.101536
39.172623 10.553261 50.32554
35.333622 20.973267 54.766537
34.02962 19.255264 55.036537
34.80162 14.0622635 58.420536
33.69662 12.081261 58.865536
29.078623 38.677258 63.546535
29.167624 38.33826 61.36054
22.642624 39.74526 61.15254
20.557623 40.070263 61.288536
47.598625 50.016262 40.80254
47.891624 49.609257 38.60354
40.937622 49.56026 36.840538
40.081623 51.563263 35.33954
30.167624 39.82526 53.982536
31.980623 38.788258 54.427536
38.621624 41.39826 52.142536
37.798622 41.62026 54.67154
19.018623 52.545265 23.81054
19.598623 51.319256 25.901543
13.282622 47.107258 26.89254
11.241623 47.735256 26.871536
14.544622 4.1792603 17.56054
12.965622 4.6052628 15.971542
7.2646227 5.745262 15.079536
6.4236226 5.303261 13.094543
25.926622 12.158264 70.71654
27.500624 13.616264 0.0035324097
31.617622 18.01226 68.125534
32.91862 17.586258 66.39454
30.236624 36.71226 41.18054
28.261623 36.329258 42.515537
25.264624 42.432262 43.580536
25.916624 44.32226 43.901535
3.053623 7.891266 49.947536
3.7006223 6.2582626 48.347538
49.193623 9.567261 48.153538
48.165623 11.13826 47.340538
43.894623 14.586258 38.559536
45.519623 13.724258 40.038536
45.289623 7.2432632 40.449535
43.930622 6.0582657 42.258537
13.968622 9.865265 3.3735352
13.6156225 7.7362595 3.1825333
14.789622 4.4392624 68.59953
13.416622 5.120262 66.60153
22.894623 60.260258 56.164536
22.965624 60.41726 53.597538
27.241623 58.469257 48.609535
29.804623 59.447258 48.948536
2.5116231 62.895256 63.815536
1.9836234 60.83526 64.208534
0.6506233 63.482258 71.35253
50.373623 64.01726 0.7665329
24.449623 61.91626 65.77154
23.787622 63.963257 64.68654
23.392624 0.8492584 65.78454
23.889624 0.96926117 67.85053
25.086624 9.843262 59.115536
25.889624 9.557259 57.267536
24.548624 14.90226 52.420536
23.331623 16.584259 53.038536
36.37062 43.82726 5.776535
37.166622 42.608265 4.4455338
32.803623 37.750263 2.1125336
33.673622 35.834263 0.7885361
22.754623 35.122265 50.28454
24.146624 34.002262 52.36754
29.601624 37.401264 55.132538
29.425623 36.58926 57.43654
17.288622 18.173264 40.431538
18.723623 19.751266 39.06254
20.395622 14.702263 33.899544
21.255623 15.918259 32.12954
35.739624 18.218262 9.6265335
36.602623 16.649261 11.17054
41.856625 12.43026 9.625534
43.883625 12.565262 10.714539
28.857624 23.508263 4.146538
28.258623 22.333267 5.9545364
27.352623 28.722265 11.390541
25.283623 28.714262 11.328537
34.940624 6.2292633 70.49554
34.26562 5.6632614 68.12154
34.546623 69.04626 64.304535
35.975624 68.87326 62.81854
29.757624 51.08926 58.987537
28.123623 51.968258 60.730537
30.091623 52.86226 64.97653
28.446623 52.97126 66.62953
49.259624 66.84326 15.618538
49.509624 66.92726 17.595543
4.681621 68.94926 20.85154
6.6996226 0.9602585 20.425537
4.0426226 68.20726 2.2655334
5.756623 67.03126 1.5095367
11.047623 3.695259 4.616539
10.662622 3.8352585 6.748535
11.072622 55.775257 2.986534
12.561623 57.062256 4.024536
19.287622 60.676258 2.8985367
20.273623 59.546257 0.9635391
13.893622 16.95826 65.48154
16.563622 17.507263 65.750534
19.859623 20.037262 59.585537
22.247623 20.353264 59.404537
9.043623 22.543266 3.9905396
10.0566225 24.153267 5.696533
9.962623 21.324265 12.796539
8.712623 19.986267 13.590538
30.621624 35.845264 46.434536
30.061623 35.09126 44.516537
25.672623 35.719257 43.473537
24.032623 35.669262 42.118538
19.364622 30.904264 68.73953
18.794622 31.174261 66.78754
21.007624 27.043264 62.06854
22.476624 27.729261 60.309536
46.210625 11.469261 54.042538
46.533623 13.612259 55.170536
0.108623505 15.774261 51.42254
1.9126242 14.345261 51.61054
21.743624 50.75626 50.72054
22.720623 51.42326 48.793537
27.843624 55.88826 51.948536
29.224623 53.85426 53.071537
37.325623 61.742256 42.794537
36.371624 63.159256 44.789536
43.137623 61.990257 49.99954
42.692623 63.593258 51.29654
37.18862 57.652256 35.248543
38.090622 56.08326 36.166542
38.106625 50.04326 36.10054
38.085625 48.31326 37.039543
40.185623 41.38326 55.734535
