15.1790085 20.466597 93.61952
23.766006 29.172598 93.63152
23.383003 31.146597 92.46953
74.479004 8.4475975 7.8595276
73.935005 6.7565994 9.885529
74.728004 0.23759842 106.251526
74.348 45.839596 0.72052765
52.29701 23.821598 71.95152
53.957005 22.727596 69.92452
55.93501 13.246597 68.23252
56.84901 11.669598 68.83352
72.669 38.340595 38.44852
73.084 40.472595 39.093517
79.44901 40.679596 27.616522
80.16001 38.740597 29.069525
81.146 22.871597 79.18952
80.79801 24.257597 77.77852
80.879005 36.141598 87.209526
82.17701 37.752598 86.557526
20.621002 11.819599 39.64252
18.971008 11.6446 41.04352
31.726006 16.892595 45.93253
33.003006 14.477596 44.854527
67.395004 45.9186 95.016525
67.576004 44.051598 93.115524
58.648006 40.537598 82.338524
58.360004 42.1546 81.001526
52.457005 27.241598 43.028522
52.264004 28.674597 44.66753
45.26901 33.085598 55.07053
44.429005 31.073597 56.623524
39.31601 6.0815964 60.25852
40.50101 5.6175995 62.73152
33.031006 1.3246002 71.141525
34.376007 0.037597656 72.170525
58.382008 39.474598 46.149525
57.287006 41.261597 46.62853
67.497 44.247597 56.64452
66.380005 43.881596 58.477528
89.726006 31.143597 102.07752
87.941 29.740597 101.168526
86.143005 36.2926 96.21452
87.82 37.3076 94.65952
65.596 4.1285973 33.594517
68.017 4.000599 32.912518
77.93101 0.8246002 31.86852
78.323006 2.3275986 29.977522
63.46301 26.546597 63.82052
61.193005 27.881598 63.99552
52.027004 19.336597 68.07752
51.33801 20.937597 67.113525
13.186005 19.783598 54.371525
12.185005 20.067595 56.235523
22.453003 11.113598 63.920525
23.318008 9.798599 62.48352
49.18301 17.006598 82.767525
50.229008 16.888597 80.74552
54.861004 11.6796 71.14652
54.148006 13.982597 70.29752
78.314 24.241596 37.439518
76.906 22.668598 36.12952
69.026 20.604597 29.250525
67.518005 21.892597 29.95452
71.206 29.157597 87.50652
72.129005 26.737597 87.53352
80.327 22.579597 87.350525
81.44001 21.036598 86.94253
37.484 12.762596 105.892525
38.082 13.496597 103.71652
32.126007 20.538595 4.7345276
30.929 21.973598 5.192528
82.00001 34.441597 68.07852
81.937004 33.955597 70.254524
82.906 43.3896 63.59052
81.544 42.9186 61.42252
31.261002 29.998598 87.446526
30.312004 29.385597 89.37052
38.421005 40.191597 92.91653
39.735 38.443596 92.405525
40.30601 29.743597 100.01152
42.048008 30.218597 98.99352
34.051003 40.229595 105.15952
36.344 40.662598 105.54153
25.178001 17.450598 63.43552
24.697006 16.159597 61.10152
33.241005 19.502596 65.643524
35.319 20.019598 66.19252
28.939003 20.187597 41.53252
28.207 19.553596 43.289524
21.872002 29.379597 44.926517
24.254005 29.826597 45.550526
87.64301 46.885597 68.85852
87.20901 46.152596 70.97852
80.23 43.318596 80.51453
78.948006 41.423595 80.53452
26.238007 44.754597 106.03752
28.759003 44.692596 105.58253
37.317 9.0915985 105.69052
37.164 9.499599 1.3775253
75.626 34.863598 30.98152
77.70701 34.767597 31.353521
84.06401 28.052597 41.79452
85.94001 26.916597 41.22852
72.183 29.528597 95.086525
74.329 29.879597 96.404526
73.299 16.243597 93.78552
72.608 14.870597 91.88753
70.731 39.1956 79.197525
69.963005 37.122597 78.27652
68.302 31.425598 69.00952
68.37 34.024597 68.10552
1.7680054 44.332596 22.848524
3.0850067 43.158596 21.503525
88.46001 42.128597 9.537529
90.333 40.860596 7.942528
13.317009 30.871597 37.36552
14.1790085 31.515598 39.90552
11.939003 30.250597 52.584522
9.928009 31.412598 52.302525
39.513 43.0436 78.447525
41.165005 42.576595 77.52352
47.342007 35.044598 75.22952
46.68301 34.4866 73.058525
34.801003 11.380596 105.281525
36.135002 11.022598 103.92852
38.815002 22.021599 100.337524
41.14301 21.990597 100.11852
62.637005 24.555597 16.380524
63.818005 25.979597 16.669525
71.483 29.935598 13.198524
70.909004 27.637598 12.358528
77.305 40.533596 23.024519
78.948006 42.441597 23.20452
74.194 38.614597 30.873518
72.675 38.670597 32.374523
59.604008 24.990597 31.504522
57.807003 23.9996 30.531523
61.54601 10.6936 25.80052
63.746006 10.205597 24.900518
56.94801 19.603598 83.463524
55.43601 20.608597 82.38352
53.21101 15.531597 72.54052
51.48901 16.395597 71.613525
66.692 45.871597 18.439522
68.302 46.447598 19.877525
70.229004 36.978596 30.839521
72.19 36.5496 30.84252
41.859005 26.556597 8.349525
41.02901 25.436598 6.3475266
31.100006 33.644596 6.3655243
29.29 34.741596 7.0575256
38.864014 36.399597 10.035522
37.817 35.7226 8.445526
26.050003 34.5486 8.983528
23.664001 33.851597 9.9225235
67.206 7.236599 61.32253
67.919 5.1525993 61.635517
69.310005 46.728596 57.91753
67.921005 47.0436 56.302525
88.875 22.254597 88.74652
90.217 23.111599 86.92352
88.371 13.301598 77.41552
88.86 11.238598 77.57052
67.214005 32.947598 106.266525
67.995 31.221598 0.9985275
72.285 35.211597 10.941528
72.686005 37.1326 10.163528
33.956 12.6516 24.86852
32.315002 10.838596 24.294523
32.783005 46.981598 19.086525
30.626007 0.13459778 19.414528
20.528008 3.097599 46.857517
19.571007 0.78759766 46.456516
14.832008 7.1625977 53.10352
13.122009 6.057598 53.04352
53.41701 28.745598 65.10952
55.789005 28.771597 65.33253
49.39201 32.316597 58.18253
49.38101 34.324596 57.317524
25.786003 37.269596 91.24152
24.364006 35.8006 89.72952
25.945007 45.1546 95.66352
23.270004 45.430595 95.448524
53.203007 3.0335999 52.46352
52.609005 0.7406006 52.595524
62.315006 41.337597 47.71253
62.000004 40.7866 45.483524
25.370003 5.005596 13.916527
24.376007 6.5775986 13.447525
22.615005 4.710598 106.19353
24.497002 5.9165993 106.279526
51.76701 35.127598 55.914524
51.913006 35.905598 57.68352
50.15601 47.222595 63.03752
47.594006 47.170597 62.64852
83.142006 2.4216003 106.015526
82.857 0.38059998 1.022522
89.231 37.074596 101.98553
0.36200714 38.652596 102.960526
63.499004 24.305597 47.35352
64.216 25.755598 45.93453
76.863 26.007597 42.885517
78.728004 25.954597 43.862522
14.734001 34.162598 16.725525
14.218002 36.259598 17.748528
11.363007 27.288597 28.654524
11.114006 29.501598 29.486525
6.3020096 47.559597 35.46252
5.1340103 0.62859726 37.148518
88.827 40.110596 46.27152
87.554 39.977596 44.177525
54.997005 24.762596 104.85652
56.20901 24.602596 102.72253
51.93601 11.391598 1.1905289
54.067005 9.855598 0.89852905
57.147007 5.6675987 77.81352
58.448 4.677601 76.95352
70.995 5.858597 79.63953
71.516 4.453598 81.337524
3.979004 29.700598 52.56052
2.2230072 28.660597 51.343525
9.672005 18.775597 57.373524
9.654007 17.539597 55.64652
63.626003 31.054598 25.740522
64.758 30.871597 28.038519
61.201008 38.415596 32.427517
60.663006 40.537598 33.373516
89.203 8.313599 81.198524
89.401 9.717598 82.90152
10.556007 15.990596 76.962524
11.66201 17.695597 77.99152
52.45901 39.380596 10.783524
54.486004 38.115597 10.942528
62.979008 41.988598 7.3305283
63.292004 41.497597 9.228523
26.0 33.450596 90.558525
23.981003 32.422596 90.25552
16.223007 22.820597 89.18053
16.098007 22.037598 87.33153
55.027004 45.721596 22.014524
54.166004 47.506596 20.753525
61.906002 6.5235977 20.76152
63.44901 8.021599 19.463524
25.095001 27.093597 20.815521
25.458008 25.105597 20.379524
15.489006 28.844597 27.797522
14.592003 28.221598 29.584524
46.493008 30.859598 82.37452
45.637005 31.883596 84.254524
54.51501 41.649597 81.91753
56.020008 41.166595 80.28952
36.664 42.783596 45.660526
35.380005 44.769596 46.050526
22.635002 45.0296 41.289516
22.277008 46.540596 42.357517
24.748001 16.932598 80.54952
22.574005 17.737597 81.267525
32.684006 22.609598 83.91152
32.335007 23.589598 85.931526
61.717007 6.849598 35.10252
62.716007 5.2065964 34.15552
57.842007 40.913597 33.50752
55.86201 41.1616 34.998516
8.173004 37.763596 79.877525
9.31501 39.7726 79.68952
8.91201 3.8045998 73.89452
9.292007 4.4496 75.57552
29.050003 8.130596 96.06152
29.307007 9.5196 97.80453
21.800003 9.827599 101.20452
21.092003 8.445599 102.906525
40.694004 42.110596 104.59052
38.889008 39.927597 104.92352
44.369007 39.4326 9.853523
44.580006 39.8766 12.283524
25.451004 40.974598 98.87252
26.182007 40.650597 97.20052
40.024006 39.7096 102.45652
42.426006 39.953598 101.70753
42.97301 34.367596 17.490524
45.134007 35.082596 18.45353
46.527004 44.717598 27.237524
45.79501 43.610596 24.865522
89.465004 39.762596 26.948523
88.878006 37.412598 27.155523
78.651 41.357597 19.651527
77.11201 40.0846 20.324524
80.565 17.539595 88.128525
82.323006 16.173597 87.19052
83.386 15.333599 91.864525
82.41801 14.265598 89.85853
49.208004 4.3435974 7.3665237
46.90501 3.250599 7.2575226
40.96201 6.559597 104.71452
40.636005 6.1935997 102.349525
15.129005 36.986595 85.961525
17.200005 37.441597 86.31953
20.890007 1.347599 84.240524
23.616005 1.1205978 84.14452
24.329002 33.731598 53.54552
22.545006 34.371597 54.630527
22.856003 32.530598 43.83852
24.518005 33.6946 43.126522
8.216003 44.158596 22.931524
6.866005 45.386597 24.659521
13.374008 34.124596 31.163519
15.845001 33.954597 31.38352
64.817 22.323597 80.559525
62.986004 22.373598 81.807526
65.522 20.590597 76.04152
67.018005 19.156597 75.70752
59.396008 30.622597 42.65552
60.000004 30.725597 45.11652
63.328007 28.438597 43.06152
64.060005 26.079597 43.237522
62.364002 11.351597 102.27352
64.36 12.035599 102.74953
70.008 46.936596 104.10852
69.524 44.6396 105.185524
68.077 6.576599 88.253525
67.464005 8.349598 89.07552
64.919 19.632597 91.73252
66.926 20.828598 91.47053
51.98901 43.104595 1.8145218
52.331005 41.0506 2.3455276
55.97301 27.184597 103.28852
56.83501 27.333597 101.37553
24.836006 46.592598 13.167526
23.831001 1.2115974 13.605522
16.412003 37.095596 16.710526
17.380005 34.8276 17.486526
4.333008 26.304598 1.3215256
4.668007 23.830597 1.3685226
13.779007 20.631598 98.38252
15.079002 21.569597 97.16252
47.73701 30.312597 59.47452
46.387005 31.336597 58.59653
47.582005 45.288597 57.71552
45.65601 46.3766 57.860523
53.55801 15.550598 53.58353
55.233006 13.880596 52.357517
48.772007 20.870598 48.68752
46.58401 19.963594 48.886524
17.618004 1.592598 71.43152
16.289001 3.3695984 72.407524
28.867004 9.816597 74.18752
27.394005 11.274597 74.93752
60.345005 38.4106 43.984516
61.905003 36.149597 43.995518
68.105 40.524597 32.46252
66.199005 39.644596 31.928518
76.306 23.231598 40.875523
74.294 22.979597 39.01852
65.094 23.089598 34.15652
62.88101 23.389597 33.06252
63.72601 10.352596 16.567528
65.095 10.248596 18.355522
63.348003 24.081596 20.547523
64.525 24.4376 18.556526
17.524002 41.233597 66.710526
17.308006 40.213596 68.75152
19.606003 32.7856 73.029526
21.802002 33.2866 72.907524
85.953 27.473597 84.378525
87.30801 26.952597 86.17853
0.6790085 20.536598 92.823524
2.34301 19.480597 91.30553
13.139008 42.622597 15.600525
13.056007 40.250595 15.952522
18.817001 35.332596 27.46652
17.299004 33.387596 27.546522
71.149 15.9805975 40.120518
70.632 17.310595 37.970516
73.090004 16.702597 27.863523
71.243004 17.411596 28.698523
64.624 26.758596 68.68652
65.832 25.493597 69.81252
78.68301 32.260597 69.94452
78.588005 34.330597 69.91652
10.945007 33.4326 57.093525
10.119003 31.962597 55.061527
12.63501 22.706598 54.653522
14.268005 23.141598 56.29952
87.16 21.905598 106.12052
84.87601 20.407595 106.38252
0.26400757 9.433598 1.8705292
2.2160034 7.611599 1.749527
49.81101 4.3106003 56.17252
49.313007 6.2215996 54.39452
51.56001 42.727596 47.84952
53.776005 43.7786 48.274525
54.96301 10.576599 67.141525
53.787006 13.0406 66.63953
53.95901 20.7286 57.79453
53.79301 19.859594 55.717518
81.843 31.513597 26.499525
83.298004 30.006598 26.09052
85.401 30.985598 12.254524
83.426 29.876598 11.183525
26.733002 8.809597 17.975525
26.849007 10.579597 18.783524
20.874008 12.925598 23.385519
22.278008 13.805599 24.838522
59.858006 16.432596 52.47852
60.152004 14.827599 51.09952
54.21301 10.9475975 42.86852
52.87601 11.692596 44.48653
28.690002 28.986597 86.84453
27.843002 28.347597 88.89752
23.042007 32.906597 86.112526
21.273003 34.6266 86.626526
2.2280045 38.106598 74.27652
0.7210083 39.655598 74.737526
82.914 40.0146 85.365524
82.30801 40.622597 87.14652
71.169 36.6606 67.974525
68.804 37.207596 67.68652
65.735 45.995598 59.88752
63.849003 47.423595 59.24152
34.662003 31.552597 60.56752
32.762 32.332596 59.82252
26.314003 35.9806 69.94352
26.558006 37.745598 71.20652
71.942 43.203598 44.046528
72.911 41.769596 43.192516
69.41 39.930595 57.498524
68.494 41.601597 57.498524
31.887001 13.640598 20.495522
32.366005 15.9545965 20.530525
19.634003 16.860598 14.541527
18.906006 14.608597 13.341522
40.32201 24.254597 101.83052
38.770004 25.959597 102.63052
29.202003 24.113598 5.155525
27.737007 23.373598 3.784523
53.731007 46.467598 27.04952
51.61401 0.35759735 26.23152
48.291004 6.597599 36.584522
46.58901 5.6405983 38.039516
42.09901 26.543596 14.692528
43.315006 25.168596 13.232529
56.54301 20.518597 11.532524
57.62901 21.534597 12.942528
70.155 18.414595 59.469517
67.943 17.884596 59.36852
56.53301 19.555597 58.675526
55.091007 17.994596 57.22153
9.402008 2.6495972 106.29752
9.060005 0.47159958 0.056526184
7.2560043 3.1485977 14.964523
6.005005 1.2315979 16.082527
30.397003 3.8596 62.03052
31.314003 5.4425964 60.729527
36.788002 14.5826 63.666527
38.129013 15.841598 63.813522
26.333 3.3125992 28.429525
24.846008 5.1726 28.14752
36.051003 4.420597 30.298521
35.93 2.2945976 32.20252
25.453003 38.145596 14.927528
25.270004 38.7376 12.761528
17.655006 46.5426 6.133522
16.399002 47.642597 4.4845276
8.237007 34.969597 79.43652
5.989006 33.921597 78.237526
3.5510101 20.465597 74.11852
4.5090103 20.101597 75.793526
61.835003 9.066597 73.81852
60.933002 10.706596 75.31152
68.053 20.386595 69.13852
69.174 19.585596 70.68152
13.6530075 18.207598 42.17152
11.389008 19.516598 42.46552
10.52301 27.178596 52.979527
9.600006 29.215597 53.55852
36.716003 40.0846 51.035526
37.354004 40.700596 49.104527
31.478004 35.0086 39.50852
30.584007 37.344597 38.747517
31.035004 16.510595 5.0895233
32.852005 15.902598 4.143524
27.783005 19.983595 8.345528
27.232002 22.046597 7.798523
30.901001 4.0165977 89.68952
31.201004 5.9595985 90.406525
26.272003 17.580595 82.74752
27.5 19.200598 81.81352
3.7560043 39.114597 100.81352
5.9080048 39.250595 100.848526
10.03801 40.456596 91.50552
10.761009 39.187595 90.42953
71.673004 44.149597 3.449524
73.62 44.576595 3.4885254
81.29601 33.553596 6.9645233
80.83701 32.233597 5.013527
56.066006 26.487597 85.91352
54.787006 28.243597 86.907524
53.39301 40.037598 87.975525
52.483006 40.9386 90.044525
79.105 0.41859818 16.874527
80.572 46.115597 15.694527
72.576004 41.010597 13.203529
70.382 41.804596 12.900528
6.612007 10.636597 94.37152
6.1060104 9.2165985 95.95052
85.36301 10.717598 92.421524
85.847 8.854599 93.34152
45.286007 12.142597 95.003525
46.12601 13.855598 95.00552
57.21401 19.962595 92.82752
57.96201 20.917599 91.239525
20.975006 0.71759796 43.940525
22.407005 1.9225998 44.686527
34.436005 1.5816002 44.347523
33.396004 1.5256004 46.487522
85.59501 5.4405975 84.88552
85.823006 3.7745972 86.488525
78.66801 2.4115982 97.09052
79.756004 2.2425995 98.419525
60.482006 45.777596 57.85652
59.888004 44.047596 58.12152
61.105007 40.092598 70.97052
62.680004 37.908596 70.89452
40.326008 19.874598 24.400518
37.94101 21.418598 24.817518
38.753006 30.341597 30.10752
40.76801 29.272598 30.974524
18.061005 26.387598 76.071526
20.366005 26.959597 75.62552
30.712006 27.052597 71.79952
30.251007 29.109598 73.088524
78.03301 18.594595 88.32752
79.06901 20.196596 88.38152
71.035 16.781595 90.87453
69.504005 15.369598 90.27853
86.07201 7.932598 95.93652
85.448006 10.399597 95.891525
1.9850082 8.991596 105.73252
3.9000092 9.031597 0.29252625
49.652004 8.217598 39.010517
47.40301 8.097599 39.222523
50.968006 14.555599 49.964527
50.33701 16.573595 50.56052
38.310013 45.250595 78.781525
37.389 46.5706 80.00952
35.158005 41.773598 85.279526
35.888 43.9046 85.62052
86.394005 30.490597 80.59052
88.247 29.659597 80.974525
6.8250046 29.488598 71.057526
5.53701 31.871597 71.072525
13.5770035 30.520597 106.03352
12.5770035 29.093597 0.45352936
9.980003 26.887598 96.88953
8.549004 28.489597 97.10752
29.081001 20.603598 26.892523
28.893005 22.305597 28.30052
23.960007 32.0416 21.381523
22.330002 32.831596 20.046524
40.541004 44.6326 90.72253
38.738007 45.176598 90.54752
26.439003 40.360596 93.17452
26.744003 38.005596 93.61053
1.5010071 8.0196 38.012524
0.8760071 9.505596 39.736523
84.151 47.065598 46.82053
82.375 45.7716 46.635517
56.480007 44.227596 98.863525
57.541004 42.9046 101.04852
50.743008 6.805599 99.01152
51.39301 8.896599 99.79752
63.915005 37.8076 33.279522
65.305 38.364597 35.278522
60.486004 25.424597 40.000523
59.912006 24.275597 38.23052
78.40101 6.418598 7.145523
77.65 8.488598 7.9305267
85.72201 18.044596 7.461525
84.94101 17.719595 9.592529
43.50501 42.252598 103.197525
44.37801 42.016598 101.128525
47.27901 8.8605995 103.94252
45.84801 7.9685974 105.51252
24.871002 34.032597 71.88852
27.020004 33.967598 71.80052
28.541 31.705597 85.20452
27.353004 32.900597 87.02252
43.524006 45.1686 46.678516
41.64301 46.224598 46.755527
41.28301 5.764599 58.287525
43.41901 5.021599 59.125523
13.03701 11.933598 75.46652
12.03701 10.194599 75.463524
7.7540054 2.4045982 85.337524
8.424004 2.960598 87.586525
25.669006 4.6175995 57.160526
24.385002 2.7126007 56.32752
26.743004 37.364597 58.515522
28.157005 39.456596 58.800526
51.856007 21.1106 70.10852
50.827007 23.080597 69.57852
46.32201 16.633596 70.09552
47.00101 18.434595 70.99352
10.64901 29.129597 55.953526
12.637009 29.912598 55.41152
9.8040085 21.126598 61.714527
10.617004 18.832598 61.50353
20.250008 22.871597 71.97852
21.119003 24.097597 69.906525
18.366005 29.740597 57.41352
18.270004 31.728598 57.43852
43.673008 35.033596 33.207523
44.373005 33.599598 34.862522
40.359005 29.112597 33.817516
41.356007 27.413597 32.94952
38.961014 11.275597 80.84752
37.67401 10.670597 79.23052
35.221 4.4435997 86.10452
34.104004 5.1405983 87.48453
41.97301 32.192596 83.474525
39.94901 31.704597 84.28552
37.794006 23.744596 94.628525
37.549004 25.913597 95.16553
3.6110077 41.066597 68.324524
6.1630096 41.0016 69.16652
15.191002 40.5916 75.821526
13.756004 41.958595 76.87152
26.168007 24.865597 6.282524
25.718002 25.314598 3.8545227
21.495003 23.384598 100.97153
20.008003 25.287598 100.211525
67.792 28.509598 17.033524
68.889 26.451597 16.673523
62.63101 27.018597 3.3855286
62.113003 28.576597 1.383522
5.71801 15.537598 42.91152
5.0470047 14.100597 43.81252
8.80201 1.6026001 45.757526
9.265007 47.592598 43.673527
10.088005 22.220598 41.179523
12.106003 21.477598 40.61552
12.483009 28.018597 31.506521
12.356003 28.954597 33.56052
14.899002 47.0366 47.388523
16.632004 0.066596985 45.89153
9.03801 1.0655975 37.89252
7.310005 2.1615982 38.748516
51.271008 42.8836 98.80152
51.43401 44.683598 100.35752
46.16701 8.160599 94.85752
46.68101 9.868599 96.17452
35.524002 47.444595 46.581516
37.457 47.231598 45.77152
39.198013 10.569599 52.250523
39.561005 12.418598 53.24352
52.327007 42.222595 30.505522
54.219006 41.470596 30.200521
63.166004 40.623596 32.16052
64.669 41.954597 31.80052
57.414005 4.8936005 9.921524
57.15401 6.0135994 8.350525
50.52901 43.1686 4.129524
48.452007 43.078598 2.4985275
88.604004 17.051596 10.781525
89.164 18.487597 8.230522
3.053009 9.479599 14.165527
5.022011 8.253597 14.689522
87.184006 40.579597 11.337524
87.68501 39.592598 9.770523
77.501 47.103596 3.209526
76.743004 46.3696 1.7645264
44.07501 38.200596 97.22253
46.188007 37.353596 98.29952
38.50801 31.356598 1.4415283
36.623 31.470598 105.58952
55.145008 24.000599 95.72153
53.912006 23.364597 94.225525
58.404003 12.623596 100.77452
56.54701 11.456596 100.76052
34.293007 46.446598 103.544525
34.095 43.884598 102.88652
42.83501 43.469597 93.65353
44.50501 42.253597 94.24252
43.315006 0.7235985 65.225525
42.49001 2.3065987 65.79052
38.91501 46.115597 76.32852
38.977005 44.037598 76.04252
58.65701 42.4256 98.26252
59.196003 40.576595 99.59352
60.474003 36.321598 86.504524
61.805004 36.954597 85.112526
75.188 40.310596 40.65952
76.571 42.231598 41.123516
88.01401 35.7156 46.597523
89.04301 37.4176 46.265522
37.25 13.253597 37.790524
39.44101 13.168598 36.49452
37.919006 18.771597 25.876524
38.602005 19.921595 27.23052
14.316002 39.437595 27.892523
13.602005 40.592598 30.149519
26.749 40.4386 30.721525
28.603004 39.114597 30.544523
73.244 43.289597 16.599525
73.501 43.0846 14.568527
75.517 5.5915985 7.2715225
74.795 7.0775986 5.4555283
61.049007 20.359594 82.71852
62.918003 19.530596 82.52052
71.607 9.4735985 81.79152
71.568 7.1215973 82.34752
80.091 4.007599 27.085524
79.366005 3.8745995 24.558523
89.531006 6.3605995 21.379524
0.6910095 5.354599 20.492523
5.8080063 18.946596 20.507523
4.854004 17.039595 21.654526
88.758 12.524597 31.318525
89.555 13.140598 33.441517
77.366005 30.086597 5.6415253
77.659004 27.927597 5.5895233
77.818 17.774597 3.6865234
78.031 19.360598 2.3565292
31.514 34.074596 85.434525
32.067 35.0636 87.29752
36.770004 0.066596985 89.37553
38.121002 47.408596 87.56953
47.45901 0.19260025 10.969528
46.96101 46.033596 10.1725235
44.665005 7.337597 15.815529
43.566006 9.439598 16.485527
78.49401 8.288597 31.38252
78.02001 7.418598 29.059523
82.816 19.378595 30.29952
84.46501 18.114595 29.553518
12.364006 16.092596 38.21352
13.30101 15.590599 40.50452
3.1950073 11.387596 39.013523
1.8350067 10.748596 37.38352
87.603004 32.6256 10.301529
88.628006 34.245598 9.161522
11.35701 32.1946 4.058525
10.658005 30.172598 4.2645264
0.50200653 44.684597 7.1535263
1.4370041 42.650597 6.879524
5.85701 37.989597 105.00552
5.751007 35.648598 105.70152
39.930004 9.3326 57.90552
37.607002 8.123596 58.62952
33.059006 1.472599 49.671528
30.705002 1.4125977 51.135517
69.067 43.162598 47.886524
70.113 45.277596 47.380527
69.079 2.5405998 51.32552
66.941 2.9055977 51.92052
88.068 35.949596 98.54752
89.436005 36.274597 96.626526
88.373 29.447598 85.50053
86.617004 30.167597 83.75652
15.255005 33.384598 59.546528
13.388008 33.725597 60.80753
5.7640076 22.928596 63.071526
3.8110046 21.857597 64.24552
43.72701 41.233597 75.17852
45.107006 42.3766 74.185524
40.16901 0.89360046 65.835526
39.28801 1.3785973 63.52452
87.05201 26.466597 96.990524
87.30101 25.681597 98.93952
74.868004 20.575598 100.35652
74.577 18.569597 101.20152
28.198006 32.343597 47.995518
27.267006 33.219597 49.814518
28.216003 41.944595 55.11153
27.184006 40.104595 56.11852
38.667007 25.987597 99.24352
40.841007 26.522596 100.27252
43.56101 30.679598 87.56152
45.39001 32.624596 86.973526
3.85701 24.945597 68.98052
5.9530106 24.888597 68.02152
85.97301 31.729597 65.29052
84.103004 32.2236 66.544525
40.46201 38.184597 95.18053
38.70201 36.998596 94.65353
25.504005 34.179596 93.322525
24.445007 32.578598 94.532524
6.4920044 1.2315979 81.14952
5.378006 3.0355988 81.64552
7.701004 6.057598 74.156525
7.45401 7.1175995 72.21852
87.427 3.6545982 21.919523
88.950005 3.8955994 20.21952
80.846 44.434597 25.803518
79.965004 46.551598 26.545523
27.999 35.6616 56.64652
28.801003 33.308598 56.47252
30.966003 33.2376 69.823524
29.284004 32.863598 71.24252
80.191 20.189596 79.52252
81.294 18.949594 80.81552
73.629005 7.2915993 80.54253
73.345 5.597599 78.42952
73.967 39.204597 58.06052
74.498 39.606598 55.761524
67.15 0.6465988 50.634525
64.873 1.1786003 49.872517
72.192 29.795597 15.698524
70.755005 28.746597 17.058525
77.089005 34.942596 28.016523
78.148 36.637596 29.335524
26.736 32.0696 24.303518
27.051003 32.177597 26.45152
34.957 21.802597 27.932524
36.993004 22.361597 28.81552
63.262005 25.340597 70.45952
62.402004 27.387598 70.87252
66.41 22.857597 76.94052
68.448 23.539597 76.073524
30.032005 40.356598 34.066517
29.344002 42.643597 34.38152
37.877014 0.8395996 25.624525
38.938004 2.2605972 27.139524
75.213005 15.928596 102.92352
73.782005 15.997596 101.26052
82.633 11.199596 95.306526
83.538 10.003597 94.08052
73.586 2.7355995 74.30452
75.716 1.9175987 74.432526
84.27501 13.616596 80.45152
82.89001 15.430599 80.671524
24.518005 45.104595 98.085526
25.629005 43.455597 97.76152
30.412003 7.9685974 99.77252
31.521004 7.6665993 97.62252
72.226006 7.2696 2.8675232
74.329 8.654598 3.025528
79.389 12.263599 11.2715225
77.143005 12.826599 12.207527
49.78001 25.726597 17.960526
47.33801 25.683598 16.825523
45.95001 9.937599 15.729523
47.054005 9.291599 18.058525
78.44401 5.399597 22.558523
76.348 4.7425995 22.38452
66.943 7.111599 27.613523
66.533005 6.365597 29.49652
0.5450058 41.714596 94.38252
88.86201 40.866596 94.336525
85.333 1.7735977 104.42953
86.426 3.7385979 103.670525
36.963005 23.446598 63.56852
38.72 23.946596 62.97352
49.29201 28.236597 72.70952
50.04601 27.642597 74.33252
67.117004 5.555599 73.53852
67.161 6.031597 75.588524
64.013 6.2135963 84.42252
61.750004 5.847599 85.67852
84.629005 0.01159668 62.15652
84.916 47.283596 64.37452
7.894005 42.0086 63.92752
8.983009 43.523598 62.95452
32.793007 10.042599 1.4975281
33.844 8.8326 3.1375275
31.023003 46.9176 10.061523
33.364006 46.933598 9.343529
66.238 35.7926 83.92252
68.207 35.707596 85.01952
77.520004 42.738598 83.00053
78.92101 41.052597 83.449524
46.314007 23.163597 46.444523
45.61201 24.766598 45.40952
36.569 34.006596 48.22452
34.662003 32.884598 49.89252
79.93301 0.65060043 22.867521
78.48101 2.1125984 22.057524
78.48301 13.418598 14.681526
80.161 14.559597 15.156525
12.543007 5.760597 75.81952
11.141006 5.7875977 77.475525
9.706009 0.60160065 88.09052
11.168007 2.0256004 87.753525
67.092 41.671597 98.02052
68.124 43.2866 96.38853
67.608 37.009598 89.656525
67.332 35.727596 87.68952
74.773 40.361595 75.88352
76.69 41.9596 76.85652
77.271 41.1536 63.13352
76.566 43.454597 62.82752
1.5390091 20.311598 60.36353
0.166008 19.203598 58.647526
85.124 23.823597 49.229527
85.332 24.378597 47.49152
55.35001 1.7675972 78.695526
54.261005 0.46759796 77.503525
43.720005 43.434597 76.65352
42.53101 45.1536 75.987526
3.6910095 45.2306 24.84252
3.9600067 45.6476 26.77252
83.744 5.385597 32.511517
85.227005 6.5345993 32.926517
82.329 45.934597 65.19152
80.61701 45.374596 65.20952
78.225 43.269596 78.34552
77.568 44.3206 80.504524
59.481007 42.360596 45.755527
60.474003 42.224598 43.523518
65.599 3.9416008 36.194523
67.16 2.3036003 35.57452
22.877007 15.680599 38.61852
23.974007 13.579597 38.429523
23.814003 15.227596 26.41152
24.870003 14.7006 24.193525
14.3040085 22.129597 80.40152
12.195007 22.5626 81.223526
5.67601 16.931597 91.140526
5.876007 15.726597 93.195526
33.541 29.612597 65.35452
35.746002 30.471598 66.06152
41.89301 34.085598 67.05352
41.57101 36.4526 66.76552
3.215004 28.116598 34.72852
3.5100098 28.785597 36.88352
86.371 18.372597 42.984516
87.422005 18.845598 44.79552
40.17001 3.0326004 24.89652
37.87001 3.1585999 23.835524
35.756004 4.854599 33.29352
34.312004 3.7865982 34.14352
11.285004 47.353596 56.785526
8.60701 47.553596 57.39652
87.077 2.1366005 57.49152
85.618004 0.073596954 57.36852
79.02401 18.370596 60.79752
80.93 16.839598 60.132526
83.28001 16.489595 46.14452
81.950005 14.6975975 45.41553
22.493004 8.467598 90.96552
22.892006 9.109596 93.030525
24.867004 47.0496 102.824524
24.080002 1.2616005 103.892525
15.564003 9.902599 41.05752
16.299004 11.732597 41.648518
9.694008 16.997595 52.595524
10.84301 18.655596 53.255527
52.41701 26.107597 95.987526
52.536007 24.789597 98.10952
46.970005 13.044598 100.57952
46.18401 11.705597 98.85952
86.88901 6.781597 60.07352
86.40501 4.1856003 59.30953
84.52401 47.101597 49.552525
83.50001 1.2556 48.71352
53.15501 35.617596 18.452522
53.88001 37.446598 17.159523
64.487 42.749596 13.594528
65.901 41.381596 14.882523
64.015 27.187597 106.30553
64.706 28.815598 0.1725235
72.046005 18.285597 5.763527
71.582 16.005598 5.393524
22.286003 17.856596 7.037529
20.731003 16.110598 6.4555283
13.264008 11.546597 102.99252
14.6790085 12.856598 101.73152
66.674 40.0076 48.42452
68.295 40.413597 50.36452
73.821 33.789597 55.339527
74.487 35.054596 57.119526
16.944008 16.232595 101.28652
15.017006 16.286596 100.24652
17.449005 10.295597 89.98453
18.610008 10.455597 87.82952
22.528008 31.570597 47.65253
22.070007 31.263597 50.357517
15.863007 34.004597 55.93752
15.681007 31.974596 57.199528
15.018005 7.094597 67.91652
16.892006 5.767597 67.70752
17.461006 43.352596 69.10552
15.067001 43.753597 68.69252
65.949005 27.294598 18.743523
63.387005 27.593597 19.584526
70.367004 38.085598 13.908524
70.114 37.594597 11.926529
42.789005 5.875599 21.356522
42.457005 5.0235977 23.667524
41.33501 19.631598 27.378523
42.607006 18.605597 25.316519
56.979008 33.9026 67.14852
58.938007 33.859596 65.72752
56.534008 44.893597 59.90052
58.375004 46.3826 59.51952
87.47301 43.559597 87.252525
85.216 44.701595 86.85552
87.858 46.379597 77.49452
88.809006 46.997597 75.53652
55.73801 6.3725967 2.8185272
56.105007 7.7895966 0.8705292
54.679005 41.571598 4.2405243
53.173008 43.0566 5.633522
59.509007 20.273596 11.727524
60.920002 18.623594 10.520523
49.860004 11.365597 7.268524
49.90701 10.524597 5.0105286
77.95301 14.917599 63.01952
79.84101 15.4786 62.08752
87.41701 19.032595 73.379524
87.72701 21.546597 73.27352
38.813004 17.147596 56.51653
38.586014 17.938597 54.21152
39.971004 17.655596 41.709522
40.555004 19.144598 40.148518
89.60801 7.5675964 85.698524
87.65301 8.781597 84.59452
79.18 4.5515976 95.38953
77.091 3.9335976 95.49752
14.036003 29.987597 25.317518
15.045006 31.190598 26.111525
22.709007 28.622597 14.096527
22.54 31.050598 13.212524
83.74001 2.4045982 63.63952
83.493004 3.8765984 65.321526
84.53001 3.328598 67.99152
85.17201 1.8246002 66.35352
21.182007 26.219597 72.837524
19.124008 25.796597 73.39752
13.812004 33.726597 63.49352
12.0890045 33.239597 63.37552
29.264 3.8265991 64.838524
27.944 5.564598 64.97352
29.131004 13.893597 75.31752
30.777 13.652599 77.66452
7.3840103 6.3645973 58.70852
7.4570084 3.9095993 58.48652
89.883 4.4895973 69.16652
0.38300323 3.5435982 70.81952
83.755005 28.211597 18.032524
83.05801 26.193598 17.807526
86.922005 21.495598 28.85452
85.059006 21.132597 30.53552
62.823 37.842598 77.48152
62.107006 37.127598 75.60552
50.925007 26.525597 77.37052
52.00601 26.351597 75.28952
50.027004 19.332598 52.73052
50.47501 19.418598 50.06252
59.951008 22.151598 48.912525
61.96301 21.617598 47.832523
47.305004 4.5046005 24.141523
44.900005 4.0186005 24.834524
37.920013 7.1105995 37.250523
39.098007 8.9296 36.97452
67.887 14.515598 58.89452
66.148 13.712597 58.438526
64.677 1.8405991 57.386524
64.606 47.193596 55.78052
3.017006 44.030598 87.76453
0.8970032 43.483597 87.41052
3.9110107 34.067596 80.100525
5.4450073 35.0976 80.45352
48.163006 0.044597626 26.274519
45.83701 47.346596 26.88352
45.121006 3.3036003 39.19652
44.970005 2.4685974 41.29552
31.880005 46.843597 60.90252
30.215004 47.2936 62.90052
23.715004 8.667599 64.79852
26.122002 9.418598 63.99652
69.058 32.128597 104.52052
69.915 33.672596 102.86752
60.836002 40.277596 106.17752
60.903004 37.726597 105.24352
40.90701 8.503597 60.367527
43.07001 7.1835976 61.05553
42.079006 18.866594 60.82352
41.023006 19.699594 63.040527
19.986008 5.238598 85.81552
18.726006 3.9505997 84.601524
16.772003 45.2306 74.558525
15.467003 43.941597 73.073524
24.311005 46.6326 86.488525
22.351006 46.328598 85.59652
16.916008 3.3295975 87.463524
18.986008 3.4216003 87.46953
52.480007 37.837597 50.992527
51.845005 39.906597 51.47652
49.471004 38.824596 54.06853
48.90801 37.2726 55.26952
3.005005 20.211597 16.541527
2.2950058 21.653597 18.581528
83.868004 27.480597 23.627523
84.76601 26.969597 25.824522
3.5780106 34.6046 49.55553
4.382004 33.0626 49.82053
9.596008 41.887596 60.992527
11.350006 41.189598 60.829517
3.989006 16.811598 75.02552
5.817009 17.450598 76.890526
3.128006 21.635597 89.77853
2.1810074 22.7496 88.37453
43.886005 31.425598 74.33252
42.161007 30.173597 73.15852
34.536003 29.332598 68.032524
32.599007 27.895597 67.92952
65.755005 9.336597 72.84052
68.176 8.253597 73.38852
67.934 10.338596 61.20052
67.894005 8.801598 59.39652
10.484009 38.295597 84.751526
12.41301 39.858597 84.336525
16.391006 2.203598 84.490524
15.075005 4.1555977 85.27752
77.297005 17.213594 106.16452
76.313 16.284597 1.7405243
79.642006 1.8275986 2.3355255
79.053 0.038597107 0.88152313
65.494 45.115597 12.744522
65.621 46.615597 13.943527
68.843 11.704597 7.7295227
67.182 12.9665985 8.084526
52.649006 32.2506 59.93752
51.304005 34.100597 59.49052
47.082005 42.9316 67.29052
46.50201 45.6336 67.44052
33.192 33.178596 47.842518
34.238007 34.593597 46.86852
25.818 39.269596 40.85052
26.042007 39.982597 38.66952
78.644005 16.669598 14.301529
79.656 17.487597 16.195526
71.571 26.549597 15.795525
73.826004 27.742598 15.253525
41.914005 18.360598 17.541527
39.629013 18.193598 17.317528
44.43401 9.493599 19.091522
45.414005 11.092598 20.535522
77.963005 25.287598 70.75552
79.36301 23.235598 70.60252
1.3570099 20.635597 64.449524
1.2310104 19.051598 62.94852
43.622005 34.1806 69.51552
41.717007 33.726597 70.09052
31.064003 39.218597 75.04252
30.325005 39.956596 72.75952
2.7440033 8.198597 18.268524
4.2000046 9.654598 17.087524
2.31501 18.309595 18.362526
4.2100067 18.679598 18.628525
78.61901 32.9876 72.809525
77.41 33.540596 74.22052
72.675 21.695597 66.682526
75.021 20.826597 67.56752
30.165 18.899597 4.0935287
30.262001 18.733597 1.9515228
29.092003 26.560596 97.49652
27.920006 26.458597 95.77052
30.275002 46.940598 71.64852
32.477005 45.595596 72.087524
18.733002 40.933598 71.13652
17.116005 42.211597 71.37552
12.298004 42.696598 26.059523
14.796005 42.3906 26.878523
23.728004 34.839596 22.45152
24.340004 33.579597 24.56552
83.137 18.992598 34.17052
81.521 19.000597 32.814518
75.239 18.533598 22.916525
76.799 18.775595 21.35852
57.718006 44.701595 79.91552
59.653004 43.852596 79.16452
62.364002 7.4095993 69.49852
63.535007 6.781597 68.029526
13.3390045 42.003597 63.66752
12.405006 43.863598 64.948524
13.850006 3.7196007 73.544525
11.508003 4.8535995 73.54952
15.129005 10.999599 13.258522
15.955002 8.9226 13.965523
22.520004 4.6075974 26.21752
21.335007 2.8125992 25.290525
87.517006 3.932598 18.016525
85.771 3.7626 19.348526
87.387 43.715595 28.928518
89.385 44.898598 28.034521
90.25 12.739597 36.890522
89.925 14.260597 38.318523
79.395004 23.794598 39.862522
79.005005 25.0336 41.343517
68.033005 8.851597 32.40552
68.836 8.023598 34.054523
72.841 7.7425995 42.89752
71.513 9.764599 43.39252
87.05 19.208597 13.756523
87.991005 17.367598 13.238525
79.991005 7.123596 12.070526
81.843 6.384598 11.018524
44.40401 47.2516 60.95352
44.860004 2.1355972 60.54952
41.290005 13.440598 68.22852
42.55701 14.6105995 69.906525
53.734005 6.934597 84.684525
52.051006 7.774597 85.921524
46.11301 15.517597 81.462524
45.483006 17.810595 79.709526
34.792007 12.191597 21.561523
33.961006 11.0915985 20.013527
33.139 1.6415977 12.103523
30.68 0.9135971 12.244522
81.023 46.423595 61.11252
80.48501 46.420597 63.03652
70.199005 2.9486008 69.55652
68.906 3.9976006 71.27652
64.456 36.262596 78.92352
65.344 38.217598 78.627525
73.408005 1.4455986 81.19452
73.189 0.90659714 79.10852
84.983 34.704597 66.293526
85.562004 34.4946 63.85452
83.57101 44.988598 60.807518
82.753006 46.080597 58.57652
11.919006 11.941597 51.36153
11.896004 12.734596 52.90453
21.932007 15.777599 62.08152
21.904007 17.879595 63.210526
39.877014 9.746597 105.723526
39.98901 12.268597 105.09352
44.83701 21.9716 4.626526
44.246006 23.288597 6.4225235
45.75501 36.6816 51.07552
47.15401 37.097595 52.981525
38.935013 28.575598 60.594517
38.796005 27.832598 58.304523
7.6230087 46.261597 89.517525
9.350006 45.177597 90.06252
7.7920074 2.8745995 104.10452
6.5870056 4.3465996 103.310524
59.784008 9.131599 0.65052795
60.093006 6.8115997 105.642525
67.216 44.622597 101.81953
66.577 43.326595 100.46652
62.08901 14.1446 102.08952
64.3 15.035599 101.15052
60.237003 19.368597 87.02853
59.279003 20.927597 87.934525
17.222008 22.350597 11.090523
16.795006 22.681597 13.338524
7.8270035 33.622597 14.323524
8.716003 35.9946 13.964523
88.93201 9.191597 37.38152
87.87601 7.3315964 36.61352
78.50901 1.0575981 44.832523
77.242004 2.0736008 46.122517
66.11 13.8485985 1.6655273
68.359 14.164597 2.397522
62.336002 25.0276 1.5425262
60.345005 24.7836 2.6405258
10.488007 41.665596 13.174522
10.708008 39.4326 12.709526
8.799004 37.236595 105.06552
8.997009 35.267597 104.696526
71.286 40.859596 3.1435242
72.021 40.754597 5.8755264
76.081 30.202597 105.420525
75.625 32.3756 105.15052
30.002007 17.856596 41.653522
30.466003 16.443598 39.467518
34.636 8.174599 35.859516
35.239006 8.981598 38.108517
62.960003 34.5146 67.36852
60.96201 34.9106 66.808525
52.85201 43.860596 63.08552
51.33401 45.127598 64.51052
72.095 3.9965973 87.47852
72.109 6.1035995 88.226524
81.422005 14.910599 84.85652
80.81701 16.598597 84.85352
40.39001 7.238598 56.13352
39.851013 8.815598 54.53252
47.014004 7.2005997 55.194523
47.173008 6.531597 57.33353
85.76901 42.541595 89.22752
83.63001 41.712597 89.49252
74.379005 3.5775986 92.55353
72.990005 3.7066002 90.796524
9.9520035 11.125599 97.06452
8.665009 9.614597 97.558525
22.074005 1.6695976 95.68752
22.553001 0.029598236 97.22253
13.03701 5.055599 69.64752
11.005005 3.2696 68.72052
0.20800781 9.376598 61.41252
89.277 7.5565987 60.54552
28.935005 41.039597 36.845516
29.830002 42.762596 37.473522
40.995007 44.957596 44.311527
39.690002 44.321598 46.205524
81.491005 4.142597 103.72952
81.21601 5.3955994 101.92252
69.433 13.897598 104.59252
69.782005 15.921596 104.09552
89.799 2.5876007 1.1345291
88.607 1.0816002 106.38953
89.278 39.4116 97.50053
0.9820099 37.9596 97.20352
5.74601 32.080597 68.100525
7.6170044 31.535597 66.07052
18.241005 37.1746 72.44252
17.926003 39.720596 73.586525
89.272 29.706598 47.16953
87.359 28.822598 48.11852
84.382 33.947598 61.390522
84.764 31.934597 62.62052
2.0180054 22.528597 3.223526
2.2680054 24.475597 3.435524
83.8 33.567596 8.166527
85.617004 34.700596 9.690529
66.1 29.814598 66.211525
65.017 28.912598 64.42953
71.478004 38.061596 58.265522
71.318 39.734596 60.231525
23.282005 33.3976 15.978523
24.009003 33.2096 13.875526
28.917007 33.6736 24.905523
29.984001 31.567598 26.213522
57.694004 11.045597 73.64552
55.483006 11.057598 73.821526
64.145004 17.221598 78.69052
64.735 18.078596 77.280525
68.892 44.002598 12.398529
68.102005 45.496597 13.293526
80.174 2.9385986 13.292526
80.486 5.0415993 14.730522
53.534008 26.897596 67.36752
53.18201 24.938597 68.226524
50.10201 18.068598 64.350525
49.51701 19.206596 65.851524
9.897003 4.1226006 49.69852
10.046005 6.5745964 49.832523
22.355003 10.648598 45.03652
22.913002 9.441597 46.85152
58.416004 7.6225967 4.9985275
58.416004 8.403599 2.9665222
57.716007 21.712597 7.9205246
58.607006 24.031597 8.194527
81.353004 14.633598 30.73052
80.385 16.680597 32.24052
70.052 14.880596 27.184523
68.882 16.295595 28.775518
60.780003 26.128597 4.858528
59.900005 28.574596 5.4645233
54.826008 37.031597 14.292526
54.57401 38.957596 13.449524
61.767002 0.9035988 18.711525
63.452007 1.7556 17.568527
75.697 2.7705994 24.45152
77.82601 1.8195992 24.77152
75.297005 15.452599 63.50152
75.608 13.001598 64.21952
70.501 18.253595 72.504524
71.493004 20.242598 72.141525
0.01600647 45.6546 31.59152
88.578 46.873596 29.885519
86.331 43.526596 42.97652
86.065 42.464596 45.010517
17.267006 19.721598 101.35752
19.351006 19.436598 101.28352
26.650002 27.410597 2.5495224
26.068 29.442598 3.2915268
64.78 37.208595 88.39952
64.727005 37.3066 85.61752
67.996 2.2185974 88.54952
69.759 4.0806007 88.86053
87.54401 43.850597 47.000523
86.246 45.502598 45.926517
6.977005 4.2565994 36.89452
6.0960083 2.8045998 35.551517
6.576004 5.031597 19.792526
8.603004 4.1865997 20.262527
11.486008 1.0005989 32.260517
9.957008 0.5425987 34.233517
32.140007 21.6316 87.725525
30.444 20.288595 88.06853
38.306015 21.616596 97.77552
40.402004 22.220596 97.16352
66.223 4.1145973 49.595524
67.75 5.7615967 50.10152
54.400005 10.882599 47.370518
53.28201 12.432598 47.634525
67.795 32.4316 80.806526
68.965004 34.610596 79.87252
78.465004 38.217598 85.556526
80.72401 38.254597 84.280525
55.761005 23.662598 86.54852
57.136005 22.404598 87.807526
48.99201 12.3046 89.338524
47.249004 11.563599 87.709526
86.753006 45.7446 51.16953
87.256004 0.89759827 50.60552
9.726006 0.94860077 49.552525
10.599007 0.097595215 51.176517
15.504005 16.048597 12.985527
14.193008 14.418598 14.001526
1.3180084 12.688599 13.487526
89.350006 13.099598 13.742523
5.918007 34.391598 41.454517
7.46801 33.123596 42.126522
14.103004 42.367596 47.19553
12.382004 43.638596 46.45252
83.12501 26.142597 43.593525
81.38601 25.010597 45.079517
76.28 14.638599 44.23653
74.303 15.120598 43.90653
86.44301 28.064598 95.183525
84.29301 27.049597 96.03352
73.351006 26.909597 90.04752
74.778 28.312597 91.02653
52.96201 40.5496 46.871525
53.23701 39.066597 48.75452
59.771008 26.788597 49.55953
59.150005 26.429598 51.77953
61.085003 38.745598 47.90453
61.174007 36.782597 46.54552
72.111 31.643597 53.972523
70.166 31.425598 54.99152
10.991005 29.323597 92.960526
11.671005 31.004597 91.837524
20.589005 32.678596 95.322525
22.221008 34.0346 93.52052
65.740005 17.582598 93.41252
66.938 16.525597 94.279526
61.860004 25.126596 105.34653
60.531002 26.999598 103.64452
52.594006 9.570599 90.24252
54.354008 8.6586 91.04253
67.063 13.713596 93.79952
66.851006 15.041599 91.52452
70.576004 16.476595 95.086525
70.059 15.0896 96.45853
78.84501 5.142597 100.643524
79.33201 5.2735977 98.34552
67.314 43.900597 32.235523
68.847 43.4666 33.550518
69.577 44.009598 44.93752
69.372 41.886597 45.660526
65.893005 5.986599 40.069523
65.605 4.500599 41.83852
70.717 5.696598 46.908527
69.646 4.4916 48.640522
15.754005 17.555597 83.587524
16.717003 19.502596 83.684525
20.847008 20.473597 70.26452
22.490005 21.5486 68.72052
49.19701 8.835598 11.843529
48.104008 11.005596 11.066528
43.78201 23.255596 9.5245285
43.382008 25.0066 10.401527
2.2200089 19.343596 72.19352
1.6470108 18.247595 74.17552
87.422005 6.326599 71.265526
88.373 4.389599 72.058525
32.130005 2.0095978 88.57752
29.944 1.4325981 88.59252
36.420006 0.18259811 99.432526
36.042007 1.5956001 100.919525
60.123005 36.367596 81.47152
57.88101 36.120598 82.156525
46.856007 29.170597 76.02252
46.513004 30.239597 74.031525
9.838005 3.7585983 56.99952
10.539009 4.377598 58.96952
13.889008 3.0946007 67.88552
15.291008 3.5825996 69.63852
66.052 13.794598 13.003525
66.307 13.887596 14.929527
69.294 17.489595 25.75752
68.389 18.702597 27.42452
50.009007 39.8966 93.709526
51.07301 41.797596 94.42352
48.592007 7.762596 90.16252
49.841007 9.570599 90.183525
34.017006 47.1606 58.190525
35.019005 1.0396004 56.268528
25.669006 4.085598 52.414524
23.174004 4.9925995 51.634525
17.652008 32.650597 39.539516
15.889008 33.5706 38.860523
10.219009 46.562595 37.028522
12.16201 47.413597 35.62752
82.578 32.210598 78.459526
84.326004 32.849598 79.170525
88.00101 41.246597 88.21852
89.551 42.367596 89.04153
10.639008 9.065598 13.352524
12.402008 9.3675995 14.107529
15.631004 13.327599 27.143522
15.011002 14.780598 28.260519
72.497 45.686596 102.77853
71.201004 43.859596 103.10752
74.335 34.316597 96.40052
76.597 34.9866 96.55453
70.358 43.2376 58.41652
69.045 44.539597 59.28852
65.697 1.6055984 63.19552
66.334 3.9076004 63.77752
8.900009 0.27259827 17.302528
8.014008 46.998596 15.349525
14.850006 0.37859726 19.959526
14.586006 45.943596 21.162521
32.087006 6.8645973 36.92152
31.402 7.0205994 35.04852
18.009003 11.767597 37.718517
16.175003 10.502598 38.334522
71.599 18.922598 66.25752
72.186005 16.970594 64.99352
67.283005 16.463594 74.935524
66.707 16.498594 77.03952
72.87 30.257597 98.963524
70.838005 31.661598 100.02252
65.721 33.710598 104.17953
65.982 35.880596 104.017525
82.467 25.424597 21.046524
82.831 27.793596 20.543526
74.432 33.975597 12.439522
75.152 36.1326 13.400528
25.422005 27.478598 16.591522
26.521004 27.409597 18.274529
29.695007 16.997597 23.308523
31.765007 16.275597 23.473524
58.400005 40.413597 103.141525
58.483006 37.811596 103.322525
64.761 42.114597 5.227524
67.007 41.652596 5.0385284
40.121006 10.6936 102.61652
40.123005 8.8035965 101.627525
33.564003 3.7845993 89.655525
35.008003 2.3026009 89.56552
63.118008 43.523598 33.804523
64.129005 40.943596 34.82452
57.205006 38.4256 35.10252
55.05901 38.496597 34.137524
74.294 9.709599 46.442524
72.340004 8.255596 46.93752
68.468 17.169596 55.636524
69.525 18.886595 55.852528
9.62101 7.6225967 103.295525
10.541008 5.7445984 103.945526
22.894005 3.6055984 103.446526
25.180008 4.7215996 103.46452
37.854004 45.898598 100.515526
37.437004 44.449596 101.87553
46.411007 40.815598 104.35552
48.358006 40.824596 105.51252
54.91801 21.674599 7.4415283
52.88101 21.2846 8.652527
41.71001 21.097599 8.535522
39.89601 20.119596 10.005524
44.86501 8.988598 92.53953
43.178005 9.299599 94.059525
35.793007 14.682598 81.36052
38.17601 14.090599 81.045525
65.786 24.361597 22.080519
66.968 25.644598 23.861525
80.47701 27.561598 25.399519
80.83201 28.896597 27.36852
0.7100067 38.871597 39.678516
89.256004 37.892597 39.884518
88.439 26.513597 46.875523
86.73 25.670597 45.319523
11.113007 15.0196 55.65253
11.640007 12.879597 56.45252
13.113007 4.3876 65.58952
15.194008 4.5275993 65.891525
46.31001 36.274597 34.967518
47.565006 37.975597 34.689518
55.68601 26.191597 30.055525
55.608006 24.218597 29.114523
20.429008 3.7696 6.2675247
19.580002 2.6105995 8.256523
17.266006 2.5365982 21.096527
18.256004 3.4405975 22.713522
7.9240036 8.369598 69.38052
6.0490036 7.505596 69.42252
9.853004 16.407595 72.516525
8.888008 16.071596 75.08452
31.015007 36.671597 72.04052
30.057007 36.872597 73.52152
26.927002 35.128597 85.24552
25.117004 34.3756 85.712524
80.060005 36.317596 91.69052
79.573006 34.767597 89.823524
83.96301 39.353596 91.32752
85.73801 39.260597 90.378525
24.222008 14.750599 82.18752
21.841003 14.149597 82.15952
21.695007 5.3905983 79.669525
22.315002 3.0625992 79.10852
39.06801 33.913597 67.20652
37.059006 34.5636 67.518524
33.619003 44.784595 64.86852
35.287003 46.421597 64.64552
73.726006 3.3376007 71.322525
75.424 1.9986 71.16452
73.977005 39.944595 63.26452
74.719 41.346596 62.02252
12.661003 18.077597 26.46752
11.307007 19.626596 25.447523
13.892006 28.482597 18.958527
12.7020035 31.070597 19.378525
1.2450104 5.252598 36.884518
89.764 5.5155983 37.82452
77.739006 0.854599 41.596523
78.118004 46.247597 41.612522
39.616013 23.087597 29.96752
39.981007 22.717598 28.062521
46.26801 28.814598 20.968521
45.150005 29.918598 19.147522
42.623005 25.075598 32.75852
40.84901 24.676598 33.679523
45.71001 18.042597 32.72852
46.314007 20.142597 31.963522
70.599 6.224598 74.11752
70.352005 4.021599 73.33152
68.694 39.740597 77.113525
67.187004 37.6606 75.796524
66.936005 2.5545998 70.363525
68.265 1.0865974 69.240524
55.972004 2.1935997 63.54952
56.162006 4.0046005 62.62452
62.92101 22.052597 91.41152
64.599 22.614597 92.379524
59.142002 26.237597 97.52252
59.96301 25.838596 99.49953
0.6070099 10.446598 14.653526
1.9990082 11.237598 16.068527
86.587006 10.7006 28.879522
88.567 10.188599 30.334524
2.9030075 7.217598 103.97052
4.7300034 8.2146 103.00852
4.0850067 3.354599 90.65253
5.5200043 4.7025986 89.59052
14.552002 27.303596 42.334522
16.661003 27.302597 43.207523
20.633003 30.807598 55.61553
22.317001 29.576597 55.982517
43.720005 27.539597 44.064518
42.623005 29.112597 45.59052
31.581001 24.103598 43.96152
30.219002 23.126596 42.37952
25.193008 44.934597 28.27252
24.927002 44.187595 26.432524
25.038002 1.1185989 26.805525
23.410004 1.1905975 25.294523
28.791 10.366596 92.66152
27.090004 11.882599 92.30353
29.344002 23.420597 91.92452
28.683006 24.622597 90.20553
26.866005 26.243597 42.41852
25.276001 26.976597 41.68852
28.631004 34.643597 30.74652
31.723007 34.620598 30.571524
7.458008 5.319599 16.517525
9.532005 5.1785965 17.862526
17.820007 8.834599 24.248518
18.187004 7.0355988 25.409521
70.182 18.616594 75.39452
69.443 16.786596 76.49552
65.147 19.100595 84.16552
64.545 21.153599 83.946526
77.498 20.062597 78.95752
75.218 21.031597 78.712524
69.714005 25.678596 88.82652
69.188 27.868597 88.545525
2.3270035 37.211597 34.57552
1.529007 37.4386 37.316517
10.95401 44.4256 42.30852
10.965004 46.630596 41.814518
89.373 30.199598 99.00952
89.083 28.699598 97.47852
9.387009 24.293596 97.184525
11.536003 23.553596 97.99352
15.402008 44.645596 48.64252
16.057007 44.843597 46.09853
24.900002 0.79660034 50.841526
26.283005 1.2085991 52.20052
30.247002 6.6905975 106.157524
29.781006 9.3415985 0.6115265
33.671005 16.437597 1.3645248
32.798004 18.493597 2.6795273
54.701008 8.185596 76.963524
