110.41665 28.421082 27.06509
109.39165 28.647081 24.44709
111.12164 29.90508 23.16609
109.76465 32.17308 22.10409
108.26665 33.316082 22.73209
204.61864 34.62508 6.806095
202.88864 33.36808 7.317093
204.44165 31.354082 6.8000946
204.77365 30.059082 4.751095
203.99464 30.097082 2.3300934
201.78064 31.38108 1.5670929
59.917633 35.08208 33.48109
59.455627 33.12008 32.27809
57.37964 31.727081 33.06409
55.10562 32.79608 33.34409
54.664642 33.52508 35.98609
56.52765 33.455082 37.99309
122.02464 18.750082 2.815094
120.338646 19.913082 3.1720924
118.94164 17.89808 3.0730934
119.02464 15.992082 1.1390915
119.145645 16.47108 45.62209
120.44465 17.77008 44.409092
115.340645 18.233082 7.4650917
117.00964 20.099081 6.544094
118.825645 19.055082 5.7710953
120.38965 17.49208 6.7240944
120.64065 16.321081 8.444092
118.56764 15.959082 10.689095
26.343628 27.493082 9.170094
26.263641 29.699081 10.149094
25.723633 29.46408 12.589092
26.653656 27.543081 14.469093
28.619629 26.286081 14.586094
30.526642 26.08608 13.892094
170.96565 38.47308 23.20109
168.75565 38.87508 24.86709
166.56964 38.86108 24.70609
164.83765 39.07308 22.844091
164.79965 39.11908 20.570091
165.82864 40.30708 19.00309
41.097656 1.2540817 23.13809
42.387634 0.6990814 20.91209
44.890656 44.73808 21.05209
44.86264 42.400078 21.26209
43.429626 40.51308 22.122091
41.45764 40.35408 22.921091
1.2506409 26.94708 14.6770935
0.17562866 25.665081 16.252094
308.70166 24.977081 16.441093
307.27664 24.965082 14.817093
305.88965 27.019081 13.735092
306.91965 29.608082 14.115093
125.94064 42.65408 31.67709
127.08665 42.41008 29.49109
125.908646 44.48608 27.87309
126.87064 1.2160797 29.05009
126.28764 2.5560813 30.98309
124.47064 2.6390815 32.01109
16.848633 15.687081 43.77409
17.624634 13.870082 43.45809
16.39563 11.936082 44.498093
14.329651 11.521081 45.284092
11.972656 12.487082 44.76709
11.176636 15.063082 44.14809
132.14764 23.758081 25.80709
131.60164 25.253082 23.99809
131.71565 24.924082 21.33109
131.27464 22.77708 20.473091
133.26065 21.390081 19.837091
135.58965 21.416082 20.53309
90.04663 43.10408 13.797092
92.46863 44.06908 12.062092
93.72864 0.7120819 12.420094
93.14862 2.7790809 14.325092
90.94263 3.3860831 15.267094
89.025635 2.5290809 14.375095
92.96564 19.101082 12.604095
95.34964 19.706081 11.486095
95.71463 22.057081 10.170094
93.87964 23.644081 9.524094
92.31464 24.462082 10.763092
92.21164 24.797081 13.271095
180.88365 19.753082 8.368095
182.42365 21.10308 8.645092
183.67865 22.562082 10.429092
182.68364 23.74508 11.907093
180.15065 24.321081 12.716095
178.50865 23.32208 13.046093
153.84465 5.604081 14.872093
154.15065 7.928081 16.455093
156.58965 8.910081 17.05709
158.27664 8.099081 15.473095
159.15465 6.127081 14.555092
159.18965 3.817081 14.921093
99.48462 41.817078 43.998093
99.49963 41.20908 41.20209
97.43863 42.82508 42.27409
95.23163 42.05008 43.06409
94.28165 39.66608 44.005093
95.29465 37.40608 43.534092
183.61165 13.488081 2.3320923
183.46164 16.14508 2.4680939
183.79564 17.92608 0.50209427
185.03964 17.73608 45.721092
184.05365 16.403082 43.92809
183.72264 14.018082 43.519093
302.07764 19.361082 6.5310936
302.09265 19.44308 9.254093
304.19766 18.89508 10.372093
306.55865 18.684082 10.216095
307.88565 18.981081 7.994095
307.66864 19.837082 6.0500946
197.65465 10.563082 46.16109
199.59665 9.458081 0.6690941
201.10664 7.3200808 0.08409119
200.72765 5.261081 45.96109
199.23465 4.5890813 44.16409
196.68364 5.432081 43.262093
5.4326477 8.867082 22.11709
7.08963 8.4350815 22.85709
8.954651 7.018081 21.567091
10.504639 7.982081 20.21309
10.382629 9.991081 18.421091
7.8876343 8.871081 16.85309
258.56564 30.816082 9.712093
258.97766 28.349081 9.913094
260.91965 28.196081 8.467094
261.28366 27.911081 6.117092
260.09464 29.150082 4.0070953
257.94565 30.65208 3.8160934
16.037628 24.40508 43.79509
16.715637 24.014082 46.32609
15.417633 22.924082 1.0550919
14.084656 21.304081 46.96709
11.48764 21.68308 46.53909
10.226654 23.635082 45.978092
236.75165 21.587082 46.888092
236.67764 22.536081 2.058094
237.97163 24.341082 2.8070908
237.44965 26.642082 3.070095
234.88765 27.590082 1.8780937
233.57065 25.974081 0.65909195
123.435646 28.70008 26.47209
125.131645 29.82208 27.48409
127.952644 29.650082 26.758091
128.30365 28.60008 24.66509
129.33565 26.375082 24.34209
128.94064 24.585081 25.47509
63.034637 41.81408 25.79509
63.297638 39.54008 26.383091
61.94763 37.247078 25.62309
60.019623 36.84008 24.393091
58.206635 37.82108 23.233091
58.09262 39.91208 21.987091
287.14966 39.90608 35.94009
286.36566 38.32608 37.76009
287.87766 36.96308 39.373093
290.01065 36.67908 38.88509
291.76666 38.00508 40.42809
290.94766 39.75808 42.10509
206.05664 7.247081 14.808094
205.77264 5.415081 16.890095
203.42865 5.614081 17.945091
201.45764 7.260081 17.952093
201.24565 9.557081 16.901093
201.87764 10.504082 14.7830925
113.16364 23.358082 31.88709
110.297646 23.005081 32.62809
109.633644 22.128082 30.43709
110.58765 20.080082 28.98109
112.40164 18.423082 28.973091
114.438644 18.19308 30.27309
178.04265 25.24908 28.51409
179.62065 24.46108 26.82209
181.00264 22.357082 26.49709
181.06064 19.967081 28.06109
179.78964 19.107082 29.54009
177.77164 19.38108 30.74609
211.35464 25.684082 3.8040924
212.07065 27.216082 1.7380943
213.65865 26.63108 46.78709
215.01065 24.416082 0.18809128
214.25865 22.406082 45.763092
211.88464 22.334082 44.39709
26.571655 4.674081 42.71509
26.103638 7.371081 43.67809
23.824646 8.445081 43.76109
21.667633 7.507081 44.15709
20.739655 5.147081 43.76709
21.59665 3.265081 43.99709
13.845642 8.030081 16.292095
13.094635 8.407082 17.842094
15.117645 7.882081 19.20009
17.294647 9.000081 19.550093
17.663635 11.584082 19.780092
16.047638 13.472081 19.442091
222.76065 1.0370789 9.032093
224.36264 2.4120803 10.294094
224.80365 2.1020827 13.085094
224.15465 1.1250801 14.665092
222.81165 43.91908 14.768093
222.13365 42.54508 13.420094
305.89566 20.438082 42.60709
304.97363 19.385082 44.51109
304.66666 16.95008 45.18009
305.90564 14.674082 43.91109
306.64764 14.058082 42.11809
306.62164 15.182081 39.69809
133.13965 11.044082 15.13309
132.33365 11.842081 17.247091
132.63565 14.132081 18.271091
134.69864 15.2700815 19.08809
136.78964 14.875081 19.67509
137.96765 12.899081 20.26209
15.177643 9.161081 29.004091
14.345642 9.984081 27.44109
14.864655 12.683082 27.17409
15.154633 14.217081 29.02209
15.114655 13.979081 30.86609
13.444641 14.407082 32.07409
240.70964 11.885081 38.43409
242.62364 9.988081 37.45109
243.16164 9.516081 35.49309
241.70464 8.6780815 33.48009
239.30563 7.903081 33.71009
237.97864 7.668081 35.381092
19.176636 3.6360831 42.11809
17.490631 4.80808 42.11909
15.82663 4.30108 40.02409
15.101654 2.5380836 39.14209
14.721649 0.24208069 40.248093
17.300629 44.546078 40.15009
56.159637 7.727081 38.98209
55.101624 10.293081 39.85009
53.61664 11.809081 38.47609
53.64862 11.013082 35.87109
52.65564 8.835081 35.068092
51.085632 7.589081 35.52809
234.93564 9.367082 22.987091
233.13765 11.351082 22.30809
231.97064 11.620082 20.42209
231.55365 10.562081 18.30209
232.59564 8.014081 17.362091
234.69365 7.001081 19.30909
228.26764 25.10008 45.23009
226.57065 25.40508 0.14309311
225.58464 27.057081 0.25209427
223.38864 27.82208 47.01709
221.39365 26.219082 46.18409
221.44064 24.656082 44.17809
272.26065 42.93308 46.26509
274.58066 42.47108 0.9290924
274.60464 41.053078 2.8370934
272.80365 40.20608 4.440094
270.30563 40.08808 4.0450935
268.63165 41.31108 3.2350922
197.77365 6.1030807 3.070095
195.40564 5.363081 3.704094
194.51065 3.935081 1.7920914
195.68265 2.6340811 46.93709
198.21564 2.289081 46.31309
200.58264 3.188081 0.5430908
254.43665 9.253081 36.85609
253.49265 7.165081 36.652092
253.31863 5.103081 37.91809
254.48364 3.994081 39.20909
255.50464 4.193081 41.48009
255.49664 6.060081 43.09109
185.73665 21.84608 15.172092
183.42564 21.732082 15.814095
183.25764 21.94008 18.584093
185.43364 21.783081 20.139093
187.55864 20.809082 19.95009
188.61165 19.066082 18.889093
119.66665 38.990078 44.08809
117.36165 37.268078 44.17309
117.783646 34.893078 44.95909
119.38464 33.42608 45.15309
122.034645 33.71808 45.54409
123.38965 35.54508 44.89209
267.03665 24.94308 14.740093
267.42764 25.046082 16.467094
265.89166 24.629082 18.155092
264.12564 21.976082 18.000093
264.39066 20.153082 17.39309
266.83466 19.053082 15.359093
208.52264 27.695082 22.14409
206.26665 27.95708 22.285091
204.98064 30.14808 21.03109
206.05765 31.512081 19.664091
208.41664 32.04908 19.39009
210.62465 30.549082 19.29709
252.44965 41.42008 26.31609
253.84964 39.46008 26.68609
252.87564 36.73208 26.18609
250.44064 36.59108 25.75909
248.94765 35.928078 27.98909
249.04764 37.56408 29.75909
55.229645 39.56908 16.972092
57.22464 40.08408 18.969091
59.59262 39.546078 18.570093
60.26764 38.094078 16.604095
59.896637 38.22308 14.124092
58.532623 39.36208 12.527092
211.70764 36.05108 24.82209
211.75165 33.72108 25.26709
210.21364 32.35608 23.573092
207.48764 32.29308 23.56909
206.07065 34.02808 25.445091
206.20564 32.77008 27.76209
309.52563 28.56108 19.79809
311.00665 26.236082 19.04709
1.7566528 25.61708 19.54009
1.6786499 24.904081 21.761091
3.6166382 25.710081 23.282091
5.0616455 27.72808 23.18909
307.20764 24.930082 22.85309
308.56464 25.83908 20.747091
308.14066 24.453081 18.71709
306.17166 23.526081 17.730091
304.27365 21.890081 18.681091
303.69965 21.173082 20.497091
283.70663 35.66908 14.008095
281.89664 37.24808 14.466095
279.81165 37.98508 13.447094
278.89664 37.643078 11.046093
279.83365 36.53008 8.930092
281.08566 34.13708 9.106094
86.89963 20.577082 27.11609
85.00363 18.674082 26.77109
84.93863 17.904081 24.73609
87.07065 17.61008 22.91209
88.35364 15.515081 22.938091
88.55963 13.579082 24.41509
47.933655 45.46108 20.86809
46.584656 44.10708 22.85709
47.001648 41.76308 23.58209
48.228638 40.64608 22.09309
50.39264 39.26908 22.92709
52.00064 39.83408 24.16609
18.809631 5.5230813 19.975092
16.38565 4.689081 19.917093
14.863647 5.5300813 18.015093
15.363647 5.794081 15.586094
16.998627 5.370081 14.103092
19.462646 4.6940813 14.461094
254.76665 43.92308 31.334091
256.58566 0.39508057 32.55509
259.01065 0.4280815 32.39009
260.16165 43.74208 31.17409
261.58163 44.72008 29.150091
261.71466 1.7010803 28.525091
41.87564 4.5370812 19.917091
40.624634 5.935081 17.67309
41.54663 5.922081 15.684091
43.308655 7.633081 14.783091
45.223633 8.718081 15.887091
46.167633 8.839081 17.962091
170.48265 21.40208 1.5880928
171.45265 23.026081 1.7080917
170.38264 25.320082 1.7200928
167.63664 25.420082 2.6150932
168.05565 26.356081 5.2100945
169.91165 25.935081 6.8020935
24.350647 29.488081 32.94009
23.41864 28.823082 31.060091
23.870636 28.837082 28.626091
26.243652 29.403082 27.26209
28.222656 31.317081 28.16509
28.558655 32.24108 29.97609
227.30464 13.104081 31.518091
225.07065 14.2700815 32.27209
224.13765 16.58208 31.39609
224.87164 18.243082 30.15409
227.56964 18.236082 28.95809
229.43265 16.68708 29.34909
128.41765 34.98408 5.3250923
128.69765 36.82008 6.3540955
131.29564 38.38408 5.973095
133.05365 36.928078 5.475094
133.07765 36.64908 2.6610909
131.13864 37.05208 1.157093
179.49664 5.709081 4.593094
180.44365 6.8070807 2.7140923
182.85864 5.884081 2.3160934
184.69765 4.771081 3.7780952
184.96564 4.481081 6.1110954
185.26465 6.001081 7.259094
73.982635 41.85608 44.991093
73.04764 43.16808 46.394093
70.88464 44.914078 46.026093
70.27063 0.52508163 43.85609
70.58365 45.21108 41.394093
72.686646 0.7060814 41.145092
246.69664 8.441081 12.609093
248.25664 6.619081 13.639095
250.37164 5.808081 11.840092
250.62263 6.212081 9.490093
249.09464 7.190081 7.537094
246.86864 7.309081 7.084095
290.02563 15.082082 27.90909
287.63266 14.9020815 27.80809
285.73264 15.958081 29.362091
285.90265 17.373081 31.09209
287.51965 18.880081 32.48609
289.70865 18.246082 32.51709
131.16864 32.47808 22.97409
129.49365 32.05008 20.910091
126.88564 31.451082 21.17609
125.451645 31.429081 23.098091
125.60065 32.07708 25.56209
126.202644 34.511078 26.08209
87.798645 31.255081 27.35009
85.40463 32.40008 27.36009
85.10065 34.59108 27.320091
86.57364 36.73608 27.15309
89.05362 37.06508 26.72409
90.492645 35.84508 27.80909
128.04164 22.43308 21.035091
129.00365 25.428082 21.084091
127.47064 27.431082 21.96509
125.28864 27.255081 22.879091
123.65665 27.29408 20.72009
124.15064 26.660082 18.39009
157.22964 20.966082 2.046093
157.84564 22.696081 1.0220909
159.56865 23.687082 46.318092
160.65665 22.60308 44.44109
161.23065 20.413082 43.96709
159.87964 18.341082 43.943092
76.70462 38.26508 17.055092
74.89462 39.71608 17.714088
72.17163 39.11208 17.80809
70.96362 38.18008 15.568092
71.25464 37.68008 13.496094
71.334625 35.61008 13.085094
216.69464 1.925081 12.775093
219.48665 2.277081 13.376095
220.09364 3.419081 11.516094
218.87364 5.720081 10.189095
217.02864 6.293081 10.068092
215.40065 7.111081 11.540092
242.65465 39.70308 18.19709
243.16064 38.75008 20.19009
245.58965 38.79308 21.39409
247.39365 40.00608 20.633091
248.14565 42.226078 21.334091
247.22464 44.05508 22.00209
128.71864 33.79308 32.38709
127.01565 33.864082 30.19409
127.299644 32.59008 28.18909
129.21065 32.07008 26.73409
131.46265 33.121082 26.49209
132.70265 34.61008 27.64109
50.812653 28.359081 36.89209
49.937653 29.063082 38.80109
50.35965 28.670082 41.394093
51.17865 26.602081 42.32909
52.936646 24.90208 41.59309
54.83365 25.198082 39.27909
178.91064 16.661081 44.57609
177.82465 14.702082 44.33509
176.78464 13.452082 42.27809
176.75865 13.533081 40.117092
177.90964 15.635081 38.46109
177.88464 18.06108 38.83609
39.85965 1.1950798 25.601091
38.669647 44.69108 25.82809
37.399628 1.6820793 26.376091
36.186646 2.0040832 28.63809
35.209656 0.21607971 29.92509
36.10263 43.41608 30.91509
32.417633 5.202081 44.83109
34.308655 3.673081 46.42809
36.30063 4.200081 46.99509
38.213654 5.934081 46.506092
37.969635 8.2110815 46.32909
36.054626 9.898082 46.44709
76.80063 44.58908 31.66709
76.380646 44.19708 28.70009
74.04465 42.64508 28.61809
72.36963 42.27808 30.07909
70.49664 44.19608 31.119091
70.57663 0.73908234 31.282091
132.78465 16.369081 15.89109
132.94864 18.591082 16.10909
131.87364 20.07508 17.96709
130.05565 20.32508 18.88809
130.30264 19.253082 20.89509
130.01465 17.09708 21.76209
244.55064 20.444082 2.1410942
243.15564 22.050081 1.0040932
242.67464 23.998081 1.626091
240.88664 24.314081 3.2400932
241.09564 24.189081 6.074093
242.77065 22.962082 7.164093
141.35365 36.16708 21.52609
142.42865 37.22808 23.473091
143.11064 36.15208 25.21409
145.81865 35.78708 25.59509
147.56165 36.65108 24.13709
147.64964 37.91008 22.35609
191.23064 11.216082 32.86309
188.56665 10.778082 32.83109
186.85664 12.679081 33.17309
187.03964 14.708081 34.44609
188.45764 15.492082 36.20109
190.75664 15.166081 36.72409
114.05565 1.5110811 45.70209
113.757645 3.144081 44.22009
115.01465 5.060081 43.88509
116.60664 6.651081 45.44209
116.687645 6.826081 1.0420914
115.51865 5.038081 2.6490936
280.78564 18.70708 35.40709
282.39465 20.747082 35.33009
284.66364 20.771082 34.651093
286.51166 19.317081 34.74509
286.58566 16.748081 34.221092
284.90063 16.09608 33.15809
91.47464 1.1740799 41.666092
90.88965 44.74808 43.00009
92.49164 42.629078 42.43209
93.367645 41.68708 40.65509
93.42062 42.47208 38.02409
91.90265 43.66108 36.846092
115.83565 1.4890823 43.11109
116.09464 45.04308 44.66309
115.14964 42.50208 44.98809
113.23464 41.29508 43.79809
112.213646 42.16608 41.255093
110.796646 44.39408 41.41409
57.047638 16.88908 22.35009
57.353638 14.6850815 22.997091
55.593628 12.910082 24.382092
54.962646 13.396081 26.494091
52.67865 13.650082 26.38509
51.30963 14.504082 24.71709
126.03964 35.643078 14.934093
123.81764 35.46808 13.235092
123.84464 35.49808 10.9080925
125.73865 34.143078 9.767094
127.506645 35.91508 8.380093
128.04764 38.16508 8.893093
63.091644 37.76708 13.353092
63.74762 38.67908 15.731094
65.74362 38.64408 17.16809
68.08963 37.726078 16.669094
69.09363 36.32708 15.126095
68.26364 34.68008 13.926094
90.07663 18.723082 44.46809
88.140625 17.807081 45.36209
87.966644 16.647081 0.91509247
89.29263 15.579082 2.1950912
91.841644 15.085081 2.301094
93.15762 14.644081 0.4480934
137.92665 41.81608 20.532091
140.02264 41.69608 21.730091
140.93965 39.858078 23.06409
140.07364 37.82608 24.80109
137.92064 37.25808 25.27309
135.71164 37.32408 23.823092
35.94165 1.377079 4.096092
38.213654 1.0860825 2.9810944
39.03763 0.9350815 0.82209396
38.09964 1.6750793 46.019093
35.765656 0.76408005 44.81309
34.04663 44.886078 45.44809
285.11163 44.86908 35.56409
285.71866 42.76708 35.776093
284.85864 40.94008 37.53609
283.59064 40.92708 39.51709
283.43365 42.87308 41.499092
283.42065 45.13708 41.492092
232.14365 2.4430811 33.64209
230.47464 4.488081 34.186092
230.75964 6.859081 33.76409
232.70665 8.376081 33.44909
234.80264 7.8530807 31.66009
235.62564 5.8390813 30.83509
160.85164 43.08708 18.400091
161.56564 40.59108 19.93909
162.91365 40.77808 22.049091
164.13565 42.61808 23.13409
163.27065 45.04308 23.77309
162.07565 0.7030792 22.122091
150.97365 23.365082 10.2030945
151.63664 24.07908 7.7190933
149.79665 25.393082 6.0660934
147.53064 25.532082 7.6460953
145.63765 24.257082 5.933094
146.46465 23.14508 3.8380928
168.95865 4.033081 2.4840927
168.07765 3.809081 0.21009445
167.44765 5.103081 45.499092
166.03564 7.062081 45.32209
165.44965 9.067081 46.978092
165.60365 9.542081 1.8790932
290.90466 36.89608 2.5850945
289.95764 38.67308 1.6430931
289.52365 38.84108 45.91309
289.92664 37.33708 44.30109
292.12766 36.62008 43.21609
294.38666 36.80508 43.79509
308.76566 19.866081 17.887093
307.37964 21.071081 17.07309
304.84564 20.67608 15.932095
304.00366 18.960081 14.861095
305.13965 18.11008 13.265095
307.58365 16.08908 13.371094
161.21164 11.591082 13.561092
159.68065 10.651081 14.951092
159.76364 9.136081 17.469093
162.07965 8.848082 18.522093
163.22264 6.609081 17.542091
162.65065 5.557081 15.624092
101.48764 8.524081 37.304092
99.53763 7.079081 36.12609
97.90265 5.386081 37.08309
97.71463 4.278081 39.43409
100.21265 3.709081 40.71309
100.49063 5.355081 42.28209
177.58765 18.845081 24.653091
178.94565 20.804081 24.105091
178.90364 20.760082 21.31409
180.71465 20.182081 19.88009
182.88664 19.076082 19.848091
183.94165 17.69108 21.480091
135.73865 44.49608 43.68709
136.41565 44.101078 41.59409
135.36565 45.07108 39.32209
133.48964 1.5970802 39.16709
132.60265 2.7970824 40.62809
130.78665 1.9320809 42.38209
86.00165 22.656082 33.76109
85.57764 24.03708 36.019093
86.40564 26.576082 36.47609
87.081635 28.424082 34.638092
88.62564 28.05108 32.79509
90.55765 26.924082 33.34509
49.782654 32.57708 32.07109
52.39563 32.05508 33.56409
52.49463 31.684082 35.72409
51.243652 31.536081 37.62909
49.268646 32.34308 38.52509
47.584656 33.40308 37.96009
56.594635 13.039082 40.73009
57.65164 11.348082 38.91109
55.84262 12.921082 38.07609
55.90265 12.610082 35.72209
57.670624 12.696081 33.81609
60.315643 12.968081 34.34209
133.53964 22.066082 44.873093
135.40164 23.689081 44.457092
137.56964 22.945082 43.047092
137.45665 21.354082 41.19209
136.43765 18.958082 40.81209
135.34265 17.491081 42.360092
200.55064 6.346081 2.5920944
201.11165 4.805081 3.6610947
203.01065 3.377081 2.308094
204.86864 4.564081 0.5610924
205.88464 6.957081 0.3230934
205.36365 8.991081 1.0830917
22.788635 9.513082 41.52209
21.709656 11.357081 42.388092
18.901642 11.714082 42.56909
17.119629 10.487082 41.56709
16.626648 8.059081 40.93109
17.844635 6.411081 39.922092
288.98965 23.97808 13.017094
287.74765 21.407082 13.276093
286.98166 19.973082 11.262093
286.77264 20.50208 8.952095
286.12366 22.828081 8.477093
287.35666 24.019081 6.9250946
290.56464 45.21508 11.742092
292.25064 44.03608 13.712093
294.84366 44.64708 12.874092
295.83264 0.4450798 11.530094
294.85266 1.5780792 9.325092
292.70364 0.8310814 7.8070946
101.660645 28.949081 38.964092
99.51163 29.396082 37.84009
99.66763 28.862082 35.651093
101.31064 30.307081 33.91709
102.95264 31.430082 34.55109
103.24063 33.531082 34.65309
218.88565 6.930081 33.53709
220.52864 7.752081 32.09009
222.95465 7.990081 31.973091
224.92764 7.176081 33.27109
225.37964 6.176081 35.57409
224.23865 6.467081 37.59709
133.75264 13.583081 40.41109
135.09665 13.051082 38.610092
136.00365 14.901081 37.37209
137.43765 17.040081 38.04209
138.82065 17.289082 40.51609
139.71765 15.458081 41.66109
111.81564 31.373081 17.56009
109.966644 31.297081 19.182093
110.57165 29.658081 20.593092
108.72465 27.989082 21.233091
106.40164 28.422081 20.191092
105.84364 28.14508 17.761093
147.39565 8.321081 47.01709
146.67365 6.5110807 1.1790924
144.59065 4.7140813 0.64409256
144.87164 3.909081 45.839092
145.90865 4.828081 43.84809
144.85565 5.228081 42.027092
161.15065 25.834082 45.33109
162.47664 26.73508 46.86209
162.09364 26.026081 1.9420929
160.22964 26.223082 3.7880936
157.75764 25.474081 3.284092
156.22565 26.458082 2.067093
118.24664 9.136081 32.74809
118.94665 9.112082 30.66609
117.797646 8.429081 28.18409
116.23464 6.734081 28.19309
113.51365 6.821081 28.98809
113.56864 7.7740808 31.24209
195.23564 19.636082 25.72209
195.14464 17.894081 27.63709
194.65164 15.356081 27.30609
192.79265 14.332082 25.830091
190.91464 15.534081 24.95809
191.44064 16.45108 22.17909
115.66665 31.462082 28.22909
114.86065 29.550081 26.51609
117.161644 28.231081 25.16609
119.312645 28.901081 25.86709
120.59464 27.241081 27.34409
120.033646 26.119081 29.091091
144.13264 33.732082 28.80509
146.19464 33.08308 27.69309
148.46965 33.23808 28.58209
149.35065 33.32208 30.87809
148.41365 35.05608 32.94909
146.73164 36.17408 32.92409
164.29665 23.998081 8.2030945
165.41064 24.129082 6.143093
166.68665 22.519081 4.697094
167.16864 19.830082 5.117092
166.12065 18.130081 6.5820923
163.28264 19.237082 7.096092
267.33966 6.341081 41.27509
266.04465 4.383081 41.14909
263.65765 5.914081 41.929092
262.78564 7.562081 41.39009
263.29166 10.021081 41.24709
265.29865 11.266082 41.92109
174.26364 45.02708 26.67009
173.34064 43.73608 25.37309
170.84364 43.77908 24.101091
169.31665 45.45008 23.775091
170.04164 2.0170836 21.952091
172.01665 2.393083 20.813091
164.44664 34.87508 21.06409
163.67165 36.69408 22.81209
160.96565 36.32908 23.72509
158.96164 35.67308 22.95809
158.15364 34.90208 20.27709
157.82465 36.55108 19.03709
14.106628 15.182081 19.76009
14.244629 15.140081 21.74109
12.694641 15.886082 23.47509
10.766632 17.238081 23.40109
10.263641 19.428082 22.04809
11.249634 20.570082 20.46109
146.79364 6.071081 15.852093
148.38765 7.698081 13.983093
150.58965 7.637081 13.396095
152.06465 5.645081 12.545094
151.43164 3.448081 12.213093
149.57164 1.9600811 12.508095
80.80063 21.025082 24.98109
81.70462 19.437082 27.14609
82.36163 20.143082 29.40209
82.86963 22.50208 30.36609
82.47565 24.90208 29.40609
81.54062 25.81508 27.63109
136.42564 23.637081 17.329094
138.56465 22.32908 18.12309
138.63065 19.744081 18.803091
136.56865 18.619081 19.18709
135.33365 17.45408 17.138092
137.24164 16.37008 16.565094
146.33464 4.712081 8.859093
147.59164 6.009081 10.608093
146.28964 7.380081 12.594093
144.26065 7.482081 13.567093
142.53865 6.064081 13.955093
140.65764 5.7270813 12.734093
235.54364 28.458082 25.05009
233.52565 30.333082 25.16509
232.84764 32.13108 27.22909
234.70465 32.74308 28.43709
236.61664 31.342081 29.89809
236.67964 28.50908 30.09609
159.16064 34.79308 6.4080925
159.36765 32.22308 5.883095
160.12764 31.007082 3.8730927
161.16965 31.33908 1.7930908
161.79265 33.357082 0.37809372
162.24265 36.06508 1.2480927
216.57764 44.20208 11.793095
217.08264 44.78308 13.991093
219.04564 45.16308 14.961094
220.61664 42.83908 16.045094
219.97365 40.41708 15.819092
218.29665 39.30208 15.567093
281.03464 41.89808 42.34809
280.37265 41.83108 40.46509
279.48566 39.53108 39.72609
278.12064 38.219078 40.936092
275.96664 38.72208 42.679092
275.01364 40.66508 42.75909
308.43665 28.67608 33.16709
308.53665 29.20408 31.03109
310.71765 29.254082 29.629091
1.7686462 28.472082 29.99809
3.14563 27.22508 31.71409
2.5446472 26.36708 34.07209
158.93864 8.546082 39.527092
159.55765 7.382081 41.40009
159.75865 5.149081 41.41809
161.55165 4.049081 42.17609
164.17064 4.047081 41.846092
165.28064 5.713081 41.03609
76.67963 1.9340836 3.5750923
75.43564 44.88008 3.032093
76.791626 42.56608 4.3420944
78.83365 43.13108 5.652092
78.604645 43.09908 8.223095
76.97565 43.97908 9.5970955
240.19563 17.425081 21.61009
242.19664 17.144081 23.202091
243.63963 18.86708 24.06409
244.41563 21.279081 23.06509
242.52164 23.285082 22.21709
240.41664 23.304081 22.35909
230.11165 0.39807892 27.45709
231.69864 1.665081 28.95609
230.40865 2.0970817 31.64909
228.91264 0.39908218 31.96509
229.40564 44.483078 33.874092
231.36165 43.17708 34.36809
189.93164 36.28808 31.65509
191.82965 36.12008 29.73509
194.35265 34.86208 30.01209
194.97264 33.52908 31.43009
194.42665 31.835081 32.71809
192.19264 30.268082 33.29909
269.00766 21.730082 19.06109
267.46664 22.296082 20.71409
267.55066 21.68608 23.27909
269.81265 20.001081 23.789091
272.09164 20.89808 24.38509
272.02164 23.063082 25.226091
283.30865 40.96408 17.79409
281.76465 39.62708 19.45609
281.74765 37.04008 20.24309
282.87463 35.24808 19.30109
284.35764 34.78608 17.372091
285.70966 36.33308 15.930091
200.09164 35.71408 31.83909
197.52965 35.69308 31.77409
196.15564 34.64508 33.54309
196.59665 32.83608 35.637093
198.44664 32.17208 36.58109
200.87465 32.59608 36.71509
39.357635 23.20408 42.76709
41.677643 23.267082 42.14109
43.06964 25.258081 41.10409
42.696655 27.621082 40.48909
40.450653 28.87408 40.234093
38.131653 28.08608 40.53109
248.61765 40.28708 26.51009
246.85664 40.23008 24.632092
245.18665 38.88208 24.11609
245.90764 36.37008 24.17509
245.46164 34.94908 26.10309
244.17264 35.46708 27.98809
98.61963 2.485081 20.16809
99.73462 2.487081 17.549091
98.84564 3.968081 16.077091
96.38364 4.785081 15.58409
94.03262 4.511081 16.744091
94.50964 5.6480813 18.75009
231.15364 3.7340827 11.936092
229.40964 5.5230803 12.716095
227.17365 4.355081 13.604095
226.58965 2.6690803 14.973095
227.03665 45.46408 14.398094
228.14865 44.50908 12.513092
292.66666 15.054081 28.19609
291.80164 16.08308 30.28609
292.96664 15.698081 32.92809
294.46365 14.090081 33.50309
297.01764 13.286081 32.87209
298.35764 14.261082 31.063091
107.12665 42.976078 8.300095
107.459625 44.30208 10.765095
105.43463 43.62008 12.437092
104.923645 41.32008 13.049095
103.37463 39.74308 11.710094
102.62262 39.54208 9.473095
177.72165 12.543081 7.5890923
179.19165 10.9610815 6.7740936
180.04764 11.907082 4.213093
180.90465 13.525082 3.3830948
181.20564 16.13508 3.8140945
180.47064 17.609081 5.294094
266.96466 15.866081 24.64909
266.35965 18.22108 25.23209
265.45166 19.939081 23.72109
265.57565 20.233082 21.101091
266.31964 18.403082 19.60209
264.16666 18.019081 19.23409
7.549652 21.88408 3.1810951
9.213654 21.882082 1.7460938
10.760651 20.32208 1.7000923
11.115631 18.118082 1.9220924
9.781647 17.00208 3.270092
9.534637 15.094082 2.3860931
211.93564 3.230081 3.8500938
209.35065 4.1090813 3.3730927
209.55864 5.8990808 1.2620926
207.81364 5.217081 46.82109
206.68965 3.314081 45.929092
207.30965 1.015081 45.95809
296.23663 16.52008 9.356094
295.24866 17.47808 10.752094
296.31863 19.606081 10.925095
298.74664 20.396082 11.938095
300.44064 19.194082 13.212093
300.78366 16.630081 13.329094
237.07864 5.951081 10.352093
236.23964 7.949081 11.439095
234.01665 7.960081 11.430092
233.40364 9.212081 13.659092
234.36165 9.071081 15.670094
236.23265 8.413081 16.816093
309.01764 42.365078 12.662094
310.27466 43.53608 10.975094
1.0556335 44.56408 10.941093
3.4866333 43.68008 10.434093
3.969635 41.32308 9.685093
3.4366455 39.157078 11.086094
266.87665 30.064081 15.517091
265.11163 28.20708 14.349091
263.30164 27.085081 15.09409
262.32764 26.35008 17.40109
263.30164 26.567081 19.78709
264.95264 27.75908 20.75309
168.49765 1.0940819 5.756092
169.21365 1.158081 3.3180923
167.93665 0.4900818 0.89009094
166.28865 44.240078 1.1850929
163.81065 44.59908 1.6410942
162.48465 1.0220795 2.4380913
138.51564 33.54308 41.57409
138.30264 33.93908 44.06709
138.84465 35.25508 45.471092
140.34764 33.86108 46.596092
142.66664 33.969078 46.58709
144.70665 35.10208 45.22209
87.926636 21.449081 45.70309
87.041626 19.415081 0.029090881
87.79062 18.712082 2.3190918
88.92563 19.857082 4.2290955
90.14664 22.048082 4.0940933
90.68164 23.494081 2.9490929
50.00464 34.76408 3.0740929
48.77765 34.12808 5.1790924
49.667633 33.95108 7.614094
51.28665 35.20308 8.871094
53.029633 36.90208 8.405094
54.07065 38.09908 6.5750923
281.71765 35.51508 4.893093
280.27264 35.84508 6.266094
278.25165 37.63108 5.801094
276.71265 37.60208 3.579094
276.44464 36.04408 1.7680931
275.93964 33.99308 1.8590927
105.00864 33.25408 27.39809
106.93463 31.65908 27.03609
107.739624 29.632082 28.50609
106.68863 28.51608 30.16709
106.87564 29.257082 32.68009
107.72565 31.04408 33.55609
182.23164 33.080082 39.84809
181.39764 35.00008 41.929092
182.91264 36.41208 43.18409
184.99765 36.879078 42.30209
187.41765 35.39208 43.08309
187.31764 33.59908 44.381092
21.76764 32.72408 12.536095
23.79364 31.76308 13.362095
24.889648 31.467081 15.669094
24.156647 31.962082 17.701088
24.14563 34.09808 17.663094
23.015656 35.93108 16.918095
168.35065 36.21408 26.09409
166.72264 34.32308 24.952091
164.33765 34.61408 24.72409
162.48764 35.78108 25.93209
162.47264 37.81908 27.58109
164.14264 38.75608 29.02409
63.225647 4.073081 46.71909
61.57263 5.1610813 45.39209
59.756622 6.316081 46.21209
59.71463 8.587081 46.26009
61.554626 10.602081 46.84809
63.650635 10.488081 0.5610924
280.94864 42.62408 31.69309
282.57864 44.18008 31.45309
282.34366 43.03108 33.94909
283.48065 41.365078 34.77509
285.26965 39.74108 34.15309
286.24564 39.28608 32.020092
36.565643 22.385082 40.95909
36.765656 25.101082 40.68209
35.893646 26.545082 39.40609
37.95465 26.206081 38.20609
38.15863 25.555082 35.80509
36.394653 24.810081 33.91309
308.63065 0.29608154 16.54009
310.03064 43.90108 15.39309
1.3846436 44.05508 14.73309
2.672638 0.15608215 14.70709
3.693634 1.7810822 16.39709
3.028656 2.6360831 18.42209
308.30966 41.24208 44.73809
308.80365 39.09808 45.39109
308.95764 37.49108 43.65009
0.07763672 36.53008 42.57809
2.2956543 37.90508 42.44509
3.271637 38.73008 43.54209
275.99066 -1.6639189 18.393091
274.57364 -2.274919 20.33509
271.72665 -1.457919 20.17509
270.62064 0.3860811 19.16809
271.21365 2.291081 17.77909
273.25964 3.050081 16.73609
194.11664 19.12708 4.0260925
193.52264 20.349081 5.5540924
190.60765 20.68608 6.1400948
189.24565 18.99208 5.836094
188.56564 17.57208 3.6190948
188.83365 18.12008 1.3850937
70.97464 39.69808 6.6560936
69.775635 38.83808 4.501095
67.397644 39.85208 3.3370934
69.597626 40.06608 2.006092
71.10962 41.63708 1.815094
71.29962 44.12508 3.388092
189.41765 19.84308 32.66509
190.90665 19.188082 30.58809
190.10965 18.821081 28.202091
188.03665 18.63808 26.85609
185.44264 19.481081 27.43309
184.65764 20.060081 29.48809
157.61464 16.525082 33.388092
155.68465 18.29408 33.81009
155.22865 19.845081 32.47909
155.76764 22.102081 33.43109
157.60765 23.074081 34.77109
160.19565 21.651081 35.020092
185.74364 39.78408 27.85409
186.95164 41.61308 27.85109
187.01865 40.02308 30.37309
189.43564 39.02008 31.303091
191.66664 39.04708 30.33609
192.14264 40.98108 30.744091
148.69165 3.427081 45.56909
149.08464 5.533081 44.15009
148.13264 5.783081 42.30309
150.26564 7.076081 41.304092
151.63864 5.911081 39.24609
151.94365 3.7260811 38.659092
128.01964 13.181082 42.93209
129.07965 13.320082 40.86309
130.96265 12.207082 39.87109
133.28264 11.109081 41.21009
132.56865 9.230082 42.790092
131.18765 9.3030815 44.81509
40.397644 1.1180801 44.49409
38.271637 1.9240814 43.37209
36.979645 1.0760803 41.58709
36.538635 45.01608 40.09509
36.462646 42.76908 41.91709
37.667633 42.10708 43.39009
202.68965 13.584082 25.57609
202.47264 11.754082 24.09209
201.05664 9.387081 24.070091
198.69165 9.173081 24.139091
197.03464 9.779081 25.89809
197.18965 10.806082 28.157091
40.77365 21.973082 15.841095
39.17865 23.494081 16.445095
39.091644 26.20008 16.744095
41.25763 27.635082 17.466095
43.493652 27.651081 16.752094
44.936646 26.122082 16.100094
286.60764 10.388082 6.685093
287.71664 12.386082 5.3580933
285.89465 13.458081 4.7000923
283.73166 14.380081 5.600094
282.77966 14.660082 8.034092
283.55466 14.045081 10.074093
206.78165 13.8100815 31.48509
207.08565 11.182081 31.10809
205.59364 9.430081 29.69609
204.25764 10.314081 27.67509
202.05864 10.747082 28.47109
201.08864 11.563082 30.45509
179.28064 21.136082 15.129093
180.75264 22.088081 16.218094
179.73265 23.74208 18.789091
177.88765 23.46808 19.709093
175.57664 23.188082 18.712091
175.07364 24.320082 16.660095
115.743645 8.713081 25.90609
115.562645 7.575081 23.48809
117.37965 5.989081 22.487091
119.588646 5.564081 24.02009
121.62465 7.142081 24.848091
121.87865 9.477081 24.494091
56.715637 8.546082 10.440094
56.689636 10.636082 9.386093
57.452637 12.967081 9.961094
56.63562 13.707082 12.511093
57.295624 12.582082 14.681095
59.02063 11.173081 15.357094
150.80664 37.65908 28.45509
148.62465 36.35708 27.54809
146.10265 37.18208 28.08809
145.53165 39.65108 28.95809
145.31265 38.97208 31.10309
146.59964 39.58508 32.72909
277.16364 35.38908 38.71809
279.34464 36.76008 37.992092
279.82065 36.78408 35.61909
280.21964 39.05808 35.02509
279.08765 41.25308 36.061092
276.50064 41.532078 36.248093
203.54764 24.86708 35.40309
201.49565 26.356081 35.51709
201.50664 29.171082 36.373093
202.89865 30.460081 36.66409
203.15164 31.560081 34.262093
204.54665 30.755081 32.23109
196.08765 22.288082 6.398094
197.70164 24.357082 4.6840935
199.22765 26.106081 5.497093
199.90764 26.64108 8.020092
199.35464 25.987082 9.977093
200.71864 24.441082 10.540092
118.98965 29.14108 5.1390953
120.508644 29.848082 5.0920944
119.87565 32.38408 5.874092
119.22265 33.29908 7.9640923
118.22165 32.22308 10.107094
118.92065 30.219082 11.282093
54.180634 15.474081 2.7690926
53.81964 13.802081 4.148094
55.29663 11.578081 3.7640953
54.970642 10.3950815 1.4810944
57.55063 10.751081 0.270092
58.834625 12.374082 0.25609207
1.9416504 19.21108 8.179092
1.127655 20.261082 10.409092
310.68964 18.97508 12.069092
308.98965 17.817081 11.711094
308.95966 15.592081 10.323093
310.26865 14.127082 9.051094
299.13864 23.526081 11.359093
301.11066 22.098082 10.685093
303.00366 21.11708 11.595093
304.63864 21.455082 13.259094
305.17764 23.481081 14.645092
303.90665 25.042082 16.081093
164.90665 31.88108 23.30009
162.57965 32.73808 24.30109
161.01965 32.024082 25.78409
160.97664 30.113081 27.34609
160.44365 28.114082 26.88809
161.62265 26.265081 25.34509
220.47565 13.128081 31.52409
222.51665 12.683082 31.97209
222.99864 10.900082 33.14909
223.44264 10.964082 36.09709
222.31165 12.368081 37.56609
220.06865 11.706081 38.09309
114.160645 20.448082 5.6040955
114.046646 20.821081 3.1180954
115.89365 19.51308 2.3260918
116.157646 17.34708 1.808094
115.83665 14.999082 3.3770943
115.48264 15.221082 6.1530952
269.76666 15.758081 28.37309
269.17664 16.72508 26.27409
270.10565 18.72508 26.26209
269.52664 21.076082 27.80009
267.44864 21.529081 28.82309
265.68063 20.243082 29.80109
92.16464 1.2400811 44.49409
93.538635 -0.20591892 45.64109
94.456635 -0.76991904 43.388092
96.03662 0.18508111 41.80609
97.45264 2.283081 42.14009
98.495636 2.939081 44.012093
62.149628 14.683082 31.63209
60.920624 12.447082 31.38209
58.597626 11.927081 30.20309
57.41162 13.033081 28.254091
57.59964 15.344082 27.060091
56.04062 16.33308 27.97409
133.76465 17.28808 35.75109
134.73265 18.894081 38.08609
133.75365 18.68608 40.27309
131.54164 18.142082 41.39009
130.36964 15.999082 40.74509
131.51964 14.621081 39.41009
45.92865 6.625081 30.49209
46.720642 6.076081 32.541092
49.02664 5.0760813 33.02309
51.034637 6.2610807 33.27809
52.693634 7.067081 31.30409
52.24765 6.920081 29.074091
223.42865 14.258081 9.789093
226.08064 13.676082 10.511093
226.76764 11.510081 12.171093
224.95764 9.997082 12.518093
223.50764 10.337082 14.950092
223.20665 12.266082 16.395092
171.15065 2.143083 4.792095
173.69365 2.4240813 4.4810944
175.58365 0.79808044 5.0890923
175.62065 43.64208 5.176094
173.48064 42.06308 4.428093
171.70964 42.81108 3.2480927
93.51764 3.972081 34.34209
96.01663 4.455081 34.53709
97.36963 6.744081 34.25409
95.916626 8.644081 33.638092
94.841644 10.091082 35.96209
94.50763 9.125081 38.34509
149.51164 39.82108 4.3590927
149.13264 41.75908 2.4450912
147.23465 42.41908 1.5220909
144.79965 41.865078 1.7180939
144.48764 39.36308 0.3610916
145.78365 37.62508 0.41309357
73.63263 22.60008 2.548092
75.26163 21.90508 1.1800919
77.10065 20.081081 1.2020912
77.43564 18.108082 3.3940926
75.89862 16.85708 1.8560944
74.11963 15.759082 2.6440926
30.402649 33.93708 24.34209
29.02063 32.55008 25.16309
28.025635 32.53908 23.30509
25.590637 32.37608 23.25509
23.805634 32.20608 25.153091
23.707642 33.34608 27.13809
24.90564 21.78008 13.464092
26.308655 23.99908 12.807095
25.528656 25.474081 11.011093
23.242645 25.22108 10.188095
21.72763 27.083082 10.776093
21.784637 28.622082 12.775093
79.59665 33.21608 30.24009
81.23865 34.47108 29.50709
83.93265 33.42808 29.70609
84.36563 31.92608 31.195091
84.70865 29.156082 30.32809
83.87564 28.107082 28.17709
267.68265 8.613081 44.30809
267.83966 10.821081 44.42109
267.99866 12.076081 46.60009
270.09265 12.426082 0.7130928
270.68164 11.0600815 2.7690926
269.95663 8.958081 3.657093
299.94666 40.57908 14.743095
301.49265 42.07208 15.463093
300.64566 44.150078 16.836094
298.59665 44.13308 18.54709
297.98166 42.379078 20.37409
298.50366 39.99108 20.68709
191.44765 38.84208 38.52309
190.36565 37.17608 39.54309
188.18065 36.54008 40.145092
186.01265 37.351078 40.026093
184.89664 39.39708 39.03009
185.44765 41.68008 38.80609
263.70465 27.30108 26.77309
261.71866 25.944082 25.598091
261.29065 25.203081 23.68009
262.43265 24.612082 21.64609
264.87265 24.337082 20.97109
267.08865 25.056082 21.914091
21.85263 2.4970832 23.39509
20.443634 4.7260833 23.77409
18.015656 5.0950828 23.292091
16.216644 3.7950835 22.59909
15.255646 1.7760811 23.36609
14.749634 2.150083 25.24109
47.72165 15.228082 9.245094
48.37964 13.601082 8.163094
50.502655 13.078081 7.1840935
52.700653 14.283081 6.843094
53.08264 17.028082 6.433094
52.32065 18.858082 7.5120926
213.46065 6.765081 25.07609
212.18965 5.294081 26.72209
209.80864 5.500081 27.83009
208.20964 7.884081 27.75509
208.73364 9.300081 25.55909
209.66464 11.418081 26.18909
298.59265 8.240081 36.873093
300.40366 9.750081 37.38909
303.01065 9.995082 35.92509
302.94965 9.045081 33.86309
303.57166 6.433081 33.38409
302.18164 4.7400813 34.78609
189.48064 18.768082 44.06409
187.64865 16.900082 44.66109
187.89865 15.622082 0.017093658
190.17464 14.009082 0.65309143
192.34164 14.193082 0.14909363
193.80165 15.947082 45.92709
20.458649 27.71408 25.05109
22.867645 28.70008 23.817091
24.67865 27.78008 25.77909
25.062653 25.178082 25.95109
23.46463 23.990082 27.97709
22.131653 25.091082 29.51609
278.23465 0.48908234 15.201092
277.27365 44.12508 14.223095
277.64566 41.57608 14.721092
279.04865 40.53008 16.017094
279.17365 40.11108 18.45009
279.13065 41.12108 20.202093
85.27963 17.76708 45.31609
85.97763 19.955082 43.59209
84.00964 21.50608 42.54209
81.627625 21.119081 42.85409
80.160645 19.872082 41.56209
81.160645 18.41908 39.37509
43.656647 11.011082 14.151093
41.614655 9.791081 14.830093
39.00363 10.450082 13.766094
39.239655 12.218081 12.156094
38.37564 14.662082 13.281094
39.48764 15.743081 14.842094
74.07663 5.940081 0.63409424
76.41864 5.252081 0.24009323
76.45062 2.7750812 46.23609
75.75165 0.6360811 0.068092346
73.29062 0.061081044 0.98809433
71.245636 1.6080811 1.2600937
88.00864 24.503082 26.37309
85.903625 23.406082 27.18909
85.30264 23.993082 29.60709
85.78662 26.219082 31.03009
87.19864 28.137081 30.49209
88.82065 28.810081 28.60809
211.76164 2.639081 33.37709
210.04364 4.184081 31.459091
211.00664 5.739081 30.26609
212.63864 7.161081 31.01009
215.12564 6.956081 30.400091
216.57065 5.516081 30.52409
52.374634 11.054081 26.93209
53.32065 9.670081 28.817091
55.841644 9.949081 29.25509
58.01465 10.417082 27.81609
58.51062 10.180081 25.556091
56.955627 10.532082 23.39809
76.94864 9.241081 25.35409
79.114624 9.280081 23.521091
80.55063 10.934081 24.14709
81.20264 12.251081 26.24909
80.59964 12.190082 28.47609
80.949646 10.512081 29.59509
173.09265 22.06108 44.02909
171.85664 21.813082 46.096092
169.15665 22.251081 46.31009
167.87865 23.80108 45.65409
167.38365 24.930082 43.416092
168.56564 24.154081 41.07109
308.55966 35.13308 34.00109
309.96164 33.22008 33.94309
310.65366 31.706081 32.28909
310.63065 32.11208 29.50509
308.46564 32.52308 28.28809
306.36765 33.07808 28.657091
19.413635 39.36908 39.21009
20.085632 37.07208 38.97909
22.048645 36.42008 37.93209
24.611633 36.25508 38.82409
25.78064 37.275078 40.172092
25.611633 38.22508 42.66709
247.41464 1.8250811 1.7040939
248.95364 1.078081 3.2510948
250.33765 2.2520812 5.345093
249.09564 4.3920813 6.0020943
249.36163 7.071081 4.690094
249.68564 7.474081 2.8240929
207.26065 32.80508 43.67009
207.26564 31.462082 45.86309
205.69565 30.508081 0.23709106
205.08365 28.768082 45.48909
202.77664 28.272081 45.05609
200.54764 29.163082 45.234093
304.86465 44.40308 19.642092
302.93466 44.91708 18.011091
303.22665 45.20008 15.304092
305.17365 45.16708 14.041092
307.42764 43.54108 14.371094
306.86566 41.25208 15.083092
137.94365 34.55908 7.1840935
138.82564 36.40208 5.817093
138.74365 36.82108 3.1090927
140.20364 35.23508 2.9100952
140.55264 32.65708 2.5090942
139.07065 30.86708 2.7200928
250.13664 9.983082 5.181095
250.60764 9.228081 7.308094
252.60364 8.084082 8.2220955
255.06464 8.082081 7.669094
256.55066 9.371081 5.577095
256.39865 11.666081 6.242092
126.478645 3.1870818 18.53309
126.91965 5.039083 16.647095
127.18365 4.258081 14.009094
127.14065 2.0840812 13.181095
129.66664 0.70508194 13.217094
131.90665 1.5370789 14.006092
184.56465 21.240082 24.96009
185.17865 21.560081 22.674091
184.95465 19.011082 23.33809
186.52464 17.29508 23.33109
189.14964 17.585081 24.073092
190.82465 19.27308 23.57109
186.27164 22.046082 12.281094
185.51865 20.776081 10.470093
185.95465 20.394081 7.853092
187.54465 20.998081 6.4930954
189.04364 23.095081 6.244095
189.94864 23.946081 8.845093
179.89165 9.480082 42.09309
181.40164 11.532082 42.19009
181.94264 13.348082 40.09709
180.70764 13.623081 38.00809
180.68965 11.861081 35.93309
181.29465 9.779081 35.90609
11.643646 39.185078 11.867092
9.481628 39.11008 13.164093
8.540649 41.36608 14.447094
10.187653 43.13208 14.360092
10.844635 44.06308 16.381092
10.775635 42.59208 19.08209
85.71164 12.0200815 34.37209
84.88364 10.972081 32.31209
82.80463 12.2700815 30.69109
82.966644 14.555081 30.82509
80.75464 15.391082 32.40009
79.04062 13.201081 33.09309
42.521637 12.499082 10.8020935
43.672638 11.524081 9.448093
45.738647 11.840081 8.917095
46.52765 12.245082 6.419094
45.206635 13.546082 4.4530945
44.075653 15.871081 5.0120926
283.46265 14.251081 31.876091
281.46365 15.405082 31.14109
279.39365 14.873081 29.59709
278.86865 13.044082 28.10709
279.62366 10.6780815 27.89409
281.22565 9.427081 29.47809
11.725647 0.73408103 39.60709
10.364655 1.9930811 38.62909
11.510651 4.145081 38.08809
13.36264 5.593081 39.19009
13.567627 6.205081 41.484093
12.934631 5.012081 43.91109
248.58464 26.594082 21.90609
247.41563 24.732082 23.31909
246.72565 22.490082 22.52609
246.69864 21.163082 20.38509
247.57364 21.563082 18.070091
249.51263 22.469082 17.19009
227.29364 8.137081 36.96209
225.70964 9.843081 35.69809
225.62865 11.050081 33.374092
225.81564 9.366081 31.71009
227.47765 8.146081 30.83209
230.04764 8.139081 31.129091
264.66064 41.52908 24.42609
264.20465 43.62108 24.483091
261.95364 44.52208 25.82109
260.16364 43.52608 26.900091
259.27365 41.23608 27.03809
259.62665 39.24308 25.80709
292.52866 15.897081 40.041092
294.39066 15.330081 41.01509
294.84164 13.922081 42.92609
293.50064 13.335081 45.28709
292.14365 15.090081 46.32809
291.74164 16.95108 46.08609
303.75565 1.5930824 25.754091
304.19064 2.2530837 23.64809
302.86365 2.0900817 21.64409
301.65366 0.31508255 20.320091
301.38364 43.11608 21.126091
300.52664 43.38308 23.97209
246.33765 13.542082 21.38009
247.66164 13.752082 23.424091
247.41864 13.640081 25.83909
246.25064 15.163081 27.209091
244.74864 13.317081 28.06509
242.54364 12.508081 27.435091
136.33365 11.623081 36.832092
137.91765 10.262081 38.755093
138.86865 7.673081 37.95509
137.50165 6.804081 36.20609
138.38664 6.999081 33.66209
140.64964 8.189081 33.06509
221.37564 21.476082 42.99309
222.77765 21.33208 44.91809
223.47264 19.182081 46.41909
223.08965 16.525082 45.67309
221.75264 15.217081 44.42109
219.97365 15.9020815 42.67309
134.59265 13.757081 24.494091
133.47064 14.172081 22.57609
133.23465 16.289082 21.03409
135.13965 18.54408 21.38809
135.67165 19.13108 23.20809
138.05565 19.529081 23.13509
91.80362 38.34808 29.05509
89.06964 38.10208 29.39609
87.64862 39.64408 30.89009
87.64862 42.09908 31.25909
88.73764 43.96608 29.79509
87.94162 43.55908 27.383091
270.59164 41.47208 17.867088
273.43365 42.53008 16.506092
275.04263 40.99508 16.122093
275.42264 40.36108 13.794094
273.59265 40.35208 11.807095
271.16965 39.810078 11.951092
179.28365 43.39108 31.886091
179.67064 41.89008 30.54009
179.07364 41.44608 27.90609
177.43965 42.45708 26.633091
175.31064 42.34208 26.91309
174.03865 41.75308 29.18909
73.15762 21.125082 38.895092
73.11163 20.928082 41.07409
74.96164 21.019081 41.96709
76.33264 18.841082 42.26409
78.25064 18.442081 40.33109
78.53662 19.642082 38.255093
180.55565 14.154081 34.09409
180.08064 15.309081 32.20209
181.77565 17.237082 31.074091
183.35664 15.424082 31.31209
185.70865 16.376081 32.71309
185.97165 18.066082 34.22909
229.59364 13.894081 28.126091
228.21965 15.582082 27.282091
227.66064 16.25708 24.88109
228.01465 15.356081 22.855091
230.26265 14.762081 21.42909
232.23465 13.864081 22.02909
105.50964 25.51308 39.776093
104.89563 27.918081 39.69709
103.163635 29.267082 41.81309
103.47165 28.959082 44.027092
105.58563 28.802082 45.582092
107.28464 27.375082 45.57609
266.39865 42.858078 14.367092
268.04666 41.72108 15.636093
269.77264 43.32708 15.649094
269.87866 0.30607986 15.895092
268.02664 2.065084 16.861095
266.07864 1.8470802 17.876091
218.72365 14.352081 7.6010933
219.76964 12.175081 8.800095
217.84564 10.986081 10.126095
216.22664 9.237082 8.310093
218.16165 7.578081 8.186092
219.43864 7.885081 6.4060936
39.729645 2.215081 20.48109
38.43564 4.368081 20.21109
36.374634 4.845081 20.86309
35.45465 4.927081 23.414091
35.995636 4.397081 25.15909
38.85663 4.811081 26.46109
53.65564 38.39908 22.11709
55.27765 37.28708 21.82309
55.27063 34.82108 21.79809
54.305634 33.26208 23.74509
53.01065 33.65308 25.872091
52.179626 35.48908 26.93209
34.44763 26.383081 10.585094
34.61264 28.053082 12.642094
36.51465 28.623081 14.215092
38.99765 27.84608 14.395092
40.22165 26.243082 13.040092
39.604645 24.53708 11.162094
230.55365 31.46408 28.56409
228.82664 32.53008 27.62809
227.11565 31.980082 25.52309
226.38965 29.99208 24.56409
227.18465 27.664082 24.459091
229.08464 26.623081 24.86009
240.70464 6.839081 5.4130936
242.93265 6.986081 6.393093
244.82564 5.971081 5.704094
245.56764 3.716081 5.985092
244.83064 1.6210811 7.414093
242.31764 1.158081 7.8300934
304.19266 13.820082 38.471092
305.17865 12.4280815 40.47909
307.17166 10.552081 40.26109
307.91165 10.491081 37.90709
307.82565 7.969081 37.19609
306.64966 6.232081 37.78509
269.46664 39.08208 45.915092
270.89865 38.92508 0.47509384
273.38763 38.86608 0.75209427
274.49664 39.73908 45.78009
276.26865 37.70308 45.21809
276.56964 35.63308 46.16209
263.24564 29.00208 45.64309
263.45966 27.59308 0.25609207
260.92566 26.61708 1.244091
258.98566 26.460081 46.51009
257.49963 28.173082 46.98209
257.41364 30.806082 46.63609
294.60965 17.02408 37.48609
294.40265 15.117082 36.44109
292.33066 13.956081 35.44609
289.96964 13.916081 35.499092
288.28564 15.490082 36.07909
288.50064 17.973082 37.05609
260.92764 7.4980807 9.605095
259.60965 5.090081 8.778095
257.23166 4.320081 9.633095
256.09665 4.743081 11.3470955
256.05664 6.430081 13.486095
257.33664 7.742081 14.174095
244.26463 4.9310813 36.88209
243.99464 7.266081 37.152092
245.19464 8.513082 39.10409
247.11264 8.611081 39.82909
