25.65919 99.673706 38.020645
30.69919 96.801704 2.9176483
32.51619 96.132706 2.4136467
0.14319229 77.967705 35.389645
1.3681908 77.454704 37.346645
3.67419 74.0117 2.5136452
3.3851929 73.812706 5.147648
53.87719 125.65371 27.376644
55.15519 127.53371 28.384644
3.648193 128.4857 20.940645
3.5071907 126.52371 19.937645
7.4301906 2.1056976 19.436646
7.6871905 3.196701 17.946644
11.894192 8.275711 14.508644
14.2991905 8.158707 14.558644
48.34819 42.956696 4.6376495
48.33319 42.022705 6.589649
53.20919 36.17871 11.658644
51.64719 36.998703 13.629644
45.38319 97.94671 6.6186485
46.07819 96.690704 4.6366463
50.68119 88.3367 6.7886467
49.42219 87.5447 8.864647
32.88319 25.953705 35.571644
33.79219 26.283707 37.227646
29.51919 24.8667 4.2246475
29.17919 22.918701 3.5766487
49.11019 80.6107 4.5756493
50.692192 79.5587 3.8156471
2.041191 81.1007 39.794643
2.5371933 80.5147 2.0286446
18.031193 18.306702 1.8516464
20.023197 19.0197 2.319645
16.783192 20.94371 11.030645
17.63419 18.939713 11.717646
7.669193 53.613705 8.554646
8.91119 54.978706 9.306648
14.48019 48.366707 7.0616493
13.067196 47.062706 5.138649
45.93019 60.024708 22.327644
47.68619 58.160706 23.106644
46.63519 51.977707 20.354645
45.98019 52.345707 18.330645
29.74519 20.19571 4.2696495
27.45519 20.059708 4.506649
26.29219 12.080704 10.115646
28.40419 11.993698 10.598648
0.6341934 79.03271 32.010643
2.6231918 78.383705 33.316643
10.014191 79.1647 33.648643
11.471191 76.90571 33.921646
0.22819138 14.095703 8.864647
53.65419 14.7617035 9.261646
49.87519 17.3927 16.224646
49.01519 15.0737 15.969645
36.92519 0.29870605 9.158646
35.956192 131.2527 7.339649
33.24319 3.9837036 2.430645
32.707188 5.5167084 1.0946465
38.38619 108.86071 24.029644
40.73419 107.75371 24.559645
40.31519 114.88071 19.901644
42.073193 116.47671 20.124645
18.041195 36.078705 29.058643
18.63219 33.82071 28.984644
16.872196 28.072708 34.292645
16.96719 28.166702 36.663643
51.52619 76.8627 3.4886475
52.56119 74.7097 3.4456482
2.3461914 78.4337 10.081646
4.4391894 78.5267 10.346645
23.781193 75.1937 28.061644
25.457191 73.9977 27.565643
22.662197 77.22471 21.029644
23.164196 78.8047 19.162645
35.89619 102.65371 7.4416466
37.52819 103.077705 9.329647
39.03519 109.841705 4.485649
37.04919 110.08771 3.749649
4.677192 55.164707 23.570644
4.367191 57.629707 24.174644
5.90319 55.980705 30.925644
6.7601924 57.219707 32.604645
25.03819 66.0117 27.960644
25.64819 65.7517 25.558645
31.06419 72.0687 23.831644
31.944191 71.96071 21.929644
42.52019 83.47871 27.663643
42.33519 84.0547 25.574644
48.219193 87.7667 25.065645
49.066193 89.21471 27.085644
48.580193 55.036705 14.096643
48.45419 54.82971 16.192644
2.6901932 55.804707 15.634645
1.7831917 56.513706 17.657646
26.70319 108.298706 23.665644
28.09319 109.89471 22.884645
33.55319 115.57671 26.333645
35.24019 115.68271 27.783644
25.54219 100.55671 9.760647
24.905193 102.56771 10.365646
20.172192 100.81071 1.8526459
20.621197 102.909706 0.37364578
7.1941905 113.82671 23.516645
8.777191 114.39871 24.930645
8.95319 122.03971 27.322643
10.785191 123.50471 27.425644
46.79419 88.798706 28.556644
45.57119 90.64271 29.895643
37.15319 93.284706 30.359644
38.21219 94.785706 31.448645
15.545193 91.815704 5.666649
16.09019 89.731705 6.3306465
7.8871913 86.99271 5.2696495
6.608192 85.8347 4.169647
0.014190674 94.91371 36.196644
1.2271919 95.660706 37.455643
6.8711925 97.12771 32.136646
9.310192 97.42071 31.524643
2.6431923 121.08271 13.292646
1.55719 119.16071 13.270643
3.180191 112.20171 18.766647
1.9601898 110.74371 17.303646
31.31519 54.499706 20.598644
32.41419 55.282707 18.497644
37.15419 58.870705 25.163645
35.57619 57.810707 26.177645
27.803192 121.87171 20.767645
26.496193 120.84371 18.858644
20.899197 114.04971 16.564644
22.435192 112.68371 17.416645
54.04019 48.136707 7.1016464
55.43819 46.807713 8.006649
48.20819 43.055695 11.879644
48.66119 40.6857 13.3776455
44.13119 25.43071 21.825645
44.789192 27.522705 22.451645
44.90519 34.186707 19.394644
44.122192 35.13571 17.254644
11.067192 113.78171 37.276646
10.971191 115.13971 39.059643
17.093197 117.92171 1.810646
18.464191 117.73171 3.348648
48.289192 109.05771 2.4926453
46.88219 107.08571 2.8116493
38.08519 107.32471 3.3596458
36.78319 108.39471 1.1436462
11.777191 113.44971 26.471645
11.970192 113.64371 28.998644
15.107197 114.64471 32.407646
14.306194 113.05371 34.035645
3.0751915 17.214706 11.018644
2.1571922 17.832703 8.9556465
1.9641914 13.184708 5.4906464
2.3391914 11.672699 4.4536476
15.917194 58.231705 20.983644
14.728191 59.230705 19.165644
7.901191 64.08971 17.647644
9.172192 63.968708 15.189645
46.58519 92.633705 27.204643
45.78419 91.968704 25.365644
37.62619 95.91871 26.405645
36.39719 96.453705 24.725645
4.636192 114.88371 1.4556465
4.992191 112.82071 1.3256454
7.0971904 109.329704 9.824646
8.963192 111.14471 10.178646
50.00219 5.1017 2.8776474
48.066193 4.6617126 2.3786469
48.36819 3.3907013 33.873646
46.712193 2.797699 34.886642
47.525192 16.921707 5.8966484
46.03719 15.497711 4.7416496
51.28819 14.429703 38.083645
51.95819 16.287704 36.078644
16.919193 76.21071 16.136644
17.532192 76.57571 14.161646
13.668194 85.2787 15.631643
13.378193 86.5417 13.782644
34.90419 19.913712 28.923643
34.17119 18.076706 29.724644
30.87019 13.6017 37.119644
29.24919 15.440704 37.817646
23.823193 62.716705 5.3776474
24.09219 61.532707 7.867649
22.651196 64.3447 16.410646
25.213192 64.496704 16.849646
37.83319 115.95271 21.503645
37.99719 116.49371 19.318645
36.29019 110.04071 16.400644
35.09919 108.688705 18.015644
37.09119 31.511703 4.2696495
37.65319 29.716705 5.447647
44.53519 32.104706 1.1306458
44.44419 30.154709 0.6236458
50.643192 85.578705 7.317646
49.38919 84.274704 6.2626495
48.48119 76.2657 10.033646
49.43019 75.674706 11.860643
32.484188 82.953705 17.214645
30.35019 82.299706 18.321648
33.66919 75.954704 12.9956455
32.415188 75.4697 11.546644
34.57119 20.029709 1.5836449
32.70219 20.023712 2.2566452
35.21519 25.6017 7.978649
36.88319 27.037704 7.3046494
12.554195 33.895706 1.904644
10.802193 34.4207 3.232647
12.59219 29.797699 11.629644
15.32819 29.149704 11.284643
16.420193 42.1317 12.029646
16.523197 42.7697 13.876646
11.62719 40.337708 20.459648
10.616192 41.04071 18.720646
47.60319 14.071701 32.214645
49.49519 13.24971 31.700644
54.00719 14.478699 26.072645
54.76219 14.620712 24.218645
18.041195 71.75371 5.313648
16.626194 69.788704 5.0456467
15.742191 66.18271 7.253647
15.48019 64.51771 8.554646
35.44519 65.1127 5.8196487
37.553192 64.869705 5.560646
37.76419 56.546707 10.898647
34.93319 57.147705 11.235643
23.84919 8.77771 7.652649
24.85019 10.952698 8.055649
30.82819 16.13771 5.022648
32.93719 15.87471 4.367649
22.11819 120.16971 39.728645
22.740192 121.98571 0.43364716
24.830193 128.1127 38.015644
26.899193 129.05571 37.188644
8.483192 112.44471 26.722645
10.00119 111.82671 28.138643
4.006191 107.314705 32.154644
4.2691913 104.856705 32.813644
39.91119 102.69171 37.185646
38.93319 101.03171 36.570644
31.69219 96.97171 35.957645
33.55019 96.54371 35.001644
10.13319 27.592712 7.454647
9.69619 28.716705 8.815647
8.968193 35.7847 5.7556496
7.09819 37.6017 6.579647
44.233192 69.25371 5.1636467
43.782192 68.3737 3.3536491
44.177193 59.320705 2.489647
43.16119 59.872707 0.5616455
28.77919 63.339706 7.777649
28.937191 65.2087 9.053646
27.47619 61.121708 17.275646
28.92319 59.797707 17.999645
15.037197 98.55271 14.485643
14.374195 96.30971 14.223646
13.018192 88.95071 15.004644
11.687191 87.827705 15.804644
54.20319 34.5457 26.343645
0.35319138 35.1597 27.460644
1.8871918 38.003708 32.459644
3.5711894 36.345703 34.206646
30.55319 124.16671 34.837643
29.85519 125.67271 32.941643
22.47919 121.95571 29.038643
21.76319 120.91571 31.119644
33.07419 118.09871 27.179644
32.73819 119.57571 28.243645
32.10819 126.423706 31.284643
31.88319 128.24571 30.490644
10.207191 94.410706 34.781643
10.31319 92.42971 34.906643
15.698193 85.537704 35.749645
17.190197 85.259705 34.369644
20.113194 90.909706 4.466648
20.706196 93.08671 3.265648
23.940197 99.495705 2.9106483
26.413193 99.63671 4.0376472
27.59019 4.4437103 14.717646
26.086193 2.9797058 13.827646
20.307194 0.922699 9.041645
19.68819 130.6497 10.042648
34.44019 44.555706 39.099644
34.89619 46.369705 38.352646
26.79819 46.481705 39.967644
25.64719 48.039707 40.136642
0.070194244 85.47771 30.686644
54.324192 85.8467 28.948645
53.046192 89.99171 22.551645
54.573193 91.2897 21.867645
30.39219 57.182705 21.322645
29.67819 57.246708 23.374645
36.46219 61.484707 25.279644
37.06419 61.007706 23.236645
42.57719 86.0407 28.746643
40.95219 86.3497 26.421644
34.32219 88.815704 26.528645
33.51719 91.354706 25.209644
49.06219 106.91971 0.89964676
49.51019 108.97171 0.08364487
42.10019 107.508705 35.150642
41.89019 105.495705 36.311646
27.43919 119.47771 31.831644
28.90119 119.83871 33.015644
26.36019 117.54971 0.48664474
26.48719 118.71571 2.317646
40.42719 117.73171 18.490646
38.85119 118.534706 17.389648
46.20119 122.94471 14.954645
44.15319 125.01171 14.018644
11.64019 89.107704 38.664646
13.978191 88.6237 38.698643
16.21719 83.649704 5.744648
17.278194 85.174706 6.0756493
11.301193 86.453705 36.102646
10.253193 84.68471 36.021645
3.9961925 84.745705 34.055645
2.081192 84.326706 33.581646
18.53619 65.00371 18.812645
17.138195 65.0977 16.931648
20.294193 60.505707 9.021648
21.60619 58.78071 9.473648
13.629192 5.394699 35.728645
13.774197 3.3047028 34.610645
7.14619 3.753708 29.877644
5.523193 2.1047058 30.771645
24.81619 34.356705 24.337645
26.74719 34.1857 24.705645
33.859188 38.699707 27.101645
32.98219 40.175705 29.118645
2.5961914 50.514706 21.130644
2.8301926 52.897705 21.653645
4.415191 53.058704 16.937645
3.5671916 51.170708 15.566645
13.354191 119.78671 18.482645
11.726192 118.36071 17.416645
19.206196 113.22171 18.495644
20.10519 111.15371 18.772644
26.89719 37.156708 12.454645
27.226192 39.2397 13.122644
19.486195 42.2157 10.690647
20.642193 42.854706 8.846645
25.476192 12.77771 13.202646
23.28619 12.824707 12.974646
20.84219 18.345703 19.442646
20.916195 16.080704 20.508648
42.94419 43.7807 6.360649
40.91319 44.8667 5.5426483
38.46119 45.272705 38.593643
36.35619 44.5287 37.212643
26.56019 95.37371 19.320644
25.48219 95.40871 21.142645
33.70319 92.341705 21.693644
35.29119 93.468704 21.547644
54.07619 65.702705 6.864647
55.17419 67.3627 6.1636467
5.54919 60.43271 5.4206467
3.9051929 58.94771 5.088646
26.07719 94.215706 39.440643
28.53219 93.08571 38.566643
28.85919 85.647705 40.231644
30.52619 84.46271 39.510643
10.59819 123.15371 6.2696495
10.123192 120.78771 6.5306473
10.906193 120.60071 15.591646
12.893192 121.30971 16.392645
50.48019 53.677708 0.42164612
50.095192 52.607708 38.842644
43.76219 48.918705 33.582645
44.47119 46.820705 34.393642
53.98119 46.3317 32.154644
53.837193 43.617706 32.385643
51.927193 38.104706 26.764645
50.157192 37.54471 27.765644
52.24619 128.6877 4.142647
53.81119 127.00671 3.466648
3.107193 126.64971 10.241646
3.6491923 125.61771 11.804644
54.42419 127.45571 0.9706459
52.65419 127.75271 39.922646
1.7161903 0.44371033 35.747643
2.234192 1.5957031 33.653645
44.706192 114.02571 34.507645
43.86919 115.55271 32.843643
38.14419 108.50471 30.943644
40.13719 107.56671 31.567644
53.81819 3.4607086 23.979645
53.83219 2.923706 21.927645
54.39619 7.428711 15.356645
53.608192 8.161713 13.845644
17.263195 9.844711 4.395649
15.719196 11.794708 4.2646484
12.476192 11.3867035 13.298643
14.229191 10.94371 14.784643
44.93219 11.418701 20.090645
44.75019 10.689713 22.126644
36.41919 11.413712 23.090645
34.77819 9.590698 22.684645
55.26719 81.5727 17.279644
1.1731911 79.86571 16.937645
7.4751925 83.6917 22.537645
8.718193 82.1807 23.413645
39.94519 18.018707 35.240643
38.29719 17.373703 36.756645
37.51119 9.018707 36.000645
40.16019 9.395706 35.516644
37.41119 6.6797028 37.262646
35.32619 6.0407104 37.906643
29.60519 11.29071 40.129642
29.44119 13.523712 39.475643
28.36819 100.61171 30.283644
27.19519 98.95671 30.667645
20.020191 102.798706 30.058643
20.028194 105.28971 29.653645
9.711193 122.33171 24.463644
8.155193 124.33371 25.983644
6.8381915 131.3717 20.958645
6.483192 0.5877075 22.842644
6.198192 54.806705 10.884647
5.6681895 52.674706 11.553644
12.565197 52.689705 16.758646
10.975193 52.127705 18.218647
31.83119 131.16771 6.5026474
33.40419 131.4857 7.5456467
28.48419 0.9927063 13.342646
28.76819 130.3387 12.5026455
32.72019 114.38071 10.064648
34.09419 113.41371 8.433647
33.15619 108.13071 2.515644
33.95819 109.51671 0.93564606
13.359196 118.37071 23.098644
14.852192 119.12671 24.212645
17.907192 122.37171 31.025644
19.956196 122.91171 29.875645
16.530193 27.2137 22.122644
15.155193 27.45671 20.445644
11.910191 32.8757 19.354645
13.746197 33.092712 20.560644
24.308193 50.503708 0.71564484
22.603191 49.231705 39.942646
16.776196 48.900707 3.850647
14.5521965 48.525707 3.501648
54.86219 10.585709 7.4906464
55.34319 10.696701 5.3046494
47.40519 9.5177 1.4266472
48.449192 7.320709 0.98864746
1.1741905 101.688705 16.664644
1.7301903 100.062706 17.863644
5.4321895 101.41471 25.062645
5.4821925 103.132706 25.930645
26.30619 106.12671 30.669643
27.82319 107.59471 31.112644
32.50219 106.12471 24.009645
30.22519 105.07171 23.527645
32.874187 17.29071 1.8236465
31.06319 17.9357 3.0146484
23.92519 18.437698 38.206646
23.00919 17.1427 39.186646
30.06619 67.1227 34.396645
29.180191 69.244705 34.306644
33.97619 75.3597 32.245644
31.93519 76.3467 32.402645
23.069195 67.647705 15.013643
21.261196 66.6817 15.909643
15.126194 73.0157 16.271646
15.100193 74.6267 14.681646
47.54219 44.503708 6.7716484
46.70419 46.494705 7.051647
45.79019 51.015705 13.740644
44.73419 50.761707 15.784643
0.18819427 123.44571 21.056644
54.82519 121.31171 21.751644
49.837193 116.08671 17.084644
49.85419 116.81371 15.058644
13.954197 2.800705 37.411644
12.871197 1.449707 38.819645
21.121197 128.5417 2.201645
20.541195 129.9617 3.6516495
40.99919 18.44571 1.5916443
42.04019 18.980698 3.5696487
37.213192 22.9207 7.852646
35.68019 23.291702 9.139648
11.84119 1.4137115 22.517645
13.0491905 131.2557 23.098644
8.028191 125.72071 19.375645
5.8801913 125.95871 18.727644
15.392193 75.47571 18.235643
16.332195 73.57471 18.610643
15.122196 73.6957 28.618645
15.737194 76.409706 28.766644
23.07619 121.34971 26.591644
24.15919 119.01771 26.531645
24.70619 113.35471 22.959644
24.03319 111.90071 24.709644
11.242191 74.47871 19.830645
10.540192 76.50371 19.628645
11.00219 78.6517 27.433643
11.907192 80.4187 27.838644
37.73519 85.078705 31.055643
35.41619 85.3487 31.190643
35.01519 94.20571 35.209644
35.019188 94.58771 32.671646
18.513195 16.082703 21.945644
17.103191 17.161713 23.124645
14.706196 20.423706 30.003643
16.345196 21.7547 31.131643
19.57819 112.64271 3.6616478
18.182194 114.27571 2.199646
17.158192 112.548706 34.061646
17.70119 113.77471 32.278645
5.3451915 85.40771 6.8986473
4.8541903 87.5807 7.515648
4.259189 82.868706 2.2416458
3.818191 83.202705 40.347645
39.68619 32.6597 21.644646
40.539192 31.146698 20.101646
41.60619 36.8627 12.3776455
43.68219 35.350708 13.006643
15.521191 64.19871 19.216644
17.347195 62.817707 19.960644
18.718197 62.093708 28.347643
18.290195 61.01571 30.297644
9.36919 64.842705 0.2926445
10.621193 65.688705 2.0096474
17.082195 64.90771 5.3776474
18.436192 66.68471 5.4676476
16.608196 3.8897095 21.169645
15.1771965 1.9837036 20.902645
15.588192 127.07071 14.757645
13.991192 125.83771 15.628644
44.66019 84.9717 15.272646
44.192192 82.9047 14.173643
52.39719 78.785706 14.909643
53.42019 79.71471 16.237646
16.317196 112.09971 2.2156448
18.025196 110.49771 2.397644
14.27219 110.59271 35.574646
12.6771965 109.22771 34.122643
42.21019 109.66471 11.585646
40.24419 109.54271 11.754644
38.68719 116.94771 14.805643
36.70019 117.95671 15.616644
27.33319 29.9077 35.696644
24.94219 30.257706 35.068645
25.70219 28.1017 3.513649
27.51919 26.285706 4.6586494
22.848194 33.13771 25.650644
21.872196 34.1317 23.981644
19.858196 28.079712 28.255644
20.698193 29.340698 29.405643
49.57619 46.703705 5.355648
50.580193 48.642708 4.7386475
51.15419 53.424706 11.059645
52.25219 54.120705 12.766645
25.79419 131.24971 27.697643
27.66219 1.2087097 26.944645
30.67419 4.7617035 20.605644
29.99119 5.4297028 18.152645
3.2941933 44.2567 5.7266464
0.64019394 44.484695 5.2746468
0.17719269 37.649704 1.6896477
53.92019 38.2697 39.847645
52.14819 109.26571 33.282646
50.802193 107.78171 33.166645
44.74419 103.87671 32.234646
42.54119 103.396706 30.926643
6.9071918 69.35271 1.048645
5.0131907 68.2757 0.7716446
7.971191 60.652706 1.074646
7.455192 58.583706 0.56264496
32.47219 74.9307 17.481644
32.59019 73.6677 19.667645
28.53219 67.2777 17.477644
27.58419 67.799706 15.814645
30.32919 120.66471 23.358644
29.88819 122.49471 22.147644
31.14319 130.5467 26.154644
29.29319 131.0757 25.234644
0.9271927 7.9697113 17.217644
2.9981918 9.713699 16.856644
8.70919 14.515701 18.266644
6.6641917 15.530701 17.292645
50.567192 14.724701 19.521645
49.27319 16.426712 19.007645
47.34219 20.518707 26.262644
45.817192 18.92871 27.118645
25.21019 18.296707 24.653645
27.15219 18.189713 25.565645
33.42519 17.1857 26.797646
35.06419 15.7127075 25.827644
15.166195 127.49671 39.160645
15.611195 125.36671 38.149643
12.590191 122.32871 4.484646
12.431194 120.21471 5.400646
41.57219 121.45871 12.119646
42.386192 123.61471 12.711645
40.68619 130.8677 13.036646
39.78019 0.85569763 13.850645
2.4761925 58.568707 21.985645
1.2461929 58.153706 19.971645
50.129192 60.101707 17.526644
47.747192 60.049706 17.541645
25.31919 72.6677 40.344643
25.57519 74.01671 1.1866455
27.86219 82.75571 39.557644
29.88019 82.08871 0.52664566
18.880192 53.230705 38.480644
17.510197 55.126705 38.707645
10.954193 58.229706 39.664646
9.898193 58.482708 1.5286446
6.1451907 16.8387 20.202644
6.9741893 17.81871 22.599644
10.297192 15.700699 25.342646
11.685192 14.34671 26.259645
20.440197 50.710705 24.053644
22.234196 50.584705 24.310644
27.885193 52.258705 30.211643
26.540192 50.792706 31.086643
41.65519 104.79171 39.289646
43.38919 103.71271 38.129642
52.23019 101.62871 39.342644
51.81319 99.40071 39.025642
53.66319 0.7537079 24.463644
51.61619 1.8057098 24.768644
49.04019 126.86671 19.270645
47.067192 125.64671 18.216644
44.46419 28.298706 30.758644
42.81419 29.45671 31.901644
37.33219 25.481705 36.571644
36.51219 26.8927 38.588646
22.333195 118.97971 2.0586472
23.96719 118.32071 0.71764755
24.220196 114.16971 34.570644
25.073193 115.57171 33.585644
11.687191 26.522705 4.089649
9.816193 25.705704 3.0626488
8.546192 33.847702 1.562645
10.548191 34.270706 40.090645
38.33019 98.494705 25.947645
36.52819 99.923706 26.096645
40.64919 103.53071 33.201645
39.942192 105.70771 33.606644
49.456192 39.66971 23.902645
51.07119 40.2527 25.580645
49.41019 48.2907 28.793644
50.43019 49.474705 27.884644
3.3491898 26.29271 31.165644
5.2131915 25.628708 29.999643
12.38319 21.8667 30.431644
13.442196 23.909698 29.488644
19.611195 11.227707 6.3826485
19.32619 11.452698 4.225647
26.82719 12.801712 39.036644
27.499191 10.414703 39.015644
1.2691917 130.42671 2.2956467
2.8201904 129.2697 0.8166466
4.0601916 130.55971 9.7056465
4.719192 128.69571 10.586647
48.90319 98.05271 13.501646
47.352192 99.313705 13.862646
45.62319 104.258705 16.130644
46.00119 105.84671 14.563646
17.121197 31.526703 15.038645
18.559193 31.54071 13.555643
18.138195 22.796707 16.071646
16.362194 22.401703 16.998646
45.560192 117.63071 28.493645
43.52219 115.84971 28.206644
41.12019 123.03871 33.215645
40.02019 124.13971 31.343643
34.87819 35.505707 29.631643
33.10819 36.255707 28.040644
30.99119 30.218704 22.989645
29.08519 31.686707 23.631645
41.13119 66.9457 8.550648
41.310192 64.8907 9.452648
50.56519 63.415707 5.522648
51.727192 64.19871 7.2596474
8.756191 15.591705 21.717644
8.646191 16.525711 19.733644
14.148197 19.376709 14.532644
16.097195 19.9357 14.026645
14.737194 17.883713 31.156643
14.91119 17.23471 33.130646
22.726192 19.8517 33.250645
23.658192 21.37471 32.851646
47.90119 11.891708 34.122643
50.33919 11.126709 34.118645
0.005191803 11.557709 39.437645
0.7381935 11.424698 1.1356468
54.55119 36.56671 16.227644
55.41119 34.451706 15.767644
2.2351913 28.91771 19.896645
2.1811905 27.825699 17.945644
6.9231906 84.050705 28.480644
4.8381915 83.9747 27.755644
54.61419 78.0407 27.549644
54.65819 76.21171 26.998644
9.866192 83.0987 27.095644
12.239193 83.1287 26.913645
18.111195 84.704704 23.487644
17.913197 85.910706 21.556644
24.222195 8.59671 23.527645
23.167194 7.630707 21.243645
22.38419 9.965698 14.987644
21.581196 11.793701 15.245645
54.89919 100.35371 15.0426445
52.75119 99.632706 15.277644
53.942192 92.00471 18.474644
52.601192 90.5017 19.195644
28.22719 45.7827 8.489647
29.21419 43.661697 8.047649
25.64919 46.843708 2.4506454
24.62519 48.21471 3.4526482
51.345192 51.964706 27.641644
53.54819 52.173706 28.247644
53.61919 61.177708 29.513643
51.768192 60.373707 28.450644
5.9821925 34.91971 1.5856476
4.3221927 34.714706 2.8596458
5.594192 25.758713 1.9216461
3.679191 24.668701 2.166645
21.793194 34.605698 36.010643
23.081196 32.7397 36.907646
17.249195 26.115707 40.022644
17.725193 26.242706 1.6986465
32.06219 109.38671 39.267643
32.37519 106.95971 0.23964691
23.29919 107.47271 0.9076462
21.37519 106.97371 2.1456451
25.81119 51.118706 12.2716465
26.47019 52.399708 14.069643
29.91219 56.331707 17.706646
28.62619 57.272705 19.170647
26.07719 6.954712 8.842648
26.50219 5.619705 6.7196465
26.13119 130.1047 11.853643
25.52019 128.01671 11.475645
7.4911914 71.895706 4.246647
6.92419 71.6117 2.213646
13.525196 74.2617 38.223644
13.088192 75.009705 36.028645
15.91119 21.20871 23.674644
16.942196 21.230698 22.012644
17.376194 26.125702 27.989643
15.346195 25.160706 27.647644
34.00219 89.536705 22.251644
35.68919 91.090706 23.217644
42.31519 94.25171 20.569645
41.39919 93.24771 18.821644
54.72319 33.9767 8.422649
54.164192 34.424698 6.239647
47.78419 39.1017 1.2956467
48.55019 41.225708 2.4576454
28.85219 109.76571 11.630644
29.00219 109.11371 14.124643
31.26819 116.84471 13.093645
32.49319 116.61171 11.575644
44.92619 49.932705 22.513645
43.42519 48.189705 22.409645
45.10719 47.635708 31.584644
45.71719 49.691708 31.504644
21.996197 40.94171 21.701645
23.391193 41.177704 23.509645
25.34219 46.25971 29.687643
26.57719 48.1467 30.393644
10.580193 117.47071 19.670645
9.410191 116.72571 21.565645
1.8091927 121.909706 23.197645
2.8151932 123.49971 21.778645
40.82319 127.07571 19.462645
42.29519 128.8007 20.122644
48.52419 0.2637024 14.528645
50.37619 131.12671 16.003645
35.97419 117.84271 0.14764404
36.956192 118.81771 38.374645
35.86719 113.26071 31.312643
37.97819 113.75071 30.659643
33.22719 21.018707 37.892643
32.91819 21.189713 39.913643
28.06719 26.950699 36.119644
28.31019 26.0887 33.975643
1.7551918 9.788712 38.404644
3.3551903 8.215698 38.632645
10.722191 14.576706 36.849644
9.41119 15.593704 35.140644
28.17519 108.48471 6.0356483
26.55219 106.78171 5.102646
26.50619 100.80471 1.4536476
24.67119 101.90371 1.6756477
20.248196 0.5057068 36.155643
21.281193 129.80571 35.997643
28.394192 130.17671 31.334644
27.593193 129.6967 29.293644
24.171192 77.410706 7.0386467
25.353191 77.496704 8.883648
19.542194 74.75571 15.419645
20.89619 73.1657 15.542646
29.213192 86.1387 5.6366463
28.441193 87.82471 4.5876465
19.449192 86.2247 7.343647
18.171192 88.215706 8.017647
0.376194 62.751705 17.295645
1.2981911 64.6407 17.679644
8.790192 68.593704 17.748644
8.260193 68.68371 20.173645
7.221191 85.9017 30.308643
4.9541926 86.2927 29.248644
2.706192 89.5947 21.588644
1.9621925 91.8457 22.443644
39.44819 41.69571 24.640644
40.62419 42.077698 26.279644
48.44419 37.679703 25.731646
48.57819 36.9227 23.850645
1.1351929 12.786713 24.852644
1.1791916 10.880707 24.320644
8.51519 6.9867096 24.327644
8.065193 5.2156982 22.619644
20.892193 70.7927 37.917645
22.714191 72.217705 37.645645
26.901192 66.6367 34.564644
26.949192 64.927704 32.932644
11.887192 102.342705 20.594645
12.332195 101.51271 22.658644
16.73119 106.13971 21.427645
18.096195 107.58871 21.649645
54.57519 125.23971 39.328644
53.22319 124.83971 37.830643
50.15219 128.0457 31.094645
49.352192 126.05171 29.761644
29.212193 57.843708 26.783646
26.831192 58.274708 25.822645
22.17519 63.147705 30.581644
23.343197 63.73171 29.346643
47.949192 115.34571 1.8216476
45.78719 115.53571 2.008644
38.80219 118.97671 0.529644
39.66019 117.99871 38.752644
51.664192 123.04371 36.424644
52.09019 120.56171 37.395645
45.70119 116.68971 39.353645
43.78419 115.64471 39.686646
14.142193 101.00371 37.298645
12.305195 101.24871 35.985645
11.455193 96.33171 30.338644
12.226192 95.91471 28.395643
39.039192 7.255707 9.209648
40.63819 6.7057037 10.796646
46.50119 7.802704 3.3126488
45.48819 9.673706 3.5706482
9.047192 59.706707 7.836647
8.95919 57.650707 7.449646
12.252193 53.058704 2.6486473
13.253193 50.986706 2.6686478
32.82419 83.2387 0.17364502
32.74619 83.576706 38.003643
35.52719 79.272705 31.789644
35.27019 80.659706 30.187643
19.954197 25.164703 5.1966476
20.753193 27.22371 5.2956467
17.478191 32.8347 9.232647
19.061192 33.4657 11.095644
46.57919 1.4217072 29.988644
47.66119 3.5847015 30.466644
40.310192 7.4617004 33.833645
37.921192 7.500702 33.620644
18.283192 28.039703 20.083645
19.498196 25.641708 20.303644
22.62019 27.191711 28.543644
23.233196 29.82071 28.802645
7.57019 61.961708 7.3096466
9.25119 62.542706 7.9556465
8.0491905 70.022705 6.402649
8.804192 71.94871 7.5356483
24.53319 110.62471 20.806644
26.17619 111.32971 21.909645
29.17519 118.75471 18.653645
30.76519 118.03071 17.573645
1.1601906 27.45871 28.750645
0.12219238 26.926712 30.199644
50.99319 27.634705 23.842644
49.89819 25.641708 24.325645
13.410191 5.2077026 38.670643
11.865192 4.7867126 37.674644
4.6111903 4.8427124 36.235645
4.7081904 5.451706 34.336643
13.517193 35.77571 38.943645
14.57819 35.54271 0.6896477
15.98119 34.384705 7.0006485
18.53619 35.3777 7.7366486
11.4501915 51.151707 0.3586464
10.25119 50.250706 39.334644
6.5341907 57.32271 35.749645
6.4071918 57.823708 38.139645
31.17619 77.0407 21.354645
30.74719 75.412704 20.641645
26.34319 70.61771 15.967645
27.50419 70.8337 14.033645
50.57019 15.531708 8.964645
49.12819 16.497711 8.283649
42.914192 19.567703 11.449644
41.54519 20.801712 10.333649
55.07819 86.72771 33.202644
55.43819 87.44971 35.443645
46.691193 83.71471 37.512646
47.08619 82.51871 35.858643
35.73619 75.2897 8.187649
34.36919 75.550705 6.2926483
26.66919 73.3067 3.935646
25.68019 71.798706 2.9416466
37.80519 50.322704 39.014645
36.09619 48.890705 38.463646
29.82219 52.033707 33.307644
27.48619 52.536705 33.179646
35.16919 105.93271 22.594645
35.58519 104.52471 21.191645
41.852192 108.26071 15.865644
41.43919 109.15371 14.265644
6.6751895 2.748703 1.1656456
8.372192 3.1127014 3.239647
8.623192 1.1907043 10.390648
8.00219 0.17469788 11.809645
24.458195 50.618706 20.428644
25.440193 52.303707 19.216644
25.55619 59.906708 18.642645
25.054192 60.333706 16.356644
54.26719 47.697712 4.2926483
52.66719 46.876713 4.7926483
51.84319 40.951706 38.461643
50.15919 40.789703 36.654644
0.13919067 64.966705 19.911644
55.338192 64.90871 21.801645
1.0671921 63.647705 29.302645
54.42219 63.899708 28.216644
45.29319 109.787704 12.609644
46.11319 109.77571 10.555645
54.55819 111.42071 11.926645
54.62619 111.03671 9.944645
30.82919 47.315704 5.7406464
32.93419 47.660706 6.077648
29.79619 55.998707 8.473648
28.18819 55.515705 9.752647
33.93819 78.496704 11.757647
35.51619 77.90571 9.919647
34.776188 82.5957 2.4696465
36.45719 81.2647 1.4726448
24.344196 94.28071 36.985645
23.933193 96.17071 36.173645
17.692196 102.22071 35.967644
15.846195 101.326706 35.232643
30.37419 24.1707 30.964643
30.58819 22.078705 30.268644
25.12219 18.23671 35.683643
24.24619 20.5177 35.417645
19.288197 109.72471 22.698645
19.182194 110.43871 24.789644
12.542194 115.51371 21.614645
10.971191 115.31671 22.948645
36.93019 90.54771 17.709644
37.73919 90.6387 16.203644
42.79319 84.398705 19.708645
42.955193 84.535706 21.937645
28.30119 97.59871 19.539644
28.17119 98.61471 17.454645
31.53619 104.80971 20.345644
33.28819 106.062706 20.230644
54.14719 13.618698 36.594643
0.7741928 13.498703 35.543644
53.61619 8.247711 29.990644
51.587193 9.253708 30.462645
38.13219 48.19971 36.617645
39.80219 46.5687 36.403645
39.38519 40.99771 28.746643
37.67919 42.12471 26.944645
16.739193 101.952705 38.563644
18.916195 101.36071 38.978645
12.713192 95.41971 1.918644
11.25119 96.98671 1.8026466
16.636196 120.92871 23.413645
15.903194 121.02571 21.458645
19.500195 127.61771 23.097645
21.650196 128.4637 23.006645
28.02319 22.936707 5.666649
26.44619 24.344711 6.937649
29.57519 17.020706 11.087645
29.40119 15.474701 13.228643
46.983192 2.5617065 17.519644
46.581192 2.5167084 19.775644
45.25819 127.21071 24.542645
42.95419 127.37371 24.547644
32.91819 107.96971 21.958645
30.70619 109.01071 22.111645
33.52319 117.88371 21.864645
31.23919 117.99471 22.331644
48.66219 18.197708 13.801645
46.77319 16.9207 14.862646
39.89119 13.602707 12.417646
39.08619 15.829712 12.906645
7.6801906 116.36571 38.871643
9.146191 117.88971 40.194645
11.82719 124.95471 38.728645
13.144192 125.30271 36.918644
37.72919 17.4617 39.985645
36.13919 17.578705 38.110645
35.89019 10.742706 4.3586464
36.796192 12.56871 6.286648
9.496193 80.3907 26.111645
7.5031924 80.815704 26.318645
8.52919 72.6527 30.409643
6.8241916 71.145706 31.529644
25.70019 79.522705 4.921646
26.92719 78.799706 7.0246468
32.31419 80.649704 0.64764404
32.74519 79.7117 39.209644
42.06319 96.19171 18.580645
44.78319 95.54371 18.762644
45.40119 103.732704 23.447645
44.97819 104.94771 21.520645
21.886196 124.94171 2.2816467
22.737194 124.87471 0.57364655
22.249195 121.16171 33.931644
19.959194 120.31171 34.155643
34.45919 63.96771 3.251648
34.59019 66.093704 3.244648
40.15319 70.451706 39.319645
39.56319 71.8607 0.5696449
37.13419 111.42971 29.192644
38.963192 110.31871 29.095644
45.14419 114.46871 26.200645
46.09019 114.73471 24.021645
6.94519 58.802708 9.247646
5.91019 57.516705 10.610645
53.68819 59.186707 11.075644
51.67219 58.526707 12.7526455
21.527195 55.864708 37.148643
20.650196 53.440704 36.598644
16.34119 54.879707 28.307644
14.228191 54.834705 29.271645
48.95819 12.41571 20.043644
47.62619 10.4077 20.663645
49.99819 3.676712 14.426644
47.70319 2.8237 14.721644
22.58719 92.79271 28.575644
23.54019 92.1387 26.958645
28.24019 97.24771 28.307644
29.94019 99.452705 28.382645
41.581192 26.488708 21.440645
42.573193 27.0587 23.823645
37.91119 29.497711 30.172644
38.17619 30.399704 32.063644
30.46619 118.55271 10.774647
31.66419 120.80771 10.701645
30.64419 125.29971 6.0126495
31.07319 127.04171 6.938648
39.92619 74.50671 38.704643
38.15619 74.41871 39.629642
30.18419 70.72871 37.587643
29.39919 71.49271 39.718643
24.492191 30.2697 13.718644
22.699192 29.130707 14.717645
26.192192 30.470703 20.462645
25.058193 32.160706 21.641645
31.64519 8.8377075 31.082644
31.72419 8.0867 29.052645
31.96819 0.79670715 23.984644
31.26519 1.9567108 22.371645
55.11019 109.55371 36.070644
54.10719 110.94971 34.430645
46.06919 113.74371 36.972645
47.691193 115.42571 38.004642
32.09419 24.34871 15.167646
33.35019 26.216705 15.522646
34.37519 33.6537 17.666645
36.02319 32.906708 19.447647
17.074192 91.28171 2.4776459
17.658192 90.204704 4.2956467
18.24419 86.383705 36.851643
19.723194 84.28171 36.193645
35.28519 129.0397 5.9936485
35.81219 128.3007 3.5126495
38.081192 2.4667053 39.548645
41.067192 2.350708 39.655643
26.47419 43.347702 30.283644
26.637192 40.819702 30.409643
20.986195 36.94571 28.970644
21.098194 34.414703 27.899643
53.61919 112.66471 6.692646
53.192192 114.39071 4.890648
49.92619 121.22071 4.353649
50.50019 122.14971 2.3346443
18.387196 83.22671 7.589649
18.520191 81.9477 5.555649
25.59019 82.885704 3.0116463
27.67519 84.7247 3.088646
3.9081912 95.92971 7.0716476
2.305191 94.06171 7.843647
7.57719 91.4327 3.4156494
7.851192 90.9857 0.9726448
0.43019104 90.3607 9.992645
1.6451912 92.28371 10.379646
5.5121913 89.370705 17.721645
7.8871913 89.911705 17.678646
1.4671898 16.939713 21.040646
55.157192 15.964706 20.758648
2.3461914 14.469711 12.857645
3.1581917 12.24971 13.074644
8.005192 60.255707 28.770643
9.9501915 60.902706 27.288643
16.359196 61.504707 33.997643
15.699192 63.128708 34.857643
22.254192 17.994705 35.166645
23.944195 17.1707 33.617645
17.208195 10.676712 33.676643
15.23119 12.473709 33.864643
3.3091927 20.990707 30.653645
1.6271896 20.751709 31.365644
2.364193 26.23471 34.878643
2.0891914 27.853699 36.591644
31.33819 5.22171 4.0426483
29.30419 5.752701 3.303646
30.15219 129.3477 39.008644
27.76619 128.64871 39.689644
51.32619 52.179707 36.533646
50.608192 54.251705 36.732643
48.65119 60.047707 33.819645
47.52219 60.99571 35.454643
25.95419 109.842705 9.828648
27.75319 110.53971 9.343647
25.94219 111.770706 2.435646
27.04219 111.46171 0.64964676
38.27319 82.49271 5.0806465
39.80519 81.7227 6.376648
48.28419 79.14371 6.475647
48.49519 76.90671 5.9176483
44.56819 17.668701 30.110643
43.71619 17.68071 28.140644
37.03519 13.809708 24.908646
37.70319 15.567703 23.938644
44.608192 19.31871 34.368645
44.33519 17.390701 32.877644
35.94419 15.625702 28.678644
35.04319 15.321701 30.237644
38.289192 98.86171 9.783646
38.30719 100.508705 8.551647
43.02719 105.06671 13.696646
43.67919 107.342705 13.7456455
44.36919 96.037704 14.445646
46.823193 96.31971 13.814646
44.53319 91.4587 6.7836494
42.11619 90.9177 6.982647
44.84719 88.0167 0.404644
45.93319 89.357704 38.704643
50.92019 92.57171 33.726643
51.47119 94.48771 34.899643
21.678196 95.43571 18.549648
20.704197 93.39271 18.555645
23.817196 91.0027 11.462645
25.777191 91.22771 11.436644
17.056194 82.9897 35.809643
18.608196 81.65671 35.984646
22.697193 77.07471 30.111645
23.623196 77.940704 28.572643
47.13519 113.77271 40.228645
45.14019 113.49371 39.499645
40.25019 109.41971 36.208645
39.37019 106.96371 36.097645
19.376194 130.2287 7.213646
19.597195 131.44571 5.560646
12.297192 128.3237 0.1826477
11.512192 130.83171 0.1276474
23.57819 15.509705 28.482643
21.92419 15.838699 26.871645
13.735195 13.031708 28.801643
13.823193 14.97171 27.650644
42.43019 80.33871 13.215645
41.25319 78.2477 13.771645
44.66119 78.134705 22.060644
44.59119 76.2757 22.895645
33.82019 8.382706 20.441645
33.59719 10.49971 20.045645
30.65619 17.066711 15.015644
31.75719 16.881699 13.157644
28.62119 20.788712 19.812645
27.49419 18.618698 20.389645
34.23819 12.791702 22.190645
35.89219 14.313705 22.263645
37.76419 36.248703 11.390646
37.36319 35.744705 9.322647
29.39119 40.268707 11.296644
29.14719 37.716705 10.928646
51.08919 96.536705 12.250647
50.38719 97.85971 10.901646
52.23919 100.74271 4.2616463
53.98419 100.285706 2.8336487
14.865192 100.70971 21.923645
15.101192 100.26871 19.867645
18.92419 92.549706 20.734644
18.058193 90.2897 20.174644
30.66419 120.66471 20.405645
29.64119 121.59471 18.486645
33.922188 129.04271 19.473644
34.90619 128.8367 21.619644
30.66719 26.951706 9.015648
32.47719 25.582703 9.457645
31.32119 16.872711 7.727646
33.40719 16.341705 6.9066467
48.81819 76.3447 2.6946487
47.73619 74.494705 2.0806465
39.72619 76.99271 40.139645
38.50619 77.42171 1.5546455
23.442196 75.8327 4.6826477
23.414196 78.007706 4.5566483
19.375195 80.17171 37.996643
18.269192 78.97771 36.897644
54.27019 8.728699 27.512644
1.0781937 8.8867035 26.342646
2.333191 3.0467072 21.047644
4.408191 1.7617035 21.416645
19.226192 22.135712 18.550644
21.557194 20.824707 18.084644
27.52819 23.4487 16.181644
29.817192 23.729706 16.477644
23.24219 55.011707 8.688648
24.92919 55.231705 9.958649
30.30619 56.909706 11.023645
31.78819 58.574707 10.739647
44.33919 91.2897 40.061646
44.46519 90.3497 1.779644
52.09119 90.1127 1.317646
53.16619 89.0947 3.3396492
17.895191 116.77571 12.404645
19.927197 115.86771 13.498645
17.60519 119.03671 21.990644
17.204197 117.74271 24.096645
54.48219 67.481705 8.925648
1.1121941 68.4857 8.332649
51.65419 75.5557 10.185646
50.29719 75.385704 7.8796463
10.718193 88.53271 13.306646
10.333191 90.3917 11.740644
12.934193 97.86771 12.605646
12.546192 99.84871 13.604647
4.64619 79.6147 36.609646
2.3911896 79.37971 35.817646
49.73619 81.8767 35.175644
49.580193 80.689705 37.037643
2.5511932 16.9487 33.670643
4.742191 16.914703 35.229645
5.2151904 7.852707 32.720646
5.1991916 8.404709 30.829643
13.169193 84.2927 36.450645
13.743191 83.7107 38.716644
8.541191 83.9337 4.478649
6.2791896 82.9757 4.0946465
32.423187 78.6537 23.216644
33.81619 79.17071 21.592644
40.36419 83.9037 23.525644
41.22219 85.9047 23.725645
3.964191 106.42871 36.356644
2.42519 105.17871 34.645645
51.29919 104.480705 1.4666443
52.54319 102.87271 1.9076462
28.61319 83.4317 5.1296463
28.52519 83.1677 7.2266464
28.46119 75.64471 11.084646
30.66319 75.4417 9.295647
45.41819 28.260712 28.123644
45.27119 25.737701 27.764645
37.98719 27.304703 32.025646
35.80619 26.62471 30.582644
9.776192 2.3807068 24.118645
7.372192 3.0127106 23.807644
0.79419327 2.6887054 23.506645
1.357193 0.92671204 22.589645
46.34619 35.240707 29.770643
46.824192 37.064713 31.424644
52.20319 41.229706 34.742645
53.75219 40.552704 36.358643
1.5191917 85.410706 36.227646
2.6261902 87.3737 35.928646
0.9841919 92.3497 39.834644
0.3801918 92.24171 1.6376457
17.067196 4.2647095 31.582644
18.763195 2.3567047 32.127644
17.895191 129.1427 24.605644
18.914196 131.2077 23.732645
7.68119 58.403706 27.046644
9.399193 58.547707 25.742645
13.429195 52.119705 29.258644
14.98119 52.335705 28.121643
34.526188 76.5537 18.786644
36.29719 75.41971 17.642645
40.92219 82.7797 20.844645
42.70419 81.92171 22.350645
5.1401896 17.773712 13.114645
4.783191 19.505707 11.830645
2.7421913 28.51471 13.258646
2.6011925 28.997711 10.912647
54.87519 130.82771 4.013649
52.99319 131.3907 3.1516495
1.5641899 3.7566986 37.605644
3.2301903 2.2347107 37.020645
10.655193 125.12771 29.933643
9.243191 123.52571 31.073645
10.526192 127.17271 38.775642
8.815193 126.57271 39.993645
0.9691925 26.7137 6.857647
54.566193 26.009705 5.964649
1.081192 29.632706 38.566643
1.3221931 31.995712 38.499645
41.45219 96.80571 4.8796463
43.39019 95.58271 3.5146484
35.75319 95.85371 39.055645
36.37119 93.634705 39.091644
21.288197 89.7197 39.727646
23.137196 89.6267 37.809643
21.511196 81.74071 37.208645
23.152195 80.6367 35.635643
17.20319 68.42271 7.332649
19.016193 69.4307 6.5666466
18.720196 74.2777 7.036648
17.115192 75.5987 6.4416466
27.298191 126.96071 6.605648
26.567192 127.22871 9.013645
20.058193 123.91271 13.450644
20.169193 125.27171 14.767645
17.420193 7.174698 34.306644
18.917194 8.772705 34.931644
14.804195 6.3397064 1.7306442
13.367191 8.065704 2.1826477
9.145191 4.5647125 10.069645
9.318192 6.699707 10.077648
1.3581924 11.27771 9.674648
1.7981911 11.906708 7.603649
18.210194 63.663708 30.747644
17.763195 64.8477 28.903645
15.872196 70.57471 35.605644
17.011196 70.32371 37.317646
30.91419 20.1277 28.242643
29.09619 19.554703 29.647644
26.76419 12.676712 34.272644
26.19719 12.753708 36.275642
12.42519 15.514709 34.137646
12.475193 16.710709 32.109646
8.409191 9.913712 29.436644
8.080193 8.186707 30.721643
23.278194 109.33871 25.012644
24.288197 109.36171 23.272644
19.152195 106.11271 16.272644
17.38319 107.36271 17.334644
11.721191 78.5277 4.791649
13.187191 77.10271 4.8806496
11.71719 77.38171 36.471645
12.4501915 79.5567 35.116646
32.08419 37.676712 30.052645
30.57419 39.177704 29.976645
25.95419 32.88771 34.027645
23.69919 32.6877 34.023643
12.551197 92.149704 2.6136475
11.462193 92.82471 1.3826447
18.681194 90.645706 39.034645
19.418194 91.68471 1.0336456
30.37219 26.940704 6.112648
29.04119 28.1277 7.2746468
30.46419 35.23871 1.2106476
29.51119 34.46971 40.047646
38.08719 11.455704 11.743647
37.69419 9.5047 11.546644
29.39719 7.547699 13.954645
28.97819 5.300705 12.658644
45.81519 21.141708 2.0686455
44.39519 19.904709 2.614647
46.268192 16.602707 34.864643
45.78419 15.042709 34.180645
47.41919 49.509705 20.958645
47.76419 50.926704 22.608644
1.4201927 48.005707 24.084644
2.1331902 47.446705 21.899645
5.518192 119.63071 30.110643
3.8851924 118.34371 30.642643
0.17219162 113.03871 26.941645
53.56919 112.86571 26.191645
15.73019 101.90371 12.328646
15.026196 103.82571 11.910646
11.852192 104.01271 4.2436485
13.665195 103.980705 3.8096466
52.60719 55.062706 39.492645
53.17519 54.386707 37.163643
4.3471904 56.407707 34.681644
3.1361923 58.485706 34.159645
51.67919 37.00171 38.896645
50.29819 39.07271 39.205643
42.268192 36.339706 37.640644
41.76419 35.041702 39.317646
7.3761897 69.009705 9.134647
7.235191 66.746704 9.543648
4.768192 71.60071 4.1946487
3.1251907 71.413704 2.5126457
51.428192 73.04571 15.915644
51.699192 72.0837 13.753645
1.1971931 79.315704 14.341646
54.86319 80.39471 14.165644
19.914196 89.3767 9.582645
19.255192 91.259705 10.697647
17.528194 86.343704 17.860645
16.109196 85.924706 19.781647
21.252193 36.8797 37.671646
22.728191 35.272705 39.192646
21.49419 43.523697 1.1366463
19.684193 42.434708 0.3776474
36.34419 63.173706 15.658645
37.54219 65.427704 14.9836445
34.70219 64.86371 21.935644
32.17819 65.4567 22.375645
49.47219 1.7787018 17.400644
49.30119 1.1157074 19.452644
2.982193 131.3537 20.615644
3.8221927 130.5887 18.570644
34.54219 24.286713 11.291643
36.05519 26.437698 10.297646
38.69519 33.44171 11.956644
37.87319 33.09671 9.821648
31.34419 88.8067 25.944645
30.70719 90.8047 24.439644
31.10019 84.883705 18.532644
30.99319 84.9177 16.238644
17.832195 86.8507 10.194645
20.173191 85.9737 10.064648
23.010197 84.064705 15.275644
23.318195 84.0547 17.851646
42.74319 5.822708 22.060644
40.97419 7.4376984 21.757645
33.45219 3.8167114 21.053644
32.63219 2.7867126 19.817644
7.1111903 83.8887 8.101646
9.07119 84.7807 7.032646
12.839191 89.31071 11.446646
14.289196 90.39471 12.824644
50.23919 53.276707 30.356644
49.504192 53.908707 28.811644
40.97219 52.741707 28.275644
40.29819 51.606705 26.661644
41.53519 99.56171 4.020649
42.86919 99.45871 2.3086472
46.63219 106.287704 7.258648
45.89519 105.62271 9.132648
11.464191 102.26671 14.380644
9.50819 101.91471 15.433645
1.5921898 107.02671 14.467646
1.2931938 108.301704 16.386644
35.57219 90.717705 14.509645
33.457188 91.244705 15.187643
38.171192 94.01071 17.341648
38.727192 92.49971 18.679646
6.5651927 73.15771 6.4916496
4.5451922 74.72771 7.4366493
5.0721927 76.57271 14.429644
4.4391894 76.399704 16.324644
16.331196 29.023712 18.525646
14.649197 29.335709 18.084648
13.588192 26.9747 11.341646
11.917191 27.217712 9.874645
44.830193 100.61771 14.365644
44.66619 98.88071 15.262644
36.92919 102.534706 13.938646
37.10519 104.537704 14.320646
11.569191 9.279709 30.148643
12.169193 11.22171 30.535645
12.638195 13.6577 38.484646
14.390194 14.901703 38.449646
42.85019 93.70071 5.812649
43.33419 96.29671 6.4886475
38.95519 93.30571 13.985643
39.90119 92.41771 16.080645
54.54419 112.42071 20.977644
0.85819244 113.57671 21.783644
0.28519058 119.55571 15.799644
0.8461914 121.70171 15.235644
50.29019 113.57271 28.009644
49.10319 112.54671 30.275644
44.87819 118.30971 32.998646
44.810192 117.22371 34.894646
23.365192 101.83671 12.810644
21.704197 101.97371 11.4576435
17.989193 95.62671 14.014647
16.13419 95.10171 12.727644
28.46119 43.338707 21.951645
29.97419 44.389706 20.703644
36.01219 47.227707 22.050644
36.84219 45.869705 20.665644
4.90319 95.895706 24.720644
6.377189 97.91671 24.933645
7.242191 100.28871 15.150644
7.8661914 98.520706 14.216644
22.72519 46.863712 38.053646
24.81819 46.07871 37.948643
26.83119 37.537704 39.413643
28.50519 37.770706 37.957645
23.595196 48.939705 17.884644
22.265194 49.577705 19.433645
16.80019 53.202705 14.984645
14.958195 53.949707 16.140644
46.09619 5.529709 0.57964706
44.80719 6.2407074 2.0876465
40.20919 130.05771 1.9846458
38.55219 129.05171 3.3936462
6.002189 113.82771 20.710644
7.5201907 115.19971 19.839645
6.721191 123.54971 17.695644
8.635193 123.04371 18.873644
44.98219 58.845707 38.954643
43.00219 59.506706 38.029644
40.817192 53.334705 30.720644
42.09919 51.776707 31.077644
43.88019 117.00171 23.663645
44.86919 117.97471 25.258644
41.727192 124.05271 29.219645
43.372192 124.41571 30.331644
45.17519 23.2827 33.496643
44.26319 21.261703 32.405643
35.87819 23.750702 31.531643
35.38919 25.181702 33.154644
30.05619 83.49171 33.403645
29.39019 85.2637 31.686644
20.16119 85.757706 33.901646
18.917194 86.120705 32.459644
53.98619 82.841705 28.274643
52.51019 84.758705 27.438644
46.79719 79.28271 23.180645
45.49419 80.6797 22.929644
22.273197 11.8927 8.661648
22.156193 13.125702 10.501648
15.555195 17.6987 12.691645
13.859196 16.544708 13.677645
9.138191 120.91771 31.511644
7.655193 119.37371 31.703644
7.589191 124.53971 38.269646
6.2291903 125.77671 38.399643
5.7911906 62.53071 29.421644
4.768192 60.274708 29.473644
54.57519 62.789707 23.116644
52.51019 62.406708 22.244644
40.97919 41.62471 19.427645
40.63219 41.1987 21.323645
48.41519 43.883698 20.581644
48.41219 45.736694 21.243645
9.865192 86.593704 20.540644
8.81319 88.18671 21.338644
14.006191 92.246704 24.357645
13.893192 95.09971 25.155645
26.969193 60.57871 7.178646
25.57819 60.121708 4.9486465
21.916195 53.932705 0.3266449
22.608196 53.452705 38.619644
9.887192 67.7347 13.801645
8.554192 67.79571 12.106646
0.751194 71.535706 15.123644
55.38219 69.897705 14.624643
8.72419 21.01271 38.831646
8.996193 19.135712 39.957645
15.31319 25.078705 2.456646
15.219196 25.071701 4.9766464
35.29119 103.91471 11.758646
35.33119 102.173706 10.458649
29.49719 98.606705 8.24165
28.28019 98.44971 6.4466476
26.586193 27.07071 7.0096474
24.503193 26.91771 6.1756477
24.442196 35.4917 9.600647
22.659191 36.6877 9.319645
38.70919 44.69771 7.1046486
39.13119 43.273697 9.130646
34.76719 39.6187 2.4086456
36.22219 39.453705 1.1146469
0.607193 112.89971 3.7416496
54.85719 111.21271 4.815647
7.8381915 105.676704 3.1636467
8.649193 105.44671 5.0426483
49.87019 59.418705 10.720646
51.47419 60.708706 9.854649
54.05019 67.71471 13.344645
52.62019 69.10071 14.175646
37.76819 49.654705 21.723644
37.14219 51.849705 21.739645
30.98719 55.744705 25.582645
29.04719 55.041706 25.630644
27.88319 29.362701 23.395645
29.78819 28.216705 24.503645
31.01419 26.796707 33.845646
32.52219 25.58371 32.887646
42.51519 82.2117 11.1466465
41.38419 83.2227 9.816647
43.68019 88.0437 5.332649
44.74419 89.605705 4.6556473
48.37819 126.74671 16.196646
48.38719 124.423706 15.111647
47.86419 121.94571 7.945648
47.44619 120.22471 9.088646
11.526192 14.45871 6.8916473
12.046192 13.8517 5.017647
5.6781917 8.2827 3.0376472
4.0321918 8.410706 1.9036446
0.31319427 24.452698 8.395649
1.569191 22.610703 7.6116486
7.450191 18.078705 10.116646
9.707191 18.477707 11.715647
5.9821925 68.5567 38.018642
7.8831897 69.689705 38.829643
3.8361926 76.8457 36.609646
2.6931915 75.4977 35.375645
5.7251925 4.904709 3.324646
4.0201907 4.172699 1.8696442
0.23919296 1.4687042 10.090649
54.73519 130.88371 10.598648
10.297192 70.188705 28.787643
9.593193 70.04371 30.813644
14.07719 69.99171 37.822643
15.507191 68.57571 38.776646
55.33319 112.08771 29.701643
53.48819 112.53271 28.901644
49.67019 103.73771 26.440645
48.067192 103.59771 28.593643
14.597195 93.107704 11.4576435
14.058193 92.174706 10.104649
6.726192 90.1287 6.4816475
7.497192 88.396706 7.640648
52.949192 77.9597 21.508644
50.88119 77.8747 23.027645
44.56919 71.66971 22.865644
44.87319 71.6517 24.907644
25.812191 26.919708 12.2716465
26.81319 25.354706 14.162645
19.838192 20.30371 15.4836445
18.593197 20.552704 13.642645
30.58419 37.01671 39.246643
32.74719 36.490707 0.0016441345
36.25019 32.37271 32.856644
37.45419 33.54271 30.738644
2.1551933 56.309708 4.5806465
3.4621925 56.292706 6.0686493
3.0841904 52.012707 12.255644
2.704193 53.411705 13.932646
33.55219 101.41671 33.590645
31.37719 102.549706 32.781643
33.25719 103.31771 23.197645
35.92219 103.72771 23.767645
25.88419 67.909706 13.506643
27.68919 68.6387 12.321646
24.14419 72.870705 6.4106483
25.68519 74.61771 5.923649
3.5061913 92.29771 26.211645
1.9991913 91.689705 27.848644
1.088192 91.7477 34.302643
0.97019196 92.426704 36.196644
11.782192 111.36871 12.316645
10.441193 112.74671 11.525644
6.297191 116.30171 5.9176483
7.30619 117.81771 7.815647
5.995189 21.488708 29.427645
4.2981906 21.676712 28.012644
4.728191 23.81871 19.701645
4.8641925 26.09671 19.915644
14.640194 35.2847 18.477644
