11.229538 35.089516 8.595772
11.023537 35.845516 10.741768
9.407536 42.143517 13.57077
10.358536 41.199516 15.287773
16.528538 26.885519 53.882774
15.723537 27.057518 51.368774
18.537533 24.377518 45.553772
18.217533 24.806519 43.274773
24.567535 64.62552 38.405773
24.770538 65.45851 40.485775
18.085537 63.130516 42.123775
15.946537 64.283516 41.247776
28.674538 37.289516 41.864773
29.241539 35.418518 41.094772
27.386536 32.18152 47.020775
26.880539 33.043518 48.983772
21.718533 68.71352 72.244774
20.879536 69.228516 2.266777
23.547539 64.630516 8.016777
24.010536 65.800514 9.7037735
20.435535 37.686516 42.454773
20.333538 35.65252 43.940773
24.519539 31.748518 47.207775
23.604538 29.80852 47.602776
41.063538 16.148518 33.811775
39.462536 17.88152 34.886776
40.37354 24.97352 34.682774
40.99954 26.672518 35.821774
16.655537 8.582512 64.255775
15.479534 8.09951 62.297775
16.139538 13.621516 57.604774
15.942532 15.810519 58.254776
10.357536 66.924515 14.359772
8.118538 66.911514 12.788773
4.175537 4.285515 10.644768
6.0275345 5.6295166 9.891769
14.509533 31.833519 50.603775
16.290539 30.283518 50.617775
21.961536 28.841518 52.857773
22.987537 27.452518 51.415775
26.050537 21.459522 52.459774
27.116539 21.873516 54.33177
21.475536 19.357517 58.850773
22.485538 19.835522 60.800774
17.334538 65.672516 63.858776
19.111538 65.18252 65.88978
24.902538 66.17751 61.950775
25.408539 67.54051 60.175774
15.549534 48.54052 54.812775
17.559536 50.01552 54.712772
15.143536 55.957516 51.870773
12.545536 55.92452 51.34577
15.890537 6.8955154 5.0317764
17.738537 6.4355164 3.6477737
21.271534 8.380516 69.895775
20.904537 10.619514 70.54278
31.476536 8.82151 63.088776
29.480537 8.80851 61.994774
26.679539 1.1465149 62.825775
27.33854 68.65251 63.848774
4.3245354 24.574518 67.74577
6.396538 23.577517 68.13678
9.012535 19.204517 71.87278
7.856537 19.751522 1.7297745
26.158539 51.573517 64.62678
28.222538 52.504517 65.06477
31.947536 54.592518 58.945774
33.885536 54.384518 59.931774
0.8445358 52.517517 70.63578
51.41554 53.86152 69.243774
2.165535 56.655518 63.919773
3.847538 58.078518 64.35978
15.384533 15.935519 8.952774
14.578533 17.943516 9.94677
11.504536 20.646519 3.1497726
13.399532 20.590519 1.3387756
7.9165344 37.136517 5.468773
6.851536 39.066517 4.9067764
9.504536 39.52652 70.075775
7.9965363 41.343517 69.216774
35.903538 44.455517 53.622772
36.654537 46.727516 52.783775
34.01354 42.454517 48.339775
35.543537 40.878517 48.155773
27.850536 48.405518 1.7837753
28.688538 47.41752 71.923775
23.242535 43.91052 70.19178
23.546535 42.82552 68.37878
8.503536 17.493519 3.0617752
10.576538 17.882519 3.1617737
14.825535 11.903511 5.0277786
14.630535 11.202515 7.400772
4.055538 23.147516 31.981773
2.0185356 22.110516 33.066772
51.642536 21.168522 40.069775
0.17953491 19.112522 40.902775
17.819538 48.46652 57.203773
19.285534 46.87452 57.215775
15.986538 41.106518 61.113773
15.4595375 39.93752 59.645775
43.454536 10.8175125 46.328773
41.517536 10.920517 47.631775
35.126537 10.73851 42.741776
34.660538 10.160515 40.556774
2.953537 55.343517 17.83577
3.7065353 56.300518 16.156769
1.0085373 63.013515 18.672768
2.519535 64.77751 19.158768
11.987537 45.453518 0.48177338
12.882534 46.66752 1.8447723
9.0205345 50.837517 67.30578
7.207535 49.170517 67.55077
20.852535 6.1265106 35.658775
21.583538 6.8935165 33.394775
20.283535 10.44651 27.943773
18.063534 10.999512 27.311773
16.459538 40.95052 54.135773
15.926533 39.13252 55.202774
14.961536 38.731518 48.543774
15.361538 38.11152 46.560772
11.676537 40.77752 70.69778
11.683537 42.998516 71.65078
14.096539 40.183517 6.197777
13.9595375 38.546516 7.035774
15.440533 45.155518 69.034775
14.927532 46.509518 66.991776
13.116535 53.918518 66.048775
11.785538 54.052517 64.34478
13.594532 60.97352 58.796776
13.076534 59.039516 58.939774
21.018536 56.706516 61.192776
20.415539 55.32052 59.606773
46.808537 34.52152 55.994774
44.93754 35.52152 55.416775
49.49154 41.69552 58.290775
51.502537 40.600517 58.743774
15.565533 66.73652 3.091774
17.924534 67.71851 2.5647736
20.674534 2.5495148 1.8097763
21.961536 4.346512 1.9327774
18.575535 66.077515 43.688774
17.455532 67.75352 44.749775
14.127537 1.0375137 50.908775
15.603535 69.15752 52.245773
4.783535 65.425514 14.837769
5.7185364 66.519516 13.506775
1.6225357 67.47452 7.5947723
2.448536 0.26651 6.617775
13.338535 8.550514 1.7147751
11.473537 9.845512 1.3697739
7.1955376 15.172519 3.181778
7.4405365 15.852519 1.164772
3.319538 23.169518 10.905769
3.658535 25.520517 10.169769
1.7655373 28.168518 17.119766
0.53253555 27.665518 18.568771
49.65854 40.921516 47.356773
48.088535 39.57652 46.603775
49.529537 33.27052 49.353775
50.628536 31.801517 48.369774
1.2125359 50.782516 68.55978
3.2605362 51.080517 69.55278
2.4185371 48.46452 3.8967743
1.6665344 49.52252 5.468773
16.149532 36.412518 42.544773
14.318539 35.212517 41.243774
12.491535 33.793518 49.462772
11.295536 31.811518 49.536774
20.900532 14.860515 49.263775
22.523533 15.5395155 50.656773
28.699535 13.208511 52.683773
30.387539 14.649516 51.923775
18.314533 34.728516 12.921768
19.482533 34.19452 11.466774
15.068539 27.639519 8.431778
17.063534 27.096518 7.7627716
41.424538 36.63852 40.038773
42.196537 34.49952 39.489773
46.345535 38.238518 33.483772
46.63054 40.538517 33.075775
31.445538 50.918518 69.561775
32.56254 52.571518 68.78878
38.30554 52.81952 66.82977
38.716537 54.690517 66.311775
8.461536 65.01151 17.23777
6.481537 64.341515 16.700768
8.776535 57.074516 18.08377
9.358536 56.509518 20.04477
12.194538 68.91451 69.80678
13.885532 1.0915146 68.98378
15.6105385 5.0155106 66.50178
17.177532 6.55851 65.923775
20.543537 47.00652 13.981773
18.622532 46.551517 13.023773
15.909534 46.240517 9.117767
16.807537 45.23052 7.0667725
15.819538 63.173515 62.979774
17.462536 63.964516 61.724773
18.349537 61.337517 55.761772
18.986538 59.144516 55.274773
35.557537 44.04952 1.9747772
36.585537 44.50752 3.6337738
34.260536 51.16152 7.653778
32.315536 51.849518 8.506775
4.4495354 26.881517 69.40578
4.363537 28.958519 68.31878
51.251537 32.955517 71.12878
0.12753677 32.956516 0.75777435
10.717537 28.957518 43.982773
9.218536 29.966518 42.790775
9.797535 37.311516 40.610775
9.543537 36.984516 38.417774
9.243538 25.959518 64.27778
9.071537 24.031519 62.910774
17.016537 24.368519 59.457775
15.763538 22.750519 57.878773
14.843533 9.125511 51.258774
14.417538 7.375511 52.733772
8.021538 11.204514 50.918774
7.147537 10.83551 49.158775
43.469536 4.427513 60.871773
43.655537 6.469513 60.931774
47.692535 12.010513 62.932774
49.535538 10.592514 62.512775
41.65254 14.882518 66.02778
42.507538 15.418513 68.25078
39.245537 21.500523 64.63678
37.302536 20.67152 66.171776
41.50554 68.85152 21.156769
40.038536 1.5365143 20.07077
40.122536 0.06351471 13.786774
37.286537 68.797516 13.68277
27.252537 1.8055115 4.9957733
28.436539 1.1225128 2.9747772
32.538536 1.0765152 71.54378
33.35954 2.6015167 70.31577
42.81254 54.35352 51.943775
42.65254 52.635517 52.747772
45.816536 55.218517 58.688774
48.10354 55.27252 59.030773
6.4965363 50.82752 6.0387726
6.6385345 53.72852 6.3667755
51.31954 55.00052 3.4067764
0.87153625 56.964516 3.9477768
39.90854 36.24952 23.616768
40.710537 33.93152 23.721771
33.705536 31.119518 23.82077
32.06254 33.050518 23.990768
32.87354 32.297516 1.565773
33.65154 30.105518 1.2737732
28.894539 29.684519 70.44578
29.332539 31.460518 70.06678
1.3235359 66.46052 58.534775
1.2195358 68.22051 60.186775
49.897537 69.20851 67.28777
49.842537 67.49052 68.13878
18.578533 13.286514 50.857773
18.954533 13.257515 48.851772
16.487537 17.915516 43.060772
14.492535 19.090519 43.648773
48.24254 50.003517 51.996773
48.336536 50.470516 49.602776
42.744537 46.34152 50.779774
42.590538 47.96652 51.771774
8.848537 54.75752 68.92078
11.374535 54.83952 68.324776
17.731533 51.206516 70.66378
18.473537 52.335518 0.35877228
21.648533 58.559517 32.73477
19.874538 57.944515 33.742775
22.933537 51.425518 34.471775
25.098537 50.83252 35.097775
47.266537 46.77252 43.717773
46.26954 44.88352 44.181774
41.35354 45.24452 39.284775
42.084538 47.49352 39.002773
36.06054 54.964516 2.853775
36.68754 53.21452 3.9167786
31.431538 48.977516 71.56678
32.265537 47.162518 71.893776
46.567535 51.88952 68.228775
48.593536 53.259518 69.14978
50.24054 60.696518 70.65478
51.113537 60.971516 68.367775
51.465538 44.439518 29.053774
49.328537 44.745518 29.693773
43.336536 43.197517 25.274775
42.969536 44.84652 26.505774
50.493538 28.134518 4.178772
50.16554 30.14852 2.8237762
51.065536 37.07052 6.561775
51.806538 36.316517 8.890778
1.6145363 11.426514 69.576775
51.76954 11.32251 67.49577
2.6535378 7.7185135 61.735775
0.5015373 8.402512 61.119774
39.989536 28.159517 43.756775
41.139538 29.59352 45.093773
43.921535 23.610518 45.740772
43.475536 21.840519 46.628773
18.843533 28.93052 64.143776
21.015537 28.409517 63.113773
24.991539 32.260517 59.435776
26.874538 30.94752 59.603775
6.599537 6.550514 47.326775
7.974537 7.9945145 46.805775
13.778538 4.6765137 46.098774
15.242535 2.75251 45.255775
36.698536 53.78352 12.041771
38.04754 51.64652 12.866768
34.446537 53.08352 20.19777
32.592537 54.441517 20.23677
24.760536 38.864517 58.925774
23.881538 40.54052 58.183773
20.969532 46.70752 59.530773
21.494534 47.02252 62.283775
30.121536 36.656517 60.097775
29.083538 38.45952 59.038776
25.120537 40.116516 54.947773
23.664536 38.62452 56.078773
39.587536 22.860518 19.948769
38.879536 24.762518 20.65577
40.801537 29.106518 26.556772
39.435535 31.148518 26.994768
3.1435356 41.15952 72.04078
3.3925362 38.95752 70.87778
7.920536 33.79152 70.213776
8.136536 31.37452 70.95477
39.898537 39.336517 63.417774
40.454536 37.441517 63.744774
34.302536 33.93752 63.684776
32.31154 33.686516 62.671776
39.20754 32.337517 52.378773
37.729538 33.574516 52.318775
36.142536 28.115519 57.171772
36.24154 27.585518 55.119774
37.98554 22.021519 46.356773
39.92254 23.538515 47.374775
44.99854 23.00052 53.464775
43.50654 22.292522 55.108772
11.232536 0.20251465 51.136772
12.409534 0.6045151 52.853775
12.168537 5.0135117 57.867775
13.822536 5.019516 56.33877
39.77754 52.232517 46.248775
40.343536 53.44452 44.341774
38.04654 55.27852 37.124775
36.78454 52.961517 36.060776
0.098537445 30.872519 44.96377
51.44354 29.093517 43.697773
6.425537 26.510519 40.811775
7.0065346 24.447517 41.967773
14.847538 62.748516 43.142773
15.093533 61.170517 44.492775
10.408535 65.56651 50.288773
8.828537 63.704517 50.341774
17.027538 33.02052 69.270775
18.320538 32.273518 70.951775
23.816536 37.037518 0.03377533
25.669537 37.336517 71.69178
32.340538 5.941513 59.237774
33.459538 4.540512 61.028774
31.965538 67.18452 62.856773
31.792538 66.909515 65.560776
27.071537 9.859512 62.548775
26.557537 9.042511 60.928776
25.799538 13.744517 59.985775
25.561539 15.815516 59.677776
13.081532 29.71152 49.496773
12.396534 29.612518 47.238773
17.518536 33.859516 44.419773
18.148533 34.497517 42.358772
31.757538 3.4565125 43.266773
33.43754 4.2105103 42.773773
32.340538 11.145515 41.266773
31.006538 12.435516 41.971775
30.869537 13.124512 2.067772
32.141537 12.955513 0.03277588
29.197536 8.394516 67.466774
27.755539 9.561516 65.881775
48.606537 10.410515 66.11278
47.345535 12.476517 65.69478
0.17653656 15.441516 61.546776
1.8845367 14.011516 60.569775
13.499538 44.316517 64.80177
14.825535 44.996517 62.987774
12.329533 52.386517 62.006775
14.041538 53.61252 62.634773
45.55554 69.13651 60.820774
45.861538 1.693512 61.856773
51.565536 6.8105164 64.22478
1.7065353 5.9305115 63.482773
20.662533 68.82152 40.440773
19.945538 68.53951 42.477776
25.855537 65.062515 43.044773
28.055538 65.32152 43.000774
18.252537 67.18552 40.354774
16.581532 66.69652 42.066772
9.778538 0.43350983 43.027775
8.123535 1.6105118 41.100773
36.364536 23.523518 20.583773
35.764538 24.450518 22.576775
32.29854 23.403519 28.098774
33.038536 23.557518 30.213774
15.199535 16.125515 62.591774
15.018536 18.21352 63.613773
9.1455345 21.38152 63.773773
7.948536 21.67252 65.715775
15.448536 50.914516 25.663774
17.317532 51.628517 25.39477
19.291538 54.067516 18.688766
17.724537 54.293518 17.094772
18.456532 15.537517 53.004772
20.347538 14.697513 52.075775
24.582539 10.013512 55.520775
26.905537 10.47451 55.349773
23.813538 21.33852 71.19077
25.694538 20.35352 72.12478
32.296535 20.641521 3.6397781
31.030537 21.939518 5.5417786
22.538532 66.83752 51.732773
21.632534 65.450516 49.940773
21.647533 58.999516 51.711773
20.918537 57.400517 50.342773
3.1995354 49.185516 32.457775
5.097538 49.467518 31.866774
5.6715355 52.76552 25.504774
4.6215363 54.46552 25.029774
33.174538 1.5845108 24.188766
34.50554 0.8435135 22.881767
27.85254 66.173515 20.32277
28.472538 66.342514 22.421768
29.211536 58.525517 58.017776
27.040539 58.663517 58.500774
22.527538 53.10352 60.235775
22.472538 53.273518 62.865776
26.754536 45.67952 27.802774
24.809536 45.91552 27.263773
27.041538 52.476517 25.659773
27.318539 54.641518 26.297773
34.36654 53.49252 47.400772
32.897537 54.98052 47.233772
27.123539 52.14052 47.197773
25.106537 52.462517 47.770775
48.40254 27.734518 2.0487747
46.254536 26.834518 2.400772
47.425537 27.627518 8.971771
48.862537 28.126518 10.569771
13.021534 25.347519 45.412773
11.595535 26.497519 43.707775
17.986538 29.72552 39.560776
18.313534 29.256517 37.188774
25.650536 1.0635147 65.95978
23.332539 0.7585144 65.84878
18.346539 4.394516 64.85878
19.231533 6.245514 64.11478
50.855537 45.900517 25.64477
50.88754 46.39552 23.304771
51.00454 40.183517 20.045769
0.13053513 40.54752 17.936768
2.9475365 3.804512 55.216774
1.0285378 2.7095108 54.509773
4.187538 66.41852 49.656773
3.448536 65.58251 47.641773
25.073536 30.295519 53.031773
24.709538 28.00352 53.317772
29.402538 23.040518 52.782772
28.545536 21.651518 50.987774
7.425537 61.232517 64.48578
8.339535 62.956516 65.894775
14.183537 63.357517 65.04478
15.8955345 64.73752 66.42878
18.190533 0.66251373 52.493774
18.389538 67.74951 51.837772
16.399532 63.444515 57.068775
14.406536 63.461517 58.115776
16.343533 42.03452 1.0457764
15.768536 42.955517 3.1577759
18.842533 49.97352 1.6197739
17.544537 51.22852 2.8627777
2.4505348 29.265518 21.665771
2.427536 29.701519 19.63977
4.1105347 36.130516 22.40477
2.8245354 37.25752 23.09777
10.812538 17.925518 20.823769
10.733536 19.349522 22.267769
8.907536 21.57552 28.697771
10.488537 20.665516 29.097773
15.451534 15.25352 40.185776
16.476536 17.191517 40.482773
22.969532 21.203518 41.117775
24.326538 20.829517 39.725773
0.8965378 17.999516 0.1957779
2.7755356 18.90652 71.62678
5.3345375 24.595514 2.3307724
7.6485367 25.26452 2.7457733
9.582535 5.9615097 7.7817764
9.8155365 5.306511 5.8747787
8.725536 66.47552 8.711777
6.279537 66.72251 8.351776
12.339535 14.111514 60.283775
13.1105385 13.289513 58.196774
15.2705345 7.012512 56.917774
16.994534 7.9005127 57.601776
1.0895348 64.65452 34.949776
1.6155357 63.586517 37.174774
0.74653625 68.410515 41.423775
0.67253494 68.674515 43.390774
42.74854 0.40651703 0.5447769
44.14454 1.5415115 1.4417725
50.69354 0.17551422 70.007774
51.091537 2.0275116 68.90178
8.571537 64.96352 64.157776
7.703537 63.377518 62.491776
11.218536 60.630516 57.597775
11.074535 58.142517 57.121773
35.119537 55.32052 57.812775
34.516537 54.136517 56.028774
39.02654 58.754517 52.278774
40.99154 59.18852 53.039772
45.326538 15.502513 67.01178
44.820538 14.199519 68.964775
46.51254 20.58852 0.690773
47.938538 22.301517 0.667778
47.009537 44.86952 56.740772
44.653538 44.574516 57.104774
38.92154 42.796516 56.668774
37.62454 41.72852 58.005775
3.5015373 21.106518 46.931774
2.4665375 20.155521 45.339775
3.533535 15.46252 40.552773
5.4965363 13.716517 40.628773
48.45054 44.57552 2.6807785
48.12454 45.51352 0.75577545
50.56754 48.62652 67.480774
48.570538 50.20252 68.01378
11.198536 3.7135162 17.545769
11.325535 2.5655136 19.499771
10.083538 8.916512 22.72477
10.104538 7.759514 24.69777
12.998539 24.18752 27.793774
11.318535 23.396519 28.837774
6.180538 25.617517 26.436773
4.432537 27.056519 26.277773
0.56253815 9.193512 51.618774
51.719536 11.121513 51.700775
0.8595352 14.938518 57.762775
1.7615356 17.327518 57.706776
46.009537 66.52551 55.996773
44.600536 66.547516 53.893772
0.21753693 64.95551 50.591774
50.92354 62.666515 49.976772
17.269535 65.22652 59.170776
17.146534 66.55151 60.686775
14.222538 3.545517 59.261776
14.309536 4.584511 61.021774
4.132538 49.385517 65.35978
5.712536 50.40252 64.59578
3.2895355 57.321518 61.352776
3.689537 57.650517 58.936775
50.955536 29.136518 60.617775
51.49054 30.823519 60.227776
5.738537 32.622517 64.38678
6.5015373 31.397518 65.95477
46.010536 52.858517 63.275776
45.889538 52.065517 60.843773
47.642536 45.36052 59.439774
45.308537 45.321518 59.771774
37.539536 36.768517 33.630775
38.987537 37.25152 31.795773
33.69354 43.20152 27.981773
35.13754 43.900517 26.614773
51.52554 39.581516 7.3907776
1.1695366 38.824516 6.1067734
0.684536 38.608517 71.255775
0.84853745 40.84752 70.869774
4.859535 17.113514 0.30477142
2.9075356 16.125515 72.23578
6.663536 10.053513 71.95477
5.5865364 9.115517 69.799774
42.861538 6.6785126 49.787773
42.306538 4.7875137 51.69977
37.93554 4.9615097 57.417774
35.927536 5.2655106 56.958775
48.752537 23.25152 50.976772
46.308537 22.391521 51.161774
42.261536 19.384518 47.551773
42.84654 18.61652 45.445774
47.338535 63.665516 69.34778
45.52054 63.19552 70.339775
44.204536 67.55251 4.275772
43.446537 66.394516 6.355774
39.002537 68.12151 43.997772
40.354538 67.006516 45.296772
41.657536 64.92851 52.834774
39.751537 63.713516 52.753773
47.95054 67.69952 58.731773
46.11654 66.645515 58.545776
47.220535 60.531517 56.890774
49.286537 59.402515 56.183773
42.014538 30.463518 40.983772
42.969536 32.546516 41.461773
49.125538 30.317518 42.921772
48.89554 28.255518 44.408775
48.75454 33.665516 69.506775
49.326538 35.433517 70.866776
47.23554 42.33452 1.5027771
46.16654 43.594517 72.08578
20.831532 27.670519 5.325775
22.864536 28.325518 5.1187744
24.752537 30.501518 70.15078
26.679539 31.708519 70.077774
0.46653748 3.7485123 67.45377
2.2415352 2.3875122 68.271774
4.0345345 69.12952 60.168774
5.196537 67.411514 60.935776
7.0355377 24.757519 65.82977
6.529537 24.151518 63.635777
3.7285347 26.828518 56.941772
3.2115364 29.058517 57.407776
36.45654 11.281517 0.94677734
34.63754 12.422516 0.46077728
33.377537 8.097511 66.24778
31.281538 9.362511 65.68378
45.920536 62.914516 24.018774
46.204536 63.434517 26.599773
1.1275368 63.741516 30.092773
2.2775345 63.468517 28.117773
12.813534 3.7375107 31.643774
14.015537 1.9485168 30.510773
9.905537 65.84551 31.903774
7.4775352 65.06851 32.926773
30.927538 9.94751 59.441776
32.79854 8.51651 58.766773
36.05454 8.608513 64.82278
37.814537 7.65551 64.59377
35.871536 68.74052 11.092773
37.508537 0.53351593 10.30677
41.70754 68.22151 4.9117737
41.911537 0.30451202 3.3187714
44.13054 49.642517 11.309769
42.761536 48.324516 10.369774
37.504536 47.77152 15.37677
37.44954 45.330517 15.035774
28.862537 41.441517 17.255768
29.501537 39.70952 15.686768
25.290539 40.755516 10.383774
26.255539 42.872517 10.16877
40.754536 13.26651 68.08278
39.19254 14.401515 67.06878
37.614536 20.333523 71.02678
38.78454 21.496517 0.24477386
35.524536 17.569515 20.454773
34.608536 16.989521 22.358772
30.036537 22.834522 26.479769
28.028538 22.27052 24.954773
2.2805367 31.922518 50.222775
3.1805382 34.115517 50.289772
8.434536 38.942516 51.606773
10.342537 38.366516 50.425774
39.585537 14.491519 54.741776
38.79654 15.034518 56.745773
39.414536 18.118519 61.064774
38.480537 19.543522 63.223774
42.79854 51.90352 65.964775
41.217537 53.31352 66.716774
44.41554 59.540516 69.79478
42.829536 59.898518 71.11378
29.240536 42.30452 59.175774
28.454536 43.26452 60.980774
25.214539 48.75052 62.902775
25.22054 49.68652 60.674774
9.256535 65.11152 11.272774
10.922535 64.26351 12.600769
7.3015366 56.463516 12.312775
7.3915367 55.908516 14.121773
7.031536 29.431519 61.078773
9.338535 29.425518 60.430775
13.413532 25.769518 55.738773
15.743534 25.407518 55.965775
33.93654 24.180521 43.003773
35.085537 21.869518 43.426773
36.36054 15.419513 41.498775
37.65254 15.649516 43.33177
33.161537 39.887516 11.879768
30.712536 39.503517 12.221771
27.834538 35.497517 6.3767776
25.271538 35.261517 7.544777
23.225536 8.144516 71.938774
23.453537 10.638512 0.7247772
28.719536 16.025517 0.12277222
27.615536 17.983517 0.5507736
29.923538 10.664513 37.381775
29.526539 9.017517 36.030773
27.363537 2.9705124 42.173775
28.758537 1.0935135 41.786774
33.39554 6.2865143 56.855774
32.647537 4.4265137 57.061775
28.894539 9.2825165 51.629772
29.057537 10.61351 53.758774
22.865536 56.683517 56.694775
22.742535 59.15352 57.445774
23.495537 65.09751 59.648773
26.021538 64.619514 58.841774
40.95754 13.870517 32.311775
42.480537 13.344513 30.364773
44.149536 15.775516 25.045774
44.87454 13.868518 25.772774
37.60254 52.446518 8.416779
39.59654 52.32552 7.8287735
38.490536 60.020515 3.9157715
39.637535 58.707516 2.0147781
21.856533 35.963516 3.7557755
23.531536 37.27052 2.9367752
21.682537 44.47952 0.27877808
20.591534 43.83252 71.020775
26.819538 49.088516 5.921776
28.380539 50.78452 6.200775
28.551537 56.398518 0.7907715
27.878536 57.065517 70.96978
27.488537 22.590519 60.244774
29.949535 23.046518 59.389774
35.223537 25.425518 56.618774
35.71454 23.940517 54.698772
15.659534 31.27752 26.696774
17.384533 32.69552 26.894773
18.302532 36.39752 31.152773
19.937534 37.879517 30.405773
25.107536 63.579517 34.637775
25.908539 64.882515 36.056774
30.330536 0.4045105 33.428776
30.663536 1.2585144 35.684772
8.051537 7.889511 8.870773
9.487537 9.019516 7.9167786
6.380535 15.349513 8.709778
5.5205345 15.6005125 6.641777
43.463535 17.496517 60.323776
42.18754 19.146519 61.568775
49.733536 18.723522 66.44778
49.462536 20.503521 67.03078
32.58854 56.128517 57.056774
34.425537 57.817516 57.404774
35.696537 64.11552 54.549774
36.058537 64.19752 52.180775
3.729538 59.509518 56.948772
3.6545372 59.635517 54.603775
11.170536 63.252518 55.310772
11.049538 61.866516 52.920773
21.933537 61.103516 47.532772
21.647533 61.665516 45.684772
29.402538 61.851517 46.947773
30.885536 63.741516 46.935772
31.686539 51.789516 44.391773
32.44454 53.830517 44.718773
31.837536 56.920517 39.133774
32.351536 59.358517 38.933773
9.258537 62.469517 32.502773
9.057537 60.885517 30.924774
4.3345375 57.791515 27.552774
3.8595352 60.085518 26.933773
19.479534 47.898518 42.511772
20.256535 49.44552 40.973774
25.623539 50.39552 45.055775
27.012539 49.623516 46.060772
36.508537 44.22352 36.766773
35.788536 42.532516 38.061775
31.031538 39.081516 33.041775
30.534538 39.803516 31.023773
29.391539 44.63252 57.271774
28.636538 42.96652 55.431774
36.314537 38.954517 55.722775
37.870537 40.226517 55.553772
34.54054 18.481518 62.227776
32.91554 17.084515 62.110775
32.191536 16.94852 54.038773
32.876537 15.98952 52.373775
33.809536 36.91652 16.971771
31.520538 36.137516 17.158768
32.614536 28.715519 15.855774
30.943539 27.880518 16.726768
25.859539 42.307518 56.216774
23.828537 42.39052 56.207775
20.190533 48.162518 54.806774
20.532536 49.955517 53.522774
42.419537 5.75251 29.856773
41.872536 6.033516 27.901773
40.834538 0.18851471 23.594774
38.45054 0.2795105 23.907774
31.865536 19.530521 34.947773
32.752537 18.042522 36.253773
29.873539 19.261517 43.649773
31.416538 18.174519 44.912773
31.007538 48.275517 56.113773
28.701538 47.15952 56.272774
22.413532 52.08252 57.449776
22.693539 53.46452 55.575775
31.599537 47.56852 17.51677
30.143536 47.303516 18.622772
28.315536 41.858517 20.026772
29.012539 39.90252 20.437767
9.154537 52.52152 56.646774
10.513535 50.752518 57.111774
7.5185356 48.37452 62.939774
7.707535 48.649517 64.84678
34.97854 41.400517 42.891773
34.747536 43.60552 43.450775
40.153538 43.039516 48.486774
41.739536 42.879517 47.153774
33.149536 51.42352 56.714775
32.189537 51.933517 58.508774
29.617538 49.419518 63.929775
29.813538 50.352516 65.77678
35.06054 34.780518 31.863773
36.97054 34.315517 32.795773
39.925537 32.693516 39.233772
38.06854 33.85552 40.764774
4.9775352 20.431522 40.688774
7.101536 21.21352 41.105774
13.881535 23.12752 38.407776
13.906536 23.36152 35.776775
49.646538 14.884517 60.456776
47.994537 13.458514 60.555775
41.307537 13.682513 57.239773
41.150536 15.720515 58.232773
6.7475357 6.3835144 49.872772
5.4175377 4.8365097 51.483772
7.7735367 7.561516 58.544773
8.102535 10.1575165 59.054775
12.960537 15.854518 67.68378
14.3345375 16.639515 65.78677
17.152538 20.736523 70.93378
16.475536 21.342518 0.54577637
39.27654 49.955517 32.76977
37.551537 50.130516 34.130775
31.037539 53.384518 31.613773
31.309538 55.406517 30.527773
11.942535 53.280518 14.375771
10.324535 52.606518 15.412773
6.361538 46.24252 12.577774
7.6745377 44.35352 12.189774
47.808537 9.026512 59.750774
47.045536 7.924515 57.670776
46.40254 1.1125107 55.496773
46.303535 69.18452 57.036774
28.926537 33.899517 29.532774
27.698536 32.27952 29.700773
32.119537 25.961517 28.857773
30.878536 26.445518 27.023773
25.765537 64.27852 52.332775
27.857536 64.66952 52.173775
31.135536 60.58452 48.508774
33.397537 60.259518 47.921772
40.38754 23.627518 61.219776
42.382538 24.075518 60.518776
48.898537 25.744518 62.417774
48.313538 27.482517 60.883774
36.833538 3.90551 42.404774
35.94254 5.8505096 42.248775
32.766537 8.867516 48.466774
31.679537 7.09951 49.266773
14.180538 49.010517 26.972773
13.810535 49.59752 29.181774
17.199535 46.29952 34.941772
19.229534 45.440517 35.399773
12.552532 64.160515 60.017776
14.583538 65.34551 59.938774
14.545536 0.74051666 54.501774
14.515537 2.8905106 54.996773
22.379536 53.27252 43.486774
21.190533 54.998516 43.560772
20.534534 50.76552 50.962772
22.751537 51.273518 50.729774
12.500538 57.965515 53.122772
12.7355385 59.913517 51.717773
18.645535 65.16952 50.737774
19.203533 63.817516 49.121773
6.4775352 56.163517 26.223774
7.4565353 57.419518 27.568773
8.055538 54.601517 34.749775
5.908535 55.19552 34.437775
17.581532 30.379519 24.882767
15.988537 30.15552 23.938766
11.357536 32.337517 18.513771
11.720535 30.692518 16.90577
16.588535 30.667519 53.283775
15.032536 28.982517 53.195774
10.276535 33.463516 51.389774
11.437538 34.956516 52.400772
7.4145355 30.46452 45.503773
6.4355354 30.34352 43.307774
5.087536 37.10552 41.254776
3.3375359 37.995518 40.147774
13.463535 5.0605164 52.182774
15.433537 3.7615128 52.452774
17.113537 4.6125107 44.69977
16.853535 6.160515 43.543774
5.2065353 24.442518 56.735775
5.9525375 26.089518 56.012775
12.669537 27.997519 52.044773
13.4595375 26.549519 53.157772
22.833538 31.418518 51.541775
24.304539 31.163519 50.285774
25.656536 39.255516 50.342773
27.974537 38.73052 50.409775
40.328537 40.15952 65.73277
38.21354 40.95152 67.09277
38.53454 43.82652 1.9327774
39.736538 42.412518 3.1797714
11.958538 6.9075165 42.107773
13.906536 7.361511 42.690773
13.495533 10.403511 48.885773
15.103535 11.495514 49.280773
8.253536 63.13952 40.832775
8.784534 63.48652 43.077774
11.250538 67.67052 48.687775
10.589535 0.42351532 48.306774
15.146534 27.105518 25.911774
15.519535 24.959518 26.814774
21.947536 28.059519 31.736773
21.984539 26.443518 32.88777
1.170536 31.991518 52.661774
2.9055367 31.029518 53.796772
6.5535355 34.072517 59.868774
6.642536 31.913519 60.161774
37.564537 58.523518 14.87677
37.147537 58.974518 12.758774
34.701538 53.76452 8.233772
35.656536 53.620518 6.6207733
5.2565346 29.324518 1.5277786
5.816536 27.664518 2.8167725
12.528538 27.286518 4.0217743
12.837536 24.911518 3.3687744
38.701538 26.524519 57.710773
39.266537 25.674519 55.114773
44.17354 23.414518 58.510777
46.247536 21.866518 58.482773
21.123539 9.174515 67.451775
19.692532 11.311516 67.81878
13.716534 12.681511 69.51778
11.808537 13.605517 68.004776
0.9485359 21.575518 47.602776
2.0255356 22.200518 49.196774
1.328537 27.024519 55.735775
3.3155365 28.756517 54.773773
17.200535 1.170517 33.894775
15.073536 2.0355148 33.731773
14.760532 8.633514 37.363773
14.089535 7.814514 40.003773
12.037537 21.869518 54.571774
11.136536 23.93252 55.660774
7.7655373 19.966518 61.127773
5.297535 20.18752 60.734776
39.767536 64.28751 62.106773
40.879536 64.827515 63.690773
45.330536 68.44952 65.64978
47.029537 68.661514 66.87077
7.0355377 51.204517 34.187775
7.2825356 49.03552 33.824776
13.139538 45.467518 36.275776
12.690533 44.039516 38.504776
1.1575356 39.469517 41.144775
2.448536 39.109516 42.663773
3.8815346 33.957516 47.506775
1.5655365 32.483517 47.765774
46.128536 46.36952 54.598774
44.713535 46.129517 52.870773
47.849537 42.62652 46.815773
46.22154 42.460518 45.671772
8.380535 30.497519 29.971773
7.5415344 30.83952 31.639774
7.8605347 24.053518 29.399773
6.8315353 23.218517 28.033773
12.879536 54.933517 60.459774
11.042538 53.935516 59.816776
6.4075356 59.187515 63.362774
4.7025375 60.540516 63.266773
45.233536 52.27252 51.664772
46.45754 52.560516 49.285774
48.863537 56.89052 45.432774
49.745537 55.516518 43.833775
32.77654 59.380516 30.450773
31.150536 60.857517 30.126774
24.052536 60.177517 32.107773
22.72054 60.218517 30.650774
39.15154 10.382515 52.800774
40.132538 12.62751 52.97077
44.132538 7.995514 58.319775
45.08954 8.943512 59.411774
49.230537 54.55552 16.30777
50.92954 53.54052 17.84977
51.55354 47.038517 20.122772
49.314537 46.47152 19.213768
30.720537 50.372517 54.204773
33.238537 49.991516 54.175774
39.942535 51.738518 51.358772
40.324535 49.664516 52.626774
28.260536 4.5695114 47.078773
26.263538 5.023514 48.740772
30.171535 69.21851 52.759773
28.178535 68.59351 53.143772
10.372536 17.955517 53.010773
11.658535 17.482517 51.019775
19.304539 17.481518 51.179775
20.717533 17.609516 49.352776
17.626537 59.420517 25.482775
17.996532 59.877518 23.067772
21.677532 66.16952 24.106766
23.259533 66.42152 22.549767
44.349537 36.78452 66.160774
45.199535 37.103516 68.21178
0.21953583 41.664516 67.77578
0.6645355 41.93752 65.423775
49.49954 9.555511 51.781773
48.377537 11.534515 51.372772
49.43054 11.4685135 59.673775
50.43754 9.665512 59.198776
1.2885361 6.0345154 68.63678
1.9985352 7.334511 66.93977
6.821537 7.8395157 62.309776
7.575535 5.519516 62.388775
44.732536 2.0515137 64.576775
46.70054 1.9415131 65.464775
50.83154 7.205513 69.64278
51.58254 8.661514 67.87177
15.905537 14.391513 66.25278
16.996532 15.599513 64.686775
19.351536 8.949516 63.287773
18.752537 7.698517 61.026775
45.199535 4.038513 53.893772
44.989536 4.866516 52.028774
46.119537 10.132515 47.616776
46.545536 11.379517 49.511772
22.229534 57.846516 47.696774
22.927532 59.308517 49.320774
30.933537 58.402515 50.129772
31.867538 57.37652 47.818775
49.001537 49.16652 65.16277
47.014538 51.032516 65.240776
41.546535 45.41552 63.412773
41.72854 43.588516 62.961773
36.81054 5.401512 37.709774
38.189537 7.035515 38.930775
40.612537 1.0705109 41.981773
38.49154 0.29551697 41.703773
44.257538 49.873516 52.700775
46.071537 48.946518 53.412773
51.66554 49.75652 54.814774
50.604538 50.955517 53.160774
51.23454 46.745518 52.077774
0.2685356 45.02752 52.938774
6.451538 47.54752 53.788773
7.090538 48.39052 55.691772
9.352535 28.575518 17.658768
11.228535 27.973518 18.143768
9.969536 20.360518 18.350769
8.938538 20.200518 20.462769
44.052536 4.7325134 46.745773
43.553535 4.4735107 48.514774
44.618538 0.3835144 53.200775
42.590538 68.16651 53.543774
1.0585365 14.422519 41.085773
0.5105362 14.6385145 43.183773
3.6505356 13.331512 50.218773
6.4785347 13.30751 49.468773
3.4525375 67.02852 2.940773
1.9855347 67.743515 4.383774
49.474537 65.20451 69.660774
51.628536 64.32452 69.104774
46.163536 67.51251 44.553772
47.847538 66.44652 46.163773
44.414536 61.11952 51.682774
42.260536 62.409515 51.998775
43.786537 64.034515 44.103775
44.861538 62.340515 44.305775
40.488537 55.838516 45.610775
40.448536 55.960518 43.262775
39.692535 51.182518 37.459774
39.54054 51.75652 35.088776
44.705536 52.856518 30.074774
46.72754 52.858517 30.376774
31.889538 20.872517 52.802773
33.758537 19.399517 53.890774
31.990538 20.072521 61.393776
31.343538 22.063519 61.757774
44.517536 32.829517 55.789772
42.510536 32.71552 55.823772
36.445538 33.60552 60.795776
36.580536 32.37552 62.888775
11.422535 56.572517 65.61278
9.369537 56.846516 67.12278
6.835537 52.905518 68.351776
5.3275375 51.42352 67.38477
36.042538 1.4925156 55.067772
36.31854 3.3615112 55.010773
41.003536 3.7535172 49.318775
39.747536 3.6645126 47.080772
47.101536 26.014519 50.639774
48.31754 27.186518 52.563774
50.356537 27.549519 56.723774
0.32553482 28.868519 58.123775
49.538536 21.22652 37.566772
49.55454 19.372517 38.050774
42.976536 14.381518 38.392773
41.417538 15.310519 36.637775
37.432537 24.057518 57.365776
38.618538 24.022518 59.048775
38.614536 26.508518 63.819775
39.834538 26.033518 65.67078
42.411537 65.66451 55.279774
40.93654 67.22251 55.377773
40.488537 4.175514 58.691776
42.148537 5.892517 58.565773
0.70853806 49.225517 51.895775
1.3805351 48.740517 50.069775
4.779537 53.905518 46.271774
6.7985344 53.441517 45.771774
15.433537 48.46552 40.780773
17.162533 49.34052 42.151775
15.132534 56.859516 38.869774
16.299534 56.303516 37.373775
7.479538 30.851519 57.592773
6.444538 29.019518 56.900772
8.037537 30.205519 48.400772
9.933537 29.056519 49.036774
45.933537 61.080517 67.56678
45.238537 62.446518 65.838776
40.642536 58.287518 63.826775
38.90154 57.075516 64.97578
21.137539 22.050518 61.146774
19.209538 22.796518 59.598774
23.111538 25.374517 53.325775
21.981533 24.891518 51.792774
43.758537 32.120518 53.204773
41.522537 31.684519 53.652775
36.695538 27.893518 52.405773
37.272537 25.710518 53.178772
40.223537 36.557518 34.575775
42.13854 36.470516 34.357773
41.580536 28.277517 37.902775
43.49954 28.99652 39.327774
6.637535 19.076519 43.859776
8.489536 19.650517 42.563774
14.398533 23.101519 44.090775
16.332539 23.22352 42.631775
31.097538 12.57251 39.186775
33.26354 11.619514 38.012775
38.870537 14.847514 40.541775
40.824535 13.957515 40.564774
45.36654 1.7565155 34.742775
43.834538 0.6805115 35.769775
41.653538 67.06551 40.835773
41.954536 68.133514 43.157772
35.69454 68.09551 24.580774
36.12454 0.96751404 25.276773
38.69454 2.8405151 31.344774
39.403538 5.050514 31.016773
41.282536 3.203514 32.673775
42.045536 5.4605103 32.906773
45.375538 7.684517 38.263775
46.579536 6.755516 39.829773
18.954533 37.657516 45.314774
17.052532 38.40952 44.373775
12.849537 43.747517 41.245773
14.7585335 44.40152 40.461773
26.997536 36.40952 39.843773
26.296535 35.103516 38.405773
27.548538 30.16952 45.228775
28.535538 28.346518 44.766773
35.129536 20.584522 51.353775
36.704536 19.347523 53.142773
41.583538 22.36652 57.385777
43.31254 20.974522 57.370773
12.215534 16.710514 59.465775
13.231533 15.748515 57.389774
7.986538 21.183521 55.239773
7.3605347 20.068516 53.288773
18.920536 16.40652 12.394768
17.146534 17.195515 11.233772
14.098537 17.385517 19.50177
12.355534 18.807522 18.756767
50.86654 6.9095154 51.773773
1.5125351 6.62751 51.296772
2.4245377 3.4365158 44.244774
3.2495346 5.0395126 43.466774
45.606537 23.867517 24.713774
46.529537 22.877518 26.629774
50.13754 29.959518 30.130774
49.63054 28.769518 32.333775
27.430538 59.218517 55.766773
25.112537 59.710518 56.420773
23.679539 66.536514 56.778774
22.005535 68.20451 56.962772
33.349537 9.07251 52.826775
35.445538 8.774513 52.59577
40.618538 6.4095154 48.445774
40.843536 8.342514 48.296772
10.3155365 6.936516 29.225773
9.771538 8.792511 27.927774
15.407536 13.648517 30.704773
15.615536 15.342517 31.826773
41.119537 16.496517 46.037773
40.405537 15.857516 48.104774
37.049538 10.403511 50.921772
35.626537 11.589516 51.997772
19.779537 33.802517 45.892773
18.689533 35.66652 47.201775
26.22754 37.58352 46.530773
27.087536 37.77052 44.193775
40.155537 18.109516 49.807774
40.62354 16.274517 51.006775
45.74954 19.222523 56.709774
46.059536 21.205517 56.023773
27.224537 10.150513 34.879776
27.360538 11.548515 36.689774
22.976536 12.969513 36.483772
21.514538 14.0015135 37.834774
15.909534 25.082518 36.387775
14.807537 25.940517 38.547775
8.747536 27.928518 40.886776
8.980537 25.913519 42.284775
21.368534 51.29052 3.589775
19.603535 52.97952 4.1377716
24.343536 58.684517 71.88578
22.810535 58.38252 70.00977
49.43654 4.6825104 33.438774
50.535538 2.8855133 32.135773
4.2685356 68.328514 36.695774
4.236538 68.634514 38.926773
15.321537 41.363518 47.153774
16.240536 41.11752 49.457775
24.434536 41.573517 46.192772
23.464539 41.06852 44.655773
15.653538 43.745518 33.972775
14.306538 45.60352 33.874775
12.401539 45.857517 26.105774
10.650536 47.123516 26.584774
16.886532 12.54351 34.873775
16.660534 10.041512 35.722775
15.456532 5.375511 30.629774
15.126537 6.151512 28.182774
22.046535 7.6525116 56.112774
23.462536 6.1505127 57.478775
25.090538 8.47551 64.17577
26.020538 6.903511 65.437775
1.6565361 39.27752 67.395775
3.0585365 40.62452 68.78677
7.038536 42.434517 61.182774
8.507538 44.384518 62.215775
8.188538 42.295517 36.304775
9.819538 42.45252 33.682774
12.455532 37.554516 38.364773
12.490536 37.169518 40.745773
40.142536 3.3585129 62.456776
38.780537 3.4395142 64.44077
31.568537 5.4985123 65.87278
32.559536 4.6365128 67.47478
10.646538 3.0205154 33.438774
10.096535 4.278511 35.393776
12.945538 4.3555145 42.781773
14.736538 4.4095154 43.145775
7.6505356 23.50252 4.990776
5.4005356 22.980516 4.3047714
3.2775345 15.986514 4.9587784
1.8705368 14.841517 6.440773
45.627537 54.11752 17.151772
44.807537 53.35452 15.409775
49.63854 60.502518 13.870773
51.38854 59.283516 15.060768
6.1745377 40.178516 52.499775
8.014538 40.155518 54.076775
8.967537 45.753517 58.807774
10.642536 45.870518 60.986774
8.748535 7.667511 38.253773
8.771538 5.491516 37.555775
6.8655357 68.564514 37.669773
8.613537 68.174515 36.484776
25.493538 45.08252 36.842773
23.431538 44.621517 38.150776
24.856537 44.08252 45.884773
26.676537 44.47352 46.244774
50.153538 49.51352 39.575775
49.06754 47.865517 40.321774
49.850536 43.02052 44.881775
48.171535 41.23752 44.541775
20.555538 56.858517 54.774773
20.369534 55.629517 56.635773
13.118534 54.40452 57.764774
11.609535 53.483517 56.991776
24.46354 50.70252 52.759773
26.698536 50.088516 52.084774
24.442535 41.870518 50.369774
25.058537 40.970516 52.228775
22.669537 12.959511 39.914776
22.774532 11.031517 40.583775
18.888538 10.548515 47.600773
21.157536 10.250511 49.272774
48.17354 28.263517 23.123774
49.76854 27.030518 22.438774
1.4115372 24.375519 28.808773
2.4095345 24.911518 30.746773
34.397537 2.6285172 57.062775
35.42954 3.3595123 59.199776
37.268536 65.50252 61.878773
37.15954 63.607517 60.747776
12.348537 37.400517 48.241776
11.112537 39.176517 48.126774
8.340538 39.87552 40.716774
9.143536 40.59752 39.123775
47.935535 31.906519 29.469774
49.703537 32.519516 31.033773
0.43353653 35.68752 25.763773
1.729538 34.957516 23.914774
18.330532 41.30552 56.383774
19.547535 40.939518 54.743774
20.228535 47.093517 52.09577
22.017536 48.510517 51.111774
11.790535 64.867516 53.179775
10.6905365 66.770515 52.927773
7.0585365 69.13651 59.579773
7.701538 68.06052 61.492775
50.390537 51.941517 46.723774
50.41554 51.50852 44.661774
41.813538 50.65352 44.689774
41.629536 51.20852 42.415775
3.300537 44.29052 18.207771
4.3015366 44.85352 16.18077
49.722538 42.211517 14.04377
49.52554 39.600517 14.498772
17.993534 15.546519 28.273773
18.902538 17.676517 28.511774
14.808537 21.540516 34.036774
15.266537 20.723522 36.032776
45.25654 19.386517 7.787773
44.386536 18.20052 6.209778
42.657536 13.334511 3.867775
40.63154 13.326515 3.813774
49.232536 1.3715134 22.483772
47.98554 2.8975143 21.434769
49.70754 4.858513 13.410774
48.87354 7.0065155 13.734772
1.1615372 60.164516 53.809772
0.39853668 62.030518 52.489773
50.22154 67.37652 57.086773
49.232536 69.13751 56.334774
12.078537 55.866516 6.4257736
11.061535 57.61152 5.5867767
12.945538 63.37552 3.3587723
13.340534 65.79051 4.2677765
51.13854 11.949516 30.411774
49.12454 12.562515 31.266773
47.77054 7.908516 36.661774
48.453537 5.483513 35.862774
49.841537 14.924518 41.056774
50.223537 16.986515 42.162773
45.92354 21.334522 45.321774
46.039536 23.122515 44.133774
33.488537 45.745518 42.157772
31.941536 43.448517 41.784775
28.783539 45.343517 34.777775
30.561539 43.61052 33.849773
40.987537 52.038517 48.693775
41.717537 53.585518 49.553772
46.434536 56.900517 44.010773
47.452538 55.482517 42.310772
50.535538 44.04852 56.996773
51.675537 43.81952 59.019775
1.8325348 50.36852 57.169773
3.038536 49.69352 55.562775
19.466534 35.07052 40.086773
18.401539 36.846516 40.873775
17.582539 42.837517 35.974773
15.288532 43.27652 36.457775
2.974537 29.990519 30.656773
1.2515373 29.011518 32.032772
50.542538 35.704517 36.969772
0.083538055 35.012516 39.034775
49.377537 29.462519 51.597775
49.521538 29.776518 49.649773
49.063538 23.237518 44.520775
48.397537 21.649519 46.325775
44.808537 10.498512 28.979774
42.910538 10.239517 30.126774
44.070538 12.171516 37.108772
42.18754 12.497513 36.752773
16.684536 15.197513 55.542774
16.671535 13.540515 54.116776
10.314537 12.729515 50.464775
9.261536 13.832515 49.141773
43.871536 61.401516 25.367773
43.695538 61.201515 27.667774
41.377537 62.502518 33.394775
41.876537 63.817516 34.764774
39.029537 55.926517 62.005775
38.188538 55.134518 60.564774
44.72854 57.314518 55.886772
45.97154 58.047516 57.387775
9.793537 42.960518 49.371773
9.011536 41.29852 47.491776
3.7325363 37.075516 51.000774
2.302536 38.560516 51.530773
42.601536 36.699516 45.933773
44.386536 38.24452 44.813774
49.33154 37.240517 38.705772
51.218536 37.380516 40.019775
7.5565376 38.738518 38.176773
5.788536 37.80552 38.770775
7.3675346 33.509518 33.051773
6.0355377 32.039516 33.518776
47.04054 29.295519 32.804775
46.357536 31.48952 31.633774
39.042538 34.567516 30.981773
37.986538 31.980518 30.931774
41.618538 14.207515 44.376774
40.44354 15.468516 42.700775
40.760536 20.89552 44.915775
41.21454 23.217516 45.180775
27.110538 8.555511 13.463768
28.969536 9.587517 13.45977
24.031536 15.049518 15.73777
25.601536 14.984515 17.299767
50.15154 0.32151031 42.548775
48.49954 69.01652 43.714775
42.461536 2.5735168 43.628773
41.976536 2.8435135 45.916775
8.606537 6.080513 12.752769
10.711536 6.9965134 12.480774
13.958538 69.08051 8.409775
16.300533 0.0025100708 9.5147705
4.2735367 12.421516 59.872776
4.950535 9.996513 58.958775
1.6925354 6.038513 53.849773
51.285538 5.175514 53.698772
17.351536 50.66052 46.255775
16.131535 49.34052 44.929775
14.827534 43.84152 49.683773
15.765537 43.220516 51.327774
31.805538 49.810516 18.98777
33.184536 50.90952 19.77977
31.348537 45.67352 25.97777
33.27054 45.91652 27.402773
38.229538 32.686516 49.622772
36.961536 31.170519 49.055775
35.41554 24.487518 45.552773
37.299538 23.523518 44.228775
6.0865364 29.172518 39.439774
7.0015373 29.30552 37.020775
14.095539 33.440517 39.352776
14.018536 35.00852 37.335773
38.63854 51.42252 5.391777
40.201538 49.621517 5.4397736
38.094536 42.34852 5.421776
36.32554 42.844517 6.089775
49.281536 41.22252 33.371773
49.74154 42.72852 31.524773
43.618538 45.97852 35.857773
44.334538 46.807518 37.721775
36.260536 36.274517 52.46377
37.74154 37.721516 53.718773
41.502537 40.247517 47.557774
41.78354 39.344517 45.793774
12.183537 24.195518 31.458773
12.673534 24.659517 33.328773
10.035538 30.943518 32.27677
10.042538 32.89552 33.753773
49.090538 26.036516 58.675774
50.785538 26.282518 60.563774
3.1645355 18.633518 59.767776
1.7965355 17.512516 60.373775
40.983536 27.456518 28.853773
43.01954 27.422518 28.459774
45.689537 22.703518 29.735773
43.572536 21.253517 29.051773
32.202538 49.359516 45.792774
33.79854 51.19452 46.018772
41.031536 47.579517 46.861774
40.793537 48.25652 44.194775
41.918537 49.976517 3.5057755
41.40854 52.168518 4.664772
38.425537 55.284515 71.43078
38.341537 54.35352 69.04578
35.857536 47.852516 55.382774
37.92954 47.89452 55.084774
37.69954 52.15952 61.984776
35.80354 53.68752 61.731773
37.772537 17.162518 51.497772
37.393536 18.688519 49.613773
31.473537 18.564518 51.504772
29.224537 18.74152 51.240772
28.005539 49.07752 36.331776
25.673538 49.247517 37.223774
31.336536 47.169518 42.666775
31.369537 45.692516 44.092773
23.884537 46.050518 13.970772
22.679539 47.22952 12.465775
23.783539 54.440517 13.202774
23.460537 55.380516 11.260773
44.38854 49.141518 19.187767
45.454536 47.82752 21.15377
40.625538 49.314518 27.14377
41.618538 50.970516 27.665773
27.438538 47.073517 47.181774
29.110538 48.52852 47.089775
34.036537 47.302517 52.948772
33.26354 47.11052 54.910774
7.594536 14.399516 38.655773
6.687538 16.231518 39.533775
1.8655357 18.826519 34.576775
2.0845375 17.570515 32.235775
20.681538 18.360516 13.480774
21.076534 19.20052 15.702774
24.652538 24.045519 13.301773
25.216537 26.188517 13.940773
29.495537 52.71452 19.241768
31.195538 53.891518 17.86177
26.201538 54.836517 11.866768
27.385536 55.434517 10.505768
29.037537 34.06352 26.735773
29.253536 34.401516 24.715767
35.330536 37.149517 22.146767
35.22754 39.35352 20.926765
29.197538 45.662518 62.600773
31.670538 44.88852 61.947773
36.244537 43.753517 56.239773
38.025536 45.650517 56.623775
42.627537 24.70952 27.700773
43.682537 23.124514 26.727774
39.016537 17.58952 24.815773
37.049538 17.81052 24.320774
49.78254 35.344517 60.930775
50.10954 33.114517 61.869774
51.267536 36.853516 69.199776
1.6865349 37.233517 68.977776
50.009537 13.073517 49.893772
48.20054 14.824519 49.155773
50.955536 20.432522 45.912773
50.618538 21.315517 43.437775
40.12454 5.7375107 64.837776
39.328537 6.1245117 66.477776
44.335537 3.3145142 71.33278
46.245537 4.0155106 0.7247772
41.773537 2.7855148 72.075775
42.021538 4.4785156 1.1597748
38.49954 7.358513 6.7367783
36.323536 6.945511 6.2867737
48.63654 57.697517 36.857773
49.33254 55.523518 36.396774
49.30354 51.439518 30.444773
50.932537 51.59652 28.044773
22.865536 57.476517 44.778774
21.769535 59.182518 45.052773
19.185535 56.94552 37.236774
18.279537 58.948517 36.089775
48.800537 51.86752 38.858772
47.841537 50.09852 37.147774
0.37153625 48.80652 32.427773
1.0345345 46.75752 32.358772
31.722538 36.02152 32.59577
33.52554 36.974518 33.13777
38.86754 39.977516 36.957775
40.274536 38.137516 37.534775
39.265537 26.624514 41.503773
38.205536 24.480516 41.375774
40.77654 18.355518 37.448772
39.698536 16.30952 38.379776
16.068539 15.393519 34.718773
17.990536 16.113514 33.499775
23.343536 20.332516 35.430775
22.118534 22.375523 35.869774
25.404537 15.51752 43.307774
26.298538 13.324516 43.865772
25.423538 7.531517 48.737774
27.017536 8.148514 49.708775
32.496536 15.093516 35.178776
33.667538 15.042514 32.962772
32.265537 11.4045105 27.683773
34.372536 11.698517 26.710773
28.326538 18.193516 45.579773
30.028538 16.595516 46.934772
30.019539 9.476517 49.021774
29.098537 7.179512 47.722775
11.606537 19.25452 32.721775
11.480537 17.18452 32.832775
14.772533 18.36652 38.715775
14.471539 19.223522 40.625774
31.146538 0.6165161 42.926773
29.784538 1.6195145 44.288773
29.445538 66.93452 51.363773
30.979538 65.508514 52.732773
44.65954 4.151512 33.196774
46.921535 3.5515137 33.243774
50.571537 2.2825165 27.914774
50.745537 1.9255142 25.859774
44.67354 67.28152 22.79377
44.33254 68.76552 20.732773
42.751537 0.26151276 13.645775
44.292538 68.85851 12.416771
0.4045372 16.875515 39.458775
50.515537 16.342518 38.308773
47.503536 9.733513 40.029774
48.469536 10.276512 42.000774
23.637539 47.628517 16.189774
21.346539 46.788517 16.79477
18.225536 45.56952 22.693771
19.403538 46.516518 24.29377
46.028538 26.492517 11.354774
44.970535 26.302519 9.714767
38.926537 21.183517 8.560776
37.46354 22.410519 9.852768
40.49154 33.324516 42.754772
40.584538 34.91052 41.932774
38.038536 40.398518 39.597775
38.347538 42.564518 39.337772
35.370537 9.376511 37.643776
35.15754 7.755516 39.363773
32.42854 3.0675125 34.243774
30.564537 3.1435165 33.184772
22.848537 4.554512 46.610775
23.594536 5.4325104 48.221775
17.576534 9.0295105 50.306774
18.920536 10.617516 50.469772
20.881535 26.526518 35.925774
21.120533 24.724518 34.673775
14.4825325 22.747519 31.284773
14.221539 22.143518 29.103773
32.72154 6.4545135 7.6967773
32.94354 8.480515 7.2017746
35.899536 11.746513 13.127769
37.591537 11.703514 14.870773
17.726536 5.963516 27.432774
17.772533 4.608513 29.208773
19.497532 68.827515 30.181774
19.346539 67.423515 31.962774
29.067535 13.382515 24.991774
26.780537 14.11452 24.475773
25.915539 20.904522 27.665773
25.21354 20.313519 29.425774
