10.018818 53.04634 1.0643997
10.199818 53.57934 3.8804016
15.142818 58.645344 35.0004
15.021816 59.92734 36.5594
18.171818 55.481342 41.3914
20.447819 54.55234 40.2194
42.114815 45.18634 47.1334
40.780815 44.95034 45.0634
34.582817 47.81134 48.1004
32.252815 47.56734 47.2364
32.012817 52.59534 4.4774017
29.971815 52.126343 4.5764008
24.875816 53.464344 71.5164
22.543816 52.391342 71.2394
40.685818 50.127342 67.9964
43.010815 51.46234 68.8554
45.33082 58.404343 67.1974
43.245815 59.169342 67.9464
43.326817 43.47734 33.4134
41.422817 42.412342 32.1284
36.627815 45.826344 27.5254
38.300816 46.77534 26.1624
44.703815 30.601341 2.0614014
45.502815 32.65034 1.3314056
44.322815 36.951344 7.6404037
45.020817 37.417343 9.729401
41.519817 15.598343 70.4484
41.80282 13.774345 72.1464
44.734818 11.899345 64.7164
43.298817 10.168343 64.6884
30.459816 33.451344 48.7764
32.067814 32.514343 47.4104
35.377815 27.214342 46.7394
33.918816 26.157341 46.1394
11.066818 34.12234 68.6134
11.377819 33.67834 66.3764
17.617817 32.542343 63.6214
18.996822 33.431343 61.6944
51.046818 8.52034 50.2814
0.20481873 9.301346 48.5204
4.162819 2.7903442 46.9024
6.1358185 3.4163437 48.0894
31.562817 52.965343 12.530403
30.054815 53.856342 12.8564
29.339815 55.15834 20.563408
28.042816 56.83634 20.649406
17.240818 43.346344 58.505398
17.714817 41.460342 59.8754
14.141819 47.065342 64.5824
15.522816 48.756344 65.0224
25.170818 37.89534 60.0794
25.581818 38.65734 57.935402
19.544819 42.042343 54.0074
19.924816 42.98934 55.9854
35.182816 24.420341 22.022408
33.254814 24.24834 21.595406
32.622814 30.24434 27.743397
31.747816 31.882341 26.002403
49.758816 40.44834 0.81539917
50.03882 40.39934 71.249405
2.40382 35.46834 70.6154
3.6668167 34.794342 69.2104
24.867817 44.376343 68.5264
23.732822 44.589344 65.9984
23.461819 37.946342 62.6894
25.485817 36.681343 63.061398
31.664816 36.20534 52.6114
32.166817 35.44434 54.3724
32.064816 28.853342 57.3224
30.714815 28.795341 59.4794
31.200815 20.429344 46.6014
31.547815 22.708344 47.3454
36.705814 23.945343 52.3794
36.147816 26.055342 53.2594
2.0208168 8.447342 51.8564
3.8078194 8.543343 53.3334
1.4568176 7.6563416 60.5554
3.0768166 6.5573425 61.241398
32.707817 56.33034 46.1224
34.141815 55.662342 44.8804
31.909815 51.33134 38.4924
31.218815 53.188343 36.7934
45.67782 32.09434 47.1834
45.500816 32.11034 45.1224
49.352818 29.028341 39.845398
50.018818 27.15134 40.6154
10.492817 63.022343 46.5614
10.653816 64.386345 47.5614
5.115818 66.19834 52.3754
2.7018166 65.91734 51.5274
13.758816 31.379341 70.2344
14.671818 31.326342 72.2384
15.696819 38.59634 2.2484055
14.591816 38.640343 4.617401
26.448816 5.8263397 60.8904
27.882816 4.223343 60.0994
26.852816 68.10234 65.6904
26.219816 69.16334 67.4374
19.044819 11.975342 66.4094
16.857822 11.927345 65.4214
17.170818 18.182343 61.144398
15.912823 18.123344 63.6674
6.5388184 30.941341 47.6554
6.5158157 32.036343 45.6614
10.674816 37.058342 47.5444
10.890816 38.93734 46.3724
24.187817 4.745346 45.2914
25.802818 6.5353394 44.7944
24.065823 13.610344 43.1584
25.110817 15.164345 42.7714
23.58482 14.806343 3.8514023
22.482822 14.016342 2.0544052
20.836819 7.6753387 3.5424042
22.703815 6.7793427 4.336403
41.255817 20.32434 69.9824
41.596817 18.307343 69.8154
44.852818 17.051346 62.8204
44.546818 15.383339 62.0564
6.5488167 46.68534 64.5454
8.695816 47.51134 63.9144
5.421818 55.50434 62.9524
7.3268166 56.251343 63.8104
36.426815 69.47334 61.575397
38.469814 69.16234 62.207397
41.645817 1.9853439 65.4104
42.828815 4.039345 65.1564
13.467823 1.2483444 41.9154
12.048817 69.35334 42.5434
18.009823 69.76934 45.8254
19.381817 68.81034 44.6894
10.167816 63.606342 41.9524
8.403816 64.69134 42.0684
6.002819 1.5993423 45.0304
4.1858177 2.183342 44.1094
27.374815 23.805342 23.791399
28.432816 23.070341 25.7334
25.077816 27.184341 30.2544
23.185816 26.115341 29.5154
7.013817 17.74334 62.853397
4.6658173 17.21434 62.9054
50.700817 21.276344 62.5464
49.095818 21.292343 64.5654
7.8218155 53.90734 28.091404
8.999817 56.06634 28.508404
13.19582 56.79534 20.793404
11.267818 57.109344 19.488403
11.586819 17.564339 54.6694
11.227818 16.054344 53.1054
17.15382 11.20034 57.2354
18.46082 10.539345 55.810402
17.371822 23.72734 1.3764038
18.64082 22.975342 3.2674026
25.749817 24.873343 3.5274048
24.868816 26.465345 4.5034027
13.51482 69.10234 50.9934
14.170818 68.30634 52.7794
15.964817 61.143345 53.3624
14.701817 60.35834 51.4404
49.852818 50.236343 32.0884
48.826817 52.12234 33.442398
48.849815 58.570343 28.2754
48.265816 57.951344 26.3624
25.727818 0.8633423 24.225403
26.029816 68.32734 23.626404
21.26582 68.221344 21.364403
20.412823 68.18934 23.4094
21.602818 60.71834 59.7364
22.892818 59.76734 60.9244
17.558819 56.224342 63.3374
16.257816 57.276344 64.8874
19.870823 47.640343 30.7194
19.48782 48.59334 28.5814
20.31882 54.709343 24.8074
19.49982 56.402344 26.0014
24.536816 51.46234 54.5064
23.90382 53.523342 54.6434
18.463818 51.870342 48.2884
16.97282 53.507343 48.7584
42.593815 23.348341 1.8184052
41.918816 24.268341 3.5484009
44.55282 28.81034 8.137405
46.58082 29.917341 8.616402
3.7568169 31.531342 46.0824
3.5268173 30.698341 44.0744
7.372818 30.705341 40.713398
9.505817 31.396341 40.7994
14.964817 2.2753448 65.9154
13.14082 2.716339 64.5114
13.86282 8.79734 60.2564
15.240818 10.054344 59.2804
45.780815 48.75434 26.957401
44.542816 47.52634 27.388401
44.394817 41.938343 21.939407
45.769817 41.161343 20.689407
48.526817 5.362343 56.3954
47.181816 3.9773407 55.039402
47.393818 67.64934 52.1884
49.234818 67.30534 51.5634
21.046818 31.145342 50.5124
19.787823 30.00834 52.3434
20.845821 22.39034 52.3974
19.118816 21.774342 53.4104
51.156815 65.51534 67.9494
1.985817 66.19634 67.0214
5.8808174 67.04334 69.0584
7.620819 67.581345 69.8384
12.262817 67.43534 56.6684
12.080818 69.13134 54.6804
4.1308174 66.40334 56.6054
4.955818 66.15534 58.4664
11.630817 41.77634 4.5663986
10.483818 43.264343 6.2714005
13.22382 50.133343 6.4704056
12.100819 51.65734 5.4934006
47.995815 30.68934 20.661407
48.352818 32.764343 19.939407
46.526817 38.28834 21.188408
48.065815 39.98534 20.597404
3.1708183 17.510345 23.579407
4.301819 19.120346 23.931404
3.0368195 24.223343 27.7794
3.8428192 25.748343 28.707401
10.337818 18.43834 42.9404
12.172817 19.754341 44.4524
13.794819 23.589348 38.4094
14.589817 23.522346 36.1944
48.886818 18.614342 2.9813995
46.716816 19.165344 2.3734055
50.373817 26.687346 2.454399
51.407818 24.561346 3.2204056
3.6598167 9.721344 11.575401
2.0798187 9.907341 9.745399
2.0528183 2.8263397 6.318405
0.9468193 4.584343 4.7033997
3.0578194 14.754341 58.804398
4.742817 13.623344 60.637398
8.865818 9.3333435 56.3024
7.3108177 9.538345 54.8154
47.620815 66.88034 38.7574
46.627815 68.92134 38.7744
45.497818 1.9823456 45.4034
47.314816 3.4023438 45.3724
37.081818 3.6033401 5.6134033
38.830814 3.3333435 6.357399
43.827816 5.1323395 0.91139984
44.921818 4.6783447 71.0084
5.108818 4.8513412 63.3914
3.6718178 4.023346 62.4944
0.14881897 66.859344 62.9614
2.134819 65.41734 64.1474
27.548817 57.376343 59.6464
28.428816 58.061344 56.9874
34.395817 57.644344 52.4604
36.621815 57.064342 53.5514
39.028816 16.703346 70.1104
37.703815 15.391342 71.8424
38.577816 21.138344 5.2033997
39.712814 22.879341 4.7624054
36.671818 43.499344 62.2584
38.513817 42.681343 60.6764
30.961815 42.000343 56.4674
30.918816 44.16534 56.1094
46.289818 22.425346 45.4654
48.42082 21.710342 44.3644
47.446815 13.680344 43.9154
47.787815 12.651344 45.3574
38.660816 42.896343 3.2924042
38.772816 44.735344 1.5354004
42.71982 48.97634 70.139404
44.327816 48.903343 68.2984
51.123817 6.7463455 16.719398
49.884815 8.105339 18.217407
0.9238167 6.1133423 25.163406
50.716816 6.5673447 26.700397
5.464817 30.568342 29.0124
3.5738182 31.231342 28.3374
50.775818 26.691341 25.5914
48.841816 26.752342 24.5564
44.234818 10.29834 51.8184
45.970818 12.36734 52.546402
46.609818 14.249344 59.603397
46.58782 16.35334 60.6324
39.264816 1.7903442 55.6224
41.144817 1.1013412 57.0404
44.853817 67.82834 51.6384
45.332817 65.92334 50.9224
11.903816 69.72234 57.8744
10.977818 1.7313461 57.6614
10.580818 6.9393387 62.1894
9.443817 8.771339 60.9824
48.454815 49.494343 65.472404
50.362816 50.05334 64.6364
48.070816 55.86634 60.6564
49.182816 57.916344 60.1274
42.300816 32.627342 62.8884
43.826817 31.135342 62.0284
50.18482 31.90134 65.4514
1.1078186 32.70434 63.9794
40.971817 53.007343 63.5704
41.510815 52.88634 61.1184
38.883816 46.24134 58.9454
38.385815 45.377342 60.901398
31.478815 38.369343 33.0924
32.818817 39.64334 32.9104
28.328815 44.73434 27.496399
29.443815 43.34334 25.5964
46.560818 39.869343 7.4064026
44.350815 39.62134 7.3094025
45.042816 38.76734 0.9413986
46.225815 37.377342 72.097404
0.049819946 18.637344 1.9154053
51.326817 17.791344 72.2464
0.44381714 10.96434 0.51940155
50.353817 9.749344 71.7584
37.480816 5.9763412 55.1964
36.467815 4.0473404 55.5624
29.710815 5.6783447 58.6414
31.205816 5.181343 60.0804
40.389816 21.416344 54.1014
38.673817 22.249344 53.3974
37.094814 18.136345 48.2194
35.118816 18.301346 49.3204
41.360817 69.61734 69.014404
41.533817 1.4513397 70.1704
36.979816 68.27034 3.1934052
37.915817 68.58034 5.3163986
29.707815 0.6113434 46.3064
31.143816 68.61634 46.7454
30.568815 68.15434 53.546402
31.673817 65.78634 52.9904
37.103817 67.17534 58.7514
37.351814 66.62534 61.0014
40.412815 62.442345 57.7474
40.179817 60.293343 58.1894
33.685818 33.772343 45.8784
33.932816 31.679342 45.5264
41.428818 33.271343 45.1694
42.299816 31.593342 44.2344
43.358818 37.98934 68.8924
43.808815 39.08734 70.8704
37.288815 41.812344 0.93240356
37.046818 43.91334 72.1034
15.462818 31.754341 5.459404
16.518818 33.44934 4.152405
21.616817 31.461342 71.4334
23.047817 29.955341 72.2104
43.050816 1.5163422 67.7804
44.395817 3.0263443 67.3574
48.896816 1.7653427 61.9344
50.522816 2.886345 61.1244
50.923817 24.91134 63.4584
49.714817 26.596342 64.3954
45.699818 28.690342 57.8194
47.110817 28.115341 56.8634
27.987816 13.108345 0.7774048
27.962816 12.689339 71.291405
22.503817 9.53434 67.7024
23.271816 9.498344 65.7194
39.964817 64.46834 27.3164
39.328815 66.61634 26.8874
45.591816 66.92734 32.3254
45.099815 64.37534 32.2044
2.530819 4.8613434 30.3434
3.0588188 4.900345 32.9974
3.3298187 68.36434 35.7234
3.733818 66.75834 34.4314
23.439816 11.718346 60.547398
23.750816 10.482346 62.6124
28.815815 8.54734 68.222404
30.699816 9.205345 66.9014
28.294815 1.8873444 11.221405
28.134815 69.624344 9.694405
32.707817 69.70934 3.6884003
35.045815 0.45233917 3.2733994
34.765816 48.96834 10.139404
37.084816 48.82334 11.120399
32.502815 45.45634 15.890404
31.237816 46.556343 16.630402
21.01582 41.03134 17.907402
20.20782 41.569344 19.795403
17.804821 45.58134 13.620399
16.630817 44.541344 12.011406
35.468815 16.133339 71.0374
34.394817 16.636345 0.60040283
30.669815 18.941345 71.2844
29.646816 20.277344 0.62340546
26.136818 21.553345 26.675404
25.05582 22.096344 24.457405
18.730816 25.815344 25.691406
18.51382 26.139341 23.549408
47.048817 35.12834 49.685402
48.136818 34.486343 51.6584
3.5318184 37.77434 50.9114
4.0888176 38.51234 52.4844
31.107817 13.638344 55.0004
30.287815 15.721344 54.9824
29.989817 19.527344 61.5584
31.898815 19.298347 61.068398
38.371815 54.56134 63.1594
36.794815 55.98934 63.1474
39.134815 61.020344 68.7414
39.406815 60.813343 70.6654
20.116817 47.162342 60.1534
20.011822 48.70734 61.0994
16.25082 53.986343 64.069405
17.466816 52.875343 65.7004
49.992817 66.26634 15.686401
48.649815 64.71134 14.798401
1.8558197 59.862343 14.237404
1.7648201 57.953342 15.982399
1.3928185 29.05034 60.956398
1.365818 30.45334 59.2734
7.4118156 27.715342 55.8974
9.613819 28.249342 55.6394
26.001816 25.456343 43.8944
25.747816 22.957344 43.4824
28.022816 16.864342 43.282402
27.901815 15.236343 44.7434
26.364819 42.30434 9.193405
24.70982 41.682343 10.655403
17.948818 43.03134 10.211403
19.357822 43.84334 11.798401
16.728817 10.041344 2.6903992
16.674816 12.397339 1.0714035
21.150822 16.274345 2.447403
21.38882 18.314339 2.5764008
21.359821 12.626343 44.1004
21.90482 12.2573395 42.0364
20.165821 4.6723404 41.1244
21.77982 3.49234 41.8434
28.003819 8.456345 58.9794
27.317818 6.2343445 57.9944
20.296818 9.675339 53.8564
20.00082 7.5143433 55.2524
15.594822 60.827343 59.734398
16.977818 59.998344 61.331398
14.630817 58.564342 66.9274
13.33482 57.972343 68.1834
36.281815 11.864342 29.975399
36.998817 13.72834 29.5054
32.523815 18.456345 32.2334
32.340816 18.994347 29.6304
33.669815 53.071342 8.172401
35.086815 52.723343 6.0174026
32.991817 57.839344 1.9934006
32.956818 59.980343 2.560402
15.08482 42.60934 1.9834061
14.038822 42.69334 72.1364
8.938816 48.264343 1.4014053
7.995819 48.161343 3.070404
21.921818 53.56734 8.3004
22.40482 55.070343 6.770401
24.189816 58.647343 1.5744019
24.913822 57.405342 72.2034
21.09882 23.985342 63.130398
22.705822 22.91834 63.4254
28.087818 27.604342 59.8204
28.700817 27.78334 58.1684
9.410816 33.76034 26.2024
11.391819 34.787342 25.8204
12.489819 38.44134 30.7594
11.585815 39.56234 33.0174
21.33382 64.82934 32.8834
20.99982 67.38534 33.3454
21.712818 3.537346 37.5484
21.606823 2.735344 39.2214
0.7688179 11.633339 11.125404
2.2748184 13.4583435 10.6064
3.9528198 19.393341 9.714401
1.8418198 20.162346 10.971405
32.014816 21.189346 63.325397
33.843815 20.312347 62.6564
36.829815 15.469345 68.444405
38.446815 14.7693405 66.5154
20.66782 60.986343 55.1504
21.490818 59.997345 53.9374
27.575817 66.10734 54.1544
25.733818 66.42634 55.6894
46.973816 58.680344 58.9204
48.252815 59.687344 56.8904
3.5768166 63.78834 57.6744
2.8128166 65.29534 60.0094
13.16782 62.72534 44.6664
13.23782 63.54534 47.1064
20.256817 63.841343 47.4114
21.105816 61.518345 46.5094
20.592823 50.87334 46.3834
20.206821 53.31134 46.6014
23.329823 56.383343 39.8744
25.645817 57.096344 39.6694
4.3248177 64.46534 31.1514
2.2168198 64.471344 31.3664
50.092815 60.440342 30.4724
47.862816 60.638344 30.1454
12.580818 56.00434 43.8244
11.659817 54.05434 43.8454
18.036816 51.440342 44.5784
19.19682 50.058342 43.9974
30.431816 45.313343 38.942398
29.142817 43.896343 37.8094
25.253817 44.473343 33.5204
24.163816 44.221344 31.4634
21.48582 45.72034 57.9624
21.505817 45.138344 55.5894
28.187817 41.203342 54.2834
27.380817 38.89234 53.9854
26.413816 14.412346 60.2854
25.365816 16.218346 60.985397
24.694817 20.099342 53.7354
25.905815 19.545341 52.2664
24.023823 40.03234 20.539406
22.11182 38.94134 19.241402
26.490818 33.55534 16.6204
24.933819 32.286343 15.873405
19.020817 45.51234 56.9624
17.550816 44.51234 56.0654
12.86282 50.45434 56.4644
13.886822 52.231342 55.6604
35.903816 4.411339 32.5184
34.531815 5.2793427 31.4644
33.447815 1.384346 25.7754
31.880816 2.2893448 23.8694
26.068817 17.344345 41.2774
25.343819 17.97834 42.9714
20.144817 20.672348 47.3944
20.826817 22.906342 47.6274
23.270817 52.14334 57.4634
21.020817 50.99034 57.0174
16.794819 57.493343 60.706398
14.68082 56.84334 60.450397
25.514816 49.710342 17.4934
24.233822 50.322342 19.234406
23.984821 42.835342 21.625404
22.616817 42.52434 20.107407
3.6328201 55.361343 58.1804
1.5748177 54.85834 58.8224
1.3028183 49.425343 63.568398
2.2888184 47.64234 64.7054
29.435816 38.67334 43.9904
27.441816 39.45034 45.5014
32.160816 45.535343 48.9544
34.116817 44.82534 49.6684
27.791817 53.37234 58.9694
26.275818 54.988342 59.4614
21.122822 49.51934 63.2304
20.301823 50.52634 64.8304
28.296816 34.376343 33.9014
26.281816 34.38634 35.380398
30.495815 37.535343 41.1034
32.588818 36.835342 41.095398
51.044815 18.876343 42.5474
1.4378166 19.204346 41.484398
4.061817 23.749344 36.6674
3.3618164 22.970345 34.5894
38.257816 15.935341 63.3474
37.030815 13.85434 62.4044
34.311817 20.857346 59.4374
36.584816 21.418343 59.1354
48.251816 8.393341 51.6014
49.846817 9.323341 52.8124
49.551815 13.180344 60.137398
51.133816 11.275345 61.2224
9.697819 19.892342 70.263405
8.434818 21.085342 71.4664
7.3758163 26.827345 1.4504013
8.494816 25.980345 3.0024033
33.183815 52.50434 34.8674
33.278816 54.492344 34.9054
26.564816 55.75334 31.2194
25.772816 57.846344 31.6714
6.7118187 52.389343 12.818405
4.6878166 52.772343 13.028404
0.9938164 47.520344 15.393402
51.237816 46.279343 14.448402
39.865814 9.801346 59.2234
39.289818 9.597343 61.7014
41.223816 3.7393417 57.4524
38.915817 4.100342 56.7884
25.630817 35.77434 32.4814
23.604816 36.32534 32.3204
22.401821 27.966341 31.8474
24.336819 27.499342 32.8534
18.255817 0.080345154 48.4704
20.174816 68.985344 47.2934
20.839817 62.942345 49.8674
21.106823 61.696342 51.5734
34.383816 22.66534 61.318398
36.310818 21.759342 61.8034
40.493816 27.38334 63.6574
40.420815 29.278341 63.838398
28.145817 6.7653427 42.8244
28.545816 8.647339 41.9044
27.052816 9.388344 49.5494
28.529816 7.7693405 48.6294
10.0108185 52.21334 29.0364
10.338818 53.120342 31.1534
10.572819 47.57334 36.8344
12.081818 46.03834 37.1504
9.554817 66.80234 60.949398
9.111816 67.89434 59.3084
7.525818 2.8563461 56.1594
7.6078186 4.641342 55.5074
13.268818 56.472343 46.2814
11.617817 54.731342 46.5154
15.127819 56.688343 52.5274
16.078815 56.18534 55.0484
4.490818 61.979343 53.8884
5.3978195 63.36534 53.2044
11.761818 66.39534 51.0134
12.213818 65.01034 49.7364
1.4438171 60.354343 27.2354
51.31682 58.578342 27.1604
0.9448166 55.42934 34.3824
2.8118172 53.874344 34.8254
10.383816 32.160343 24.139404
8.420818 32.146343 23.147408
4.2938194 33.57934 18.664406
2.2388191 33.91634 19.3124
10.372818 34.56734 56.2534
9.490818 32.63534 54.7914
7.0348167 32.88534 51.0474
5.6858177 32.752342 49.2604
1.1148186 30.562342 43.0684
1.4468193 32.36534 44.5174
0.5248184 39.146343 42.9134
2.4188194 40.35834 44.1284
8.112816 6.699341 54.0364
9.089817 5.3283463 52.2264
7.5198174 3.9173431 45.8824
8.852818 2.0633392 45.9114
49.515816 28.621342 55.4844
49.646816 27.93534 53.2294
6.7748184 28.820341 53.3174
6.313816 26.906342 53.6544
15.532818 34.751343 54.0784
17.90282 34.33134 54.0854
23.784817 38.070343 52.4394
23.275822 37.39334 49.9254
32.451817 42.273342 62.214397
32.527817 43.19934 64.4324
27.141815 39.64434 69.1454
27.108816 41.13734 71.195404
7.827816 11.376343 44.3454
6.549816 9.17334 43.0064
4.013817 10.481346 51.1954
5.782818 11.60434 51.3204
1.9448166 66.68434 40.8004
1.6368179 65.00434 42.373398
2.2728195 68.92034 47.0934
3.879818 0.21434021 48.0084
6.6658173 28.346342 25.8854
7.6788177 29.95334 27.7504
13.286816 30.273342 32.9694
14.452816 28.406342 32.7474
47.546818 31.99434 53.7684
47.811817 30.822342 55.6814
50.079815 35.765343 60.485397
0.15382004 34.33134 59.6824
32.398815 57.120342 14.061401
32.651817 55.527344 11.745399
28.421816 53.39234 8.9674
29.261816 52.92834 6.919403
0.13282013 27.497341 72.0104
0.41981888 29.379341 1.4014053
5.5268173 25.785341 3.749405
3.728817 24.275341 3.2733994
33.036816 24.871344 56.8454
35.346817 25.50334 55.8004
38.471817 22.218346 56.1984
39.420815 20.69934 57.6194
11.0038185 10.018341 70.3964
9.338818 10.39534 68.624405
10.964817 15.360344 66.8994
10.808819 17.434341 67.9504
43.318817 22.990341 48.5064
44.443817 22.687342 50.2474
44.373817 28.313341 55.3854
43.491817 29.82134 53.6974
9.277817 3.5573425 35.3084
10.320816 5.110344 37.0734
6.3408165 10.480339 40.6974
8.101818 11.601341 41.4894
3.7348175 25.103346 53.9404
3.226818 26.191343 56.1304
50.214817 23.420341 61.0174
47.972816 22.931343 60.422398
28.665815 61.182343 62.6824
30.820816 61.43434 62.6404
32.162815 66.32434 61.3774
34.133816 67.19534 61.1574
0.92881775 51.027344 32.0054
0.19481659 51.14334 34.1594
5.7048187 46.98934 39.4834
7.294819 48.084343 39.9274
45.942818 39.099342 39.9444
47.742817 39.81234 41.1864
48.775818 34.190342 47.7504
48.959816 32.370342 46.7104
37.498817 45.403343 56.8054
39.484818 45.646343 56.3234
38.959816 42.21934 49.5124
37.413815 43.478344 47.9934
47.423817 31.990341 28.4004
48.602818 31.736341 30.5134
0.9928169 26.212341 28.180399
0.24081802 24.58534 27.2734
5.830818 57.963345 62.1544
3.9148178 57.74634 61.186398
49.617817 62.699345 62.3284
50.53882 64.24634 63.6734
39.692818 54.70434 49.6504
41.845818 54.565342 49.6484
43.862816 58.870342 44.9704
42.339817 60.26734 45.6394
23.72382 62.435345 32.9284
23.497822 61.673344 30.6304
16.439816 62.936344 33.1324
14.392818 61.967342 33.6714
29.728815 12.29734 57.0494
29.899817 10.690346 58.748398
37.063816 10.446342 60.4264
36.626816 9.094345 61.9104
43.104816 55.16534 18.084404
41.321815 55.202343 19.131401
42.655815 49.523342 21.478401
42.754818 47.973343 22.9654
27.418816 51.861343 55.9704
28.083817 54.270344 56.2294
30.984816 55.661343 48.0924
32.718815 54.42234 48.0744
24.70782 8.454346 48.9024
22.990818 8.112343 50.789402
24.510822 2.056343 54.6914
22.34782 1.9783401 55.1144
4.520817 24.085342 51.6334
3.978817 21.72734 52.0724
11.573818 19.33834 52.6724
12.053818 17.482346 50.7244
11.343819 61.048344 23.6754
10.494816 62.824345 24.5124
10.557816 66.79134 28.7944
10.722816 69.05634 28.8294
35.196815 40.222343 66.0794
36.625816 40.287342 64.6154
43.160816 42.51834 65.9884
43.676815 44.361343 67.6974
41.683815 11.929344 51.4924
39.585815 12.111343 52.0024
41.501816 14.273346 60.0184
39.086815 13.486343 60.5554
47.790817 6.634346 71.9054
48.585815 5.7973404 70.0654
46.381817 9.733345 64.2314
44.488815 8.022339 63.297398
39.823814 3.119339 67.417404
41.645817 3.6303406 68.7104
42.821815 8.925339 1.020401
44.96982 8.876343 1.5383987
13.56982 16.628342 63.1084
11.488819 15.764343 64.3084
11.580818 9.878342 66.8824
12.801823 11.180344 68.750404
37.153816 8.252342 58.8334
38.476814 9.115341 57.1124
36.460815 12.497345 51.5094
34.981815 13.82634 49.8174
16.05782 60.084343 49.0714
15.961819 58.276344 50.1864
23.753819 58.098343 48.5594
24.004818 58.960342 50.9924
36.358814 51.37934 66.223404
36.330814 49.612343 67.2884
31.948816 45.62934 63.7154
32.451817 44.61534 61.0804
29.167816 8.887344 39.2954
30.825815 8.959343 40.1454
29.844816 1.9623413 42.3714
31.067816 1.546341 44.2624
36.723816 48.59334 55.0734
38.567818 47.425343 54.7204
43.990818 45.696342 53.1404
46.313816 46.30334 52.8564
46.516815 44.23234 54.4364
48.466816 44.43534 53.7404
49.885815 50.877342 56.8024
48.20582 51.78234 58.2154
7.4988174 27.123343 16.477402
7.195816 27.220343 18.924408
10.665817 22.640343 16.164406
11.322819 22.122345 18.103401
37.230816 7.3293457 51.5344
36.955814 6.4443436 49.3004
37.174816 0.4663391 53.6154
35.304817 2.1033401 54.2434
42.311817 15.941345 43.164402
43.554817 17.415344 44.7724
47.92782 14.85434 50.7054
46.649815 14.949341 52.8524
45.190815 0.8033447 6.0714035
44.912815 68.83734 4.690399
44.061817 66.80934 70.152405
45.785816 66.24634 71.7744
41.458817 69.69534 47.8574
42.104816 68.04834 49.6324
35.842815 65.39834 53.1804
37.128815 63.717342 53.6504
33.595818 66.70534 48.8974
34.542816 65.86834 46.7324
34.122814 58.55934 45.6414
32.939816 60.249344 44.5224
34.948814 55.348343 37.7934
35.370815 53.397343 36.4264
37.202816 55.263344 30.2854
38.291817 54.445343 29.1014
26.825815 24.084343 55.8264
26.495815 21.924347 55.2094
26.761816 19.252342 62.1944
25.681816 19.585342 63.8494
36.376816 34.120342 56.5274
34.351814 34.74634 56.6974
30.356815 34.21134 62.7724
31.906816 34.51134 64.3924
4.520817 58.228344 67.0684
1.9868164 57.335342 67.5254
50.474815 52.10034 66.402405
1.0378189 52.31034 67.7514
29.416817 1.3703461 56.2044
28.511816 3.0193405 56.3594
33.304817 5.126343 49.5344
31.541817 5.879341 47.9124
40.432816 27.37034 51.8554
38.438816 27.570341 52.6844
42.812817 29.65134 57.7774
43.949818 30.693342 58.860397
42.08082 24.47434 41.7684
42.676815 22.566345 40.7584
36.443817 17.95234 38.984398
35.995815 16.32534 40.7954
28.971815 24.054342 57.5284
28.463816 24.841341 59.4624
31.577816 25.434341 65.9084
33.810818 25.107342 65.1604
34.708817 68.58034 54.3414
33.605816 69.75134 55.3334
34.152817 5.0473404 61.1524
36.300816 6.0353394 60.7724
46.583817 51.35034 53.8634
48.411816 51.903343 54.7264
48.936817 55.63534 48.2674
49.726818 57.464344 49.810402
8.588818 54.76134 44.6134
9.169819 53.64434 42.6884
9.163818 60.319344 39.7304
8.762817 60.83734 37.6154
1.8338165 32.92834 57.9514
51.31682 33.348343 56.7974
50.947815 32.92134 49.0334
0.33581924 31.586342 47.1444
36.554817 62.561344 69.4064
37.397816 62.102345 66.7594
32.381817 57.784344 68.361404
31.465816 55.74834 67.7244
13.735821 24.514341 59.6694
15.25182 26.292341 59.8274
14.190823 26.05034 51.6334
16.303822 25.165342 52.1024
36.540817 30.631342 53.4004
34.236816 31.37334 53.6084
30.551815 26.281342 56.1164
28.529816 26.202341 55.5804
35.432816 38.87234 35.0084
34.094814 37.39334 33.7664
36.033817 31.650341 38.8684
35.320816 30.478342 40.5924
50.036816 23.96334 45.4564
0.47481918 23.469345 43.3334
6.474819 19.952347 43.5754
8.777817 21.250343 43.7124
20.79282 14.86834 41.6734
21.58382 13.579346 39.5184
27.881817 17.50734 38.2054
27.953815 16.24134 39.9334
38.932816 2.4063416 40.0454
37.072815 3.6603394 40.3134
31.949816 68.68334 43.8814
32.559814 66.89634 45.0154
28.568815 67.66034 25.2934
26.909817 68.81134 26.3274
27.753817 1.7653427 33.9734
26.254816 0.19934082 34.0584
37.029816 1.9963455 35.8204
36.092815 2.7973404 37.6044
38.725815 9.293343 38.8354
37.589817 7.907341 40.2374
11.928818 42.860344 46.9204
10.016819 41.613342 46.4854
4.7138176 44.36534 41.7154
3.6378174 45.79034 42.9414
16.59882 37.07934 39.3364
18.482822 37.419342 40.4364
22.050816 30.941341 42.8674
24.045818 31.399342 43.4554
28.755816 20.941345 51.3154
29.005816 19.238342 52.2984
33.989815 22.118347 57.0704
35.872814 22.610344 56.1384
4.87582 16.60534 59.3994
6.193817 17.361343 57.7904
51.123817 21.331345 53.8264
1.1688194 21.353348 52.0144
11.563816 18.360344 13.747406
9.758816 18.986343 13.338402
8.629818 14.28334 18.273407
10.447819 13.772339 19.758408
39.707817 7.8093414 54.4444
39.103817 9.189339 52.8664
45.554817 6.9883423 49.0524
47.479816 6.5243454 49.9444
38.399815 23.40134 27.312399
38.688816 24.889341 26.2904
40.914818 31.653341 28.1884
42.626816 31.624342 29.989399
18.882816 61.147343 59.8304
19.229816 61.45434 57.4694
14.8178215 68.69734 55.5104
15.900822 0.2763443 57.4984
26.806816 9.559341 53.6214
28.783815 10.282341 53.3964
34.588818 7.4503403 50.5924
34.458817 7.4443436 48.5494
5.0228195 13.8823395 31.4054
6.009819 15.939339 32.9074
5.402817 12.962341 39.8274
3.714817 11.976341 39.9294
33.513817 18.799347 45.3304
34.069817 16.93634 46.7354
28.806816 15.023346 51.1544
28.807816 12.968346 52.6804
13.894817 41.04034 44.4384
16.108822 40.31834 44.3334
21.397816 39.33034 48.7124
21.151821 40.84334 50.9774
30.622816 17.008339 50.907402
31.065815 17.305344 52.921402
38.410816 18.57534 55.6484
40.182816 18.653343 53.7064
19.241817 15.418343 35.1594
20.025822 15.801346 37.567398
14.386822 15.974342 39.6144
13.1898155 15.6703415 37.8954
7.561817 25.532341 35.2434
5.999817 27.287342 36.4164
1.141819 25.378342 41.3784
1.0158195 27.45634 42.0614
13.934818 53.751343 6.528404
14.8788185 55.391342 7.2593994
17.72182 61.00334 1.2784042
16.186817 61.85734 0.5373993
44.764816 5.9863434 36.609398
45.949818 4.516342 36.3534
51.208817 3.2203445 41.2254
51.285816 0.7293396 41.6184
8.1358185 46.589344 48.4954
9.825817 47.26734 49.8384
16.37782 43.89334 50.7254
16.035816 42.01734 49.8324
8.315819 45.933342 35.8754
8.015816 48.21234 35.4664
4.610817 45.148342 28.1674
3.9868164 46.646343 26.8534
9.479816 15.13134 35.3044
9.820816 12.902344 35.3334
4.1338196 7.391342 33.6494
3.3388176 8.578346 32.0264
17.378819 8.467346 58.1774
20.038822 8.349342 59.359398
18.891819 9.063339 67.1684
17.00282 9.490341 66.6464
48.359818 42.501343 66.7514
49.774815 41.52634 68.8034
2.129818 44.85934 63.2504
4.02882 45.620342 63.9884
1.2498169 45.000343 33.9934
3.4138184 43.81834 34.2744
5.1708183 39.83934 40.0944
3.745819 39.09334 38.3164
34.089817 3.594345 63.6084
32.455814 3.2033463 62.4814
26.921816 4.1373444 69.3084
27.765816 2.341339 70.320404
5.43882 4.485344 43.7114
7.1998177 5.938339 43.6494
9.944817 0.6463394 40.7294
11.967819 1.2783432 39.6274
2.6268196 23.259346 5.5914
1.5448189 22.402344 3.9034042
48.111816 17.078346 8.9944
46.507816 17.54634 7.907402
38.939816 53.909344 16.915405
41.208817 54.87234 16.081406
42.937817 60.937344 15.389404
42.796818 63.092342 14.171402
1.02882 40.478344 55.9434
1.8858185 41.543343 57.9124
2.8128166 46.736343 61.3684
0.36981964 47.848343 61.4954
3.8238182 8.912346 38.3544
1.8058167 7.183342 37.7404
7.629818 0.9093399 38.8914
6.8058167 69.48334 40.3194
20.011822 48.50434 35.4884
19.942822 46.381344 36.0364
19.50282 46.333344 43.3584
17.552822 46.536343 44.1194
45.603817 50.29634 44.4064
45.276817 48.806343 42.2574
42.857815 41.431343 43.0204
42.862816 40.54534 44.6834
14.345821 57.933342 56.5504
13.69482 58.914345 58.7604
5.7938156 57.564342 59.4094
4.1668167 58.686344 58.2504
14.312817 51.40734 53.0724
16.247822 49.530342 54.0634
19.31882 44.41534 50.2304
20.067822 43.113342 51.6584
14.588818 16.21534 42.3164
12.310818 16.00734 42.3474
8.171818 12.004341 47.1074
8.823818 10.410339 48.9584
43.91382 27.962341 23.0684
42.716816 26.819342 24.3464
45.03882 24.079342 31.7264
47.08782 23.90434 31.4374
30.850815 2.509346 60.2244
30.807816 0.9203415 61.7094
27.956816 63.939342 62.3924
25.451817 63.790344 62.2254
5.485817 45.377342 52.1124
4.214817 44.072342 50.553402
2.7578201 43.29734 44.185402
0.8308182 43.084343 45.2704
42.290817 34.05534 28.2114
44.392815 33.70734 29.2104
50.31682 36.38634 28.6994
51.366817 37.542343 27.0904
9.117817 41.035343 55.7864
11.175816 41.411343 56.4574
13.716816 48.73934 54.3424
12.021816 49.65134 53.1914
3.398819 5.883339 50.6554
4.4018173 5.3853455 52.8344
2.9218178 3.7503433 59.3614
1.1398201 4.6753387 60.353397
43.422817 50.71234 45.6014
42.189816 49.83734 44.2444
36.425816 52.993343 48.3474
35.188816 51.058342 49.2444
48.938816 46.758343 18.827408
49.714817 46.45734 16.871399
43.127815 42.974342 16.292404
42.666817 41.159344 17.135399
9.736816 17.724342 28.9054
9.440819 19.790344 29.3234
6.2278175 23.132347 34.8504
6.504818 22.642342 37.1714
37.113815 22.154343 7.579399
36.626816 20.184341 6.8303986
35.948814 13.237343 7.8303986
35.188816 13.108345 9.944405
41.138817 67.55734 23.671402
41.031815 69.77834 24.133408
37.818817 4.7993393 21.252403
37.083817 6.0173416 19.315407
44.626816 61.754345 56.8814
44.018818 63.247345 55.2904
43.808815 0.039344788 58.2764
43.888817 1.8733444 57.0724
8.227818 59.214344 10.2344055
6.419819 60.40634 9.599403
6.4638176 68.386345 7.9444046
5.2608185 68.86834 6.0734024
45.600815 10.544342 30.8894
43.972816 9.178345 31.3204
43.05982 8.31134 35.5664
42.685818 7.5353394 37.2264
43.221817 21.303345 43.4494
42.535816 19.610344 43.7354
35.770817 24.120346 47.1204
34.088818 22.835342 45.8264
27.910816 46.01934 42.5644
28.306816 44.737343 40.6894
26.159817 47.25334 34.1164
23.977816 47.55334 33.1664
35.254814 55.342342 49.4524
35.177814 55.405342 47.6024
36.795815 60.070343 42.3634
37.786816 61.813343 43.2504
40.996815 44.60934 58.8134
42.338818 45.853344 57.4134
45.378815 52.124344 57.9734
46.202816 52.599342 56.2394
14.25182 38.514343 41.0394
12.842823 39.77034 41.942398
9.6968155 46.481342 39.1884
7.535816 45.52534 38.4514
43.384815 34.64234 31.5164
43.938816 32.599342 32.2404
43.530815 35.917343 38.9264
44.306816 38.008343 38.0874
43.379818 31.499342 51.4944
41.618816 29.676342 50.9494
37.405815 26.66534 48.2434
37.876816 25.44934 50.5434
37.325817 9.263344 30.7564
35.481815 9.189339 31.4484
36.214817 13.477341 37.7794
35.356815 16.002342 37.9324
10.160816 14.925339 56.4874
9.391819 14.585342 54.3744
4.372818 16.857346 50.4884
2.56382 15.808342 52.3574
35.877815 62.98334 27.3774
37.504814 63.750343 28.6224
34.758816 66.35234 35.192398
36.045815 65.136345 37.1714
32.400814 57.169342 63.318398
31.889816 57.311344 60.8134
37.691814 59.722343 57.2394
39.019817 58.693344 55.0274
2.8768196 43.01834 52.6464
3.5248184 41.05234 51.6314
47.371815 42.63734 52.2084
47.495815 41.22634 54.2714
35.517815 36.76934 47.0614
36.706818 38.197342 46.2834
43.002815 38.979343 41.6014
42.42782 38.98434 39.7504
50.484818 40.07934 38.4954
48.370815 39.47834 38.3134
48.591816 32.82534 33.4464
46.646816 32.40234 32.4404
41.009815 35.42834 30.1884
40.877815 33.65834 31.0444
33.315815 31.608341 34.081398
31.422815 32.62934 32.8004
31.469816 15.938339 39.9724
33.215816 17.15934 39.3854
33.739815 24.526342 43.7554
31.653816 24.403343 44.7244
18.01582 8.356346 16.233406
20.13982 9.669342 15.3824005
20.33282 17.782341 16.018402
18.93082 18.415344 17.711403
43.053818 69.123344 45.4004
40.871815 68.70934 45.3844
35.535816 4.096344 45.4014
33.880817 3.7933426 47.1184
1.6668167 7.745346 15.325401
3.1988182 6.1663437 16.497406
3.4258194 0.78134155 11.406403
4.6448174 0.5033417 9.808403
43.600815 12.738342 62.339397
44.108818 13.338341 60.380398
46.158817 7.240341 56.1454
44.646816 4.810341 55.3014
8.112816 52.175343 44.8534
7.3288155 51.44834 46.7714
8.327816 48.11634 52.1444
6.959816 47.166344 50.7604
26.471815 51.995342 19.884407
27.937817 52.65834 20.611404
26.221815 49.050343 26.643398
28.050816 47.90634 27.550404
29.332815 31.926342 52.1734
29.119816 31.149342 49.6514
28.186815 23.990341 47.7024
27.755816 22.96034 49.7944
1.7628174 29.79634 40.1134
1.5838165 31.750341 38.9044
7.705818 32.016342 38.1124
9.895817 31.667341 38.2214
32.931816 50.04534 3.9584045
30.987816 49.65834 4.3254013
28.155815 43.293343 4.348404
27.470816 42.683342 1.9754028
41.747818 44.56634 35.3784
41.033817 46.293343 33.8794
35.422817 49.492344 37.9784
35.975815 51.972343 38.4354
30.688816 40.72734 53.921402
29.903816 38.250343 53.157402
32.919815 36.46934 46.0644
31.361816 34.95534 46.2944
2.6898193 24.973341 32.9574
3.3758202 26.01234 34.5424
50.729816 33.33934 32.1434
1.2498169 34.800343 33.3444
41.537815 29.073341 60.186398
42.67782 28.473341 62.054398
42.92782 20.885342 60.470398
45.054817 20.15134 61.7924
35.291817 31.499342 27.6164
34.900818 29.540342 28.4064
37.170815 25.159342 30.982399
35.545815 23.197342 31.5014
26.282816 50.56134 45.2044
27.794815 51.24834 47.1514
30.082815 48.12834 49.1484
31.428816 47.334343 50.9814
35.637817 50.87834 4.254402
34.904816 50.91334 2.5054016
33.802814 57.301342 71.7414
34.683815 58.335342 69.7794
34.048817 51.042343 51.8264
34.247814 51.076344 53.9954
31.795816 54.77434 59.1964
31.885817 54.042343 61.2614
29.053818 18.862343 49.7394
28.518818 20.607346 48.2544
21.300816 21.198341 49.9324
19.705822 20.417343 50.8144
21.91682 54.105343 37.7834
24.086819 54.02434 38.2704
21.967823 49.105343 43.5294
24.025822 46.96134 44.0074
14.034817 47.625343 14.343399
15.967823 48.07434 13.2854
17.379818 56.29534 13.373405
16.150822 56.943344 11.9674
40.206818 48.55434 21.649406
40.296818 47.846344 23.945404
35.455814 50.72634 28.705402
34.265816 48.757343 27.943401
24.551823 47.78134 46.9544
22.385822 48.091343 46.4084
22.658817 47.605343 54.7654
22.120823 49.67034 55.1884
46.343815 17.621346 42.067398
48.360817 19.235344 41.2784
48.209816 18.164345 34.2334
47.291817 19.725342 32.7884
14.114819 21.586342 17.297401
14.285816 21.173342 15.040405
17.25282 27.66834 12.708405
18.50282 29.094341 14.1464
25.334816 57.543343 20.220406
25.500816 55.95734 17.962402
19.858822 59.011345 14.775406
18.68282 58.543343 12.965401
24.365816 36.34434 24.406403
26.382816 37.30234 25.128403
29.382816 41.41334 22.870407
29.563816 43.24734 21.184402
21.658815 49.12934 59.0734
22.647816 48.201344 57.5364
30.218815 46.62134 56.7264
31.071815 46.794342 54.9464
36.680817 25.48834 28.4244
35.451817 23.79634 29.0304
29.994816 19.037346 25.9744
30.518816 19.448341 23.7524
44.06682 34.750343 60.8884
42.520817 36.33734 61.8234
45.435818 41.17234 66.834404
45.349815 40.23534 68.6714
36.714817 15.748344 49.5174
38.206818 14.406342 48.8524
44.521816 19.897346 50.9264
44.669815 20.36634 48.2074
34.927814 9.154343 67.2614
34.920815 6.758339 67.4084
34.987816 2.662346 71.7164
35.161816 2.7393417 1.8074036
35.539818 7.0493393 4.990402
34.860817 5.0413437 4.4273987
30.078815 5.223343 11.155403
29.639816 7.2673416 11.759399
43.612816 58.464344 37.1314
42.909817 55.980343 37.0124
42.194817 53.11434 30.1524
44.888817 53.38734 29.9174
14.935818 61.132343 46.4314
15.351818 58.854343 46.1304
13.309818 61.671345 38.6054
11.334816 62.361343 39.8194
43.421818 51.451344 42.4144
43.713818 50.659344 40.7704
43.08782 48.97534 35.7814
43.112816 49.419342 33.5404
24.196815 39.92034 33.7674
24.502815 38.009342 34.2234
31.501816 40.467342 38.4814
32.298817 38.75534 38.8774
34.466816 26.96134 39.2494
33.852818 25.165342 39.7634
27.752815 22.362343 38.3554
27.683815 20.131348 38.477398
7.240818 16.471344 38.8534
9.308819 15.635345 37.8824
11.620819 23.186348 37.0434
12.480816 23.527344 34.6894
15.074818 19.600342 46.0454
15.450817 17.369339 46.2534
16.401821 11.419342 49.4344
17.413822 11.860344 51.3644
21.400822 21.777344 36.3954
23.608822 21.532341 35.3744
25.00182 15.321342 30.7454
24.137821 13.467346 30.9674
17.63982 18.03534 47.8094
17.804821 16.221344 46.7184
22.031818 9.480339 48.1734
20.54282 9.15934 49.3024
0.2878189 18.657341 32.5414
50.797817 17.82734 34.609398
5.1478195 17.71434 40.0104
6.6288185 19.245346 40.8054
22.643818 1.4443436 43.6444
21.732822 2.9503403 45.0684
21.614819 0.56934357 52.289402
23.010822 69.39734 54.0894
40.815815 1.7833405 37.3224
42.45582 2.8643417 36.1834
43.563816 5.606346 31.0014
42.862816 6.7363434 29.2444
36.933815 2.0223389 22.554405
35.136814 1.1823425 22.783401
36.266815 68.27134 15.5714035
36.243816 0.3443451 14.062401
44.241817 19.660347 41.3154
43.659817 17.370346 40.8604
38.943817 12.123344 38.2104
40.626816 11.0833435 37.8444
16.517818 49.868343 19.352402
14.536816 49.742344 18.550407
11.784817 50.49134 25.148407
13.467823 48.72634 25.303406
36.842815 28.336342 13.683403
37.315815 27.29334 11.793404
33.041817 22.173342 8.807404
30.835815 21.950342 9.825401
35.146816 38.132343 44.2144
33.072815 38.10834 43.9674
30.048817 43.11634 42.352398
31.059816 42.891342 40.1264
26.144817 7.322342 40.4414
26.539818 8.690346 38.8154
23.109821 5.940346 37.0934
21.95782 5.445343 35.4974
13.536816 9.113342 46.3314
13.921818 7.39534 47.5734
9.708817 10.472343 53.1474
9.936817 11.524345 55.4614
12.951817 27.87034 35.095398
12.429817 26.27634 34.2404
4.9378166 26.775341 32.0624
5.1238174 24.850342 31.0074
26.781816 8.502342 9.8424
29.473816 9.024345 8.9254
27.738815 15.8713455 14.088402
30.155815 15.331345 14.6584015
9.693817 7.592346 26.8684
10.515816 8.959343 28.8034
10.923817 1.2623444 32.574398
8.487816 1.8783417 33.4214
21.632816 13.570343 27.364399
22.285816 14.957344 29.3084
20.20882 22.25534 29.0204
17.784817 21.446342 29.8744
10.179817 69.54534 14.413399
10.5648155 68.54934 16.752403
10.728817 0.37734222 23.476402
11.952816 69.62134 25.280403
33.093815 36.06834 6.1404037
32.514816 38.16534 4.9794006
36.777817 42.750343 9.685402
38.029816 42.60034 11.700401
14.908817 30.311342 20.775406
13.9048195 32.15034 20.6734
7.339817 29.809341 15.777405
6.092819 31.598341 16.094398
25.483816 27.691341 38.7094
26.483816 25.989342 38.1394
32.882816 28.482342 40.8834
34.313816 29.045341 42.4514
1.134819 55.868343 13.790405
50.681816 56.11434 14.8554
49.326817 49.45034 17.862404
48.247818 51.319344 18.874405
11.254818 9.973343 59.4314
12.75082 10.372345 57.9764
13.777821 19.067345 59.8774
15.80582 19.286346 58.901398
17.256817 8.653343 36.7454
15.786816 9.93734 37.6674
15.4048195 6.4273453 45.5864
13.3178215 4.7673416 44.7454
15.621822 52.451344 33.4354
15.483822 54.05434 34.6754
11.382816 59.822342 37.6204
12.560818 60.442345 35.9394
4.6218185 13.710342 20.922401
3.6928177 15.1213455 18.9234
6.5058174 17.537346 11.894402
4.5368195 17.135345 11.927399
27.246817 55.687344 28.7554
24.928816 55.134342 27.8494
25.649817 47.028343 30.9484
26.242815 46.54534 28.9464
0.84781647 57.379345 48.9444
2.9348183 55.75534 49.0484
2.9118195 53.368343 56.0614
0.6948166 52.570343 56.9574
26.023815 30.212341 41.8484
26.243816 32.07534 40.838398
31.544815 31.54334 36.3114
32.475815 29.308342 36.4124
37.812817 31.61634 8.870399
35.552814 30.815342 9.834404
31.554815 25.65434 6.0434036
29.003817 25.36234 6.4794006
1.5478172 40.06734 36.3024
2.5808182 41.23334 34.4594
10.121819 40.01734 35.1494
10.8148155 42.21134 34.9194
44.322815 63.060345 36.4384
45.554817 61.895344 35.2654
47.096817 56.741344 34.4824
49.513817 56.812344 34.2904
25.329819 2.8733444 34.7614
24.038822 4.6253433 34.2094
17.901821 69.51534 31.4104
16.45882 1.4673462 31.4444
46.547817 69.53034 35.8824
45.342815 1.7923431 36.0804
43.899815 3.2973404 28.6274
43.915817 2.1943436 26.6954
16.837818 67.82634 0.5694046
16.714817 0.24134064 0.4614029
21.067822 4.235344 3.709404
22.18182 3.9613419 5.774399
40.277817 43.29034 12.796402
40.841816 43.301342 14.5974045
38.375816 51.28134 16.832405
39.352818 50.801342 18.935402
11.3148155 38.049343 40.4034
11.719818 36.689342 38.7684
12.860821 30.322342 44.6794
14.483822 29.294342 44.0934
2.0718193 62.921345 40.602398
3.2158165 61.145344 41.4204
4.0598183 54.473343 37.2614
1.8098183 54.492344 37.6524
5.6478195 62.57334 41.9034
7.738819 61.790344 41.6794
4.6638184 55.912342 47.0044
2.4608192 56.208344 46.2494
47.141815 11.143341 50.4704
45.972816 9.544342 50.039402
39.279816 12.155342 49.4304
37.352818 11.067345 49.3604
16.380817 26.164341 27.063404
16.283817 24.378342 27.912403
11.811817 23.684341 20.524406
13.4398155 26.056341 19.821404
48.495815 10.3593445 41.5924
49.606815 12.386345 42.6334
3.4468193 15.9843445 41.0124
3.976818 13.638344 42.1124
41.130817 19.847343 13.664406
40.208817 20.99134 11.4724045
33.470818 21.678345 16.014404
31.729816 21.153343 14.850403
33.975815 49.26234 0.52840424
32.538815 48.51034 1.8443985
27.720816 48.798344 69.5884
26.341816 48.419342 67.9904
46.303818 55.02534 57.4544
48.685818 54.48434 58.2334
2.122818 59.428345 56.7064
2.6778183 60.05234 54.3344
50.800816 8.57634 30.6444
50.649815 8.280342 28.6894
46.261818 15.65934 29.6454
47.437817 16.930344 27.6994
26.866817 52.433342 33.7704
24.995823 53.596344 32.3544
19.123821 51.60734 35.3704
17.83582 53.416344 36.5564
16.379818 58.321342 24.4114
16.87682 56.882343 26.5024
12.386818 51.14334 27.8914
13.229816 48.849342 28.1614
34.630817 54.119343 61.9814
36.152817 53.181343 62.582397
33.510815 48.82934 55.6634
35.064816 46.835342 56.1884
42.320816 33.910343 42.3724
43.579815 33.215343 40.8094
50.290817 31.575342 39.2254
50.895817 30.92134 37.2294
20.98782 33.368343 51.8544
19.650822 32.458344 53.3214
22.81982 36.474342 60.3164
21.956821 35.675343 61.7124
44.919815 32.807343 53.2604
45.565815 34.773342 52.4304
44.848816 41.440342 55.1134
43.886818 43.44234 54.6484
49.841816 57.016342 46.2464
48.406815 55.62234 44.8954
42.510815 56.349342 39.6624
41.952816 58.716343 39.8214
3.6988182 16.754341 66.2414
3.4138184 15.259346 67.584404
1.3218193 9.370346 62.5144
0.58581924 7.967346 63.5594
43.246815 10.043343 37.7894
42.214817 8.796341 39.4614
46.665817 10.953346 43.928402
48.209816 9.364342 44.2764
38.737816 62.262344 26.047401
40.463818 61.839344 26.996403
44.272816 57.840343 22.042404
45.923817 57.701344 23.556404
4.4568176 59.896343 69.6214
4.7558174 59.511345 71.5234
12.078815 56.777344 70.4484
14.2158165 57.369343 71.0604
50.886818 67.60134 65.9424
49.201817 66.60234 64.7254
47.065815 64.26034 70.958405
48.692818 63.029343 71.6054
7.124817 50.286343 58.6314
6.2578163 49.876343 56.5574
1.8298187 46.919342 52.2404
3.280819 45.391342 53.8534
46.533817 23.42834 47.9654
47.511818 24.914341 47.0544
48.675816 30.452341 52.1274
48.611816 32.17834 50.2754
17.96082 44.340343 3.7104034
19.51382 45.66534 4.4553986
26.519817 43.53234 6.4304047
26.869816 44.701344 8.009399
28.181816 42.243343 56.9294
27.651815 44.47534 57.6884
25.856815 45.63634 64.9374
27.151815 44.765343 66.7824
31.454815 28.811342 62.6544
33.956818 27.597342 63.0104
39.552814 33.15234 62.352398
40.107815 30.70334 61.4734
36.843815 59.77434 53.3614
35.681816 60.284344 51.1794
39.541817 63.602345 45.6364
40.513817 65.68534 45.3514
30.354816 64.83634 63.5634
31.203815 63.199345 64.7474
30.810816 59.463345 70.0784
29.800816 59.944344 71.9814
50.611816 9.363342 40.3304
50.761818 10.818344 38.7094
45.024815 8.001343 33.6034
44.805817 5.815346 33.8944
40.756817 5.1863403 54.5354
42.571815 2.947342 54.9644
43.608818 1.6133423 47.6614
45.452816 0.21734619 47.6014
19.054821 58.162342 41.5974
20.452816 57.245342 40.0654
22.198818 55.432343 35.1244
24.658817 55.14934 34.3834
41.70582 25.801342 39.4654
41.783817 27.222342 37.8774
45.904816 30.36234 34.3434
46.175816 28.080341 33.2844
3.6408195 36.009342 31.8994
5.8978157 37.440342 30.5114
10.115818 35.611343 36.8464
9.328815 34.328342 38.4404
8.540817 29.815342 21.689407
8.158817 29.568342 23.831406
8.807816 21.480341 22.105408
7.832817 20.646341 23.991402
8.044819 14.765343 40.7244
6.429817 14.180344 42.1664
5.1978188 14.523346 49.3254
3.3488197 13.471344 50.4324
36.574818 12.945343 67.3634
36.886814 13.09034 65.0754
31.258816 17.003342 62.2984
28.923817 16.78434 62.4874
50.229816 65.52234 40.0094
48.477818 64.52834 39.4604
44.739815 60.72634 43.3264
44.53882 62.703342 44.9094
21.205822 12.53434 24.858406
20.97282 10.818344 25.977402
23.90482 3.9133453 24.300407
25.590816 3.9913406 25.030403
36.360817 17.52134 45.7334
36.858814 15.7573395 46.7814
40.936817 11.282341 40.6774
39.744816 9.198341 41.2624
8.428818 64.27234 25.895401
6.3358154 63.756344 24.447403
2.2588196 68.10834 20.190407
2.1428185 0.64134216 20.795403
47.271816 51.13634 27.896397
46.835815 51.07334 25.906403
48.379818 55.891342 20.092407
47.932816 54.41534 18.196404
44.269817 25.062342 46.5494
43.43482 24.916342 44.3874
40.872814 30.691341 41.9554
42.248817 31.134342 39.9174
5.945816 14.181343 27.996399
6.808819 15.426346 29.7694
4.4608192 22.503342 32.0054
2.662819 23.138344 30.4874
21.267818 32.674343 64.8284
20.604816 31.65134 62.992397
22.414822 28.914341 55.7674
22.415821 26.534342 56.5354
37.192818 36.34334 65.5624
35.712814 36.06034 67.1424
34.339817 27.89034 65.8104
32.539814 27.348341 67.6294
31.108816 31.242342 45.3934
29.793816 33.266342 44.5474
26.982817 32.904343 50.1154
25.925816 32.426342 52.0114
40.027817 16.86634 14.6474
40.622814 17.302345 12.576401
33.915817 16.669342 16.2984
33.332817 19.112343 15.921402
4.4018173 8.524345 17.4944
4.801819 7.558342 19.233406
2.0258179 12.3943405 25.672401
3.1778183 14.079346 24.8124
45.521816 42.902344 47.9574
47.874817 43.28134 48.928402
0.8158188 45.47534 43.5854
2.0888176 46.958344 44.5454
44.022816 69.01334 39.0084
43.715816 1.1893387 38.0224
39.084816 5.2243423 40.1644
37.994816 6.023346 42.0684
26.471815 61.542343 43.7224
27.863815 60.341343 44.8924
28.542816 54.94934 47.5734
26.337816 54.37134 46.9064
49.825817 54.125343 34.9834
0.19381714 52.826344 36.2124
2.370819 49.18534 42.1914
1.5198174 49.83134 43.8354
43.838818 67.43734 47.3204
45.370815 67.06134 48.7024
51.077816 66.720345 42.2164
0.61981964 68.54734 43.2324
46.433815 12.972343 33.6224
44.476818 12.398346 34.5644
44.623817 14.9963455 42.0894
44.606815 13.310341 43.0894
25.665815 22.267342 51.4424
26.485815 23.697342 52.5754
24.302816 29.704342 53.8704
24.918816 31.69934 54.4454
35.097816 56.81634 31.0774
34.003815 55.51134 29.0844
30.436815 62.900345 28.5424
32.981815 62.977345 27.9584
36.775818 62.189342 55.8874
38.034817 63.495342 57.6544
37.249817 64.09934 64.8974
36.520817 65.78634 63.6054
5.0838165 33.398342 11.0074005
4.7798195 34.56934 8.858406
10.018818 30.146341 4.9484024
9.586819 28.11934 5.058403
12.866817 3.3373413 46.8044
12.513817 5.2393417 48.3054
11.822819 2.133339 55.0814
10.185818 3.1743393 55.3494
25.450817 60.83634 8.380402
25.422817 62.547344 9.683403
17.173817 62.676342 11.143402
17.508816 64.60034 12.463402
25.983816 58.283344 53.1324
27.590816 59.657345 54.4914
34.803818 61.465343 54.2674
35.274815 62.555344 52.3324
18.62682 47.37334 11.117401
19.61082 47.54534 9.124405
14.525822 50.431343 8.791405
13.248821 52.592342 8.948402
14.560818 44.56834 45.9604
14.092823 43.59534 44.1484
10.388817 48.777344 40.2744
8.801819 50.548344 41.2174
27.239817 36.715343 65.3314
28.559816 36.169342 63.9354
28.155815 39.41634 57.5334
28.053816 37.82934 56.2984
9.971817 46.80934 14.428406
11.019817 47.21334 16.181404
10.049816 40.315342 17.595406
10.743816 39.418343 19.998405
13.561817 13.25634 36.1564
12.357819 14.897339 35.623398
13.803822 20.406342 30.7414
15.594822 20.090347 30.2234
19.274822 23.501343 35.3404
