5.274254 5.4911423 56.868935
6.4202538 5.632141 54.863937
8.181255 8.896141 58.638935
10.204254 10.116142 59.123936
15.314254 58.050144 7.3439407
13.849254 57.759144 9.72094
6.9392548 57.116142 10.397934
6.159256 56.943146 12.08094
15.657254 43.856144 64.743935
14.044254 42.165142 63.895935
21.861254 40.17314 63.169937
21.860254 38.01414 63.428936
18.337254 54.288143 35.995934
18.772255 55.291145 38.391933
16.756254 51.487144 44.571934
15.521255 52.767143 45.788937
10.2262535 51.712143 55.765938
8.320255 51.577145 56.032936
8.3512535 55.460144 48.412933
6.187256 55.736145 48.221935
0.66825485 36.197144 21.929934
0.9132538 37.061142 23.844934
4.418255 36.719143 30.483934
5.709255 34.790142 30.525934
38.074253 26.449142 3.1529388
39.732254 27.625143 3.4989395
39.518253 30.483143 10.769936
37.912254 30.894142 12.601936
46.721256 16.842142 48.119934
45.965256 17.547142 46.390934
49.882256 14.528142 39.849934
49.392254 15.452142 38.097935
3.2242546 53.728146 33.405933
2.718254 54.672142 35.126934
47.286255 54.166145 36.103935
45.841255 55.644142 35.343933
5.5212555 24.733143 33.381935
7.5112534 26.435143 34.041935
7.911255 21.745142 40.624935
7.8252563 22.386143 43.039936
1.5452538 60.985146 68.06493
1.0752563 60.868145 70.45793
2.1672554 55.277145 3.6079407
2.7222557 55.786144 5.2609406
0.42625427 27.195143 35.159935
51.539253 25.997143 37.468937
3.2402534 20.804142 42.340935
5.360256 20.404142 40.622936
18.292253 3.3881454 30.700935
19.610254 3.3881454 29.079935
18.963255 10.942146 30.320934
20.825254 11.011147 29.896935
46.644257 67.571144 59.247936
48.314255 67.319145 57.679935
46.410255 3.073143 52.131935
46.431255 5.4991455 52.663937
38.081253 56.938145 10.06794
37.838253 57.471146 8.139938
35.872253 64.64214 4.881935
33.706253 65.14414 6.1889343
44.696255 24.110142 44.369934
45.647255 21.657143 44.211937
0.6252556 19.956142 42.584934
2.364254 18.298141 43.912933
5.4642563 11.364143 46.572937
6.864254 11.451141 48.411934
0.37525558 8.6621475 53.698936
0.7982559 10.668144 54.263935
50.747253 54.252144 62.084934
49.370255 55.910145 60.662937
3.9642563 56.961143 58.327934
4.230255 57.297142 55.839935
47.833256 40.071144 46.792934
45.768253 39.428143 47.035934
43.163254 46.913143 47.076935
45.299255 47.781143 48.283936
44.797256 64.81014 0.4589386
46.759254 65.85114 70.87293
50.668255 68.082146 65.83093
50.215256 69.76814 67.85693
8.942253 67.54914 57.692936
7.098255 67.738144 56.780937
4.878254 59.410145 57.550938
6.725254 58.543144 58.672935
34.174255 14.8381405 62.445934
36.090256 13.766142 62.375935
38.668255 9.005142 65.39993
38.735252 9.148148 67.464935
5.3682556 41.017143 56.934937
7.015255 41.537144 58.460938
10.0212555 47.769142 53.864937
9.458256 49.453144 54.784935
33.548256 43.567142 65.86093
34.694256 44.279144 64.423935
33.118256 47.345142 58.196938
32.967255 49.319145 57.153934
46.185257 5.448143 4.3969345
45.759254 7.4991455 4.683937
44.747253 10.454147 68.16793
44.938255 12.718145 69.16693
39.608253 25.638142 1.2029343
37.542255 25.199142 71.675934
39.737255 28.047142 64.647934
38.099255 29.710142 63.903934
18.020254 35.231144 44.269936
16.370255 33.899143 45.687935
10.754254 36.68014 41.695934
12.168254 37.06214 40.326935
6.7052536 40.08914 66.48393
6.1432533 37.717144 66.646935
1.3112564 33.674145 64.54193
1.4392548 33.116142 62.772938
38.959255 7.8151474 69.61294
40.725254 7.0041428 68.909935
45.151257 1.5561447 71.647934
45.517254 1.5161438 1.8289337
33.896255 10.730148 28.392935
31.905254 9.9121475 29.883934
30.330256 6.373146 34.501934
29.476255 4.3811417 32.980934
46.165257 36.924145 48.225937
45.768253 37.50714 50.142937
43.588257 32.794144 53.625935
43.781254 30.733143 54.482937
20.265255 0.22614288 41.845936
19.785255 69.25514 39.865936
12.819254 1.2021408 37.707935
12.739254 69.13414 36.464935
30.918255 46.286144 10.49794
32.654255 46.542145 12.173935
33.237255 54.305145 13.727936
31.818254 55.991142 14.568939
41.846252 33.636143 67.25093
41.709255 35.801144 68.13593
39.089252 41.751144 64.68193
36.888252 40.658142 64.10893
51.510254 65.31014 28.581934
50.150253 66.75914 29.022934
50.991257 0.28813934 22.613934
49.476254 1.8771439 22.108934
45.824257 30.972141 50.395935
46.648254 28.832142 50.154934
45.317257 29.247143 42.353935
47.569256 28.254143 42.222935
40.682255 30.790142 65.17893
40.100254 31.056143 67.32993
43.188255 28.140142 2.4399338
45.232254 29.595142 2.7659378
45.303253 34.607143 63.530937
45.779255 35.852142 61.348938
40.187256 42.162144 60.254936
42.072254 43.75714 60.447937
44.936256 50.898144 51.061935
44.977257 48.829144 50.794933
49.678253 45.065144 56.505936
0.1652565 45.195145 55.651936
24.042255 25.117142 50.941936
24.398254 26.174143 49.020935
28.716255 31.066141 54.150936
28.921255 31.152142 56.214935
45.684254 56.943146 71.62894
47.366257 58.406143 70.77593
50.533257 62.575146 70.39094
50.455254 64.543144 69.88693
49.129253 54.846146 38.518936
47.826256 56.370144 37.459934
42.261253 58.500145 41.741936
41.522255 59.947144 42.771935
33.940254 56.197144 10.31794
35.170254 57.296143 9.19294
33.853252 56.734142 2.3319397
31.786255 57.491142 1.5249405
43.039253 68.293144 69.01794
41.492252 69.83114 68.782936
37.473255 5.224144 69.79293
38.597256 5.8101425 67.83093
32.916256 13.151142 4.3949356
34.957253 14.337142 4.7389374
34.811253 18.560143 10.851936
32.636253 18.456142 11.276939
29.187256 29.774141 43.772934
28.912254 29.471142 41.633934
28.630255 22.267143 43.429935
28.111256 21.557142 41.400936
31.846254 41.641144 63.824936
31.455256 39.641144 64.21194
34.992252 37.351143 69.48393
34.496254 39.050144 0.03894043
47.589256 25.925142 37.064934
46.951256 23.851143 35.963936
42.583256 25.370142 42.606934
40.214252 25.579142 42.098934
50.612255 5.5271454 43.332935
0.56625366 5.016144 44.881935
7.2052536 5.0241394 45.948936
8.267254 3.1191406 46.941936
46.065254 25.206142 4.1659393
45.532253 22.989143 4.0249405
45.501255 16.746141 3.5929337
46.939255 15.710142 5.0899353
19.409254 25.422142 32.361935
20.930254 27.308142 31.790936
26.620255 29.100142 29.206934
24.733255 29.385141 28.113934
13.407254 39.087143 61.442936
12.458254 41.328144 62.020935
18.176254 43.681145 60.974937
18.580254 45.749146 59.889935
39.018253 53.722145 14.08094
37.295254 54.323143 12.924942
36.592255 45.824142 11.885941
36.059254 45.152145 13.871941
42.351254 58.942142 65.41593
43.914253 60.439144 64.61594
47.499256 62.841145 62.738937
48.972256 64.42914 62.064938
48.358253 35.734142 6.742935
47.375256 36.391144 4.532936
48.129253 40.86114 0.5879364
47.606255 40.329144 70.255936
48.284256 54.810143 55.439938
47.789253 53.581142 53.876938
49.660255 47.819145 50.769936
50.581257 46.698143 48.842934
13.642254 34.37414 68.76293
14.899255 34.887142 70.01193
13.033255 40.565144 1.2419357
11.397254 41.429142 2.5409393
34.322254 18.466143 63.126938
33.881252 20.109142 62.017937
28.844255 23.004143 66.72293
29.013254 22.933142 68.85693
37.242252 20.619143 40.424934
38.999252 21.451143 41.007935
39.559254 25.504143 34.735935
40.257256 24.918142 32.785934
40.163254 14.9751425 59.307938
39.776253 13.054142 57.358936
47.567257 12.859142 54.340935
46.580254 11.932142 52.761936
46.054256 69.59114 46.231934
45.493256 67.347145 46.691936
37.930256 68.52614 44.860935
37.634254 69.21714 42.653934
21.682255 64.41114 55.777935
22.379255 66.55914 56.250935
27.490255 1.2341461 57.563934
29.399256 69.528145 57.719936
19.470255 4.819145 59.458935
21.106255 6.462143 59.401936
15.731255 10.519142 60.104935
16.808254 10.977142 57.822937
18.275255 63.686142 16.223938
16.721254 61.826145 15.155937
18.656254 59.665142 8.2489395
17.839254 57.444145 8.282936
8.701254 58.460144 68.435936
8.020254 60.722145 68.09493
13.473254 57.360146 62.864937
14.924254 58.105145 63.999935
21.171255 44.931145 47.040936
20.844255 42.894142 47.534935
24.108255 43.121143 54.274937
26.088255 43.679142 53.910934
37.988255 41.003143 2.0899353
35.525253 41.244144 1.296936
30.483255 45.647144 69.743935
31.733255 47.334145 70.85993
19.197254 25.793142 16.362938
19.649254 24.556143 14.876938
12.951254 22.147142 17.589935
13.802255 21.280142 19.491936
11.2452545 23.823143 67.98994
13.409254 23.092142 68.937935
9.869254 21.169142 64.62393
8.472254 20.278143 63.509937
32.724255 58.134144 54.450935
30.687256 59.004143 54.957935
27.851255 60.517143 60.728935
26.921255 59.255142 62.508938
48.065254 2.8081436 45.681934
48.724255 3.4181442 43.446934
46.988255 7.8151474 37.846935
45.515255 9.017143 38.326935
29.703255 39.936142 46.157936
27.205256 40.794144 46.519936
22.123255 36.780144 45.419933
21.897255 38.768143 46.193935
40.348255 45.314144 64.40293
42.326256 46.038143 65.03194
47.075256 40.66614 67.65393
47.551254 39.850143 66.11294
2.1972542 48.776142 29.020935
0.21025467 47.829144 28.970934
2.7292557 40.561142 29.239935
4.8082542 39.667145 29.116934
24.103254 37.870144 38.792934
24.157255 36.84714 36.858936
20.027254 35.120144 32.055935
18.233253 36.23614 32.310936
14.574254 44.853146 70.59493
15.596254 43.181145 69.10094
9.1272545 38.83314 65.58594
9.541254 37.13214 66.61394
28.442255 40.546143 61.598938
29.160255 41.919144 63.371937
31.376255 48.931145 62.565937
31.229256 50.871143 61.537937
29.974255 33.851143 24.540934
27.991255 34.752144 23.838934
21.011255 33.815144 20.681934
20.833254 31.665142 19.348934
28.625256 19.573143 69.57194
30.486256 21.085142 70.20493
29.148254 27.494143 1.4699402
30.467255 26.943142 2.999939
30.999254 1.9461441 63.028934
31.494255 69.70614 63.004936
32.880253 69.31014 55.120937
33.206253 67.39114 55.021935
20.133255 19.583141 38.552937
22.099255 18.203142 39.135937
23.068254 11.995142 41.335934
24.036255 11.734142 43.009933
47.989254 18.663141 59.049934
49.943256 18.482141 57.807938
3.9262543 20.950142 54.436935
2.9972534 20.615143 52.801937
34.464252 65.33914 40.308933
36.051254 67.35714 40.699936
41.928253 64.25914 37.722935
42.443253 62.246143 37.835934
15.191255 38.234142 4.5619354
13.943254 40.797142 4.878937
14.393254 40.976143 12.7109375
12.845254 41.842144 12.919937
49.639256 29.688143 53.747936
0.007255554 30.907143 53.699936
51.150253 37.811142 57.101936
0.7752533 36.810143 59.115936
8.966255 25.980143 54.228935
7.5302544 28.217142 54.090935
0.7162552 29.964142 51.151936
0.6942558 29.433142 49.444935
19.119255 11.940142 17.08194
18.772255 13.601142 15.773941
17.753254 20.308142 19.924942
19.865255 20.023142 21.698935
34.834255 30.232141 67.105934
33.616253 29.574142 65.49793
36.639256 22.319143 65.25494
38.314255 21.966143 66.87694
18.862255 24.908142 57.432938
16.776255 24.303143 57.964935
11.875255 24.303143 59.443935
10.406254 24.547142 57.649937
16.744255 24.287142 45.591934
15.033255 24.631142 47.134933
14.717255 19.453142 52.159935
15.454254 17.563143 51.541935
17.923254 9.385147 42.278934
19.529255 10.943146 42.884933
23.409254 13.822142 47.885937
23.723255 11.225143 48.030933
40.821255 60.242146 45.345936
42.426254 61.391144 46.647934
41.363255 63.728146 52.861935
43.233253 63.650143 52.304935
17.778254 43.571144 41.283936
19.069254 44.674145 39.856934
17.072254 42.49214 33.304935
15.350254 41.077145 32.919933
30.072254 19.839142 40.333935
29.427256 18.679142 38.313934
35.962254 15.061142 37.186935
36.411255 14.566142 39.495934
43.189255 54.624146 35.703934
44.598255 53.494144 37.409935
39.393253 56.050144 43.860935
41.233253 57.381145 43.846935
47.023254 22.531143 63.989937
47.740253 21.797142 65.86093
1.6442566 26.959143 66.643936
4.2102547 27.251143 66.730934
9.731255 64.31314 53.675938
11.406254 63.560143 54.842937
11.756254 56.994144 58.182938
13.178254 57.101143 59.797935
5.690254 69.79514 57.741936
4.3652534 68.875145 56.176937
5.5072556 3.3271408 52.587936
4.6652565 5.375145 52.947937
43.829254 18.575142 42.663937
44.228256 20.639143 41.910934
49.354256 23.159142 38.123936
49.654255 23.411142 36.116936
8.954254 63.469143 40.416935
8.490253 63.458145 38.225937
10.079254 1.1171417 36.813934
8.592255 2.1191406 37.684937
11.712253 1.7671432 67.61494
9.978256 1.2761459 68.65193
6.951256 67.99214 61.704937
5.2662544 67.07914 62.269936
27.774256 2.3881454 62.632935
27.085255 2.474144 60.479935
30.653255 4.5181427 54.831936
32.870255 3.1351395 54.086937
41.278255 33.128143 58.582935
42.600254 34.107143 55.977936
40.825253 42.091145 57.214935
42.628254 42.991142 57.853935
24.386255 60.720142 57.393936
25.884254 62.731144 57.275936
29.949255 65.33914 60.737938
31.439255 66.48214 59.621937
49.617256 59.303143 35.910934
49.776257 58.131145 37.984936
4.1962547 54.567142 37.780933
6.2732544 55.685143 37.527935
46.805256 61.006145 32.490936
48.003254 59.260143 33.922935
40.087254 58.578144 35.860935
40.138252 59.983143 34.654934
16.247253 12.877142 15.647942
14.839254 14.568142 16.287941
10.437254 12.950142 21.949934
10.944254 12.878142 24.334936
46.171253 6.660141 56.723938
46.172256 7.9801483 58.613937
39.927254 10.6731415 58.721935
38.669254 11.486145 59.775936
47.336254 38.606144 19.74894
46.443256 41.147144 20.031937
50.245255 43.967144 13.965942
48.242256 44.798145 12.887939
48.784256 4.653145 47.635937
50.280254 4.339142 46.383934
3.1532555 68.17614 47.860935
3.5212555 68.485146 50.201935
3.244255 10.454147 66.29494
5.039253 9.158142 66.99793
10.909255 10.254143 71.284935
9.738255 9.543144 1.421936
51.054256 53.553143 46.683933
50.098255 52.301144 44.652935
46.543255 47.003143 46.179935
47.780254 45.582146 47.492935
32.849255 37.383144 27.718935
34.572254 38.163143 26.765934
36.651253 42.482143 20.253935
35.615253 44.609142 20.595934
10.779254 61.593143 17.73494
12.782252 59.922142 17.65194
6.475254 55.061142 14.994942
6.692253 54.793144 16.860939
8.348255 49.482143 52.029934
8.031254 47.457146 52.126934
4.454254 46.655144 58.156937
3.1322556 44.833145 58.553936
4.444256 34.015144 22.838934
3.0262566 35.079144 21.436934
4.7642555 42.321144 19.530935
5.4462547 44.206142 20.216934
10.928252 39.265144 40.898933
11.717254 41.248142 41.291935
6.163254 42.801144 42.073936
4.1512566 41.94414 42.800934
25.825254 18.138142 67.41793
24.933254 16.230143 67.84493
27.125256 18.029142 3.225937
27.916256 17.519142 5.027939
43.938255 15.309142 39.481934
42.088253 16.587143 38.010937
46.936256 17.086142 33.728935
48.854256 17.595142 33.089935
2.7102547 57.923145 60.637936
3.850254 60.198143 60.141937
47.944256 63.592144 58.294937
48.267254 65.35414 59.534935
29.350256 35.22914 20.691938
29.963255 36.13814 18.508942
30.191256 29.868141 15.746941
31.031256 29.820143 13.660942
31.763254 65.19014 45.803936
32.827255 63.615143 46.873936
34.303253 57.597145 43.429935
32.942253 56.505142 42.115936
3.607254 21.386143 45.232937
4.0522537 19.358143 45.906937
7.5112534 13.847142 47.914936
7.1202545 13.433142 45.825935
37.863255 52.403145 59.715935
39.958256 53.526142 59.354935
47.325256 54.010143 60.309937
47.401257 54.987144 58.184937
49.046253 58.143143 45.291935
48.695255 56.818146 46.796936
46.134254 54.268143 51.995934
45.448254 53.344143 50.020935
46.578255 32.357143 0.09693909
48.139256 33.543144 71.49993
48.627254 37.418144 64.97594
50.051254 38.65214 65.768936
34.411255 20.076141 12.947937
35.761253 18.847141 14.334938
33.033253 25.303143 18.22094
32.766254 27.044142 17.173943
44.723255 5.8831406 17.786942
42.965256 4.7391434 17.94194
38.777256 11.477142 21.24494
36.883255 10.326141 22.477934
46.177254 4.9821396 36.945934
46.273254 6.6451416 35.690933
1.2622566 10.154144 34.704933
3.008255 9.075142 33.883934
32.436253 8.721142 65.24893
30.687256 9.925142 65.52593
35.173256 15.133142 68.771935
37.364254 14.990142 69.449936
41.071255 65.50914 3.0049362
39.864254 64.737144 4.707939
39.819256 56.979145 3.4639359
39.170254 57.146145 5.6139374
42.725254 3.736145 54.526936
43.736256 3.5151443 52.210938
46.029255 66.279144 49.975937
47.777256 67.31114 51.363934
31.561255 53.643143 32.766933
31.444256 55.560143 33.462936
29.433254 59.932144 36.942936
29.976255 59.246143 38.806934
21.463255 60.153145 67.44794
23.079254 58.724144 67.950935
29.110254 60.451145 63.341934
29.662254 62.264145 61.987938
40.461254 56.677143 55.191936
38.506252 55.054142 55.439938
41.511253 50.063145 51.240936
42.972256 48.340145 52.316936
11.147254 45.616142 50.224934
12.187254 44.300144 50.410934
16.565254 51.264145 47.797935
18.300255 50.147144 46.599934
23.236254 5.750145 61.391937
23.787254 4.2631454 62.867935
28.051254 8.703148 65.47694
28.264256 10.130142 66.785934
24.666254 33.191143 51.379936
22.903255 34.00614 50.936935
16.961254 35.371143 51.112934
17.461254 36.755142 52.881935
35.327255 13.486143 41.789936
34.408253 12.323143 40.128937
34.356255 5.722145 35.874935
35.786255 4.351143 37.217934
25.707254 32.190144 69.87293
27.754255 31.965141 68.324936
29.739256 36.928143 64.561935
28.998255 38.41614 63.367935
40.314255 61.713142 12.829941
40.417255 61.089146 14.972939
38.477253 67.41514 19.06694
39.680256 66.20614 20.640936
43.749256 14.862142 22.744934
41.901253 13.403142 23.644934
37.413254 15.849142 19.805935
34.787254 16.337143 20.529934
28.946255 69.765144 44.796936
28.745255 1.6431427 45.605934
31.660255 4.293144 51.974934
32.581253 6.2531433 51.830936
23.648254 58.595142 48.779934
24.259254 56.611145 49.350937
30.320255 55.934143 45.181934
30.415255 53.496143 44.616936
51.120255 58.033142 54.364937
0.08125305 59.243145 56.187935
44.157253 63.591145 54.669937
44.660255 65.08614 56.169937
34.125256 39.15314 58.242935
33.643253 41.108143 59.315937
35.550255 47.915142 56.230938
35.260254 49.009144 54.241936
28.159256 18.996141 54.883938
30.421255 18.716143 55.521935
35.060253 22.025143 60.253937
36.490253 20.603142 60.890938
23.920254 42.508144 57.212936
23.713255 40.307144 57.731937
25.639256 34.446144 53.784935
23.105255 35.313145 53.302937
16.726254 24.441143 27.662935
17.120255 25.233143 25.078934
13.7452545 31.221142 22.275934
14.350254 31.945143 20.011934
31.272255 30.789143 2.6989365
31.449255 28.649141 1.1299362
29.214254 26.846142 66.01293
29.634254 28.765142 65.157936
35.402256 6.821144 66.08293
33.622253 6.099144 66.175934
33.793255 0.09914398 64.75993
35.817253 69.80114 63.323936
20.254255 67.90114 46.538937
19.645254 65.88014 45.854935
14.636254 63.868145 51.359936
13.581254 64.819145 53.201935
26.845255 12.744146 43.683933
25.893255 11.611145 45.048935
22.156254 9.625145 42.693935
20.769255 8.351143 43.175934
26.714254 54.303143 62.904938
24.318254 54.003143 63.195934
24.057255 56.676144 69.73593
22.363255 55.866142 70.94493
22.905254 56.723145 40.732937
20.664255 56.784145 40.291935
21.763254 55.945145 48.026936
19.877254 56.436142 49.125935
25.190254 55.442142 52.130936
25.295254 56.326145 54.397938
24.116255 50.411144 52.810936
24.301254 48.290142 53.164936
19.914255 23.716143 35.981934
19.891254 23.365143 38.452934
27.043255 19.798141 37.200935
26.700254 18.253141 38.467934
27.335255 24.584143 64.11494
27.209255 25.179142 66.05393
24.722254 31.821142 67.521935
26.206255 32.751144 66.28194
0.8092537 17.178143 71.24993
2.0512543 19.272142 70.355934
4.543255 19.586142 63.803936
5.631256 21.620142 63.827934
31.947254 61.373142 61.547935
33.400253 62.975143 61.343937
36.722256 59.545143 54.230938
38.795254 58.923145 55.329937
37.664253 14.236142 60.094936
36.653255 13.164142 58.155937
33.006252 15.456142 52.075935
31.798256 17.750143 51.906937
14.549254 2.8461456 65.451935
14.5022545 0.83714294 66.09493
12.491254 65.48114 62.677937
12.499254 63.653145 64.13493
25.822254 51.597145 18.835934
26.447254 50.778145 20.937935
33.264256 53.215145 22.939934
32.296253 52.495144 24.838934
44.491257 60.321144 26.739935
42.238255 60.602142 27.330935
41.139256 53.229145 24.466934
39.450253 52.523144 25.278934
9.066255 66.78214 54.873936
10.5942545 66.125145 55.833935
16.592255 69.403145 58.177937
16.792253 68.431145 60.321938
13.588254 60.854145 2.4629364
15.413255 61.066143 2.697937
20.269255 57.793144 70.852936
22.444254 59.485146 70.69493
22.750254 40.017143 8.558937
20.623255 40.560143 7.457939
15.831254 35.018143 9.127937
15.586254 33.371143 7.52594
3.791256 27.293142 13.130936
5.536255 28.404142 12.369934
3.3772545 28.110142 5.463936
5.065254 29.742142 4.850937
20.391254 4.099144 62.001938
18.744255 3.5761414 61.791935
17.591255 9.431145 67.535934
17.023254 10.9991455 65.98994
14.042254 8.210144 14.782936
14.380254 7.894142 16.731941
8.621254 11.452148 20.236937
6.855254 11.020142 20.49594
31.033255 21.392143 43.842934
31.348255 23.003143 45.445934
38.492252 25.856142 47.730934
38.465256 26.943142 45.927937
16.151255 3.1041412 48.656937
15.688254 4.0271454 50.224934
16.842255 10.267143 54.958935
17.488255 8.936142 56.236935
23.486254 40.640144 60.924934
22.015255 41.449142 59.474937
21.096254 48.393143 62.440937
22.401255 48.823143 64.71094
6.418255 32.449142 54.933937
4.8512535 33.239143 55.892937
3.866253 38.769142 55.854935
6.1672554 38.766144 55.484936
38.529255 54.433144 5.77594
38.865253 54.795143 7.8519363
34.751255 47.255142 7.791939
37.557255 46.416145 8.697937
38.553253 16.562141 54.484936
39.808254 18.216143 55.186935
45.350254 16.486143 50.426933
46.797256 15.075142 51.129936
15.070254 15.180143 38.254936
15.943254 13.180143 39.013935
15.195254 6.4541473 37.131935
15.453255 4.700142 38.483936
11.880256 27.565142 4.8279343
10.958255 25.610142 3.7649384
4.163254 27.319143 1.2719345
2.1752548 26.097143 1.6009369
0.99625397 66.69714 67.160934
1.1562538 69.07514 67.88993
7.152256 3.882141 66.57093
6.942253 5.816139 66.31893
8.080254 69.22814 32.508934
7.0512543 68.58614 31.309935
5.3942566 61.538143 36.462936
6.5892563 59.688145 34.914936
12.332255 63.553143 49.964935
11.453254 64.902145 51.788937
7.720253 0.68014526 48.854935
7.5802536 0.46214294 46.587936
1.0872536 46.415142 50.267937
1.9232559 48.187145 50.323936
1.1812553 47.460144 57.372936
2.506256 48.750145 58.882935
18.426254 2.071144 26.093935
20.226255 1.3951416 25.093935
24.317255 5.5461426 22.082933
23.570255 4.444145 19.638935
20.264256 42.12414 2.846939
22.123255 43.880142 1.8079376
16.936255 46.066143 67.68294
15.460255 46.828144 69.15393
1.4862556 25.715143 70.45993
1.8862534 27.915142 69.56593
0.4722557 34.315144 67.882935
50.615253 33.196144 66.102936
2.680256 40.665142 69.15193
4.9552536 41.023144 69.16593
4.0122566 47.378143 65.286934
1.9852562 47.244144 64.268936
5.2612534 12.192142 54.199936
7.478256 13.516142 54.400936
11.906253 16.355143 49.316936
13.550254 14.474142 49.153934
45.531254 19.630142 22.669935
46.692257 21.745142 21.835934
48.571255 26.806143 25.808935
49.933254 26.169142 24.581934
2.2332535 52.354145 29.708935
4.378254 52.575146 31.072935
8.212254 57.888145 27.711935
8.179256 58.064144 30.005934
38.857254 66.93414 5.5339355
40.541256 67.597145 4.7059402
37.473255 5.696144 3.0549393
38.132256 6.104141 1.1809387
22.830256 7.028145 54.751938
22.194254 7.050148 57.097935
26.679255 8.538147 61.577934
26.898254 7.286148 60.080936
8.338254 47.086143 49.031937
9.883254 48.268143 50.086937
13.901255 54.514145 46.932934
11.935254 56.071144 47.192936
36.786255 49.381145 50.663937
35.552254 50.687145 52.053936
42.766254 54.416145 50.981934
43.070255 54.026142 48.762936
0.8192558 50.943146 40.824936
0.6062546 52.102142 42.584934
9.174255 50.949142 40.847935
9.406254 53.320145 40.311935
7.0962563 41.481144 39.666935
8.244255 43.27014 38.805935
9.971256 45.555145 32.514935
11.648253 47.290142 32.418934
40.984253 50.510143 23.642935
41.147255 48.139145 23.099934
37.348255 52.209145 26.872934
35.490253 53.250145 26.386934
49.078255 38.580143 37.331936
49.520256 39.88114 35.636936
5.053253 39.36014 38.788937
4.5872536 41.38914 39.221935
14.946255 29.597141 33.183933
14.165255 31.404142 32.779934
9.299254 28.889141 27.871935
9.007255 29.414143 25.613934
7.0732536 34.26414 51.039936
5.829254 33.400143 49.283936
12.719253 30.655142 48.262936
14.311255 32.433144 48.093937
15.052255 4.52314 55.775936
13.457254 5.9591446 55.938934
10.875255 6.9261475 48.440937
10.525254 5.512146 46.381935
9.569254 25.609142 13.17794
9.693254 23.930143 14.67894
13.538254 17.908142 9.403938
15.0022545 17.299143 11.044937
3.2572556 32.829144 50.335934
0.9192543 32.377144 49.784935
48.957256 37.82514 49.423935
49.873257 39.864143 48.685936
18.879255 62.665142 25.102934
18.148254 64.26914 23.333935
16.943254 59.843143 16.829935
18.826254 59.245144 15.898934
8.358254 5.1811447 29.984934
10.3442545 6.4991455 29.230934
12.601254 5.6171417 37.114937
12.434255 7.599144 37.815937
8.4952545 37.189144 50.768936
6.095253 36.41614 49.884933
1.5932541 40.827145 51.238934
1.732254 42.64514 52.917934
10.110256 36.540142 11.981934
8.500256 36.758144 13.410942
6.723255 30.138142 14.238937
7.164253 28.058142 15.051941
40.804253 41.127144 51.912933
39.420254 42.72114 52.765938
36.487255 37.865143 57.869938
36.462254 38.70114 59.647938
14.885254 30.599142 38.077934
14.742254 32.746143 38.404934
19.502254 34.245144 42.225937
21.674255 34.13114 41.860935
13.279254 41.593143 52.139935
11.189254 41.545143 51.634933
7.602253 39.039143 58.330936
8.315254 39.725143 59.993935
13.762254 23.026142 27.159935
15.497254 22.085142 27.559935
19.232254 21.565142 34.683933
17.801254 21.254143 36.214935
38.110252 9.113144 36.665936
39.942253 9.558144 36.302937
44.723255 12.466146 32.558933
43.877254 12.739141 30.360935
28.366255 3.359146 53.972935
27.194256 1.7461395 54.569935
21.007254 4.9431458 53.503937
19.103254 5.4751434 52.190937
35.153255 64.890144 44.343937
35.534256 63.699142 46.271935
37.775253 69.334145 51.488934
39.584255 68.92714 53.126938
43.661255 5.8831406 61.947937
45.509254 7.092148 60.890938
48.184254 10.831146 65.44293
46.995255 10.779144 66.91293
18.173254 37.88114 27.461935
17.394255 39.994144 26.216934
10.954254 42.848145 24.578934
10.781254 44.692142 23.532934
43.218254 42.815144 9.293938
41.091255 42.918144 9.795937
37.106255 35.884144 8.333939
39.008255 34.890144 9.03994
28.674255 68.09214 55.453938
30.419254 66.64414 54.194935
23.348255 61.997143 53.473938
24.033255 61.472145 51.356934
8.937256 22.780142 24.974934
7.3562546 22.726143 26.217934
9.150253 15.629142 24.188934
8.839256 15.029142 21.856934
7.458256 56.441143 45.770935
9.333256 55.296143 45.970936
10.1462555 49.484142 42.975937
12.023253 49.371143 41.571934
19.574255 11.746142 54.556934
19.479254 13.540142 54.884937
27.186255 15.021142 57.617935
26.833256 17.145142 56.437935
12.636254 65.23114 37.332935
11.876254 67.12914 38.140934
9.468254 68.87114 44.702934
7.486254 68.19714 44.503937
48.744255 38.523144 21.895935
47.011253 39.246143 22.806934
48.096256 36.252144 31.088934
49.633255 35.202145 30.089935
44.262257 54.993145 53.991936
42.804256 56.548145 53.529938
44.378254 61.830143 49.965935
45.890255 61.049145 48.272934
50.613255 44.29814 37.963936
49.092255 44.081142 40.149937
51.125256 40.071144 46.014935
0.9622536 40.44414 47.683933
41.290253 50.147144 48.445934
43.174255 51.357143 48.909935
48.355255 54.269142 44.408936
47.324257 54.862144 42.300934
39.475254 41.90314 21.074934
38.617252 43.623142 21.766933
38.361256 44.872143 29.205935
36.150253 46.192142 29.808935
45.563255 18.724142 19.809937
44.176254 19.049143 18.263939
41.950253 20.032143 13.587936
39.750256 20.423141 13.31794
46.311256 20.054142 49.547935
46.310257 20.037142 47.038937
41.297253 26.433142 47.616936
41.018253 26.446142 44.868935
34.348255 20.024141 38.814934
35.792255 21.755142 38.465935
32.077255 26.743143 35.178936
33.462254 27.653143 36.167934
44.926254 62.931145 46.756935
44.831257 61.437145 45.067936
44.448254 65.582146 38.830936
47.061256 66.67914 38.448936
35.532253 14.570142 50.822937
36.917255 16.176142 49.519936
43.665257 15.529142 47.049934
43.956257 16.723143 44.943935
0.88625336 21.262142 48.554935
2.805256 22.111143 48.760937
5.142254 28.271143 46.456936
7.3022537 28.920141 46.736935
17.420254 29.934141 59.796936
16.046255 31.325142 61.102936
16.697254 34.348145 68.119934
18.038254 33.34614 69.21194
37.530254 68.40514 34.324936
38.082253 67.735146 36.008934
42.827255 69.80814 40.225937
43.579254 69.500145 42.519936
39.418255 51.645145 34.339935
40.320255 52.685143 36.270935
37.958256 57.168144 41.598934
39.062256 58.489143 42.268936
45.900253 16.297142 19.244934
48.009254 15.869143 19.695934
0.10725403 17.235142 25.440935
0.72725296 15.753142 26.962934
29.428255 22.379143 48.052937
30.646255 20.627142 48.233936
34.980255 22.920143 54.440937
35.985252 21.101143 55.125935
17.113255 46.790142 9.369934
15.856255 48.247143 8.012939
13.381254 44.593143 2.3949356
14.591254 42.919144 0.9039383
35.278255 18.197142 67.673935
36.737255 17.772142 69.34894
42.680256 14.565142 69.74793
41.979256 12.589142 69.86394
18.446255 15.076142 50.409935
20.668255 14.030142 50.108936
24.005255 11.802142 53.061935
25.810255 10.374142 52.166935
50.890255 68.20014 63.006935
50.161255 0.37914276 63.549934
43.929256 2.7391434 61.360935
42.347256 3.6281433 62.702934
32.764256 14.387142 41.878937
31.490255 12.238142 42.879936
33.905254 16.841143 47.975937
32.813255 17.751143 49.486935
46.321255 60.609142 29.057934
44.693256 62.115143 28.936935
46.371254 66.32214 34.790936
46.318256 64.92814 36.473934
43.855255 13.317144 52.348938
43.298256 11.045143 52.069935
37.904255 8.496147 55.664936
35.282253 9.128143 55.187935
17.434254 57.406143 53.913937
17.467255 55.168144 55.250935
23.497255 58.497143 58.558937
25.491255 57.311142 59.033936
36.949253 40.602142 27.080935
37.291256 38.570145 27.419935
42.052254 35.355145 32.662933
43.961254 35.561142 32.333935
31.602255 29.293142 37.089935
31.893255 29.833141 39.017937
31.915255 21.231142 39.092934
32.580254 21.109142 41.255936
24.415255 36.51314 50.160934
23.701254 36.240143 47.941936
25.569254 31.139141 42.484936
24.496254 31.215141 40.707935
35.862255 20.378143 25.842934
36.580254 18.450142 24.400934
38.780254 10.832142 24.851934
37.312256 9.752142 25.384935
40.883255 43.856144 55.207935
39.231255 45.221146 53.757935
36.786255 50.724144 57.595936
35.830254 52.484142 56.223938
23.833254 42.86114 46.764935
25.852255 42.733143 47.675934
28.343256 46.759144 41.528934
30.481255 46.977142 41.140934
11.481254 47.765144 24.110935
10.214256 50.102142 24.249935
3.027256 48.870144 26.061934
1.5822563 50.132145 25.041935
19.823256 2.4811401 45.912933
19.834255 0.77114105 47.170937
23.125254 69.02514 54.463936
22.982254 67.04414 53.624935
29.501255 44.485146 11.584938
29.690254 42.942142 13.119942
29.718256 36.559143 15.397942
27.419254 35.998142 14.393936
9.915255 39.427143 49.497936
12.394254 39.717144 50.047935
18.800255 42.183144 46.093937
19.650255 40.647144 46.799934
8.780254 62.503143 43.041935
10.047256 64.22014 44.460934
5.975254 59.684143 49.685936
7.451256 58.039143 49.453934
41.753254 9.182144 49.045937
41.658253 8.659142 46.706936
49.378254 7.5961456 46.234936
50.767254 8.134148 44.344936
48.562256 47.973145 19.070938
48.513256 47.857143 16.518936
50.537254 54.772144 19.062943
1.0722542 55.539143 18.044937
21.324255 26.519142 60.265938
22.441254 27.406143 62.063934
29.349255 30.023142 61.438934
28.386255 31.717142 62.430935
25.382254 3.3851395 46.294933
27.591255 3.1411438 47.493935
28.951256 69.81514 53.239937
30.746256 69.514145 53.517937
31.356255 65.95414 64.44093
32.191254 65.40114 62.440937
37.765255 64.90514 57.657936
39.325253 66.20514 57.833935
23.543255 61.147144 59.846935
25.639256 62.287144 60.048935
29.144255 67.51914 64.19393
29.583256 67.92914 61.918938
47.121254 5.1331406 61.311935
47.929256 5.9911423 59.503937
50.709255 68.65514 58.325935
50.905254 68.34014 56.122936
24.827255 63.218143 49.309937
22.871254 63.522144 49.362934
25.799255 0.79914093 45.225937
24.403255 1.4581451 44.590935
1.5382538 48.771145 46.954937
3.9012566 49.774143 46.684937
9.419254 47.272144 44.118935
10.887256 46.112144 42.047935
25.841255 39.372143 61.701935
24.264256 38.31214 61.941936
21.705256 33.93714 55.891937
20.160255 33.620144 57.287937
14.210255 67.94114 33.009933
15.461254 67.292145 35.075935
18.283255 60.414143 36.119934
16.716255 60.828144 37.555935
24.161255 40.135143 47.551933
25.996254 39.120144 48.175934
31.333256 39.976143 50.248936
32.420254 41.838142 49.660934
30.214254 36.51414 48.427937
31.360254 34.342144 48.921936
38.364254 35.572144 51.048935
39.453255 36.95814 52.345936
40.329254 16.804142 11.937935
41.876255 16.131142 13.183937
40.930256 9.050142 13.785942
40.389256 9.513142 15.901939
20.025255 68.02614 43.738934
21.923254 68.05414 42.806934
24.445255 62.656143 46.699936
22.883255 61.007145 47.972935
33.123253 2.9261398 36.464935
31.958256 4.7441406 37.232937
35.881252 0.9761429 43.497936
36.679253 2.8161392 44.298935
32.108253 57.211143 70.605934
30.322254 58.361145 69.96194
30.850256 53.460144 62.785934
28.960255 52.315144 63.319935
25.436255 55.379143 40.760937
25.194254 56.556145 42.301933
22.793255 50.298145 48.336937
20.612255 50.870144 48.005936
22.353254 54.663143 39.093937
23.579254 52.597145 39.282936
19.181255 47.521145 41.060936
16.933254 47.268143 40.830936
16.828255 38.422142 30.484934
18.983255 38.094143 30.131935
22.197254 43.52114 26.042934
24.957254 43.792145 25.884935
11.641254 11.330147 47.264935
11.7192545 9.905144 48.605934
12.880254 8.631142 55.950935
11.293254 10.262146 56.678936
22.596254 22.919142 50.446934
20.536255 23.849142 49.624935
16.051254 22.222143 55.656937
16.251255 21.513142 58.050938
42.385254 46.425144 60.686935
40.690254 47.249146 62.318935
37.254253 42.35314 60.232937
35.428253 41.34614 61.319935
13.036254 60.704144 45.706936
13.080255 61.425144 48.292934
17.598255 60.240143 44.192936
19.483255 61.564144 42.860935
22.871254 18.433142 45.101936
23.172255 19.731142 47.318935
28.692255 16.444141 51.576935
29.368256 18.018143 52.695934
28.222256 7.918144 34.113934
26.877254 9.413147 33.971935
20.561255 5.250145 34.764935
19.555254 4.6361465 32.637936
18.024254 13.516142 52.309937
16.658255 15.203142 52.889935
16.947254 16.182142 58.215935
18.050255 15.905142 59.888935
22.864254 57.031143 52.712936
21.995255 57.225143 50.866936
21.772255 63.035145 51.612934
21.482254 64.98414 52.970936
31.821255 38.61114 47.582935
33.608253 39.559143 48.608936
38.185253 40.835144 41.789936
36.761253 42.579144 41.096935
47.456257 42.072144 39.102936
47.014256 44.09714 37.685936
45.691254 46.566143 32.157936
43.771255 47.602142 30.679935
33.492252 20.025143 47.921936
35.499252 18.875143 49.738934
40.145252 19.189142 43.327934
41.528255 20.447142 42.184937
26.211254 50.459145 61.070934
24.923254 52.726143 61.020935
20.117254 48.274143 56.130936
18.244255 47.457146 56.154938
50.216255 12.104142 53.949936
48.846256 12.911142 51.544933
0.9442558 16.246141 46.671936
3.0332565 15.747142 45.521935
20.714254 23.041142 46.332935
20.806255 20.760143 47.190937
15.544254 17.500143 48.688934
15.940254 15.562142 49.257935
18.778255 24.003143 29.489935
21.124254 24.818142 29.715935
21.264256 17.560143 32.361935
19.899254 15.938142 31.014935
36.676254 12.183142 38.540936
38.380253 11.970142 36.879936
45.485256 13.190142 38.432934
47.281254 13.719142 37.287933
8.683254 1.500145 34.451935
10.420254 0.8641434 33.152935
16.152254 4.630142 35.545933
17.787254 3.5841446 34.851936
23.644255 61.601143 30.638935
23.292255 59.152145 30.335936
18.672255 57.488144 34.155933
18.452255 57.788143 36.257935
14.503254 57.717144 17.601934
16.294254 57.019142 17.945934
15.536254 60.351143 25.076935
15.901255 62.932144 24.567934
19.741255 62.683144 27.772934
19.782255 64.93814 27.621935
24.170254 65.42014 33.268936
24.731255 64.53414 35.028934
48.597256 29.911142 39.903934
46.547256 29.446142 39.702934
45.259254 35.252144 36.110935
42.861256 35.526142 35.265934
2.8022537 24.130142 33.329933
2.489254 22.251143 35.264935
8.498257 19.133142 35.718933
9.162254 18.363142 37.736935
14.583254 10.774147 46.396935
14.449254 9.671143 48.308933
22.218254 11.410141 50.411934
22.543255 9.7981415 52.150936
42.570255 6.9351425 54.561935
43.498257 6.132141 52.452934
39.117252 9.009148 48.468937
38.118256 10.460144 48.105934
48.343254 7.795143 5.619934
48.883255 5.7161407 6.8259354
45.526257 4.3291397 13.436935
43.293255 5.083145 13.599937
28.180256 67.195145 45.443935
29.152256 66.91914 43.642937
32.479256 63.085144 38.861935
30.977255 61.691143 38.959934
24.963255 14.231142 21.081934
24.889256 13.246142 22.973934
29.389256 18.975142 26.344934
28.335255 18.614141 28.570934
2.9442558 52.410145 46.493935
1.345253 51.741142 47.450935
3.2092552 57.157143 52.391937
1.9872551 56.960144 54.110935
11.693254 67.20114 47.563934
13.492254 66.45314 48.197937
18.092255 63.612144 42.636936
16.273254 62.060143 42.202934
39.658253 68.37814 22.075933
41.208256 67.68514 23.534935
46.648254 2.5811462 25.825935
45.938255 4.4591446 27.197935
18.565254 6.9421463 43.436935
16.135254 6.9281464 42.794933
17.225254 1.7901459 46.756935
17.298254 69.77214 48.017937
49.251255 25.400143 39.339935
48.252254 25.398142 41.947937
3.659256 27.546143 44.197937
5.3562546 27.874142 42.656937
18.041254 7.2821426 46.108936
19.736254 5.78714 45.920937
24.791254 9.524147 49.966934
24.650255 7.7891464 51.603935
6.9642563 69.63114 28.652935
4.899254 69.40914 28.996935
51.284256 1.7381439 34.302937
0.018253326 3.9631424 34.551933
47.283257 15.602142 31.495935
45.431255 14.950142 32.534935
40.539253 16.531141 35.840935
38.377254 15.851142 36.375935
50.591255 40.711143 68.48593
49.248257 42.084145 67.046936
0.19725418 48.667145 66.23493
1.2712555 49.563145 68.21893
29.723255 64.24314 28.574934
31.978254 63.408142 27.991934
33.327255 57.203144 32.128933
32.852253 57.944145 34.177937
46.159256 31.992142 40.537933
46.037254 32.14614 42.930935
1.2302551 30.685143 41.468937
1.3942566 29.060143 40.289936
41.264256 32.953144 28.225935
39.833256 33.910145 27.081934
44.687256 37.40914 21.606934
43.267254 39.467144 21.563934
45.902256 1.1891403 30.179935
46.575256 68.61714 30.733934
41.558254 64.362144 26.629934
43.109257 63.241142 26.814934
1.0302544 67.34214 50.952934
2.0732536 65.60114 51.812935
1.0922546 66.97614 59.168938
2.6742554 68.17014 58.299934
31.147255 31.605143 63.276936
32.637253 29.873142 62.937935
35.930256 31.434141 57.305935
37.490253 33.288143 57.041935
40.575253 33.202145 32.301933
42.695255 32.780144 30.833935
42.733253 26.188143 33.146935
42.536255 24.738142 35.097935
18.853254 63.740143 55.920937
17.671255 64.24114 57.956936
10.680254 64.38514 61.227936
11.152254 62.289143 61.982937
42.634254 61.308144 30.406935
41.260254 62.917145 28.935934
43.841255 66.08714 35.814934
44.059254 63.645145 35.878933
37.120255 12.558142 70.87493
35.000256 11.472145 69.839935
33.028255 4.9211426 0.9609375
30.418255 5.0321426 1.6659393
23.916254 42.766144 12.26194
24.506254 41.683144 10.321938
26.906256 49.678143 8.212936
28.570255 49.676144 10.17894
36.171253 27.108143 49.275936
38.208256 28.398142 48.839935
37.348255 34.587143 53.365936
38.707253 35.178143 55.108936
37.020252 66.52214 32.065933
35.977253 64.56614 30.187935
37.827255 58.376144 34.296936
37.430256 56.468143 34.036934
3.4732552 35.091145 32.522934
1.9002533 35.036144 33.388935
5.251255 34.436142 40.905933
4.1912537 33.863144 42.594936
25.665255 39.529144 37.138935
26.685255 37.225143 36.888935
27.916256 32.565144 41.649937
27.220255 31.024141 40.080936
0.22325516 43.894142 50.008934
50.106255 45.070145 51.253937
42.800255 45.480145 53.022938
41.983253 43.834145 52.723938
3.6902542 38.557144 44.445934
1.5892563 38.21514 44.866936
1.4472542 30.978142 47.251934
3.161255 29.747143 47.412933
1.2962532 4.4661407 36.841934
51.497253 2.483139 37.065937
47.686256 1.02314 42.183933
46.354256 68.708145 42.077934
30.489256 17.722141 20.144934
29.294254 16.236141 20.612934
32.168255 12.8241415 27.210934
33.586254 13.517142 29.058935
14.666254 61.165142 51.172935
13.471254 61.825146 53.281937
15.574254 55.925144 57.087936
15.020254 54.126144 56.679935
43.706257 27.255142 40.879936
41.605255 27.767143 41.438934
38.194256 28.132143 34.943935
38.238255 30.184141 33.408936
27.718256 21.235142 26.106934
28.959255 22.460142 27.513935
31.707254 25.322142 21.336935
33.928253 24.106142 20.565935
48.427254 30.723143 51.276936
49.409256 29.852142 49.106934
48.473255 36.342144 47.214935
47.416256 37.310143 45.507935
46.109257 58.413143 46.740936
44.234257 59.158142 46.730934
39.023254 59.450146 52.529938
40.211254 60.650143 53.540936
30.301254 40.03414 41.275936
28.690254 41.473145 42.673935
22.218254 42.227142 39.183933
23.405254 41.696144 36.627934
34.741253 34.74914 11.885941
35.019253 34.820145 10.02594
28.620255 30.462141 9.825935
28.482256 28.759142 11.151939
48.931255 4.153145 26.149935
49.013256 5.39814 24.520935
45.354256 10.579147 30.151936
44.017254 8.527145 31.019936
23.824255 10.386147 2.685936
24.527254 8.172142 1.2579346
22.306255 2.2051392 1.2789383
20.640255 0.9151459 0.11593628
26.671255 60.766144 17.018936
25.738255 61.158142 15.06794
26.963255 66.43414 9.003937
25.355255 67.78414 10.037941
33.825253 51.547142 48.125935
31.644255 52.201145 48.429935
30.593256 56.605145 53.499935
28.725256 58.068146 53.358936
42.347256 46.442142 1.1069336
41.227253 48.514145 0.8119354
43.706257 54.820145 0.5199356
43.196255 56.016144 2.6019363
28.655254 0.26114655 31.520935
27.139256 68.14314 30.977934
22.689255 64.40614 27.411934
23.687254 63.376144 28.564934
29.183254 4.5641403 36.080936
29.671255 5.8831406 37.141933
25.437254 11.165146 39.980934
26.377254 11.402145 38.092934
12.7402525 34.279144 37.936935
12.435252 32.240143 36.822937
8.530254 35.564144 30.010935
8.667255 33.530144 28.666935
19.563255 42.817142 43.164936
20.451254 43.838142 44.460934
23.298254 46.998142 37.859936
21.573256 47.853146 37.025936
30.109255 33.800144 52.762936
30.380255 33.36814 55.066936
32.327255 40.512142 52.610935
34.628254 39.796143 51.584934
47.830254 24.513142 33.397934
49.385254 25.922142 34.682934
48.845257 33.588142 32.226936
46.080254 34.574142 31.700935
31.503256 17.374142 27.943933
31.113255 18.996141 29.314934
29.601255 25.711142 31.133934
31.644255 26.877142 32.404934
28.147255 20.478142 46.731934
26.947254 20.074142 44.601936
26.432255 13.606142 41.004936
27.808254 13.663142 39.267937
18.791254 69.195145 26.232935
20.674255 68.653145 25.454935
22.003254 0.1471405 33.040936
20.112255 1.5541458 32.594936
46.990253 4.651146 49.841934
46.523254 2.8361435 48.457935
39.549255 2.0891418 45.867935
39.536255 3.0631409 43.947937
24.571255 49.946144 22.371935
23.918255 51.318146 21.341934
20.748255 53.618145 27.783934
22.271255 54.432144 29.045935
15.454254 45.949142 56.840935
15.646255 47.629143 55.696938
20.041254 47.298145 53.362938
21.439255 49.302143 53.402935
38.908253 31.419142 43.768936
38.511253 30.730143 41.543934
32.076256 26.034142 45.415936
30.946255 28.147142 44.777935
22.085255 28.135143 40.560936
21.611254 27.337143 38.646935
29.644255 25.498142 35.606934
28.958256 26.248142 33.568935
35.697254 30.844141 34.105934
35.287254 28.569141 34.169933
37.957253 24.901142 28.427935
37.639256 23.041142 27.280935
25.884254 19.527142 28.287935
25.464254 21.606142 27.258934
17.609255 21.712143 25.835934
15.981255 20.153143 25.605934
19.619255 1.1641464 37.535934
18.019255 2.9781418 37.529934
21.637255 9.758148 40.038937
20.381254 11.757141 40.094936
5.435253 66.18914 7.933937
6.621254 68.27314 8.3999405
3.647255 4.1661453 11.850937
5.2732544 5.872139 11.385941
26.260254 57.742146 39.399937
27.156256 59.017143 38.317936
19.673254 61.056145 38.621937
20.056255 60.640144 40.536934
38.543255 66.03814 9.22094
39.677254 64.20414 10.849937
42.715256 64.49514 4.9349365
43.434254 63.616142 2.5899353
35.525253 0.47614288 52.883938
35.092255 68.14114 52.715935
30.683254 64.21414 48.775936
29.495255 65.85314 47.184937
45.109257 43.341145 41.088936
45.251255 41.467144 40.735935
44.025253 34.27114 43.654934
45.493256 34.27114 45.001934
10.676254 38.718143 13.305939
12.731255 39.057144 13.204941
11.251254 33.754143 20.139938
13.345254 33.92314 21.36894
15.140254 22.315142 44.849934
14.409254 21.287142 42.941936
17.195255 15.771142 39.569935
18.490253 14.120142 40.105934
37.866253 18.249142 34.974934
38.016254 18.258142 32.297935
45.205254 23.241142 33.519936
44.746254 24.982141 32.018936
17.409254 41.522144 70.29193
18.508255 40.06214 71.133934
16.615253 33.404144 71.46893
15.159254 33.051144 1.0569382
28.390255 30.705141 27.500935
29.047255 32.690144 28.990934
21.054255 35.92314 29.798935
21.630255 37.599144 30.845934
17.113255 26.873142 44.996937
16.093254 28.230143 45.963936
19.938255 31.596142 41.630936
20.555254 30.251143 40.240936
42.043255 12.979142 26.303934
43.298256 14.186142 27.702934
40.243256 20.589142 26.276934
40.286255 22.093142 28.285934
27.899256 16.041143 53.995937
29.510256 16.27014 55.479935
33.004253 8.464142 54.180935
31.907255 6.6901474 54.882935
20.559254 17.357141 22.403934
21.784254 15.989142 23.385935
22.605255 11.893142 25.399935
23.610254 10.373142 26.390934
14.092255 43.438145 42.758934
14.449254 40.976143 41.303936
21.086254 40.035145 40.605934
21.705256 39.345142 38.500935
20.957254 40.654144 70.09293
20.007254 42.53414 70.27393
19.808254 43.359142 63.052937
19.056255 46.341145 62.700935
17.288254 38.383144 50.739937
17.437254 39.793144 52.449936
17.594254 44.191143 56.553936
19.664255 45.209145 56.858936
15.549254 7.847145 47.051933
14.920255 8.581146 44.938934
8.454254 7.547142 46.017937
7.5312543 9.282143 46.521935
6.772255 38.158142 31.138935
5.4292564 39.302143 33.014935
10.669254 35.405144 39.035934
9.307255 34.554142 40.709934
3.6302567 37.017143 9.061935
4.796253 38.099144 10.068939
2.477253 45.145145 7.4799347
1.3772545 45.256145 5.7229385
25.082254 37.12514 15.356941
26.448256 37.915142 17.355942
19.195255 39.578144 21.496939
20.287254 40.892143 22.91194
4.8512535 37.108143 40.574936
4.9432564 36.668144 43.154934
7.831253 35.274143 48.007935
9.443256 34.901142 49.810936
37.447254 5.2371445 32.619934
35.786255 4.769142 33.686935
33.285255 6.453148 26.029934
35.184254 5.972145 25.350935
2.1152534 6.9651413 9.174934
3.2192535 7.4511414 10.92794
2.1252556 14.349142 7.890938
3.6832542 15.174139 9.001938
9.868256 41.796143 13.72094
10.114254 42.98614 11.295937
6.6342545 45.805145 5.16494
5.1532555 47.090145 5.3849335
6.807255 22.520142 22.917936
5.3112564 23.884142 22.416937
10.988254 23.991142 17.48394
12.114253 25.065142 16.26194
7.0382543 35.053143 55.949936
9.089254 34.294144 56.838936
14.625255 36.898144 52.382935
14.413254 37.823143 50.245934
20.271255 14.320143 21.481934
22.136255 13.056143 22.899935
16.814255 7.083145 18.743935
15.230254 7.6541443 19.700933
26.541254 25.307142 55.999935
27.117254 23.424143 57.457935
29.186255 26.739143 63.378937
31.028255 28.002142 62.043938
26.926254 2.6291428 43.307934
28.747255 4.0931396 44.237934
31.302256 10.951141 40.536934
29.203255 11.859146 40.719936
19.217255 66.54514 59.763935
19.089254 65.31014 61.315937
22.558254 63.623142 67.145935
23.021255 65.52214 67.977936
21.784254 61.974144 70.006935
20.306255 62.179142 68.48293
16.153254 66.68814 3.084938
14.978254 63.906143 3.2129364
27.981255 45.933144 30.727934
28.348255 43.858143 30.237934
29.716255 40.324142 24.455935
30.600256 40.880142 22.222935
1.777256 47.108143 38.780933
50.871254 48.060143 39.094936
49.754253 48.852142 30.475935
51.523254 50.362144 30.238935
25.253254 39.316143 34.476936
24.994255 38.949142 31.896935
29.809256 37.063145 28.724936
29.576256 36.799145 26.647934
10.104254 26.105143 28.552935
10.008254 27.483143 30.250935
16.161255 27.280142 33.931934
17.793255 27.415142 32.054935
18.801254 14.257139 33.268936
17.469254 12.975142 31.152935
17.938253 6.990143 32.618935
17.955254 6.436142 34.679935
45.540257 4.007141 29.962934
47.836254 4.1211395 29.299934
1.6542549 9.263145 29.691935
0.67925644 11.394142 30.071934
3.0122566 2.7161407 38.588936
4.944256 1.2201462 39.550934
2.5392532 67.78114 45.103935
3.4062538 65.80814 44.513935
9.788254 2.5021439 29.492935
11.002254 4.1161423 28.132935
9.141254 2.5831451 21.695934
10.801253 0.8641434 21.911934
8.035255 8.098145 38.235935
9.416256 7.6161423 40.299934
8.033257 0.9121399 43.113934
6.1432533 0.12113953 42.572937
40.540253 5.2581406 28.398935
40.311253 5.771141 30.559935
44.601254 7.8431473 34.019936
44.840256 8.934143 35.613934
7.649254 60.086143 37.507935
9.528255 60.919144 38.994934
10.900252 56.986145 44.685936
9.907253 57.873142 46.120934
22.007254 59.370144 27.872934
22.057255 61.728146 26.821934
28.840256 62.644142 23.618935
30.465256 60.850143 23.437935
23.604254 58.268143 16.993942
23.618254 59.390144 15.002937
