40.853374 2.7988892 62.560165
42.210377 4.5708885 63.559166
71.63437 10.49989 102.199165
73.57837 10.77789 101.05317
75.540375 20.61389 99.281166
75.56037 22.31589 99.63917
12.866375 7.8158903 75.51417
13.225375 9.269891 77.535164
17.255375 9.31789 90.52316
16.993376 7.1178904 91.088165
80.526375 35.06989 2.8921661
78.78337 35.48889 1.5321655
76.79637 0.5818901 98.37116
74.109375 0.5588875 98.22017
87.568375 46.70589 56.879166
87.498375 1.9988899 56.402164
85.99137 11.084889 48.034164
88.23937 11.322888 47.342163
9.560375 32.40589 44.940166
11.693376 32.90089 46.223164
9.693376 34.61489 59.728165
8.038375 34.99789 60.963165
6.5283775 12.69489 0.4901657
4.7323685 11.75889 102.646164
85.83837 10.542891 1.9051666
84.70437 12.34189 0.69016266
63.947376 9.759891 50.163166
62.711376 10.27989 48.696163
55.282375 19.55589 57.328167
53.299374 19.49189 56.769165
14.956375 5.60989 62.840164
17.301374 4.9668884 63.559166
13.689375 1.1608887 52.585167
11.474375 0.61288834 53.216167
29.838375 16.66389 9.562164
29.510376 14.69289 9.357162
28.485374 6.0488906 10.576164
27.205376 4.0828905 10.139168
60.783375 23.74689 3.342163
62.300377 21.97989 3.9471664
69.956375 18.65989 13.929169
72.097374 20.49489 14.4591675
88.817375 41.03489 96.95617
87.14137 39.39989 95.20316
80.60437 30.18189 102.22217
80.18837 28.87189 100.58417
44.008377 45.62289 45.731167
44.566376 0.73588943 45.632164
47.908375 9.935891 52.411167
47.765377 11.851888 53.672165
24.712376 45.06389 81.66917
23.543375 0.20788956 81.907166
31.347376 6.286888 73.69216
31.993376 5.7788887 71.46916
91.68237 44.29289 70.09416
90.53737 42.55689 69.06516
77.998375 41.217888 72.22317
77.30137 40.14489 74.143166
40.375374 6.29089 62.816166
39.263374 7.0198903 64.352165
36.294373 9.98489 50.701164
36.782375 11.830891 50.098167
24.065376 2.9758873 27.503164
25.972376 3.8258896 28.471165
31.820375 43.11589 18.196165
34.135376 43.35489 18.245165
69.93437 39.70989 42.074165
68.138374 38.81989 42.358166
77.98037 34.51889 49.936165
79.21337 34.02489 48.279163
92.23937 13.46689 61.757164
91.59837 11.54189 61.403168
82.17137 5.2858906 70.531166
83.99037 4.0928903 69.50816
28.155375 46.26589 100.73317
28.016375 46.30289 98.22017
26.384375 1.6138878 100.58417
26.573376 1.6588898 102.62817
58.498375 17.57189 6.7181625
56.941376 16.42289 8.85817
65.555374 6.7898903 3.6591644
64.43537 5.5588903 5.144165
25.942375 32.78389 54.025166
26.260376 30.54089 55.103165
21.977375 32.80889 68.20616
19.996374 33.45489 69.06816
54.735374 16.62489 42.843166
53.545376 17.80989 41.612164
40.037376 14.882891 46.521164
39.941376 15.399891 44.391167
28.828375 3.4748878 34.259167
31.043375 2.4548874 35.132164
43.953377 6.758889 37.975166
44.970375 4.8488884 37.268166
13.467376 23.82589 50.065166
13.890375 21.64589 49.951164
6.086375 23.86789 37.522163
8.025375 23.656889 36.822166
65.31037 28.80189 66.672165
64.124374 27.48589 68.493164
56.381374 17.14589 61.970165
57.821377 15.75889 63.164165
48.922375 39.53189 71.04016
48.843376 39.821888 73.27516
52.128376 43.58189 84.42716
50.467377 42.79589 86.25017
32.670376 31.69289 96.93117
32.757374 31.528889 94.88316
29.239376 44.30189 96.47517
29.402376 45.84489 95.08617
65.26637 20.53989 77.924164
66.67137 21.55689 79.712166
65.75437 31.74189 86.311165
64.96337 32.72089 88.642166
93.193375 33.063892 102.37617
94.15937 31.21489 102.59417
2.7913742 21.53589 2.5681686
3.0533676 19.85989 4.2011642
33.864376 17.56589 69.130165
35.287373 18.52489 68.31316
40.539375 21.09689 61.722164
41.819374 20.22289 63.393166
6.397375 11.04589 54.317165
7.5073752 10.210891 52.757164
21.243376 11.87689 55.915165
22.371376 9.78789 55.095165
30.460375 44.72789 83.98417
30.372375 43.40389 85.96917
33.167374 45.043888 83.463165
34.510376 43.918888 82.824165
23.222376 14.892891 41.412167
23.278376 15.802891 39.392166
17.914375 2.5998902 34.912167
16.659374 3.3908904 33.296165
41.127377 40.51889 58.060165
40.170376 40.68889 60.235165
45.638374 31.79789 67.62717
46.688374 32.83189 69.19617
14.772375 17.38989 70.31316
12.229375 17.50789 70.937164
9.9053755 30.35589 77.36417
11.729375 30.61389 77.701164
4.6993713 10.170888 34.166164
3.9163742 10.047891 36.303165
89.18237 2.1548882 33.281166
91.262375 2.1408882 34.114166
32.182373 12.09389 74.187164
31.198376 9.57289 73.504166
27.632376 5.8258905 85.799164
26.502375 6.9668903 87.83117
90.59237 20.25889 56.818165
90.34137 18.58189 55.141167
5.138378 8.63589 50.057167
6.772373 7.7278905 51.531166
12.504375 42.26289 17.480162
11.629375 44.75389 17.225164
14.717376 3.9038887 6.2181625
12.794375 4.640888 4.7371674
33.425373 33.24689 60.482166
33.711376 32.91389 57.829166
40.966377 23.69989 61.889168
41.931374 23.62389 59.966167
64.09037 19.85089 74.53816
66.07637 18.46889 74.55116
74.20337 7.7008905 72.31316
72.60137 6.87689 71.02716
11.856375 11.47189 79.59116
13.084375 11.02289 81.11417
20.213375 13.51389 89.019165
19.314375 11.64789 89.882164
45.999374 42.88889 70.40517
46.554375 40.97989 71.57017
40.048374 31.49889 71.89117
41.125374 30.14389 71.116165
44.502377 8.255891 20.068165
43.642376 8.248891 17.927164
36.972374 44.82389 17.135164
36.612373 43.974888 19.338165
4.2323685 11.792891 99.77817
1.9063721 11.10089 99.726166
82.71737 14.670891 102.213165
81.57137 16.33989 100.99817
29.586376 40.17289 44.106167
29.046375 39.04989 42.543163
39.326374 29.82889 46.341164
38.785374 28.83489 48.242165
30.796375 3.8568878 68.922165
32.303375 3.420887 70.23016
31.414375 38.88389 67.698166
30.605375 37.10689 66.367165
11.853375 19.99389 25.561165
10.117375 21.30689 24.584164
2.1263752 20.89689 34.832165
3.8173752 22.39989 36.170166
63.360374 24.212889 71.91717
63.477375 22.03489 72.506165
61.151375 12.68289 63.295166
62.968376 11.51389 62.153168
17.170376 13.889891 93.73317
17.768375 15.337891 95.46017
25.076376 15.94789 97.51517
26.772375 17.78989 97.69016
37.432377 5.2428894 62.470165
38.377377 3.3308868 61.356167
38.297375 6.991891 47.464165
39.680374 9.359891 47.574165
39.514374 16.26289 49.245167
39.130375 16.67589 51.166164
26.928375 23.93689 54.589165
25.822376 25.170889 52.822166
57.377377 12.086888 17.808165
55.951374 10.649888 15.925163
60.497375 3.1228905 6.354164
61.263374 1.4558868 6.722168
86.16937 13.292891 49.619167
84.67037 14.89789 49.142166
83.23137 23.43789 58.221165
85.58837 23.146889 58.273167
26.399376 4.0438905 31.227165
24.675375 5.2678905 32.459164
22.194376 11.073891 43.365166
23.281376 11.95689 45.397163
18.336374 43.00589 9.398163
18.380375 40.81789 9.958168
33.475376 46.44989 11.917168
33.991375 44.64089 11.563164
28.721375 17.20489 93.30016
27.450375 18.48689 95.02416
26.451376 25.62389 87.506165
27.914375 27.597889 88.06616
15.065375 19.07189 92.894165
17.138374 19.45989 91.52517
27.751375 15.81089 86.102165
27.768375 18.40889 86.18916
63.778374 0.11688995 7.0911636
63.841377 2.585888 6.7331696
74.50637 46.56089 11.935165
75.46937 44.81289 10.413162
19.473375 4.703888 91.768166
17.394375 3.2388878 90.50916
9.984375 8.13289 80.16917
10.491375 10.08389 81.98317
92.94737 44.71589 81.57017
94.109375 43.11489 80.20816
86.57137 3.281887 71.104164
86.52137 2.6478882 69.11016
92.250374 42.21889 23.593164
93.50337 40.12489 23.391165
93.97837 0.54088974 32.043163
1.3983688 0.16688919 33.401165
1.2423753 35.27489 31.995165
1.3303753 32.88089 31.894165
11.451375 25.81989 27.754164
13.202375 26.21889 28.430164
22.102375 19.64889 38.734165
20.410376 17.89689 39.606167
21.506376 18.28189 54.887165
22.517376 16.69789 55.421165
71.21137 32.56189 12.533165
70.45237 33.20489 10.516167
72.78737 26.46389 99.601166
73.68637 24.67389 100.10917
8.552372 42.99389 59.657166
7.566372 40.86789 58.189167
91.29637 46.54789 63.658165
93.013374 0.19289017 64.55817
46.725376 19.56889 73.03716
46.001377 17.75089 74.25317
40.316376 23.08289 72.55516
38.253376 23.038889 71.46017
35.519375 26.38089 11.695168
35.787373 25.96889 9.6451645
29.046375 19.89889 18.018164
29.379375 18.11189 19.66216
53.380375 43.96989 97.35017
54.320374 42.33989 99.08017
52.037376 2.361889 5.498169
50.506374 3.2008896 6.569168
62.546375 43.23489 67.29217
61.438374 41.41389 68.367165
52.524376 34.97289 61.278168
53.538376 36.709892 60.320168
54.674374 27.46189 46.994164
55.572376 27.23489 48.886166
54.008377 37.008892 57.379166
56.381374 37.987892 57.510166
74.83637 40.599888 74.45917
75.64537 42.33189 72.69316
63.618374 1.5088882 69.685165
62.095375 46.77489 69.35916
19.571375 9.55589 20.527164
17.591375 8.00689 21.574163
16.378374 6.760888 19.629164
16.277374 8.147889 17.254164
54.321377 13.75189 32.809166
52.926376 12.07689 32.628166
59.016376 9.40989 29.724165
60.506374 9.68589 28.608164
73.23237 21.96089 5.7861633
74.250374 23.42889 6.965164
85.64837 28.01089 13.555168
83.57937 27.29189 14.939163
65.43337 4.746887 79.351166
64.91037 2.6978874 78.476166
76.03837 44.06589 77.72116
76.17037 41.59389 78.33617
15.774375 42.724888 8.171165
14.364375 42.67689 10.102165
4.121375 33.76689 6.9871674
4.826375 31.84889 7.5301666
8.686375 26.31289 9.482162
8.191372 25.35289 11.540169
4.10437 31.05789 20.608168
1.9993668 30.38589 21.817167
71.47337 21.98689 100.83317
73.06637 21.89189 99.29417
73.39737 11.7408905 91.43217
72.54537 9.84389 91.25816
65.68237 43.94589 64.715164
65.19038 46.04289 65.99616
55.859375 7.3258905 64.81316
57.161377 8.501889 63.720165
47.683376 42.467888 68.12717
48.695374 41.11689 68.86217
61.644375 36.58289 70.64816
62.933376 37.841892 69.52416
37.157375 41.85889 10.956169
34.666374 42.16689 10.657166
44.325375 44.07989 10.716164
44.656376 41.47889 10.8951645
61.674374 4.0558906 79.06616
62.591377 5.5578904 79.18816
52.607376 10.86789 78.59216
50.776375 9.384891 79.58116
78.83837 14.500891 81.074165
76.94737 12.95289 81.48317
72.49137 22.14989 73.58417
70.83637 21.64289 71.34516
8.359371 22.70089 86.73016
6.362377 24.16289 85.97417
91.76637 24.63089 75.65417
90.68737 22.51689 75.40116
91.34037 7.5228906 15.3951645
92.11737 8.15589 17.599165
5.568371 15.915891 20.471165
7.505375 15.911891 19.468164
27.487375 42.245888 44.520164
26.955376 40.606888 43.361164
24.328375 38.88789 28.710165
22.466375 40.08989 28.255165
20.393375 46.52989 34.964165
19.448376 0.7578888 33.675163
14.755376 9.205888 28.027164
12.598375 9.941888 29.227165
49.154377 43.12589 98.60817
50.746376 44.63789 98.41517
56.738377 3.059887 5.8691635
56.962376 0.7938881 5.8151627
61.992374 45.83189 14.707165
62.583374 46.69289 16.534164
60.827374 33.38189 20.398165
60.932377 33.99289 18.521164
71.90337 2.0288887 98.96616
70.19937 1.1658897 98.00217
63.595375 9.113889 92.879166
61.309376 9.536889 93.34417
90.22937 21.55489 36.724163
91.25437 21.04089 38.591164
86.76137 14.6158905 47.389164
85.46537 16.36089 46.800163
29.362375 46.12589 0.37716675
31.444376 46.88889 0.33816528
32.228374 8.193891 9.772163
32.717373 10.085889 10.292168
32.212376 4.8628902 56.773167
29.778376 4.1838903 56.693165
17.948376 10.02589 63.990166
17.996374 7.92989 63.829166
50.425377 4.7598906 47.466164
50.496376 6.91689 48.413166
52.863377 13.39789 37.834164
51.920376 11.47989 37.173164
47.384377 12.127891 19.543165
46.119377 10.46889 19.207165
40.991375 5.0358906 21.425165
40.388374 3.7578902 23.668163
17.173374 38.37189 8.746162
16.675375 39.82689 7.413162
11.9053755 2.36689 2.6391678
12.851376 1.7978897 0.89216614
27.335375 20.59689 33.687164
27.887375 18.66189 33.174164
37.910374 26.35689 38.665165
38.817375 26.201889 40.288166
0.03337097 15.40789 62.257164
1.3023682 16.97589 62.265167
1.0213699 10.328891 59.723167
94.01837 10.06989 61.324165
61.150375 26.13689 22.950165
61.583374 27.12089 21.173164
67.485374 17.37389 16.744164
68.79937 16.58989 15.106164
49.960377 44.77489 23.479164
51.495377 44.71989 26.058165
46.817375 42.49189 27.558165
49.348377 43.07589 27.622164
50.831375 17.32689 50.748165
50.010376 18.35889 52.819164
38.871376 25.22589 47.615166
36.918377 24.88689 48.407166
89.00437 4.4138904 99.825165
87.37637 5.3088903 100.98517
75.943375 9.870891 98.93217
74.46737 11.43389 98.19617
11.892375 21.45689 27.759165
10.003375 20.53289 28.659164
22.547375 19.00589 31.908165
23.294374 16.60789 32.311165
29.417376 18.02789 44.011166
28.770376 16.23289 44.106167
23.112375 13.98289 56.037167
23.696375 14.908891 57.310165
71.53137 12.01489 54.993164
69.21937 10.935891 55.433167
72.72437 43.127888 59.796165
71.513374 42.870888 58.122166
15.285376 8.414891 64.20616
15.770375 6.0758896 65.575165
20.029375 45.62389 68.339165
21.307375 44.66589 70.020164
8.034374 28.833889 21.653164
6.781376 30.524889 22.286163
3.7823715 24.95289 34.665165
3.52137 25.13389 36.925163
30.909376 33.63689 62.612167
28.401375 33.93489 63.197166
25.906376 44.35489 55.066166
27.306376 45.79989 54.804165
93.45137 40.59789 5.257164
94.012375 41.82489 6.972168
88.72737 1.7638893 16.351166
87.152374 1.3688889 18.157164
38.005375 11.71189 97.990166
39.124374 9.96689 97.143166
40.695374 9.401891 84.43317
42.591377 9.41189 84.25017
91.10237 6.51289 1.484169
89.41137 7.927888 2.021164
79.79237 6.5288887 12.126167
77.847374 7.9718904 10.932167
93.165375 25.21089 82.00217
91.16937 24.95989 81.34817
81.08437 19.38789 84.61117
80.93237 21.19089 86.32117
88.04937 5.937889 82.72217
86.291374 4.6158905 81.742165
75.92737 8.553891 74.729164
75.166374 9.287889 76.96916
93.51637 45.22289 24.731165
93.32837 43.19589 25.806164
83.970375 0.9418869 33.132164
84.17537 3.0108871 33.528164
12.603375 40.95789 76.465164
10.761375 39.925888 75.21816
3.318375 37.73689 86.48016
2.434375 38.37589 88.38717
78.124374 35.04589 65.64916
76.36637 35.42689 66.72216
75.77037 34.62389 78.090164
75.901375 33.73389 79.76417
59.226376 27.18689 0.48716736
60.247375 28.38089 101.85516
62.272377 40.59889 3.8761673
62.973377 41.12389 2.0011673
44.490376 18.93989 59.790165
46.138374 17.76689 59.504166
53.568375 22.86089 71.32816
53.647377 19.92589 71.50217
25.819376 35.37389 52.779167
25.254375 37.584892 53.688168
37.793377 41.70989 59.265167
37.531376 39.80289 60.174168
56.502377 44.11189 23.604164
58.709377 43.83889 24.497164
62.376377 29.156889 25.239164
61.317375 29.07489 23.308165
14.787375 8.2408905 61.487167
13.895375 10.245891 62.856167
15.189375 16.50789 67.39117
14.840375 18.46289 67.46017
12.453375 35.47489 43.402164
13.813375 34.35089 44.820164
11.307375 36.50589 57.905167
9.317375 36.68389 57.628166
1.333374 43.83689 27.110165
1.5293732 45.80389 25.240164
94.00537 7.1678896 20.575165
92.67737 5.8508873 20.088165
62.689377 11.268891 31.175165
62.661377 8.894891 30.561165
65.18837 3.814888 38.576164
67.15837 3.2168884 39.361164
16.231375 25.22389 83.73216
17.805374 26.92889 83.198166
25.496376 16.44689 82.15217
25.050375 15.39789 84.45216
14.389376 39.446888 72.34316
12.051375 39.03089 72.98616
11.761375 38.71889 61.706165
10.756375 37.015892 60.860165
27.871376 44.49889 93.01517
26.295376 44.95589 94.71117
16.032375 5.409889 92.77817
14.586375 7.092889 93.394165
29.424376 30.66689 87.05216
30.024376 28.92689 85.896164
43.666374 26.88789 87.82916
43.859375 25.229889 86.95617
42.275375 21.41689 88.742165
40.111374 20.71989 88.84617
33.227375 18.36489 101.86417
34.997375 18.05689 0.27616882
57.495377 28.98189 49.190166
56.548374 30.045889 47.711166
56.776375 43.26489 47.241165
57.735374 44.83789 45.560165
1.1453705 44.38689 78.186165
0.4903717 46.66789 78.67816
85.02937 7.36189 73.04116
83.04637 6.0018883 72.93317
67.482376 8.28789 62.953167
68.30937 7.72589 64.298164
66.27037 18.29389 70.493164
66.247375 20.66489 69.98817
11.9973755 13.97989 23.734163
12.263375 12.38189 25.203165
22.593376 5.0728903 25.639164
24.826376 5.5368905 26.786165
31.546375 18.08989 97.324165
30.712376 17.58689 94.97217
34.546375 19.26589 88.00916
33.748375 20.49589 89.70717
68.149376 28.639889 20.484165
67.221375 27.23789 21.740164
64.15637 13.7998905 19.836164
64.833374 13.60789 21.589165
15.686376 45.58189 48.821163
14.2403755 45.52189 51.375164
22.559376 3.0158882 62.093166
23.545376 4.861889 62.188168
38.765377 13.134891 43.024166
39.994377 12.15089 41.844166
32.838375 3.3028903 42.725166
32.153374 0.93389016 42.512165
86.290375 39.22689 20.688164
87.97637 40.12889 21.831163
88.43237 46.59589 33.370167
89.81037 46.90489 35.027164
22.878376 6.2168884 18.395164
22.387375 4.465889 16.440165
21.619375 39.43189 21.444164
21.323376 38.66089 23.561165
91.51137 32.87289 59.049168
93.18337 31.77089 60.720165
6.109371 22.24389 63.299168
6.8723717 21.30089 65.116165
2.0643752 21.20489 95.670166
3.9003754 20.05589 96.021164
15.754375 21.812891 92.02517
16.314375 22.95489 90.28716
91.42437 29.73989 54.164165
92.55637 31.72089 53.077168
87.180374 43.245888 49.831165
86.18237 45.01389 50.866165
71.61737 31.73989 85.48917
69.93737 33.64189 84.87016
67.013374 23.14089 76.96616
65.18537 22.17689 75.837166
79.17637 12.9578905 94.521164
81.16137 12.28189 95.37517
90.86837 21.83389 92.76217
92.42337 22.656889 94.47517
16.868376 25.580889 49.468166
15.861376 24.45489 50.850166
22.884375 28.26289 51.866165
25.146376 27.66189 52.028168
68.95937 22.66989 42.254166
69.32737 24.68889 43.215164
76.692375 32.04789 44.617165
78.26737 33.60489 43.508163
58.390377 9.36689 75.700165
59.020374 11.11189 75.492165
63.868374 6.33789 87.09817
63.920376 7.3018904 89.71616
2.6773682 1.2488899 78.962166
4.517372 0.6858902 77.046165
88.00437 4.9268875 69.535164
88.05237 6.9038897 69.90317
51.327374 22.77389 40.295166
53.124374 20.77489 39.834164
41.101376 14.526891 42.065166
40.201374 16.52289 41.836166
0.5833753 38.84389 70.72317
1.2243754 36.93589 69.893166
14.389376 34.87989 73.77616
14.353375 32.93589 73.13416
92.84937 24.83589 35.676167
92.083374 22.62289 34.977165
4.42437 22.57089 22.750164
3.0633698 23.58889 21.320164
28.588375 16.28389 17.842165
29.658375 14.99789 19.459164
30.492376 20.47189 24.038164
31.245375 22.07589 23.344164
69.012375 43.61589 31.608164
70.01637 45.54989 32.841164
65.64337 42.11989 43.107166
66.552376 41.953888 45.139164
12.399375 36.33189 89.771164
11.808375 37.66089 88.14816
10.835375 44.60189 77.575165
8.717375 45.17389 77.39716
89.60637 22.38089 84.83317
88.14737 22.34389 86.23517
89.554375 31.43289 80.35616
89.56037 33.87989 79.83016
9.607375 28.42489 8.007164
7.915375 28.559889 6.680168
17.417376 35.30189 1.3041687
17.823376 36.99889 2.0141678
91.400375 7.4008913 100.80417
90.74137 5.182888 101.89117
5.1463737 43.58489 94.698166
6.2543755 41.69589 95.521164
22.069376 3.0828903 2.6991653
21.464375 4.5008903 4.3621674
18.653376 10.03789 93.23717
20.054375 8.67689 91.616165
47.721375 13.46189 90.62317
50.155376 14.03789 89.868164
49.294376 16.17989 75.94416
50.823376 14.266891 75.590164
71.74037 40.70689 98.68117
72.750374 38.80989 98.96917
78.10137 32.12089 102.632164
77.332375 29.833889 102.325165
82.60037 20.28389 18.119164
82.89037 18.47689 16.430164
93.03737 17.94089 22.528164
0.16136932 15.915891 24.226164
51.738377 32.84789 99.54117
53.867374 34.10889 100.42917
60.269375 28.12389 90.712166
61.064377 27.45289 88.38516
52.121376 35.62489 73.684166
54.353374 34.58589 72.57017
56.874374 26.67989 70.895164
57.955376 26.521889 72.96017
34.658375 2.4688873 98.52216
36.285374 3.2998886 99.173164
45.041374 41.33989 95.23116
46.258377 39.96289 96.476166
53.492374 30.27289 88.214165
53.438374 29.48089 85.25317
47.790375 20.67889 88.936165
47.920376 21.75989 91.24917
83.20037 29.76689 77.70516
81.83937 28.50889 79.37416
76.45937 21.08389 85.63917
77.833374 19.71689 84.25317
84.14837 15.694891 8.504166
86.92737 15.27289 7.4281693
92.60237 8.6818905 0.3711624
93.66037 8.56589 101.44116
0.08136749 34.10689 77.255165
94.317375 33.098892 75.25217
2.3913727 34.03489 63.919167
2.8953705 35.71189 65.200165
16.546375 30.95289 100.742165
14.728375 31.32989 101.69417
21.446375 25.08989 11.913162
20.161375 25.646889 13.373169
6.0703754 2.32889 65.325165
4.9473753 3.0758903 67.08316
7.7103753 13.43089 73.91616
8.551375 15.634891 73.30316
37.986374 12.63889 101.354164
36.047375 13.368891 101.69217
32.204376 14.13389 8.192169
32.877373 13.19789 10.523163
72.194374 44.74489 31.604164
72.789375 44.97289 33.962166
68.27338 2.2758904 37.276165
69.818375 3.5148888 35.472164
56.232376 37.494892 78.811165
56.236374 38.49389 81.01117
63.660374 2.4178886 81.44116
65.00737 1.73489 82.46117
17.507376 28.57789 62.675167
16.061375 27.40089 63.924168
20.164375 24.69589 50.319164
21.793375 25.951889 51.226166
56.794376 21.35489 26.830164
56.045376 19.44989 25.653164
60.843376 13.92589 16.445164
61.400375 13.811891 18.491165
47.542374 43.03389 42.319164
48.980377 45.09789 42.553165
40.657375 45.925888 30.768164
40.870377 44.10289 30.349165
38.213375 1.5668869 36.293163
37.841377 46.57089 37.050163
46.930374 37.21089 40.703163
49.053375 36.72889 39.317165
47.762375 9.95689 36.240166
46.622375 10.99789 38.435165
44.237377 6.39689 34.992165
45.311375 4.2438903 34.418163
81.60737 3.5068893 33.972164
80.37837 5.0068893 32.244164
89.55137 3.4828873 21.392164
90.40837 1.5828896 21.755165
48.943375 10.67889 78.296165
50.441376 11.49689 76.77416
56.660374 10.87689 66.090164
58.629375 10.86189 64.91116
39.029377 7.2928905 67.34516
40.993374 7.7538905 67.062164
47.407375 13.8398905 76.06816
46.103374 12.38789 76.575165
6.285375 2.1638901 16.734165
7.744375 3.6958902 17.388165
13.646376 9.884891 24.924164
11.577375 9.868891 26.234165
14.238376 2.7628899 45.865166
13.810375 2.9938889 48.257164
25.640375 46.01789 52.756165
23.987375 44.38589 52.314167
33.127373 32.85789 10.542168
32.905373 33.27489 8.059166
23.809376 23.57889 11.473167
23.336376 21.71489 11.323166
10.2473755 43.97889 20.621164
12.356375 45.06889 19.756165
19.859375 39.43689 28.706165
20.650375 37.57989 28.257164
10.259376 14.939891 18.702162
12.313375 16.30289 19.471167
18.096375 28.13189 13.743164
16.730375 30.11789 13.097168
51.584377 2.9168892 79.324165
53.514374 3.5658875 79.240166
62.653374 4.606888 83.089165
64.28037 3.0928879 84.55116
20.234375 18.68189 34.986164
19.250376 17.64889 36.515163
7.062375 11.57089 33.976166
6.858375 10.231891 32.243164
42.391376 44.48489 101.20917
43.534374 45.300888 0.06816864
48.239376 5.2688904 6.8721695
48.667374 7.4148912 6.4051666
60.808376 11.60789 56.214165
62.563374 12.1748905 57.686165
67.17638 23.326889 62.402164
66.32537 25.41289 62.713165
1.1233673 10.38589 96.71716
2.2863693 8.6158905 94.72417
92.26437 19.46589 87.936165
90.78737 20.85689 86.66717
54.000374 34.44289 14.259163
56.015377 33.37989 14.214165
47.221375 21.90589 12.961166
46.670376 23.54689 11.780167
10.184375 5.649887 16.966162
9.832376 3.9758873 15.028168
19.538376 1.8678894 5.8931656
18.584375 3.684887 5.441162
33.406376 9.63689 69.59316
32.745373 7.63989 68.66416
22.401375 12.18389 60.425167
21.673376 13.59789 62.063168
20.202375 25.33589 1.6241684
20.607374 23.17989 1.2321625
17.256374 11.132891 3.4631653
17.763374 9.396891 4.1551666
65.61737 26.79789 72.03916
64.10638 28.13489 71.13416
62.687374 33.69089 84.68317
64.40437 34.24089 86.241165
41.144375 34.88489 89.98317
41.704376 35.16889 92.25916
33.227375 44.863888 99.13516
33.898373 45.73289 101.66316
36.132374 43.59389 14.458168
35.848373 46.04489 13.532166
40.415375 43.33289 3.3901672
41.988377 43.65989 1.5411682
42.845375 33.39189 48.509167
41.165375 31.91989 49.944164
29.718376 30.44989 54.429165
28.535376 28.809889 55.736164
27.519375 39.717888 26.764164
26.118376 41.15489 25.225164
17.348375 46.40589 31.512165
15.317375 44.59089 31.097164
42.344376 20.53389 31.922165
42.756374 18.45289 32.673164
44.356377 8.99989 24.001163
42.913376 9.20889 22.227163
49.598377 9.016891 32.653164
48.424374 11.06089 33.063164
46.218376 17.65789 22.089165
45.083374 17.00789 20.325165
36.048374 0.48588943 17.795164
34.905373 46.11689 18.484165
23.482376 2.1888885 25.105164
24.704376 3.6358871 24.548164
75.09037 39.54689 80.754166
74.666374 41.46689 80.77416
65.46638 38.52589 70.99416
65.36537 36.08789 71.686165
8.161375 34.29189 63.748165
6.8343754 33.11589 62.814167
10.218375 23.972889 52.667168
11.726376 25.33589 51.733166
44.640377 38.21589 31.218164
46.656376 39.425888 31.594164
48.070374 3.6148872 33.694164
47.403374 5.7778893 33.341164
65.344376 3.9338875 87.48517
63.718376 4.2098885 88.95817
72.31537 43.51889 96.521164
73.34137 45.22289 97.37717
70.401375 1.61689 83.15317
68.47337 1.597889 82.117165
78.21337 45.925888 72.72317
76.63437 44.65989 72.713165
55.172375 15.74989 88.50117
54.762375 17.59989 87.39017
56.772377 26.49689 96.34216
57.015377 28.61789 95.60917
77.54637 16.98289 22.338163
77.56337 19.17189 21.660164
75.89337 17.67689 34.801167
74.86837 17.46089 36.313164
33.308376 36.32189 60.744167
35.577374 38.25689 60.325165
45.389374 30.00489 64.96017
45.775375 29.23389 66.85516
82.22637 37.987892 90.80717
80.39737 38.76589 89.02617
69.43337 34.77789 88.52416
68.39738 32.54789 87.21616
41.746376 7.241891 83.004166
41.125374 5.715889 82.09316
37.587376 5.56789 96.115166
38.458374 4.489887 97.68017
88.83537 35.31789 35.102165
86.87937 34.80089 36.400166
87.21837 24.771889 33.817165
88.64137 22.93089 33.977165
46.463375 12.223889 22.126163
46.459377 9.87489 22.508163
56.211376 0.76288986 25.206165
55.550377 45.67489 25.651165
35.089375 6.1238904 11.454163
34.627373 7.7888904 11.240166
38.068375 15.5498905 1.1591644
36.532375 15.56789 2.6261673
47.373375 33.82289 71.87617
48.927376 33.67989 70.50317
49.682377 22.82289 60.872166
50.914375 23.99189 59.012165
67.84037 26.00989 60.203167
69.16337 25.66989 58.116165
68.73138 39.44389 59.506165
69.81037 40.10389 57.875164
18.898375 37.494892 70.01316
20.123375 38.73489 68.18317
21.981375 34.61789 55.495167
23.126375 36.10189 54.107166
46.999374 45.56789 8.710167
48.038376 43.88289 8.6831665
58.677376 45.79889 5.8601685
59.451374 0.36288834 5.2721634
19.573376 22.444891 95.464165
19.652374 20.67989 97.32217
7.343375 15.090891 101.75916
5.4743752 15.49289 102.80317
28.490376 21.95389 23.014164
26.391375 22.95289 22.782164
29.616375 14.43089 29.969164
28.599375 15.07089 32.222164
1.2293701 45.88989 7.6531677
93.63337 45.49889 6.3571625
83.58737 6.104889 13.416168
84.61437 8.293889 12.85817
69.539375 22.903889 76.83216
68.50537 21.06389 75.62416
74.93537 9.889891 79.604164
75.08437 10.436891 81.87417
15.706375 31.42989 74.77416
14.521376 31.72089 76.91516
26.875376 38.05389 81.325165
26.091375 38.12589 83.394165
62.119377 11.99489 93.007164
61.954376 13.86789 93.309166
58.488377 21.63189 1.4521637
58.140377 23.684889 1.5141678
74.137375 25.35389 27.500164
72.28037 25.66489 28.263165
81.27837 33.26389 33.883163
81.944374 34.26889 31.739164
71.00437 44.34589 22.537165
70.62237 41.90189 21.596165
73.08837 30.72389 17.665165
73.16837 31.49789 15.641164
72.39037 38.85489 43.395164
74.220375 39.043888 43.090164
84.02937 41.27189 50.866165
85.78437 40.86489 49.284164
59.340374 21.21289 41.465164
61.678375 21.58789 41.421165
54.145374 32.133892 36.773167
54.550377 33.59489 39.021164
35.827374 41.39889 74.05717
36.538376 43.21289 72.50217
47.140377 2.701889 66.19517
47.254375 4.6088905 67.81816
12.1223755 46.300888 32.041164
11.794375 46.488888 30.003164
4.3333755 0.4418869 31.622164
2.989375 1.7008896 31.532164
83.42737 17.82089 20.067163
81.75637 15.826891 19.498165
88.72937 3.7638903 18.628164
90.84237 4.1978903 18.568165
34.081375 36.97589 4.809166
33.671375 34.81089 5.2191696
39.026375 21.76489 2.1661682
39.211376 22.56189 102.78917
69.64937 34.92889 71.046165
69.20037 36.411892 69.698166
78.24737 46.03889 70.18217
80.48137 45.300888 69.674164
79.96037 34.46989 70.89916
77.80037 34.06289 71.83016
73.51937 37.81789 78.781166
74.04337 35.70089 79.85516
4.975376 19.68889 63.071167
3.0783691 18.37989 64.05717
87.18537 29.12789 61.397167
86.50637 30.52089 62.781166
43.860374 34.35989 89.09517
45.690376 34.71289 88.01517
47.098377 23.941889 90.35817
45.466377 25.54189 89.89816
56.064377 13.23089 5.9371643
54.185375 12.198891 5.154167
49.933376 4.27089 9.626167
50.567375 2.2658904 10.059166
46.913376 19.96789 37.516167
45.082375 20.14989 38.491165
50.391376 27.63889 42.572166
49.421375 29.29089 43.001163
24.218376 26.42489 18.283165
25.052376 26.60889 20.245165
13.360375 23.79489 27.082165
11.596375 23.507889 25.745165
28.415375 38.54889 24.204165
30.072376 38.86489 25.515165
38.423374 0.9738884 24.509165
40.881374 1.0868874 24.137165
94.16837 37.19089 2.3271637
0.42536926 37.591892 0.45516205
94.45937 37.51389 89.87417
92.54237 37.10489 89.26117
72.67437 21.97189 9.458168
73.53737 23.53089 9.748169
84.43937 19.79289 8.859169
84.67537 17.79789 10.276169
62.753376 23.774889 87.34417
63.519375 23.167889 85.14816
74.32137 18.74489 84.48717
73.49737 20.51589 84.39017
29.897375 33.31989 36.427166
28.113375 32.93489 37.635166
35.036373 27.74689 46.327164
34.334373 25.48189 47.467163
11.571375 17.67089 66.298164
12.583375 16.84689 68.14017
14.035376 6.5238905 73.55216
13.237375 4.8458905 74.20316
44.972374 21.85189 10.472168
42.234375 21.10389 10.922165
40.995377 29.95789 5.4971695
39.271374 30.583889 3.887169
44.469376 19.46689 21.781164
42.911377 20.97189 21.954165
47.483376 32.76289 19.363165
47.969376 34.56889 20.791164
19.435375 38.32689 7.4031677
20.631374 38.56689 5.942169
33.895374 37.820892 7.2231674
33.352375 36.01989 7.9051666
66.62937 43.34689 89.14816
65.663376 41.54989 90.60017
67.86938 45.52789 97.45316
65.788376 43.68189 97.837166
93.78637 8.335891 97.48317
92.42637 9.486891 95.77917
92.90537 19.60489 91.74817
93.49237 21.38189 92.36417
56.611374 36.52589 73.77817
55.350376 35.33889 75.09216
58.972374 23.71489 74.72517
60.794376 22.80089 73.67916
35.698376 6.8078904 77.951164
37.905376 6.5918903 78.19316
35.950375 14.94789 70.326164
36.372375 16.10389 68.69416
71.83837 12.95889 97.892166
72.24537 10.63189 96.87116
58.883377 8.891891 98.42516
56.789375 9.889891 98.26517
56.494377 39.79289 101.75317
58.820374 39.33189 101.82916
57.665375 7.0588884 100.781166
58.676376 5.909889 99.10017
-0.54662484 2.953888 65.13416
0.5293754 1.0728874 65.80817
11.116375 0.538887 74.80416
13.1483755 0.18388748 73.25217
44.750374 32.74889 41.526165
44.336376 35.04289 41.366165
32.469376 33.95489 37.338165
31.816376 35.34789 39.065166
81.887375 33.66989 28.895164
82.11937 31.660889 29.891165
87.819374 21.03889 29.942165
89.72537 21.60789 30.406164
14.033376 9.462891 18.058165
13.9053755 9.601891 15.364166
17.425375 22.42689 12.190163
18.131374 22.69689 10.184166
57.832375 14.561891 73.93016
59.262375 15.689891 73.04217
62.794376 7.29789 65.85916
64.45937 5.3168902 65.91316
17.509375 10.566891 61.344166
17.461374 12.74689 62.563168
10.077375 18.753891 52.726166
11.1223755 18.85189 50.319164
22.661375 2.22089 38.410164
21.195375 0.5358887 37.345165
10.135375 44.87589 43.000164
9.161375 46.65489 44.047165
13.782375 30.49689 30.754164
14.743376 28.969889 32.122166
13.4973755 30.20389 43.992165
12.128375 30.22389 45.692165
86.79437 45.72989 1.507164
87.94937 43.62589 1.9261627
3.9403687 40.342888 96.24917
3.731369 39.40189 93.82217
89.735374 18.11289 52.177166
89.31637 19.92689 51.265167
6.4363747 21.10289 56.396168
7.513378 19.45789 54.749165
38.417374 44.34489 30.998165
38.008377 41.918888 31.349165
41.082375 38.60889 32.049164
40.681374 38.05789 29.953165
30.415375 33.31989 82.170166
31.128376 31.46389 80.714165
23.553375 31.46789 69.98416
24.601376 32.52889 68.87416
30.952375 6.7308903 16.860165
33.174374 7.7498903 17.153164
27.752375 10.12889 28.177164
25.528376 9.248891 28.453165
53.890377 44.86489 27.810165
55.552376 45.67989 28.328165
59.999374 42.76889 39.464165
59.256374 43.27789 41.717163
2.5863724 8.58889 81.463165
3.6603699 10.32689 81.407166
92.90437 15.99489 71.16116
90.82537 15.776891 70.02716
82.99637 34.11489 37.815166
81.402374 34.43589 36.160164
67.22637 33.47989 37.989166
66.84937 32.82189 35.471165
56.627377 37.12089 102.27216
56.291374 35.69489 1.0791626
49.049374 40.83489 9.207169
47.522377 39.98589 10.326164
47.268375 2.7308884 84.504166
46.745377 5.5428886 83.82017
40.491375 7.1278887 96.295166
40.719376 7.9648905 98.10716
81.79637 28.889889 75.076164
83.56337 27.55689 75.80216
72.02237 22.253891 79.464165
70.65437 21.03989 78.743164
68.07838 27.48589 63.023167
67.541374 28.49989 61.177166
66.096375 41.93689 61.009167
65.93537 41.57589 63.034164
77.43437 12.019891 91.05617
76.35737 11.038888 89.934166
81.36237 0.2768898 96.421165
81.70037 45.00689 95.51317
7.559376 0.22789001 58.821167
5.166378 0.5968895 59.619167
2.0723724 4.8518867 49.247166
1.5863724 3.420887 48.078163
12.250375 32.112892 68.507164
10.494375 31.896889 67.269165
9.213375 20.93289 67.58116
10.759376 19.61989 68.017166
84.46437 4.5118904 38.204166
84.89237 2.4688873 39.711166
85.845375 39.36089 43.452164
83.96437 39.33889 44.559166
16.079374 41.74989 73.962166
14.3063755 42.106888 72.56316
10.908375 4.53389 63.758167
11.980375 6.2998886 63.188168
65.44937 9.80189 23.988165
64.71537 7.4168906 23.185163
57.815376 9.292891 35.252167
59.800377 10.82189 34.749165
16.744375 21.97589 87.97517
16.059376 19.74189 88.94116
18.287374 19.52289 76.31616
17.850374 20.06189 74.174164
76.46137 6.765889 5.0041656
77.47637 7.231889 7.182167
89.09037 2.5638885 102.296165
88.762375 1.1408882 100.852165
67.56337 41.04989 56.764168
67.11938 42.40789 55.411167
69.73737 6.876889 50.680164
68.59037 8.502889 51.590164
94.443375 17.50489 28.755165
0.9033737 15.91689 27.925165
1.1553726 3.6588902 32.376163
0.027374268 2.6298902 30.702164
91.23237 2.9968903 61.530167
91.83937 5.4588904 61.257164
88.71537 9.757891 71.477165
86.416374 9.04889 71.199165
61.117374 3.045887 88.406166
60.859375 3.6458893 90.410164
51.249374 44.72889 95.910164
49.099377 43.46389 95.91417
30.835375 8.24889 13.815163
33.275375 8.64089 14.678169
45.474377 14.856891 15.896164
47.519375 14.82289 14.218163
60.753376 35.42589 73.31816
62.993374 36.67089 73.434166
71.81437 30.35689 82.04117
72.734375 28.73389 81.05417
46.306374 22.02789 58.904167
44.416374 21.59389 59.034164
42.830376 33.084892 54.811165
44.788376 33.93789 54.114166
89.722374 13.13389 12.063164
89.09837 10.9248905 13.193169
79.82237 9.19289 13.827164
81.762375 8.24189 13.462166
37.493374 1.2048874 59.694164
35.781376 46.86689 61.176167
46.149376 41.78489 65.894165
47.517376 39.87389 66.96017
7.5133753 33.96189 23.099165
8.511375 35.633892 21.789164
17.757376 35.24289 12.425164
16.235374 36.55989 11.328164
7.9213753 35.95889 42.246166
9.862375 36.71189 42.985165
6.8413754 42.238888 54.994167
8.706375 42.60289 56.116165
48.488377 14.094891 16.630165
49.285374 12.16389 17.420164
58.895374 13.05189 25.046164
59.528374 14.55589 26.409164
49.189377 9.295891 95.506165
48.604374 11.7408905 95.87717
36.768375 13.752891 96.910164
36.313374 14.35589 98.98116
9.456375 40.88189 20.216162
9.955375 42.08789 18.688162
5.187375 34.26989 10.211166
2.466375 35.04589 11.065163
0.90437317 32.43489 19.81516
94.00237 30.86489 20.687162
3.2343674 28.68689 6.3461685
5.305378 29.042889 7.515167
21.561375 22.86289 71.67916
24.071375 22.36589 73.02216
27.325375 28.382889 85.27316
25.521376 27.29489 85.87317
34.009373 6.4928894 55.914165
33.389374 5.31789 53.662167
33.266373 45.89589 44.462166
34.605373 0.004890442 42.841164
49.598377 34.80389 25.142164
49.599377 36.61389 26.290165
60.237377 43.18489 30.877165
60.121376 44.00489 28.854164
10.088375 38.87389 22.688164
10.429375 37.55989 24.535164
16.363375 37.93989 31.576164
16.680374 40.10489 32.836166
11.312375 6.49189 1.3671646
12.727375 4.74889 0.8381653
16.154375 4.989887 3.4571686
15.938375 7.1228914 2.592163
70.90737 25.89789 25.569164
69.846375 25.34989 27.048164
64.16138 11.27089 28.840164
65.415375 8.93889 29.237164
92.123375 36.01189 78.05416
90.15937 36.91489 79.115166
77.57437 40.175888 81.23717
78.54337 41.55489 79.76316
49.613377 15.25689 52.985165
51.038376 14.429891 51.161167
55.130375 14.31789 63.267166
57.053375 13.292891 63.362167
62.172375 41.88889 71.39117
61.508377 43.91289 70.27316
50.524376 46.87389 78.77917
49.828377 1.3688889 76.88917
59.470375 39.13889 39.047165
58.119377 40.55889 38.943165
48.574375 39.65789 28.880165
48.673374 37.60789 29.293165
49.318375 7.0098906 15.892166
48.213375 8.27789 17.306166
36.180374 5.16689 15.917168
35.554375 6.4188905 14.2471695
57.860374 29.14389 100.283165
57.822376 28.830889 98.19317
62.477375 39.60789 102.174164
61.138374 39.97689 100.032166
34.256374 39.79889 5.1711655
35.044373 40.59889 6.9851685
46.593376 35.24689 101.31316
46.750374 36.37589 99.201164
10.617375 42.37989 43.359165
12.976376 42.56689 44.379166
15.693376 32.869892 43.657166
13.583375 32.37789 42.760166
25.476376 42.42489 53.402164
23.369375 41.66789 53.354164
24.018375 46.571888 66.449165
22.578375 1.1588898 65.46716
31.990376 17.87489 55.184166
31.204376 19.28589 56.059166
27.069376 24.028889 65.812164
27.719376 26.295889 66.89716
11.642375 11.10789 76.295166
10.0303755 11.73289 77.41316
6.845375 7.9548903 84.73116
4.806375 7.1388903 84.80116
19.013374 30.63189 14.944168
20.706375 31.09289 15.448166
25.406376 26.61489 14.301163
25.914375 27.93589 16.527168
31.763376 20.64589 71.59616
31.754375 22.86089 72.326164
39.795376 21.63689 64.325165
38.672375 19.77389 65.76517
1.7603683 18.17689 1.446167
3.3143692 16.61489 1.1671677
93.99237 5.7688904 11.778168
93.82337 3.8598902 10.098167
41.195374 33.931892 94.519165
39.026375 34.32389 94.046165
29.241375 39.35389 97.298164
27.009375 38.33789 96.74616
84.14937 45.85189 59.691166
84.33537 45.15589 57.973167
81.07337 34.52689 67.562164
79.91037 36.51289 67.60516
5.4653754 8.80189 96.58217
6.5773754 10.12289 98.67817
15.184376 15.854891 92.826164
14.357375 16.753891 91.44717
53.077374 45.06589 87.491165
51.590374 43.31089 88.52216
64.79237 42.58789 86.87016
65.637375 40.51889 87.99817
13.036375 29.712889 72.395164
12.063375 31.43989 73.61417
0.082375355 24.451889 72.95216
-0.2276246 23.00989 71.44416
28.942375 39.19289 83.00816
30.399376 40.61989 84.31516
38.977375 33.091892 90.26517
37.275375 33.03389 91.74416
83.42637 16.22589 6.005165
85.20537 15.50489 4.552162
0.23937225 21.04189 2.1901627
0.26937103 20.64289 102.77517
4.6163754 18.69589 70.99716
6.549375 17.54689 71.84416
11.190375 25.92989 81.36217
10.641376 24.55689 83.10917
10.855375 27.25189 4.049164
9.922375 24.91889 3.085167
3.3593752 19.80389 0.34616852
2.2803752 19.84689 100.824165
38.000374 12.21889 87.382164
39.452374 13.33889 85.715164
31.814375 12.929891 78.312164
31.740376 13.78189 75.98216
25.216375 44.89489 49.917168
24.653376 44.61989 47.741165
31.526375 7.210889 51.222164
34.393375 8.10489 51.093166
91.34237 40.97789 71.241165
91.625374 39.29689 71.60716
87.84037 32.22589 65.462166
86.123375 33.001892 64.02616
65.63137 7.633889 18.963165
65.47837 6.6058893 20.927164
75.24737 44.19189 23.569164
77.095375 45.29889 22.685163
7.7473755 24.95489 1.7851639
8.641376 26.25689 0.061164856
3.8653753 22.42289 89.91617
5.227375 23.097889 88.10917
87.22737 32.57189 33.402164
89.26937 33.24889 33.713165
93.49437 23.66289 42.361164
93.03637 24.06189 44.786163
30.616375 45.13689 99.895164
31.483376 44.58189 101.83317
40.255375 42.39189 101.15517
42.260376 41.800888 100.57017
82.49337 31.83489 42.867165
80.51737 31.39389 42.719166
73.19737 21.82589 36.929165
71.09237 21.72689 35.431164
68.50938 18.44689 102.41517
67.777374 18.81089 1.5991669
57.691376 11.802891 4.0981674
58.306374 9.90789 3.4531631
46.659374 41.42789 12.592163
47.182377 43.53689 11.474167
47.642376 36.79289 19.48216
46.539375 37.24789 21.583166
78.47737 26.48289 99.479164
78.56137 24.18989 100.548164
78.19737 32.85889 2.4241638
80.52937 32.64289 1.8481674
7.3923755 9.83189 49.646168
8.654375 11.250891 50.403168
10.166375 22.56889 49.865166
8.874375 21.67289 51.816166
93.96137 32.88089 96.546165
92.276375 31.677889 95.08317
92.956375 34.92889 84.19016
94.36237 36.05789 83.118164
80.26837 10.342891 21.23216
77.71237 10.69689 21.48216
76.21837 0.7108906 13.765167
78.16037 0.8218902 13.198166
28.408375 3.229889 14.595164
26.738375 4.7408905 15.541164
37.033375 1.8368874 21.988165
36.765373 46.74189 20.325165
56.891376 45.724888 21.360165
56.635376 1.2438889 22.332165
63.567375 46.08489 29.632164
61.783375 46.15389 31.499165
88.623375 6.5118904 95.31917
88.39537 6.8988905 93.393166
83.55137 7.7098904 86.41717
83.72837 5.9068904 84.698166
74.22537 18.42289 41.368164
74.609375 17.40889 39.499165
83.46837 10.31989 46.325165
85.69837 9.56389 45.794167
49.150375 5.20689 53.198166
47.972374 5.515888 54.699165
49.250374 4.371887 57.415165
50.403374 4.5498886 55.587166
87.32837 24.618889 31.083164
89.846375 24.01289 31.451164
93.14337 31.38589 23.714165
92.06337 29.965889 22.248165
38.890377 18.92489 41.822166
40.842377 19.47189 41.875164
41.935375 15.68389 51.635166
43.368374 16.72289 53.017166
50.697376 5.9088902 50.982166
49.982376 7.4478903 51.703167
52.981377 18.38989 46.838165
51.501377 16.39589 47.509167
41.160374 6.08889 24.591164
43.083374 6.4788895 23.284164
48.806374 41.446888 25.241165
48.687374 39.20889 25.793165
35.089375 6.3688903 96.16316
34.927376 5.2298903 97.89916
29.800375 13.01889 1.5111694
29.063375 14.23089 0.2551651
1.2393723 36.74089 24.170164
3.6573715 37.03289 24.269165
94.00837 41.48389 37.396164
93.527374 43.30189 38.164165
49.002377 41.35189 64.92816
47.554375 40.83889 63.113167
40.757374 36.51389 57.629166
38.862377 37.00389 57.411167
6.8083763 7.82389 91.74917
7.1883736 9.113891 92.88817
2.3833694 19.32889 97.95617
0.16937256 19.40089 98.50017
88.70937 7.6548905 45.929165
88.39737 9.67189 45.054165
87.11237 3.5138903 35.204166
85.249374 4.8418903 35.614166
74.901375 23.972889 32.213165
75.54337 24.23089 29.759165
83.42137 20.68389 20.808165
85.14337 21.70589 19.755165
17.469376 28.66589 85.31516
19.384375 28.323889 84.74917
20.674376 25.33489 72.881165
22.319376 25.97889 72.64117
25.072376 16.49189 100.76016
22.951376 17.39889 101.78017
21.188375 19.70089 11.552162
21.235374 21.60789 9.509163
54.088375 32.74689 34.154163
53.865376 31.15889 32.901165
57.741375 18.83689 29.179165
57.344376 16.378891 29.399164
50.920376 39.58189 57.444164
48.990376 41.01989 57.383167
51.461376 2.7448883 49.545166
51.113377 3.09589 51.624165
80.11737 10.73289 76.159164
78.694374 10.45489 74.91416
87.49237 16.64289 71.52416
87.09437 15.73289 69.41316
10.575376 24.14389 85.84717
9.099375 25.42489 85.10917
1.5893754 26.31189 95.66817
-0.9336249 25.56489 95.03017
78.84337 12.917891 85.38416
78.25337 12.200891 87.54217
82.48237 2.5558903 87.29417
82.69737 3.5778904 89.257164
65.88037 5.94989 29.449165
68.177376 6.3018875 28.718164
66.46738 3.6538887 17.938164
65.86737 3.066887 15.753164
91.68437 30.88689 82.380165
91.31237 28.77989 82.768166
0.48737335 21.42689 88.80817
92.81137 21.52489 89.771164
54.858376 7.0108905 67.36116
54.484375 9.07289 66.54317
43.266376 16.89789 63.984165
43.562374 18.95889 65.339165
50.279377 19.59589 74.68816
49.300377 17.96789 73.71916
41.570374 20.71189 66.51116
40.059376 21.03589 68.021164
85.91137 44.46889 23.063162
86.416374 42.25389 21.959166
84.62037 34.76789 9.079163
82.43137 35.82589 8.930168
15.098375 9.3588915 47.799164
15.811376 9.114888 45.230164
9.258375 45.96589 39.943165
7.8153753 46.64389 41.794167
77.40837 15.330891 59.022167
79.07337 15.069891 60.466167
91.13637 16.76889 66.449165
90.75837 14.47989 67.57816
41.279377 42.78289 80.032166
41.170376 41.42389 81.64716
52.769375 34.806892 76.13516
54.253376 35.23189 77.367165
30.442375 35.48689 2.2941666
30.963375 34.41489 4.465164
17.476376 32.58389 10.807167
16.619375 34.036892 9.671165
63.668377 9.98789 16.283165
62.827374 11.856891 16.093163
63.948376 20.01689 5.3261642
64.19537 19.08189 3.2391663
37.577374 32.105892 35.028164
37.448376 32.64889 32.579163
33.618374 44.00489 40.482166
35.692375 44.06889 41.560165
72.07537 35.46089 10.226166
73.23737 33.04389 10.501167
71.78037 35.47789 100.96716
72.72337 35.06289 98.81316
33.265373 36.97089 65.48216
33.890373 38.85989 66.89017
25.564375 1.9608879 66.92916
24.215376 3.4178886 65.87016
72.21037 25.79889 10.822166
71.095375 24.396889 9.629166
63.033375 28.65289 18.598166
63.397377 31.21689 18.83016
0.420372 33.71389 60.077168
1.6993713 32.38189 61.044167
5.675373 22.81289 60.502167
7.9003716 22.194891 60.162167
80.56037 22.76589 98.298164
82.49237 21.60189 98.40017
94.21837 18.02189 100.603165
94.331375 16.36889 102.65517
21.517376 18.437891 73.380165
23.284376 17.12289 74.35716
29.425375 14.84389 82.644165
28.169374 16.94289 83.326164
27.873375 33.28589 93.896164
26.245375 32.50489 95.198166
21.405375 25.30889 101.825165
20.923376 24.021889 100.01617
62.399376 7.8968897 62.811165
62.350376 5.9078903 63.282166
65.775375 44.36689 61.963165
67.93938 44.41789 62.665165
79.833374 43.56689 26.551165
81.73237 43.51589 27.572165
81.18637 38.529892 37.246166
81.50737 36.88289 35.092163
15.583375 6.5868883 5.745163
14.627376 8.29889 6.7801666
23.269375 5.0068893 13.813164
24.661375 5.654888 12.062164
79.20337 18.01789 86.47317
78.37037 19.77089 87.257164
74.99737 23.93889 97.101166
73.29837 25.726889 95.88717
7.731375 41.88689 42.420166
6.989375 43.41689 40.951164
14.936376 45.99889 33.521164
17.204374 46.06989 34.051167
70.60037 28.56489 70.838165
71.72637 26.719889 69.80216
79.165375 22.11189 68.031166
76.88437 23.30489 68.325165
37.238377 12.86189 46.240166
37.686375 10.85389 48.066166
26.352375 9.632891 46.557163
24.246376 10.22089 47.495167
72.85137 34.17789 85.92616
72.15537 35.77789 87.06316
82.59337 38.11889 87.295166
84.609375 38.38289 87.754166
34.961376 12.40789 81.64716
35.449375 11.19589 82.95917
23.469376 9.58389 88.965164
22.975376 7.9518905 90.54417
54.096375 16.753891 39.000164
56.050377 18.03189 39.839165
65.774376 25.55389 33.914165
65.611374 27.96789 33.947166
48.194374 23.02289 101.393166
48.362377 22.50289 99.267166
37.252377 30.375889 94.617165
36.236374 28.87289 92.69217
29.683376 3.0988903 31.734165
29.443375 5.2818904 31.913164
39.214375 11.52589 39.215164
37.720375 12.43389 40.611164
83.345375 44.20589 92.65017
82.32737 43.26289 91.44016
74.04737 31.49189 96.43816
72.124374 32.92989 96.93217
22.805376 20.14689 34.425163
21.889376 21.12789 35.999165
19.861376 34.41389 30.328165
21.148375 36.070892 30.579165
44.439377 41.30489 55.842167
44.331375 40.39789 53.751167
34.771374 46.48089 56.958164
35.089375 1.85289 58.058167
63.838375 25.75889 56.763165
63.238377 28.219889 57.167168
60.918377 24.28289 71.047165
60.754375 26.31589 71.95917
49.678375 32.89989 54.107166
49.183376 31.88589 52.455166
50.659374 22.976889 44.936165
51.942375 22.18989 43.100166
57.456375 19.39989 74.45616
57.838375 21.02889 74.923164
57.892376 31.42689 83.021164
58.895374 33.12089 84.34316
10.370376 13.63789 75.33016
8.825376 14.37489 76.92516
-0.16962498 21.41589 73.48116
0.19737512 20.17589 71.60916
0.10936737 2.1328888 34.626163
93.624374 3.5228882 35.949165
4.543373 44.78389 33.091164
6.902378 44.02189 33.156166
65.76437 34.61589 69.56316
64.02238 35.38289 68.89816
57.171375 41.14789 60.142166
55.155376 39.80889 59.622166
24.258375 27.37289 40.211166
26.793375 26.719889 39.751163
34.137375 28.41489 37.024166
36.186375 29.09289 35.407166
39.725376 25.72589 6.8531647
38.728374 24.736889 9.038162
33.550373 16.27189 1.6681671
31.943375 15.323891 1.3661652
20.833376 29.02589 87.37617
22.005375 27.98889 85.77216
28.232376 19.46689 91.01317
29.434376 20.31689 92.55417
70.88537 14.915891 41.171165
72.359375 15.02289 39.210163
76.52337 10.358891 27.843164
77.06437 12.57989 27.290165
1.8523712 23.663889 97.158165
1.2983704 22.28189 98.59116
83.317375 27.26189 100.38917
81.41837 26.83189 99.588165
82.82637 43.745888 53.806168
83.05637 41.73289 53.158165
87.43737 31.87489 60.315166
89.53437 32.44889 61.173164
66.32737 40.98689 40.741165
66.36237 39.68189 38.803165
80.61937 40.09689 41.334164
81.26637 37.98889 41.252167
74.276375 27.86089 55.131165
72.36337 27.08989 54.736164
70.95237 15.73789 57.139168
69.81437 14.20889 55.682167
39.896374 27.62989 75.62216
39.708374 29.70989 73.90216
27.323376 27.43989 72.58417
24.745375 26.85789 73.574165
18.623375 8.15289 60.561165
17.275375 6.606889 61.098167
26.557375 5.571888 53.030167
28.533375 6.689889 53.482166
58.286377 21.73789 6.1151657
58.686375 23.63089 6.0621643
59.268375 32.78289 15.429169
61.621376 33.36489 15.955162
68.05637 6.26489 2.3311691
69.18437 8.07489 2.368164
66.39838 17.93889 98.29217
66.319374 16.34389 96.93217
32.671375 29.969889 29.133165
33.879375 29.58889 27.415165
46.576374 34.091892 23.053164
47.643375 35.83789 23.626163
83.262375 34.827892 4.281166
84.33037 33.36089 5.259163
