5.794075 32.411163 39.41892
3.628075 35.580162 29.53592
5.7450747 36.201164 30.08692
23.133074 10.962165 105.30292
23.044075 11.290165 103.30492
38.113075 13.466165 105.07692
38.976074 15.422165 104.43892
86.72707 19.632164 60.52992
86.08807 20.813164 62.26992
81.864075 8.282165 66.85492
81.35207 6.9841647 68.861916
85.655075 1.575161 27.224918
84.545074 3.4011612 27.991919
86.31607 8.182163 29.85892
86.48207 6.162163 30.76392
38.339073 20.279165 36.39492
35.922073 20.221165 36.93792
31.669075 11.941165 25.411919
30.273075 10.330165 25.245918
72.558075 5.3501625 25.36892
70.99107 6.427162 24.85092
65.13408 48.070164 15.092919
66.66208 46.951164 13.698919
32.331074 34.152164 94.23092
31.264074 32.690163 96.06592
22.693075 36.928165 102.62792
23.850075 35.258163 103.69692
19.341074 39.112164 56.25692
20.420074 38.103165 58.59892
29.511074 30.232164 58.42392
28.304075 29.663164 59.85692
35.472073 47.118164 67.985916
36.885075 46.806164 69.723915
42.599075 0.77516174 67.584915
40.632072 0.79816055 68.76192
4.942075 22.051165 73.432915
4.474075 22.079165 75.41592
3.4770749 31.575165 77.919914
1.589075 30.454165 76.87192
59.570076 29.112165 45.726917
57.478073 27.372164 45.37592
64.92408 30.611164 46.628918
66.03708 32.336163 46.17792
33.725075 17.413164 83.24792
34.377075 19.323164 84.37192
40.201073 29.729164 89.10692
40.335075 28.079165 90.36792
12.850076 18.535164 80.86492
11.218076 20.333164 80.00592
11.568075 33.220165 77.114914
13.566075 32.961163 76.99092
62.830074 16.673164 21.095919
62.113075 17.738165 23.11192
70.53407 8.731164 26.11792
72.004074 9.261165 24.82392
58.579075 45.61516 59.71792
59.590073 47.19316 61.29692
59.728073 9.096161 66.766914
58.894073 10.414162 65.544914
4.3880773 41.798164 19.55592
2.7830734 42.700165 18.87892
82.94107 47.050163 18.720919
84.45307 47.87916 17.744919
52.759075 26.139164 105.48692
55.184074 25.260164 105.40192
61.666073 30.831165 95.06592
62.242073 32.700165 94.04092
45.722073 26.795164 76.44392
47.833073 26.602163 75.03292
49.836075 17.219164 67.098915
49.625072 15.775165 65.753914
88.77708 5.353161 29.439919
87.32507 4.073162 28.40292
84.751076 6.7131615 16.352919
84.19308 4.863163 15.744919
12.176075 42.363163 1.3439255
12.547075 44.323162 1.054924
18.952074 4.4731636 2.0489197
20.501074 5.858162 2.4519196
39.128075 31.065165 69.903915
40.991074 30.006165 69.794914
43.236073 30.422165 62.14392
42.590073 31.267164 63.961918
43.431076 18.315165 17.010925
43.920074 20.297165 15.627922
32.758076 21.688164 5.8749237
30.512074 21.358164 6.1249237
70.071075 5.4731636 100.47592
70.70407 3.3221626 100.41592
57.883076 1.0211601 101.27692
56.291073 47.462162 102.31092
28.439074 0.48416138 35.816917
26.985075 46.920162 35.13092
15.589075 1.3861618 41.419918
17.633076 1.0761604 42.43092
74.93907 27.154163 21.12592
74.37508 28.140163 19.154919
81.528076 36.488163 9.329919
81.128075 34.912163 7.9759192
28.482075 45.036163 45.29292
28.855074 43.935165 47.24192
24.128075 36.149162 44.04892
22.350075 35.611164 42.59092
72.31808 45.51816 7.6189194
72.878075 43.298164 8.026924
80.393074 33.543163 4.412918
80.296074 33.163162 2.5869217
42.908073 37.998165 78.42492
40.640076 37.425163 78.78292
41.723076 33.013165 69.81592
43.396076 31.152164 68.99192
17.950075 10.9211645 22.508919
17.796074 10.9211645 20.02192
16.654076 21.497164 13.029919
15.693075 21.767164 11.110919
12.255075 21.387163 45.98492
11.450075 19.312164 46.32792
12.940075 14.017164 58.67092
14.415075 15.354164 59.62492
57.990074 45.667164 45.275917
57.567074 47.07516 43.29892
49.340073 9.008163 48.37392
48.036076 10.502163 47.06892
88.29907 13.3551655 85.85092
86.640076 13.933165 86.75392
5.7520757 10.022163 99.63092
4.5610814 9.686161 101.28792
44.273075 9.81916 27.93492
43.300076 9.804161 29.640919
47.060074 47.224163 25.91992
44.874073 47.139164 25.429918
50.263073 38.111164 96.20692
51.316074 39.712162 96.82092
55.691074 44.170162 84.23292
57.089073 43.009163 85.63292
22.525074 39.144165 61.753918
24.585073 40.111164 62.25292
24.938074 27.919165 64.58992
25.539074 27.397163 62.67892
47.905075 42.502163 56.90892
48.355076 41.111164 58.010918
42.065075 32.412163 67.17692
39.835075 33.514164 67.53392
68.988075 1.8571625 75.486916
70.99207 2.068161 76.27192
75.20508 42.389164 85.06292
75.02007 40.408165 86.14992
65.836075 8.302162 1.3669205
63.900074 7.530163 0.4429245
71.52708 1.3021622 103.72992
73.13608 48.10216 104.33292
-0.052924983 4.15316 44.914917
1.5820749 5.893162 45.57892
8.095075 9.925163 55.80992
7.5940747 8.63216 57.15292
66.46507 25.348164 58.85592
66.865074 25.170164 56.66892
68.90907 31.013165 46.92292
70.322075 31.820164 45.275917
65.59308 34.551163 98.16092
67.38107 35.002163 98.89192
78.47907 36.965164 98.14492
78.74407 38.369164 95.80192
3.7960749 33.336163 31.16292
4.646075 31.598166 31.79292
16.585075 26.431164 29.661919
15.962075 24.601164 30.52192
52.260075 0.59116364 2.6309204
54.357075 0.1361618 3.969925
53.585075 35.121162 106.45592
51.418076 35.995163 1.0459213
68.77608 36.123165 53.59292
66.71708 36.360165 54.28992
60.830074 26.487164 59.20192
60.162075 25.438164 60.961918
52.282074 0.0101623535 79.46792
52.581074 2.2961617 79.06192
66.34608 5.7251625 81.34692
66.89708 3.93816 83.60592
88.42607 31.761164 28.957918
86.31207 32.692165 28.86192
0.19907379 44.638165 22.300919
86.862076 45.105164 21.03092
33.090076 9.668163 24.48592
34.279076 11.199162 23.93492
45.094074 14.682165 16.789919
45.473076 16.768164 16.606918
31.395075 3.8361626 54.058918
32.294075 2.073162 53.71592
41.443073 8.260162 47.93692
42.780075 7.8541603 46.343918
51.398075 4.811161 29.06292
51.999073 3.4011612 27.213919
50.345074 37.814163 27.98692
51.329075 37.40716 29.99792
29.274075 40.533165 105.10092
30.858074 40.505165 105.97392
34.669075 0.99716187 6.5719223
33.505074 1.9251633 8.275925
45.251076 37.696163 81.694916
46.036076 37.037163 83.610916
38.978073 43.306164 93.31192
37.162075 43.839165 92.985916
21.529074 13.898165 42.50792
23.382074 15.481165 42.261917
36.594074 9.838161 41.14792
38.008076 11.241161 43.02892
55.990074 27.130163 0.6879196
53.934074 28.439163 0.4979248
48.629074 28.039164 10.801918
49.538074 29.564165 12.5679245
38.951073 35.595165 62.20392
36.561073 35.979164 62.33492
28.673075 35.421165 74.308914
27.387074 37.298164 74.17492
85.64707 31.561165 50.51692
87.97108 31.004164 49.52392
1.1120758 25.295164 36.309917
1.0640793 26.188164 34.11192
84.876076 10.932163 39.89192
85.932076 9.399162 41.149918
8.81508 10.25716 43.58292
7.5460744 8.39616 42.621918
12.647076 19.993164 27.324919
11.577075 21.958164 27.832918
10.433075 25.753164 13.719919
8.564075 27.237164 13.040919
46.517075 22.875164 51.829918
46.244076 23.990164 53.87592
35.412075 30.948164 54.53892
35.026073 32.061165 52.89692
34.050076 46.66516 64.70292
33.489075 0.24416351 66.028915
34.147076 12.636162 61.70392
33.391075 11.664162 63.65492
41.839073 13.693165 75.82392
43.899075 13.806165 77.473915
43.269073 20.760164 89.20292
41.366074 21.150164 90.25392
42.885075 23.944164 24.27492
44.780075 22.949163 25.32292
57.257072 20.961164 26.30592
56.291073 19.118164 26.922918
35.885075 7.7891645 86.44892
37.122074 8.413164 88.10392
42.717075 18.996164 91.40392
43.207073 17.764164 89.59292
31.726074 20.399164 90.03492
33.550076 20.741165 91.485916
40.379074 12.257165 101.14192
41.824074 12.242165 100.29092
87.35808 47.169163 81.03992
86.52608 45.197163 81.360916
0.80207825 32.013165 80.56692
0.294075 30.341164 79.22192
45.098076 24.263165 77.80492
45.293076 22.681164 79.35492
36.693073 18.271164 74.78792
38.917076 19.755165 74.38392
4.329075 14.636165 90.76792
4.189075 16.949163 91.47592
14.752075 23.431164 94.91792
15.537075 24.466164 92.78292
42.487076 22.663164 104.53992
40.925076 25.158165 104.42392
51.230076 25.805164 1.6319199
52.101074 23.846165 0.38391876
82.71607 17.122164 35.57892
81.34508 17.692163 33.93092
77.99407 30.220165 32.294918
77.890076 30.916164 29.87292
-1.2009252 19.585165 55.17792
-1.249925 19.509165 57.42192
12.438075 19.634165 57.40592
11.4650755 17.948164 57.18992
25.673075 12.161164 99.39292
25.097075 14.242165 99.38492
31.947075 23.450165 99.94392
30.550074 25.060163 99.80092
59.677074 0.49516296 33.511917
59.137074 2.863163 32.79092
68.18707 9.337162 36.677917
69.06607 8.691162 38.73492
12.926075 8.440163 11.773918
11.634075 8.915161 9.737923
-1.5149249 10.865162 7.122925
-2.740925 9.454163 8.239922
38.455074 21.902164 2.3739243
38.618073 19.914164 2.7729187
43.046074 10.914165 106.43992
42.410076 10.4871645 1.7259216
50.322075 35.628162 33.86992
52.283073 36.480164 34.463917
50.388073 44.770164 43.58992
49.232075 46.681164 44.115917
78.71307 3.7761612 102.97792
80.393074 5.018162 103.79392
76.21407 15.001165 1.8229218
77.115074 15.499163 3.7659225
-1.216925 31.556164 68.446915
-0.20992506 29.521164 69.78192
12.390076 32.685165 74.40092
13.4910755 30.766165 73.89792
0.957077 14.197165 74.56092
0.46007538 16.353165 73.78492
86.073074 17.800165 87.07292
87.98007 16.255165 86.72592
15.324076 5.9751625 69.541916
17.025074 6.830162 67.862915
23.596075 44.205162 62.97692
24.404074 43.905163 60.70692
15.8730755 45.65116 42.20192
14.990075 47.91416 43.579918
3.8980749 4.2441635 43.685917
3.937075 6.6051636 44.62492
53.547073 25.025164 46.044918
54.719074 27.065165 45.990917
52.818073 29.522165 59.197918
52.587074 29.609165 61.468918
48.840073 39.790165 10.981919
48.812073 41.764164 12.214919
42.259075 46.677162 22.119919
43.014076 45.520164 23.99992
2.3010788 23.513165 2.466919
1.3820801 24.612164 4.209923
86.947075 32.295162 11.497925
88.66508 30.869165 11.674919
41.984074 3.1771622 69.37092
43.121075 3.217163 67.04092
38.049076 8.2061615 59.64992
36.962074 10.274162 59.51592
79.296074 22.906164 92.58892
79.96307 20.989164 93.36492
72.98308 19.571165 0.56892395
74.50507 17.890163 1.315918
8.912075 4.3051605 79.65792
10.213075 5.670162 79.41492
13.315075 9.642162 90.08892
12.560076 7.8871613 90.23092
77.62508 42.128162 95.40992
77.31607 43.436165 93.78092
65.432076 44.924164 100.96292
64.09408 45.961163 102.81292
68.391075 22.581163 44.802917
69.670074 21.698164 46.82692
81.31708 28.107164 44.29892
80.94107 30.072165 43.581917
4.443075 3.346161 46.43792
6.409075 2.5011635 46.69592
10.178075 38.763165 47.88992
9.457075 36.757164 47.27192
81.11607 5.615162 101.24492
80.393074 3.2691612 100.60392
4.74408 7.064163 94.50892
5.158074 7.9401627 96.30892
57.705074 31.093164 43.26992
56.861073 30.026165 45.185917
51.258076 30.773165 57.01292
48.497074 31.310165 57.16192
16.462074 4.9261627 58.59692
14.672075 6.66716 59.23192
3.790075 5.311161 58.29692
5.203075 6.724163 59.39792
40.809074 27.178164 103.01992
38.774075 27.926165 104.805916
34.051075 20.552164 2.2999191
35.843075 20.884165 2.1109238
68.55508 26.108164 13.18692
66.544075 27.029163 13.418922
67.60507 16.099165 5.4549255
66.06608 14.254165 6.306923
66.851074 42.75416 91.62392
68.420074 43.270164 89.75192
68.572075 40.342163 99.18692
66.642075 39.039165 98.08392
40.618073 43.487164 47.711918
38.808075 44.245163 49.63692
27.122074 44.111164 49.41592
26.248074 45.67116 50.48592
24.090075 4.443161 82.81092
24.021074 2.9041634 81.27992
29.694075 11.235161 69.09192
31.240074 11.43116 70.724915
81.50507 32.447163 60.37992
79.71307 32.926163 59.83192
78.35507 46.438164 61.34292
79.100075 47.74216 59.621918
28.856075 11.961163 49.76492
30.695074 12.809162 48.10392
34.582077 3.3141632 39.63492
35.864075 2.0481606 40.462917
31.418074 20.818165 22.161919
32.219074 20.228165 20.039919
30.155075 7.7251644 17.324919
32.145077 7.4131646 18.19492
73.71407 42.711163 58.52992
72.421074 42.883163 56.12492
69.975075 45.994164 44.940918
69.27407 43.859165 44.309917
2.9130783 4.733162 63.76692
2.6790771 5.2431602 65.945915
79.211075 4.5321617 64.47192
77.820076 2.9821625 64.52192
38.708073 44.307163 95.66492
38.826073 44.642162 98.00592
32.257076 2.1501617 93.32092
33.591076 3.7431602 91.92992
58.766075 25.196163 5.181923
60.590073 23.087164 5.776924
70.31307 21.811165 105.62592
71.61807 23.293163 104.48992
22.276073 34.216164 79.62192
23.251074 35.312164 77.96592
11.405075 38.213165 80.64292
11.470076 36.735165 82.40792
41.124073 27.011164 45.718918
39.947075 25.821163 47.13792
36.559074 12.989164 47.49792
34.169075 11.714165 47.56692
24.754074 7.9591637 28.07292
24.432074 9.141163 30.29292
36.665073 14.655165 36.121918
38.296074 13.617163 35.61892
12.830075 31.246164 48.92392
11.094075 31.250164 50.13492
-0.34292495 33.201164 51.28692
-2.670925 33.869164 51.58092
72.21908 23.441164 69.04992
70.127075 24.545164 68.94892
58.483074 22.166164 62.86392
57.869076 24.425163 62.60492
39.649075 0.7911606 71.405914
38.844074 2.7301636 72.17392
44.977074 11.008163 77.66492
44.214073 11.068161 80.21592
19.968075 44.684162 96.69192
19.393074 44.566162 99.02492
23.103075 8.786163 102.15492
24.579075 9.45216 100.72792
54.851074 22.211164 84.57892
53.428074 23.768164 85.59892
46.445076 34.628162 81.55892
47.397076 34.958164 79.54392
-4.0369253 37.480164 102.90792
-2.978925 39.845165 102.71792
8.756075 39.767162 1.4129181
9.751075 41.362164 0.8789215
34.469074 20.591164 62.614918
36.156075 21.242165 60.70592
35.555073 33.074165 58.66492
33.071075 32.604164 58.18292
20.062075 18.857164 52.39892
19.706074 20.735165 53.29792
19.044075 18.666164 48.58492
21.006075 18.318165 49.36092
22.361074 7.2411613 87.12192
24.310074 8.58316 87.15992
33.731075 8.573162 79.09192
35.190075 9.585163 77.92992
18.957075 25.427164 28.82992
21.182074 24.535164 29.97592
17.071075 18.282164 28.723919
18.355074 20.161165 28.11092
36.459076 1.79216 55.18092
36.397076 4.2181625 56.85892
37.897076 0.46816254 67.43892
37.978073 1.5111618 69.07992
14.832075 32.02516 71.03392
14.546075 29.954165 71.557915
3.933075 25.135164 76.58792
2.265075 24.847164 74.67292
17.539074 20.016165 25.41692
18.885075 21.174164 24.24792
7.116075 24.227163 13.650919
5.909075 21.795164 13.76792
8.7740755 3.5881615 93.13092
9.066075 5.8711624 93.69092
23.564074 5.77116 91.19092
25.123074 7.316162 92.61692
0.90207493 21.961164 35.003918
2.2860749 22.795164 36.97492
9.083076 20.765163 43.198917
10.434075 19.588163 41.61692
21.023075 12.5131645 26.886919
19.936075 10.956164 25.50792
21.248074 19.135164 13.173919
22.785074 20.566164 12.176919
34.080074 0.2401619 55.32692
35.919075 47.819164 54.90092
35.430073 41.52516 64.05992
34.297077 42.728165 65.91192
62.571075 26.128164 81.85692
64.31308 25.723164 80.680916
71.752075 15.359164 76.83292
71.808075 13.121164 75.988914
20.176075 3.5881615 72.92192
18.385075 5.2321625 73.65192
21.167074 14.654165 78.22392
19.769073 16.130163 77.222916
37.685074 2.6871605 75.14992
38.211075 0.7081604 75.44292
33.354076 39.13616 81.83292
31.477074 39.319164 82.02492
46.673073 46.211163 23.27892
46.997074 45.002163 21.21992
41.784073 7.7601624 16.053919
40.797073 7.66016 14.295919
83.28707 10.874161 95.53792
82.154076 11.512161 97.20592
76.432076 5.4421616 101.00592
78.38207 5.038162 100.61292
32.189075 37.509163 42.11992
31.091074 35.772163 43.184917
28.921074 24.083164 35.36092
28.937075 22.125164 36.52792
19.509075 9.970161 70.79592
21.756075 8.855164 70.961914
29.516075 47.668163 69.01092
31.007074 0.30716324 67.18892
1.4550781 19.630165 21.87192
88.74207 18.432165 21.98292
5.7630773 26.040165 32.00892
5.53608 27.940165 33.56492
53.974075 24.765163 76.680916
52.827076 23.322165 78.07992
53.190075 13.476165 69.350914
53.330074 12.378164 67.238914
14.664075 22.628164 102.64592
15.353075 20.748165 101.39692
19.884075 9.794165 104.30092
19.763075 8.801165 106.08292
22.499075 7.0121613 56.20592
23.194075 7.476162 54.17792
25.549074 14.445162 48.17292
24.602074 16.800165 47.40992
22.666075 19.640163 51.14292
24.716074 19.557165 52.46792
33.395077 23.202164 58.22792
31.377075 23.522163 59.72192
60.437073 18.013163 12.778923
61.629074 15.715162 13.03492
63.081074 2.9301605 13.025925
61.799076 1.4931602 11.857925
72.20508 29.043165 64.586914
70.24207 30.458164 64.13192
67.334076 37.815163 57.294918
65.38408 38.976162 57.84592
24.409075 4.50016 28.08792
23.296074 6.2441635 29.422918
17.221075 4.4541626 40.477917
15.788075 5.9021606 39.662918
22.783073 3.8681602 2.1049194
23.371075 2.6191635 3.7249222
24.091074 36.378162 1.440918
25.464075 36.208164 105.94592
13.111075 22.746164 97.56292
14.972075 21.927164 98.95292
20.656075 15.3621645 98.02992
18.539074 15.765164 99.92492
21.279074 17.717165 95.45892
24.043074 17.481165 95.88692
30.321074 11.231165 98.749916
32.998074 11.136165 98.48792
72.849075 1.7341614 101.54592
75.24307 0.93815994 102.04692
66.530075 43.352165 102.94292
66.07607 41.216164 102.374916
6.171075 9.690165 94.77092
7.030075 8.839165 92.72192
6.671075 19.727165 87.34492
8.482075 20.005165 88.87792
88.27407 40.448162 68.97992
86.84708 40.688164 70.72692
0.69407654 47.342163 60.90992
87.363075 47.232162 61.43892
75.05107 47.564163 26.31392
74.12508 47.007164 24.407919
74.308075 9.0621605 23.13892
74.528076 10.82616 22.04492
86.06407 40.856163 38.73092
88.015076 40.063164 40.336918
3.979081 39.508163 24.845919
6.2640767 38.500164 25.29992
23.554075 33.527164 45.191917
22.463074 32.077164 45.544918
22.239075 22.578163 56.00892
24.081074 22.413164 56.76892
69.20708 40.387165 21.60692
68.292076 38.015163 21.998919
68.90807 36.844162 7.793919
68.225075 35.669163 5.946919
88.55508 7.5571632 42.725918
87.31107 6.344162 44.413918
80.19308 11.928162 54.08992
80.26907 13.782164 53.58992
42.246075 25.006165 77.155914
40.951073 25.439163 75.404915
32.924076 29.656164 69.183914
34.423077 30.603165 67.319916
13.675076 39.080162 11.406921
15.1560755 38.664165 9.940918
25.903074 33.985165 7.202919
25.079075 33.506165 5.1849213
53.944073 47.815163 104.06792
53.811073 1.745163 102.77292
42.836075 5.8541603 5.599922
42.357075 3.7321625 4.9449234
60.361073 6.4491615 67.21392
59.438076 4.6661606 66.250916
53.244076 10.422161 69.209915
52.686073 11.249161 71.11992
59.489075 47.862164 70.889915
59.283073 46.552162 68.681915
55.301075 7.186161 58.92892
55.382072 9.288162 59.40492
72.169075 45.475163 54.82692
70.41207 44.882164 55.18892
61.623074 39.113163 51.69492
60.967075 38.198162 53.81692
19.018074 13.731165 7.3789215
17.732075 12.1451645 7.165924
10.106075 21.061165 103.87092
10.740075 22.453163 104.78392
43.041073 11.984164 27.58392
42.129074 12.461164 29.94892
33.574074 20.504164 24.10192
34.204075 20.347164 21.907919
82.794075 31.297165 7.0579224
80.49407 32.112164 7.31192
74.24908 25.823164 17.698921
71.73207 24.812164 17.31292
66.61607 7.992161 72.89792
67.81207 6.540161 74.03792
75.35707 46.83116 68.696915
76.390076 48.26216 67.58292
35.573074 18.113165 1.6169205
36.077076 16.403164 2.2129211
22.280075 9.5131645 2.2609253
22.517075 8.370164 4.129921
6.457075 45.377163 14.999919
7.702075 47.190163 15.270919
7.322075 1.5171623 28.588919
7.5680747 3.6871605 29.091919
85.86707 28.714165 103.93192
84.363075 27.872164 102.53692
77.32607 26.890163 0.4109192
76.82807 27.998163 2.1269226
52.920074 14.7631645 49.92292
53.010075 14.470164 52.36192
60.521076 16.187164 64.209915
62.177074 14.5461645 64.52692
44.754074 10.818161 61.72392
45.970074 9.217163 60.49192
46.749073 7.64616 48.33192
46.980076 7.1491623 45.95792
43.467075 6.1231613 8.592918
43.468075 7.922161 7.5459213
55.242073 6.158161 3.7699203
55.939075 4.268162 2.815918
66.45107 7.9731646 82.81092
65.58907 8.6381645 80.92792
56.722073 19.981165 84.60592
57.098076 21.109163 82.93792
72.49908 36.009163 71.14792
70.56908 35.833164 69.03492
68.04108 35.001163 69.64392
67.81307 34.948162 71.65792
77.66007 26.503164 83.26092
77.36907 27.693165 81.54692
86.56908 29.175165 75.90992
0.07407379 28.563164 75.61892
2.3750763 25.880163 14.369919
1.6010742 27.169165 12.955925
85.086075 28.570164 0.9599228
87.141075 28.313164 0.2139206
17.668076 43.459164 32.642918
18.474075 45.819164 33.02992
9.821075 7.617161 28.66392
10.654075 9.72916 28.38292
27.762074 14.307164 23.47192
28.405075 16.203165 21.92792
27.333075 19.605164 10.987919
29.144073 20.608164 10.167919
54.507072 14.1451645 95.96992
54.891075 15.086164 97.99692
56.389076 17.908165 0.9489212
56.429073 15.749165 1.8789215
51.432076 25.996164 11.938919
51.795074 27.761164 13.07692
64.63808 22.317163 12.85392
64.48408 21.732164 15.136925
59.948074 9.168164 1.6079254
58.587074 10.960164 1.1179199
70.12308 18.527164 105.65492
70.46507 18.959164 1.0249252
86.21407 28.529163 34.81492
84.28507 27.202164 35.34192
74.19308 25.778164 41.720917
72.66007 23.272163 41.76392
30.151073 9.6191635 101.43292
32.624077 8.987164 100.82192
40.240074 6.252163 4.554924
38.770073 4.6831627 3.3379211
22.000074 7.3741646 60.94892
21.313074 7.904165 59.28092
14.896075 19.185163 56.08392
15.058075 21.520164 56.294918
46.994076 20.522163 54.662918
47.327076 20.606165 52.47292
40.055073 9.912165 45.899918
38.898075 9.515164 47.83492
42.812073 10.401164 16.01792
41.386074 10.196164 14.751919
33.519073 23.797165 18.16292
35.040073 25.815165 18.51792
22.456074 13.384165 99.87192
20.340075 13.108164 100.93392
7.479075 10.085163 97.444916
7.208075 7.561161 97.78792
43.972073 28.621164 33.268917
42.929073 26.858164 32.11092
30.537075 21.874165 33.78692
29.445074 22.428164 31.62492
9.733075 21.698164 46.07192
9.941075 23.717165 47.40392
10.663075 13.764165 56.25992
8.755075 12.360165 56.06292
66.629074 29.923164 17.320919
66.07507 27.895164 16.554918
60.569073 19.319164 21.62792
60.548073 18.849165 19.057919
46.650074 44.606163 26.863918
44.696075 44.757164 28.33092
48.575073 36.666164 30.23692
46.849075 36.424164 28.62492
32.333076 13.485165 51.62392
32.958076 13.664165 49.30092
34.280075 26.464165 54.34492
33.130074 27.974165 53.68892
80.17607 13.600164 98.85792
82.405075 13.779164 99.04492
0.28907776 23.303164 106.21492
88.81607 22.835165 1.4289246
10.517075 42.361164 27.41292
10.260075 41.951164 29.64692
10.225075 36.713165 22.383919
11.589075 37.586163 20.55492
17.795074 12.6781645 26.164919
16.172075 11.767164 27.35192
19.667074 14.408165 39.28092
21.038074 16.409164 40.907917
62.430073 13.235165 67.24792
62.992073 14.602164 68.65992
69.211075 9.548164 73.29992
67.292076 10.767164 72.21392
17.627075 11.480164 66.70792
16.814075 9.4371605 66.85492
10.796075 10.282162 59.190918
13.047075 11.190163 58.92092
86.808075 0.06616211 30.64692
88.143074 2.02816 30.43292
87.182076 43.416164 38.885918
88.252075 45.341164 40.442917
17.656075 5.0691605 61.00792
17.285074 2.9941635 61.48192
30.896074 44.909164 62.58292
29.327074 43.873165 63.239918
3.494075 4.5911636 11.267921
5.376075 3.16016 12.008919
-0.6629251 11.772163 11.921921
-0.47692502 12.79216 13.592918
47.309074 13.994164 99.15792
45.202076 13.5131645 99.07692
40.183075 22.439163 92.98792
38.451073 21.874165 91.90092
5.456078 1.7491608 2.5459213
4.4260793 0.026161194 0.73992157
81.570076 46.210163 102.43492
84.045074 45.58916 101.15792
81.43707 34.485165 74.97892
80.044075 35.302162 76.19292
74.99107 31.832165 81.72092
77.057076 31.933165 83.14692
81.13107 11.799165 72.32992
82.17407 13.8031645 73.24792
75.22907 22.137163 81.31292
74.20608 23.141165 79.95792
83.98107 15.985163 19.664919
81.641075 16.185163 19.401918
80.086075 1.8871613 12.645919
81.21307 1.1121635 10.886919
8.094075 39.088165 82.67792
9.247075 40.201164 81.37092
2.4080749 45.271164 77.60492
1.877075 47.531162 77.75892
61.571075 1.8801613 71.50792
62.638073 2.3001633 69.71892
70.030075 38.234165 69.88292
69.724075 36.829163 71.598915
52.975075 40.765163 98.84392
53.026073 42.568165 98.32392
63.466076 37.920162 93.45092
64.557076 39.417164 92.32792
55.945076 34.005165 64.80192
56.053074 31.527164 64.45692
47.273075 32.848164 72.59392
49.124073 33.762165 72.83292
22.044075 2.337162 46.51992
21.238075 0.28516006 46.35392
31.044075 46.968163 57.42292
30.159075 45.51816 58.69992
50.149075 27.375164 15.245919
51.760075 28.317163 15.640919
62.539074 29.493164 24.682919
60.854073 28.050163 25.66392
14.297075 4.7111626 65.06592
15.896075 6.4791603 65.20492
12.1160755 16.905165 66.68592
10.596075 18.533163 67.975914
12.941075 42.350163 56.26792
13.193075 41.166164 54.54592
3.721075 39.294163 45.36092
2.372075 37.788162 45.09192
19.605074 18.188164 24.710918
21.788074 19.783165 24.03192
14.025075 22.058165 13.512919
13.0240755 23.164164 11.917919
53.978073 18.689165 25.69492
54.787075 17.031164 25.19492
55.724075 13.416164 33.65892
54.626076 15.184164 34.24992
21.024075 33.887165 87.91492
22.186075 32.388165 88.93792
29.825075 24.431164 91.08392
30.144073 23.983164 93.13792
13.110075 32.819164 66.334915
10.489075 32.652164 67.72792
1.030075 27.180164 69.56492
1.814075 25.625164 71.26992
22.457075 14.790163 96.10192
24.290073 14.154165 96.69292
14.059075 11.006161 95.82692
13.670075 9.460163 94.52392
51.495075 33.544163 105.29692
53.473076 32.764164 105.06392
48.622074 31.804165 103.60892
47.626076 29.919165 104.61592
26.218075 36.597164 78.07892
25.431074 35.555164 79.78592
29.523075 23.024164 87.35592
31.265074 22.949163 88.860916
54.440075 9.488163 33.552917
55.439075 7.1111603 33.477917
46.799076 9.8691635 41.53592
45.239075 9.169163 39.90592
1.1760788 20.721165 72.114914
2.5400772 20.919165 73.890915
87.65807 20.038164 87.07892
0.9720764 19.787165 88.12592
58.567074 18.971165 68.49392
59.379074 20.245165 66.778915
70.59608 25.897163 71.60292
71.154076 27.266165 73.11892
16.689075 29.252165 23.28092
15.8990755 27.170164 24.22292
27.520075 21.713163 22.575918
27.390074 19.176165 22.80892
29.420074 26.332165 97.51892
30.516075 25.670164 95.37692
33.230076 36.349163 85.41592
34.817074 35.152164 86.61292
66.28608 31.271164 21.47692
67.93707 30.163164 21.34092
59.379074 20.978165 28.033918
59.087074 18.492165 27.90392
7.019075 1.356163 51.16792
9.124075 2.1641617 50.91792
18.720076 8.095161 58.66792
16.810076 8.415161 60.23792
33.539074 15.291164 41.70792
34.655075 14.063165 40.07192
22.094074 11.629165 32.20392
22.128075 11.517164 29.561918
81.337074 1.0341606 15.003919
82.33008 0.86216354 16.64992
75.57907 13.216166 20.19092
73.92507 12.985163 18.11492
20.315075 8.248161 25.70492
22.839075 8.23616 25.839918
31.721075 1.1651611 17.43392
33.385075 48.404163 18.123919
0.82307434 33.727165 61.51992
2.860077 33.944164 60.36592
1.1840744 22.761164 64.39992
0.17308044 20.449163 64.195915
85.34307 23.104164 96.00392
86.42707 23.551165 94.11292
6.5700765 18.527164 102.694916
8.514077 18.890163 102.56092
81.21507 34.724163 58.21592
81.018074 34.995163 55.73892
83.681076 47.101162 51.27892
85.975075 46.759163 52.24392
55.366074 41.424164 83.985916
54.123074 39.810165 84.45092
53.873074 25.410164 81.47392
54.257072 25.472164 79.23992
79.643074 11.80616 91.25592
78.810074 9.669163 90.78392
78.988075 47.58216 90.98792
78.97707 47.027164 93.39792
15.533075 37.208164 50.40992
16.033075 35.050163 49.84492
15.083076 28.620165 58.51892
15.108075 26.823164 59.78192
63.356075 22.120165 33.92992
63.978073 24.291164 33.73092
70.20808 32.743164 42.59892
69.36707 34.734165 44.41092
55.847073 21.118164 79.99692
56.748074 19.232164 80.49292
65.723076 12.816165 73.238914
67.80007 13.502165 73.69192
2.1780777 0.86416245 54.52992
1.9500809 2.448162 56.17992
86.90907 12.907164 58.794918
86.19107 14.581163 60.63392
39.645073 16.440165 35.77292
41.395073 17.885164 35.53392
52.010075 20.169165 45.086918
52.279076 22.641165 45.510918
6.365075 43.912163 63.71492
6.630075 44.139164 66.08992
9.257075 1.8211632 78.01092
6.700075 1.4541626 77.38692
70.57807 45.61716 26.227919
72.447075 46.569164 27.248919
80.18707 36.664165 23.634918
80.962074 35.762165 21.63592
33.288074 28.719164 17.901918
33.962074 27.678164 19.98692
24.021074 25.726164 30.68492
24.799074 27.164164 32.073917
59.490074 4.351162 24.977919
59.370075 5.714161 26.584919
66.02508 12.789162 33.03392
67.49808 13.880163 31.33592
6.7390747 28.697165 86.26792
7.198075 30.333164 87.39192
6.803075 40.480164 84.89092
7.4830747 42.641163 85.50292
74.58208 25.811165 80.75192
71.97707 25.773165 81.00392
68.19107 22.520164 92.20292
66.294075 23.826164 90.99592
8.617075 0.7841606 2.86792
9.363075 2.9301605 3.1549225
13.842075 46.823162 99.72292
12.719075 45.11016 97.91392
79.05007 43.651165 91.66592
80.34608 44.204163 93.66892
84.70407 38.458164 99.985916
83.96908 36.360165 100.54092
9.483075 16.421164 101.66392
10.363075 18.139164 100.36392
11.768075 18.032164 86.27892
11.468076 17.392164 84.54292
30.160074 29.474165 73.652916
32.202076 29.036165 75.211914
38.781075 26.427164 81.48892
40.547073 25.640163 80.83892
55.926075 32.197163 106.03892
57.843075 30.485165 105.80992
66.39507 40.586163 2.268921
68.43707 40.512165 2.6339188
82.74207 34.582165 13.6569195
82.59007 32.621162 12.313919
76.72108 20.674164 15.495919
76.37107 20.739164 17.88992
53.208073 47.570164 101.15692
54.066074 0.8271599 99.93492
64.77108 44.843163 92.09992
64.39507 43.397163 90.38192
47.619076 45.891163 64.30092
47.002075 45.416164 66.725914
47.812073 34.776165 74.91592
46.270073 33.945164 76.04992
45.209076 44.316162 97.180916
46.533073 45.440163 96.17092
41.393074 46.801163 92.06792
42.471073 45.203163 93.67992
50.440075 39.911163 85.55992
48.548073 38.936165 84.72092
50.709076 29.299164 95.70692
50.267075 27.175163 95.10592
65.45608 34.405163 73.14392
63.771076 35.575165 71.74092
66.08208 45.829163 78.03392
65.36008 47.72016 77.33992
84.946075 12.643162 4.119919
84.06407 10.897163 3.605919
87.74107 1.5571632 104.16292
86.95107 1.5301628 102.00492
87.70107 35.51116 67.97892
88.001076 37.943165 67.82892
73.406075 39.052162 71.28492
72.34207 39.871162 69.43992
22.627075 33.131165 104.88992
21.157074 34.670162 104.90192
13.311075 26.705164 2.5389252
11.517076 26.713163 3.9739227
77.51308 12.312164 66.49692
77.38608 13.965164 65.861916
88.612076 20.375164 68.82992
88.210075 19.310163 70.77692
51.428074 12.884165 5.0679245
50.711075 15.047165 4.4639206
38.376076 14.807164 1.6189194
38.412075 16.692165 0.22392273
59.131073 1.5771599 38.06192
60.277073 0.54216003 39.31892
66.434074 8.45816 42.46492
68.13007 6.9441605 43.25692
45.158073 3.1731606 68.68892
44.823074 0.4751625 69.06592
51.339073 2.811161 76.64492
52.021076 4.6121635 76.95792
9.522075 20.118164 71.35392
8.118075 22.004164 70.168915
13.577075 24.651165 59.53592
13.478075 24.028164 57.48192
50.550076 31.739164 13.993919
49.491074 30.389164 15.888919
35.901073 25.725164 15.784919
36.198074 25.573164 13.286919
44.723076 8.026164 44.330917
45.532074 9.152164 45.726917
36.163074 16.020164 41.60992
36.706074 15.823164 39.24592
34.726074 45.45616 40.621918
35.037075 47.22716 39.393917
41.828075 38.102165 30.008919
40.861073 36.076164 30.18892
42.094074 21.231165 33.12392
40.039074 19.827164 33.039917
29.946074 22.812164 23.36192
28.116074 22.499165 25.16092
76.28407 12.048161 13.45892
76.95608 11.11116 15.9069195
72.25807 0.027160645 22.90292
72.45808 0.66716003 24.869919
50.208073 24.497164 77.38492
49.067074 24.077164 75.67492
48.800076 14.529164 67.94192
49.128075 12.740165 67.501915
33.645077 15.943165 63.99592
33.580074 18.122164 63.37092
42.222073 15.240165 71.95792
44.501076 14.570165 72.31492
15.1490755 15.268165 25.203918
15.385076 17.721165 25.839918
6.998075 17.252165 23.273918
7.558075 19.290165 24.27892
12.497075 11.026161 40.72392
12.937076 12.72916 41.66592
11.799075 11.006161 56.15892
10.538075 9.101162 56.66892
28.558075 36.175163 7.308922
26.874075 36.133163 8.8789215
15.502075 38.912163 6.4209213
14.936075 38.278164 4.0799255
19.380074 1.1071625 15.670919
20.478075 47.641163 15.905919
20.224073 37.090164 25.13192
18.420074 36.146164 24.87492
5.296075 28.836164 9.947922
6.710075 30.474165 9.828918
15.335075 35.517162 16.417923
13.357076 34.767162 17.416924
46.167076 5.707161 86.95192
47.602074 7.351162 87.11492
56.310074 48.278164 86.95192
57.476074 45.77516 88.04892
20.014074 35.915165 28.345919
19.724073 35.90016 30.17292
10.067075 27.271164 34.59292
8.131075 27.801165 33.537918
48.082073 11.973164 97.40192
46.884075 10.7441635 98.96292
44.380074 1.7431602 105.47692
46.087074 1.5791626 0.7119217
48.996075 36.374165 57.90692
49.711075 34.412163 58.39592
61.057076 33.902164 51.79892
63.098076 34.945164 51.37092
82.27307 1.7151604 85.10392
82.309074 4.0121613 85.43292
84.808075 10.81316 90.22892
82.23608 11.587162 90.37292
36.774075 36.65016 8.397919
35.163074 38.239162 9.382919
26.843075 48.091164 6.4689255
26.625074 48.329163 4.4069214
18.431074 7.434162 21.42992
19.989075 8.29216 22.90592
15.437076 9.70816 14.31992
13.708076 8.865162 15.732919
30.804075 15.045164 63.41892
30.789074 12.504162 63.09292
27.436075 11.862164 52.79592
26.488075 12.964163 50.79992
15.349075 26.841164 96.21792
16.444075 27.904163 98.763916
8.434075 33.917164 95.69592
6.8240747 32.353165 95.80792
48.002075 37.695164 81.80292
47.995075 39.897163 82.26692
58.166073 45.057163 84.027916
60.175076 44.528164 84.985916
23.590075 42.394165 98.65692
24.730074 44.235165 99.69292
28.960073 6.485161 97.97292
29.010075 7.67416 99.44992
16.398075 0.8941612 15.697922
17.392075 47.564163 15.418922
21.497074 5.9251633 5.000923
23.725075 5.788162 3.8089218
26.059074 27.605164 59.72892
25.644073 29.736164 60.97392
21.786074 29.005165 65.50492
22.688074 28.074163 63.29192
39.771076 13.423162 30.29992
38.937073 11.571163 29.862919
34.322075 3.969162 21.17292
32.675076 3.7751617 19.61092
40.847073 16.000164 33.33592
38.868073 14.8881645 32.454918
28.881075 19.925165 25.452919
26.698074 18.484165 25.275919
41.341076 9.814164 24.85392
42.469074 11.713164 24.929918
29.706074 17.590164 24.58792
28.281075 16.071165 25.63192
26.128075 21.963163 11.97092
28.474073 22.788164 11.941919
19.472075 28.746164 19.73992
18.602076 27.603165 17.85492
65.64608 42.905163 78.43992
63.382072 43.707165 79.03392
56.896076 47.203163 71.92192
54.428074 47.729164 70.917915
7.973075 41.12916 66.360916
7.678075 40.762165 64.05192
12.297075 29.717165 60.23892
13.062076 29.060165 62.38792
50.824074 33.779163 37.26692
49.157074 34.732162 36.06192
44.365074 42.281162 28.796919
42.606075 41.537163 26.988918
57.831074 0.22716141 84.916916
59.251076 47.121162 86.291916
66.22807 7.7151604 89.57992
68.626076 8.796162 89.79892
70.84107 11.293163 77.569916
72.502075 10.561161 76.53292
78.515076 4.0321617 67.14492
80.71807 5.16716 67.13292
57.551075 22.649164 94.60792
55.577076 23.510164 94.38092
51.716076 35.839165 96.47292
51.805073 37.534164 98.36992
78.34408 15.717164 21.27192
78.20307 16.173164 23.64992
73.668076 15.6381645 37.71692
71.906075 16.447165 36.95892
41.951073 46.695164 75.862915
42.798073 0.3651619 77.39392
41.572075 39.825165 79.97192
39.501076 39.496162 80.33192
80.71908 48.133163 87.17792
79.751076 0.5161629 85.09592
67.405075 45.876163 88.96492
67.14907 45.507164 91.33492
37.067074 8.463164 83.79992
37.486073 9.739164 85.08892
36.004074 20.852163 90.84392
36.514076 22.475164 89.42192
76.13307 31.779165 25.74792
74.52007 33.309162 25.37892
80.808075 45.43616 32.65892
80.07707 43.942165 34.48592
44.170074 8.441162 25.449919
44.598076 10.281162 24.237919
52.359074 5.011162 21.78792
54.946075 4.804161 21.32992
29.122074 12.793163 7.4919205
29.612074 14.728163 6.6669235
43.327076 11.800163 6.433922
44.675076 11.095161 5.151924
58.211075 3.7531624 54.27692
55.865074 4.6371613 54.38292
57.371075 44.77516 62.48092
58.220074 42.597164 61.78592
59.871075 2.089161 50.78292
60.950073 4.226162 50.31692
65.57808 41.773163 56.98592
63.119076 40.708164 57.67392
13.131075 37.24016 74.12992
14.4060755 39.108162 75.33992
16.095076 46.75416 63.97992
15.088076 0.8231621 63.954918
59.296074 0.7461624 11.594925
57.761074 2.3311615 12.265923
55.401073 12.606163 3.627922
55.711075 11.10416 2.0269241
17.074076 26.735165 91.51792
17.555075 26.502165 94.04392
23.114075 25.156164 105.64292
21.103075 25.045164 106.05392
22.885075 37.691162 22.11192
24.626074 37.262165 23.76092
20.941074 26.191164 31.96092
19.280075 25.288164 32.176918
85.19107 41.270164 105.22592
82.88307 40.849163 104.513916
79.13307 45.35316 9.470924
80.41508 43.988163 11.278923
61.292076 28.598164 79.04792
60.568073 30.054165 77.12392
67.64907 26.541164 77.569916
68.61707 26.566164 79.51692
7.558075 36.970165 84.08292
9.967075 37.579163 84.22792
17.140076 44.182163 94.10092
15.761075 44.585163 95.96392
69.085075 24.482164 102.90392
68.60908 23.773165 105.12792
56.830074 19.459164 3.6169205
57.135075 21.745165 5.0459213
59.705074 37.711163 32.35392
60.156075 39.749165 32.587917
67.51308 30.262165 34.16192
68.309074 30.710165 31.70192
64.44108 46.864162 17.425919
63.202076 45.579163 16.25492
59.567074 34.176163 23.33792
59.954075 33.502163 25.428919
52.051075 47.104164 43.72392
53.357075 44.762165 44.02992
61.614075 36.890163 50.18092
59.700073 36.289165 51.65992
49.627075 30.736164 35.45792
50.942074 30.753164 37.29292
55.996075 18.232164 34.16092
55.925076 16.955164 32.34092
27.808075 10.498161 65.56792
27.303074 8.749161 64.95492
38.129074 12.817163 61.60592
36.321075 13.457163 62.91492
0.2380749 10.335163 30.15192
2.337075 10.315163 28.950918
8.625075 11.728161 24.17392
9.863075 11.408161 26.15292
78.668076 15.444164 13.667919
79.98308 16.050165 12.084919
88.33208 24.507164 16.15992
0.052078247 26.763165 15.51092
35.052074 38.24016 0.9399185
35.603073 35.978165 106.28592
33.152077 24.408165 4.9009247
34.383076 22.934164 4.1289215
61.298073 12.598164 62.50692
61.424076 12.127163 60.11792
59.394073 6.552162 51.45792
57.564075 7.50016 50.74892
68.18807 4.5531616 76.02092
66.16008 4.193161 77.543915
68.475075 41.485165 81.22792
67.363075 41.036163 79.53192
82.45808 22.316164 53.39992
83.76907 24.353165 54.51592
81.42307 27.221165 46.78992
83.403076 28.715164 46.885918
36.386074 34.151165 89.05192
37.691074 32.313164 89.52092
40.468075 24.283165 98.00292
40.708073 25.114164 100.65692
49.540073 25.543163 13.542923
48.045074 23.809164 12.794922
54.501076 22.017164 4.43692
54.204075 19.607164 4.535919
52.075073 30.055164 43.33992
54.033073 31.182165 44.34292
47.728073 40.923164 49.40292
48.291073 40.952164 51.52492
15.359076 33.998165 19.10792
17.790075 34.778164 19.31592
8.913075 44.381165 16.702919
7.182075 43.552162 17.09392
36.600075 44.605164 19.29792
38.723076 46.11016 19.42492
37.076073 2.7081604 5.8439255
39.053074 2.9201622 5.3059235
5.172075 48.329163 4.4549255
4.937075 46.55416 3.1109238
6.6730747 37.219162 1.8869247
6.113075 35.996162 0.1439209
80.600075 28.851164 1.6449203
79.52007 26.859163 2.8589249
80.31908 16.201164 6.0749207
80.45207 14.924165 7.988922
65.81608 21.243164 94.51292
63.684074 20.486164 94.04592
69.376076 18.875164 94.25892
71.68807 19.324163 93.14992
33.308075 27.410164 41.00992
32.361076 26.705164 43.07592
21.047075 18.297165 43.102917
18.471075 18.458164 43.830917
15.834075 18.518164 75.10592
15.571075 15.966165 74.32892
9.681075 7.6041646 77.638916
10.734075 7.8641644 75.14392
45.608074 33.099163 13.293922
45.223076 30.956165 12.372925
41.649075 29.474165 104.99892
42.300076 30.998165 104.08492
35.085075 35.243164 10.214919
37.649075 35.817165 11.125919
40.441074 44.53216 21.248919
40.750072 43.736164 23.494919
14.469075 40.760162 8.011925
13.381075 41.447163 6.108925
19.087074 1.7671623 106.027916
16.378075 1.8591614 106.24292
55.391075 9.94516 95.985916
56.962074 9.66716 95.10692
60.951073 7.045162 94.39792
60.243073 6.6091614 97.01692
79.76907 4.783161 84.69592
80.88307 7.261162 85.21792
86.78307 10.32016 77.37192
88.238075 12.07716 76.139915
32.694077 29.617165 82.791916
33.921074 28.162165 80.98992
42.477074 36.503162 80.59792
44.328075 35.960163 79.38192
46.225075 14.324164 66.197914
44.864075 13.103165 65.07392
33.382076 12.119164 66.27092
31.708075 10.839165 66.847916
67.629074 6.6871605 96.92092
67.27107 8.209164 97.34692
61.033073 7.5131607 102.20392
61.295074 5.9061623 103.44292
67.82407 43.171165 0.38391876
65.49107 42.720165 0.8519211
58.628075 5.3761635 1.9229202
59.475075 5.568161 106.33992
3.762075 45.16516 64.013916
5.351075 46.371162 64.862915
8.367075 5.606163 75.19992
7.5360746 5.898163 77.655914
23.577074 17.671164 44.16592
23.966074 19.688164 46.017918
34.470074 29.596165 46.83392
34.525074 30.946165 48.77192
75.19907 31.222164 32.69592
77.308075 32.850163 31.803919
70.99808 39.825165 24.24292
70.08008 37.637165 24.08092
10.771075 21.590164 7.105919
11.695075 20.098164 9.057922
21.772074 22.140163 105.56592
19.583075 22.662165 105.58192
47.121075 12.357164 75.34192
47.593075 12.1781645 73.125916
58.932076 16.301165 69.02092
60.766075 15.589165 68.53192
20.455074 15.9211645 50.15592
22.005074 14.055164 50.50692
12.067076 15.160165 47.32792
13.386075 15.586164 45.816917
10.913075 45.31816 37.767918
10.178075 46.913162 35.956917
7.670075 6.4541626 44.476917
9.389075 7.983162 44.912918
8.803075 42.062164 37.34892
7.055075 42.166164 35.198917
1.5880749 3.6121635 42.448917
0.7180749 5.155163 42.22292
68.28607 4.0241623 97.58292
70.614075 3.865162 97.43692
78.38507 45.34516 89.64692
78.01408 43.221165 88.58492
1.2360749 21.108164 52.87592
3.242075 21.021164 51.67592
8.707075 27.604164 57.73192
10.892075 28.158165 57.41792
34.807076 38.058163 43.05492
35.462074 35.270164 42.70992
35.439075 25.957165 41.16892
36.728073 24.029163 41.77692
13.717075 34.77516 73.30292
14.942076 35.873165 75.223915
22.145075 34.007164 84.93592
23.211075 35.422165 85.72892
18.569075 33.714165 21.789919
19.257074 31.356165 20.664919
31.707075 23.235165 20.44192
31.197075 21.814163 18.50992
48.901073 18.143164 47.50992
50.849075 15.902164 47.14792
54.148075 19.331163 43.711918
55.663074 19.298164 41.926918
5.835075 5.064163 61.95892
4.421075 6.5951614 62.66692
1.518075 4.259163 75.447914
0.062075026 3.047161 75.63692
63.199074 33.252163 41.066917
64.44108 35.054165 42.476917
70.04907 35.300163 48.62092
68.31407 35.567165 49.82892
52.043076 46.770164 12.264923
52.267075 46.326164 10.00592
42.699074 0.0431633 1.2729187
43.176075 47.61016 105.30792
53.070076 11.238163 82.45792
53.300076 12.157162 84.30192
38.798073 11.016163 87.20492
39.474075 9.51416 87.87692
84.31908 36.300163 74.88392
82.490074 37.225163 76.264915
72.69208 40.769165 80.53292
71.35607 39.548164 79.82092
61.089073 32.821163 77.945915
61.120075 32.780163 75.80992
57.099075 44.734165 71.50692
57.757072 44.020164 69.17192
76.34307 2.7841606 100.23492
75.195076 4.4161606 98.68492
80.24107 8.893162 88.38592
82.47208 9.42416 89.08492
3.1150749 13.254165 59.961918
0.3860749 13.636165 58.64492
9.4910755 16.614164 47.07592
10.479075 15.880164 44.89092
8.789075 35.385162 79.86492
8.490075 35.371162 82.21392
20.466074 30.835165 80.62292
19.901073 30.077164 77.586914
73.83108 44.667164 43.767918
72.51308 46.114162 42.649918
69.60307 5.162163 51.36092
68.50907 7.3431625 52.32192
16.453075 7.0311623 72.89392
14.308075 6.7841606 73.78692
6.3700747 1.7541618 62.92192
4.730075 2.7501602 63.42192
53.234074 16.211164 37.649918
54.217075 17.463163 35.98592
45.059074 22.624165 28.304918
43.955074 23.816164 29.761919
15.721075 24.345163 97.61992
16.976074 24.632164 96.04592
16.921074 25.700165 88.97492
14.571075 24.823164 89.87692
86.67607 11.967163 9.288925
85.49307 11.73616 10.706924
77.00008 3.04216 10.582924
77.417076 3.2301636 12.780922
58.606075 8.33316 47.42192
57.045074 9.532162 47.14992
56.499073 17.377165 37.08992
58.780075 16.901163 35.73792
86.90907 19.065165 20.149925
88.86707 18.581163 18.857925
7.637078 21.713163 11.026924
9.16208 23.062164 9.38092
3.6610801 8.511162 61.11692
1.3410797 8.489162 62.15992
87.12007 10.471161 73.627914
88.307076 9.269161 75.364914
45.087074 13.955164 89.71892
45.022076 12.538162 92.05392
50.237076 10.512161 97.18892
49.554073 10.408161 99.24192
30.168074 17.551165 6.066925
30.642075 17.414164 8.069923
45.147076 15.064164 11.857925
44.912075 15.369164 14.0039215
47.645073 30.384165 76.42992
48.088074 32.694164 77.24692
58.287075 38.705162 70.95292
60.688076 38.332165 71.28492
45.955074 31.650164 59.68192
47.329075 33.13616 58.65892
35.842075 33.420162 47.72292
36.321075 34.877163 46.45992
8.908075 19.600164 9.660919
8.196075 20.396164 7.4499207
-0.394925 13.944164 104.74392
0.017074948 14.635164 102.66592
40.565075 44.766163 54.92492
40.081074 46.86016 55.38892
46.522076 48.17916 66.21892
47.212074 1.2691612 67.32892
10.4060755 41.25416 24.94792
10.450075 41.876163 23.157919
14.909076 47.670162 17.54492
15.133076 45.647163 16.231918
11.242075 38.862164 45.503918
13.448075 38.167164 46.38192
8.687075 48.42116 54.93092
6.764075 47.786163 53.41892
59.033073 17.652164 16.161919
57.885075 18.634165 14.013919
50.500072 17.215164 16.863918
48.313076 17.200165 16.098919
32.670074 23.583164 91.12792
34.293076 23.107164 90.87892
38.755074 23.796164 103.07192
38.477074 23.983164 105.44292
2.268075 1.3531609 15.439919
0.760075 3.3871613 15.393919
8.707075 9.197163 25.47692
10.703075 8.066162 26.216919
85.24207 33.807163 14.372919
84.77608 34.902164 16.04292
88.403076 0.52716064 14.41892
87.53307 2.07716 15.589919
18.817076 18.503164 76.66392
17.185076 19.960165 77.654915
21.469074 31.433165 84.61892
21.986074 32.290165 82.54992
33.297077 1.5311623 35.747917
31.306074 2.3091621 36.56192
22.773075 5.434162 46.35492
22.486074 6.53516 44.240917
59.250072 40.491165 29.16292
56.869076 40.755165 29.877918
56.749073 1.66716 33.14592
56.504074 3.1961632 35.00792
8.923075 2.9781609 46.80292
8.1820755 1.5001602 48.56492
12.527076 43.601162 38.816917
11.272076 42.265163 38.15592
6.951075 10.93816 101.88092
7.3780746 12.464161 102.84292
18.097075 9.919163 2.690918
18.831076 11.6261635 1.5859222
63.279076 29.372164 14.749919
63.922073 29.357164 17.61092
56.197075 18.479164 20.56392
58.244076 17.564165 20.26492
62.738075 40.378162 89.12092
64.087074 38.716164 89.88392
77.07707 34.257164 84.50992
78.97807 34.694164 85.35292
49.049076 28.432163 58.07692
48.435074 29.920164 59.593918
48.287075 20.856165 57.183918
46.099075 21.615164 57.54792
67.890076 8.9301605 75.377914
65.21307 8.902161 74.99192
57.611073 11.696163 83.89892
58.666073 11.721161 85.95492
46.866074 9.327165 25.34792
46.798073 12.310164 25.12592
43.959076 19.143164 32.199917
44.353073 20.980164 30.61692
43.218075 9.888161 13.063919
41.625072 8.798161 11.879921
30.751074 12.483162 10.912918
29.540073 13.514162 9.968925
51.360073 46.284164 102.44692
51.859074 44.649162 100.82292
65.49808 40.800163 99.88192
65.23408 42.698162 99.54692
37.799076 35.74016 2.8549194
39.305073 37.959164 2.037918
46.902073 45.256165 101.41592
46.709076 47.24016 101.88192
17.139074 40.922165 32.01392
18.098074 37.960163 31.94792
8.009075 39.492165 30.89592
8.105075 40.499165 28.29592
17.377075 44.842163 44.343918
16.358074 46.766163 45.48892
15.962075 40.976162 54.77792
17.592075 39.845165 54.50092
32.343075 42.87916 63.75792
31.867075 41.758163 65.42892
22.748074 33.457165 68.22692
22.986074 31.043165 68.502914
10.852075 16.908165 82.09792
9.177079 17.973164 82.09892
86.35908 14.021165 83.59592
85.155075 11.872165 84.38992
34.759075 4.283161 7.801918
33.263077 6.0911636 8.896919
35.545074 41.940163 16.384918
33.211075 41.898163 16.953918
41.091076 29.953165 67.110916
38.632072 29.768164 67.44292
37.646076 17.043165 62.34992
37.565075 18.463163 61.04692
4.905075 11.117165 103.43292
2.927075 12.3031645 104.01192
7.6470747 15.311165 10.22892
6.919075 16.476164 11.746925
55.710075 3.0531616 105.95992
56.667076 5.0411606 106.40492
50.845074 1.1231613 95.41092
49.359074 1.7081604 97.24692
74.779076 0.38716125 64.40992
74.31607 46.545162 65.87092
67.85507 41.374165 58.51392
69.391075 42.431164 57.14392
9.695075 8.468164 92.07092
11.055075 10.089165 91.24192
2.587075 14.347164 102.00892
3.222075 16.544165 102.87692
49.041073 46.230164 94.77392
50.959076 47.696163 93.42692
60.393074 44.062164 87.93292
61.050076 41.906162 87.16592
6.722075 33.853165 78.50292
4.594075 34.39316 77.597916
2.031075 35.098164 63.857918
-0.3409251 34.482162 64.626915
31.201075 45.746162 67.67092
29.791075 43.502163 66.90092
26.755074 39.14316 78.17292
27.505074 40.192165 79.60292
81.50607 28.952164 6.125923
83.83008 27.962164 6.5839233
75.44007 18.973164 13.634918
76.36607 17.554165 12.429924
13.515076 18.421164 70.24192
13.997075 17.467165 72.01892
16.905075 28.750164 71.654915
17.218075 30.801165 72.38192
7.1680746 0.5771599 11.599922
6.401075 47.340164 12.428925
8.927075 41.703163 3.6199188
11.121076 40.799164 4.8599243
35.643074 37.541164 82.86992
36.142075 35.701164 84.42492
34.929077 22.082165 83.77692
35.080074 22.155165 86.388916
36.194073 6.6111603 37.358917
35.492073 8.1801605 36.545918
29.026073 3.179161 31.77092
