25.473179 45.903946 39.198803
21.250172 48.662945 38.7038
20.414173 47.112946 40.099804
20.921173 40.054947 2.0207977
18.709175 38.823956 2.452797
12.135174 38.476955 1.2257996
11.570175 37.327953 2.6997986
24.899174 44.732944 50.5658
24.550175 43.479946 52.555805
24.217175 36.379944 49.568806
25.710178 34.677944 48.6508
29.343174 22.202951 63.8548
31.178173 23.60895 64.0798
31.594173 29.00995 68.0938
31.860174 28.56695 70.2548
46.45817 54.064945 56.497807
48.982174 54.100945 55.301807
48.508175 47.061943 51.7728
47.221172 45.762943 50.5928
38.080173 55.873947 70.4968
36.610172 57.000946 0.14880371
37.319176 61.888947 69.2438
36.733173 63.864944 70.2548
37.312176 47.177944 12.5767975
38.371174 49.132946 11.494797
38.230175 54.603947 15.386803
37.049175 55.848946 16.908798
34.537174 57.121944 58.193806
36.780174 57.609947 57.807804
37.070175 56.909946 50.0778
37.232174 55.129944 49.2708
2.7911758 36.47195 25.970802
1.331173 38.34695 26.007797
48.524174 35.074955 32.641804
46.291172 35.03895 31.886799
27.786173 58.248947 59.5628
29.348173 58.330944 60.976803
27.379173 50.494946 64.0078
27.676174 50.923946 66.1238
47.687172 19.601946 4.966797
49.254173 18.573946 6.6688004
4.0591736 19.376947 7.0988007
5.5901756 20.81695 5.884796
32.992176 38.74895 38.7738
32.642174 38.533955 36.903805
27.313173 32.563953 35.807804
27.680174 31.029947 37.463802
0.256176 12.22995 0.18379974
1.8281746 11.932945 2.290802
50.57617 7.5709457 0.43979645
49.876175 5.5779495 70.7388
16.699173 3.2089462 64.2938
18.970173 3.9199448 64.2258
25.630177 0.8729477 67.7388
24.957172 68.93994 68.6028
37.898174 15.223946 68.8178
38.818172 13.526947 67.7708
37.031174 11.17395 60.779804
38.611176 11.041946 59.1528
14.772175 25.31495 50.434803
15.200172 27.327951 50.5658
14.2921715 31.962946 44.6648
14.756172 33.70695 45.922802
26.891178 23.07995 60.8258
27.278172 23.711946 63.008804
22.426174 23.602945 67.9998
22.557175 23.362947 70.1308
19.971172 32.256954 53.047802
20.280174 33.03995 54.755802
14.421173 37.021954 58.834805
13.135174 37.97395 56.862804
0.9321747 44.665943 33.499805
2.4811745 43.269943 32.5388
8.855175 43.418945 37.123806
10.537174 41.760944 35.929806
5.284176 60.971947 69.3528
4.5611725 61.235947 67.078804
3.001175 66.139946 62.218803
0.7551727 66.823944 61.0908
19.059174 19.889948 59.786808
20.376175 20.66495 58.128803
18.107174 19.893946 50.985806
19.018173 19.796946 49.130802
22.138172 65.252945 28.220802
19.882172 65.55294 28.243797
14.727173 64.04794 33.1228
13.607174 65.41595 34.1458
17.760174 29.320948 43.2848
19.599174 30.06795 42.519802
19.035172 35.578953 38.0648
17.966175 35.852955 36.3688
49.302174 64.347946 45.445805
50.97217 63.412945 44.460804
1.2401733 0.61494446 45.265804
2.2931747 2.0599442 46.088802
30.629173 18.632952 60.941807
30.626173 20.546946 62.0968
36.010174 23.70395 57.581806
36.187176 25.874949 57.941807
6.1361732 60.208946 50.7438
7.287174 60.487946 52.5508
9.302174 67.92294 50.907803
8.925175 69.41495 49.1628
49.332172 55.856945 46.0948
49.525173 53.934944 46.740803
0.9891739 53.281944 53.380802
1.6611748 54.474945 54.811802
3.2921753 50.381947 42.7878
4.2691727 50.402946 40.278805
9.303173 46.172943 36.4098
10.932175 47.620945 37.0668
11.818172 1.1859436 42.9788
11.931175 0.1719513 41.304806
9.4101715 5.5779495 36.421803
11.5541725 6.347946 35.5768
28.096174 40.937946 7.6837997
26.799175 42.830944 7.264801
21.993172 40.176945 13.080803
21.286175 39.032944 11.2798
29.231173 25.049952 39.8968
30.319174 23.402948 40.459805
31.947174 20.863947 33.2738
32.828175 21.666948 31.006802
1.1631737 23.392946 65.2578
1.9141731 22.378946 63.302803
50.539173 22.869951 56.500805
0.6201744 22.639948 55.6048
21.209175 38.48795 6.0767975
19.687172 38.07095 7.6418
19.041172 34.36195 13.1408
20.251175 34.714954 14.901802
18.818172 66.59194 12.269798
18.766174 64.722946 10.940796
11.943172 65.74294 8.367798
11.009174 63.658947 7.7498016
22.578175 14.805946 46.6608
21.095173 15.114944 47.9238
19.132172 18.866945 41.5088
17.550175 19.811945 42.389805
27.997175 67.170944 52.3298
26.022175 65.96594 52.179806
26.042171 0.8859482 47.026806
24.313175 1.5449448 45.6628
23.023174 18.629946 41.0488
25.197178 19.450945 41.015804
28.094175 15.35495 45.654804
27.160175 13.461945 46.934803
17.890175 34.440952 63.702797
16.197174 33.75195 61.9728
22.069172 32.47595 57.052807
23.451172 34.49795 56.832806
48.721172 32.561947 60.411808
49.195175 34.674953 59.2428
3.0521736 31.836946 56.529804
3.489174 30.493952 58.1198
6.8511734 46.419945 52.403805
4.3721733 46.737946 51.809803
51.140175 49.573944 49.7458
50.660175 50.639946 48.239803
48.843174 39.692947 69.1508
48.945175 37.409954 68.3668
3.0431747 36.14195 65.3298
4.0871735 35.935955 63.2498
28.682175 8.653946 9.908798
27.822174 9.844948 12.136803
30.645174 14.859947 16.4898
32.967175 13.636948 16.719803
10.032173 22.768946 51.031803
10.616173 24.74695 51.2068
9.883175 24.350946 44.130802
10.626175 25.13595 42.4098
11.951172 16.221947 0.14579773
10.348175 16.460945 1.9688034
4.2991753 12.569946 1.054802
4.926174 11.844948 70.703804
49.698174 45.426945 63.8248
49.973175 47.369946 62.6108
46.37517 51.796944 60.126804
47.808174 51.996944 58.413807
17.447174 2.5039444 50.3018
18.506172 4.3819504 49.985806
14.808174 8.17495 53.9518
15.845173 10.460945 53.555805
12.295177 61.263947 57.704807
11.753174 59.610947 56.376804
13.920174 65.63895 51.5398
12.880173 67.184944 50.963802
42.111176 36.685944 70.4758
41.460175 37.643944 1.5907974
44.112175 45.739944 70.9988
42.994175 46.516945 1.7638016
49.699173 47.080944 37.6318
48.186172 45.383945 38.001804
44.341175 42.707943 32.749805
43.564175 40.584946 32.944805
43.510174 11.54995 70.4308
41.532173 12.241943 0.6928024
41.613174 11.253944 8.395798
43.906174 10.567947 8.707802
45.379173 25.906946 40.3688
44.031174 24.907946 41.239803
43.687176 21.89895 47.707806
41.640175 21.522951 48.4238
13.400173 18.548952 42.1178
14.306175 16.570946 41.888805
14.967175 16.976944 50.055805
16.576172 18.088945 49.7028
3.2801743 18.977945 22.299797
2.978176 19.961946 19.939796
2.9271736 12.616943 15.2798
3.7871742 14.333946 13.898796
22.263172 23.422945 21.179802
22.093174 21.972948 19.676796
20.257172 16.847946 24.205795
18.242172 17.10395 25.301796
43.587173 56.526947 50.283802
44.737175 55.268944 51.102802
38.551174 50.504944 53.6048
40.473175 48.907944 54.0208
31.192173 18.310946 67.9758
32.835175 20.276949 68.2388
26.178173 24.977945 0.07080078
27.632174 26.637949 0.52279663
8.9361725 7.2139435 60.1628
8.376175 7.752945 61.831802
13.264172 13.078949 63.897804
13.541172 15.050949 62.5838
20.731174 38.985943 69.2908
22.414173 38.093945 68.7388
29.255173 40.529945 69.2928
29.358173 41.991943 71.0918
15.372173 50.649944 1.528801
15.079174 52.276947 0.52480316
19.411175 48.158943 65.9688
21.387173 49.221943 65.5038
18.043175 32.02695 43.943806
19.553173 33.61295 43.074802
19.236172 39.67295 45.9428
20.700172 41.63195 45.6498
45.605175 39.761948 38.1348
44.471172 37.92995 38.2888
45.182175 33.15095 43.308804
43.526173 31.424952 42.866802
40.216175 25.223948 58.425808
38.934174 23.804949 56.585804
41.607174 27.685946 52.963802
41.079174 28.290949 50.505802
40.475174 3.6819458 5.0057983
38.997173 4.7999496 3.7198029
31.834173 5.439949 3.2388
31.451174 3.7069473 2.353798
41.729176 68.56995 45.6508
42.706173 67.59595 47.4258
45.964172 4.635948 47.769802
46.322174 3.9879456 45.612804
51.644173 9.862946 64.5178
51.036175 7.613945 64.0358
45.110172 3.9449463 60.2998
43.806175 3.3889465 62.455803
44.140175 53.027946 59.213802
44.11817 54.534946 57.880802
45.202175 62.499947 58.060802
44.065174 62.869946 60.0348
31.636173 40.271946 68.5718
31.361174 41.156944 66.4038
35.783173 44.894943 62.427803
33.778175 46.354946 63.334805
2.0491753 59.322945 3.879799
0.51517487 60.002945 5.813797
47.179173 64.014946 2.4568024
46.018173 63.133945 0.4957962
6.584175 38.481945 15.4608
5.256176 37.592945 13.996796
4.4951744 44.727943 9.278801
6.5541725 44.046944 8.624802
0.4631729 35.887943 55.440807
50.404175 35.860943 55.342808
50.642174 42.937946 57.3558
0.51517487 43.916946 58.362804
32.148174 26.046946 41.793804
32.857174 27.654947 40.8278
33.516174 32.616947 45.822803
31.718174 33.184956 45.7878
31.268173 56.809944 59.942806
32.287174 58.506947 59.042805
30.337173 62.306946 52.7478
30.519173 64.19194 52.668804
41.225174 3.092949 66.1568
40.392174 4.972946 66.4938
45.871174 11.128944 66.1988
47.52817 11.371948 66.5248
29.546173 0.2859497 70.9598
29.746174 0.19594574 1.9598007
32.079174 65.63194 1.2468033
32.708176 64.98194 70.4378
28.352173 20.93995 53.513805
27.041174 19.418947 53.057804
32.434174 13.092949 55.584805
30.911173 12.63195 57.542805
27.115177 42.469944 62.9218
26.921177 41.140945 60.593807
20.656174 43.213943 57.040806
21.614174 42.173946 54.753803
46.688175 64.81094 64.1698
48.487175 64.32994 63.029804
1.0971756 58.432945 63.491802
2.353176 59.292946 64.7648
32.541176 47.629944 65.3528
33.366173 49.793945 65.9598
33.715176 55.592945 60.386803
35.155174 54.427944 59.413803
9.888172 53.785946 31.604801
9.582172 55.722946 33.102802
13.059174 62.094948 32.4978
12.160175 62.815945 34.320805
9.199173 45.255943 47.720806
7.4461746 45.549946 46.429806
6.584175 38.837944 47.8578
4.871174 37.527946 48.948803
44.90317 31.253946 61.9458
46.456173 30.643946 60.023808
42.763172 28.922945 54.760807
43.862175 29.08195 52.7068
38.277172 34.389946 5.153801
38.333176 36.032944 3.8858032
39.631172 43.517944 3.250801
40.370174 44.359943 5.0887985
21.402172 16.334946 59.071804
21.777172 14.644943 57.7858
19.448174 14.580948 50.209805
20.091175 16.553947 50.3418
32.377174 39.96695 31.775799
30.739174 40.850952 33.526806
25.872173 33.530956 32.5508
24.670174 35.01295 31.643803
28.257174 67.56194 8.624802
30.942173 67.70895 8.259796
32.908173 63.581947 3.4207993
32.185173 61.358948 2.4188004
31.566174 10.559944 4.809799
33.313175 9.216949 5.4168015
39.643173 6.7289505 5.603798
39.673176 7.4999466 7.443802
8.415173 17.59595 58.609806
8.668175 15.724945 59.877804
10.870174 9.127945 56.921803
12.567173 9.116943 55.528805
30.803173 39.642952 0.6977997
28.832174 38.30695 71.0198
25.629177 39.54995 7.1837997
26.909176 38.369953 8.250801
37.256172 51.254944 40.0098
37.503174 52.214947 37.836803
44.547173 56.922947 40.416805
45.753174 55.244946 40.8178
42.510174 12.265945 57.0908
43.816174 14.07795 57.278805
50.443172 13.373947 59.8258
0.6971741 14.15995 59.3558
35.908173 48.495945 60.4118
37.346172 47.623943 61.941803
40.534172 52.714947 65.3908
41.362175 52.186947 67.2938
43.698174 27.84395 1.5727997
44.373173 29.681948 1.938797
40.035175 34.70995 67.8968
42.421173 35.505955 68.1538
41.512173 28.16495 60.693806
42.027172 26.210947 60.957806
47.087173 22.181948 58.380802
45.301174 21.41395 57.671803
23.938175 55.311947 69.314804
24.459175 54.593945 70.9438
28.880173 58.525948 3.151802
30.964172 57.863945 4.8547974
19.378174 1.2629471 57.636806
20.599174 69.60494 58.036808
19.020172 62.565945 57.166805
19.922173 60.685947 58.053806
49.315174 5.5099487 14.603798
48.330173 7.92395 15.162796
42.553173 6.9929504 18.749802
40.989174 8.668945 19.427803
47.580173 1.8059464 25.8788
46.286175 0.27294922 25.109802
48.789173 65.64894 31.140804
49.245174 63.915947 29.253803
26.130175 43.254944 39.7758
28.365173 42.278946 39.944805
30.022173 44.468945 46.740803
28.055174 44.771946 48.0108
29.934174 27.48495 40.569805
28.007174 26.836946 41.5648
29.759172 32.565952 47.9288
28.357174 33.933956 47.057804
41.833176 27.892946 40.859806
41.721172 25.805948 42.321804
43.936172 27.992952 49.4258
43.548176 30.116945 50.112804
26.805174 4.651947 37.8408
28.992174 3.3799438 38.2608
29.091173 8.372948 44.8298
29.937174 6.2539444 46.181805
14.353172 30.670946 32.018803
16.649174 30.667948 32.2738
22.152172 33.295956 34.791805
21.083172 34.976955 33.2328
3.6471748 1.7579498 53.519802
2.777176 69.87395 52.477802
2.8001747 67.114944 59.458805
4.6231728 65.669945 59.194805
28.985174 50.257946 43.000805
29.819174 51.893944 42.183804
36.582172 54.017944 46.3038
37.164173 52.429947 47.754803
16.677174 9.045944 66.1938
18.313175 8.49295 68.2488
14.668175 15.582947 0.6808014
13.210175 14.552948 1.9217987
38.492172 7.500946 33.736805
38.348175 8.879944 35.1488
37.599174 15.947945 36.2148
37.647175 15.351944 38.5388
23.255173 52.085945 0.7738037
23.934174 50.140945 2.080803
22.041172 42.925945 70.0708
20.455173 42.402946 0.5848007
1.2741737 60.041946 46.9528
2.1541748 62.038944 45.9138
7.294174 58.160946 44.2308
9.468174 57.582947 43.332806
26.940174 43.076946 53.8838
25.386173 43.458946 55.124805
31.050173 45.450943 61.4908
32.797173 45.385944 60.759808
24.900173 61.365948 66.1858
25.171177 59.231945 67.2298
17.144173 56.016945 66.2408
17.538174 53.963947 67.0328
29.732174 24.126947 61.5558
31.240173 25.424952 61.5618
29.302174 31.869951 60.088802
28.515173 31.174952 58.4798
3.5141754 53.521946 57.926807
3.4241753 50.742947 57.610806
8.609173 48.479946 63.245804
7.6671753 47.889946 64.5658
44.557175 36.87295 45.152805
46.186172 38.603954 45.669804
51.894173 39.72895 43.2718
0.20417404 41.78295 42.5948
14.812172 67.875946 53.7148
12.439175 68.224945 53.4248
6.5641747 66.26094 57.4528
7.4531746 66.12495 59.153805
23.726173 25.901949 44.866802
24.871174 25.20695 46.379803
24.626175 33.232952 46.6188
23.141174 32.508953 45.365803
38.383175 27.576952 38.561802
36.437176 28.71995 38.463802
39.934174 34.59695 38.811802
39.020172 37.008953 40.138805
38.157173 32.879948 64.8548
39.745174 32.658947 63.0858
43.331173 35.199955 57.740803
43.228172 37.11195 58.0228
15.826172 19.13495 52.114803
14.386173 19.615946 53.2438
13.859173 19.768946 60.875805
11.935173 20.090952 62.2508
18.944172 40.839943 8.816803
20.814175 41.193943 9.8387985
25.889172 43.390945 4.2248
25.613178 44.234943 2.7088013
22.060173 31.799952 41.9518
22.161175 33.79095 42.555805
17.773174 38.825954 40.533802
18.782173 38.327953 38.561802
23.462173 29.59295 43.276806
21.720173 28.494951 42.3958
27.216175 22.807947 40.029804
26.334179 21.637949 41.475803
12.198177 51.302944 28.9668
10.031174 51.807945 28.9818
7.0021744 45.470943 27.2658
5.0421753 45.394943 26.977798
19.924175 6.1959457 31.915806
18.674175 5.9859467 29.572803
12.648174 8.744949 31.3288
13.018173 8.91095 33.735806
27.771173 29.641947 7.4058
29.744173 28.533945 8.241798
29.275173 28.09495 15.788803
27.421173 29.450945 15.730797
18.555172 9.239944 44.2058
18.270172 9.2289505 46.403805
13.108173 3.7719498 44.254803
12.130177 2.5589447 45.610806
48.51417 9.309944 42.306805
50.038174 10.552948 40.777805
2.8161736 5.8299484 39.5758
0.90517426 4.9549484 39.1488
17.575172 54.849945 52.4698
15.353172 54.718945 51.848804
17.968174 54.674946 44.8258
18.654175 56.043945 43.4688
17.300175 45.634945 70.3748
17.355175 44.470943 68.8058
11.704174 44.607944 64.8968
9.794174 46.172943 64.3888
3.7151756 48.210945 21.288803
5.267174 47.103943 19.664803
11.838173 52.139946 21.629799
13.248173 49.897945 21.708801
22.455173 44.467945 24.999802
23.953175 42.565945 25.839798
31.010174 47.334946 24.013802
32.238174 45.630943 23.8098
41.913174 41.494946 31.006802
39.854176 42.343945 31.2448
33.670174 39.834946 34.406803
32.665173 41.211945 35.848804
27.130177 6.623947 7.847801
25.252178 7.330948 7.061798
20.166172 0.6689453 9.291801
18.577175 2.22995 9.298798
25.100178 5.9309464 53.666805
25.305172 7.5299454 52.088802
19.326172 5.552948 47.378803
20.821175 5.976944 44.9508
19.295174 40.892952 13.132797
17.569172 40.415947 11.2258
13.882172 38.990955 8.310799
13.142174 37.548954 6.5278015
15.375172 31.449945 41.686802
13.424175 32.67995 41.9008
12.914173 34.49995 33.416805
12.055172 32.83595 32.6508
51.269173 33.33095 55.093807
50.698174 32.80595 52.894802
3.520176 34.200954 46.892803
5.6251755 33.23695 47.680805
19.421173 43.141945 11.360802
19.455173 45.157944 10.580803
26.398174 47.552944 11.365799
28.308176 47.062946 11.983803
12.716175 57.935947 39.430805
12.6181755 56.524944 40.823803
11.6671715 51.536945 34.0898
10.981174 49.810944 35.333805
0.95817566 50.819946 29.292805
2.9911728 49.536945 29.8698
7.1771736 54.754944 31.742802
7.737175 57.026947 31.539799
1.1521759 68.63394 35.820805
2.6221733 69.779945 34.672802
5.1461754 4.4549484 39.988804
5.6741753 5.2359467 38.143803
34.111176 11.52195 50.4788
32.550175 11.704948 49.072803
35.341175 15.689949 45.6628
37.174175 16.97895 45.3408
39.050175 27.213945 57.315807
39.035175 27.94295 59.509808
33.840176 32.135952 62.7668
32.189175 31.28895 63.579803
46.601173 9.810944 31.6358
45.744175 8.602943 30.305805
50.671173 7.436943 25.596802
49.622173 6.375946 24.438797
50.977173 14.443947 62.425804
0.9831734 16.255943 61.3398
46.627174 19.360949 62.026802
44.647175 18.60895 61.990803
49.890175 67.61894 1.2967987
49.415173 65.53394 2.528801
0.53017426 61.741947 7.870796
2.2761726 63.144947 8.4257965
2.3791733 37.051952 47.1598
1.9111748 35.910954 45.362804
46.138172 34.174953 45.671803
46.274174 32.023952 45.322803
11.0991745 9.861946 65.8878
13.030174 10.543945 65.8118
17.612175 4.8769455 62.071804
17.782173 5.9189453 60.606804
28.259174 53.550945 56.517803
30.702173 53.224945 56.745808
32.710175 50.142944 51.9558
34.939175 49.532944 52.4668
7.4511757 20.81495 69.0518
7.4031754 22.431948 67.7598
8.404175 19.285952 61.098804
10.161175 17.43895 61.920803
51.345173 61.624947 34.527805
50.858173 59.810947 35.4938
51.638172 60.174946 43.1488
1.3271751 62.152946 43.491802
44.820175 37.93195 69.5478
44.566174 36.188953 71.1288
45.144173 30.480951 68.2198
46.45817 28.258951 68.1658
49.658173 1.127945 59.998806
50.719173 2.5309448 58.337803
50.726173 9.78595 57.838802
50.107174 10.569946 59.790806
49.223175 10.832947 44.1338
51.174175 10.355949 44.5258
48.047173 6.5889435 49.4528
48.588173 4.587944 48.874805
40.380173 22.286951 40.085804
41.403175 20.972948 38.5088
44.532173 15.985947 41.5358
44.328175 14.624947 39.7428
17.933174 8.898949 34.459805
19.889172 9.275948 32.711803
26.578175 11.724945 35.6328
25.775173 14.061943 37.376804
41.994175 3.953949 42.403805
41.370174 5.351944 41.0628
36.756172 6.4309464 35.4418
36.373173 8.113945 36.8138
40.644173 59.454945 58.288807
41.167175 61.474945 57.156803
38.798176 58.801945 49.238804
37.174175 59.743946 49.777805
1.449173 25.104952 56.164806
1.6471748 25.14895 54.109806
5.7851753 25.545946 50.1208
6.4721756 26.60895 48.0248
9.665173 5.4449463 62.004803
9.289173 3.4209442 62.525803
8.230175 3.198944 70.2068
6.3681755 1.8059464 70.2408
42.340176 50.605946 55.893803
43.469173 49.421944 54.8398
47.124172 43.781944 53.4958
48.945175 44.370945 52.5938
45.422173 67.30595 62.9438
44.428173 67.628944 64.7368
38.167175 62.941944 66.7358
36.560173 64.57494 66.1258
27.532177 40.385944 65.7208
26.168179 40.297943 64.092804
21.974174 46.701946 64.2088
20.665173 45.926945 66.3328
39.549175 17.821947 24.981796
38.235172 19.322947 25.940796
32.691174 14.483948 28.8148
31.648172 14.290947 31.046803
39.890175 51.803944 60.111805
38.170174 50.254944 59.151806
42.828175 43.525944 58.010807
41.507175 41.953945 59.157803
2.4051743 66.308945 42.2618
4.3961754 67.057945 42.7998
10.669174 63.733948 46.2858
11.076172 62.939945 44.2068
30.325172 67.39494 46.7478
31.970173 66.500946 45.2988
31.028173 60.127945 42.4688
28.526175 60.435947 42.541805
35.409176 69.06795 26.9338
35.400173 68.22894 29.227802
33.032173 60.641945 30.346806
34.410175 59.410946 31.025799
44.182175 48.279945 70.5188
42.505173 49.237946 69.4428
39.793175 46.473946 3.3778
39.088173 46.830944 5.5258026
41.390175 43.101944 33.360806
42.689175 44.006947 34.542805
39.432175 50.925945 32.351803
40.957172 51.894947 33.574802
51.535175 13.53495 55.221806
1.2951736 14.084946 53.641804
0.37517548 22.60895 52.963802
2.4711761 22.792948 52.238804
44.45117 44.09295 50.629803
43.258175 42.03495 49.056805
44.291172 35.27995 51.763805
42.855175 33.897953 53.6058
49.360172 48.097946 47.943806
48.707172 46.433945 48.309803
49.419174 44.036945 39.917805
50.859173 45.742947 39.504803
43.801174 12.38295 67.4738
44.02117 14.3769455 66.4478
41.627174 17.811945 59.5218
40.139175 16.875946 58.5358
50.912174 8.091949 36.790806
50.008175 9.998947 37.7578
43.938175 4.731949 40.712803
45.83317 4.3209457 41.6738
37.770172 27.252947 54.959805
37.326176 25.477945 55.613804
35.932175 24.908945 47.6928
34.616173 23.183947 48.237804
43.209175 7.81295 34.1748
41.514175 8.919945 35.709805
39.565174 10.252945 41.598804
40.738174 8.464951 42.766804
44.251175 52.041946 63.689804
42.414173 50.813946 64.8138
43.868176 44.793945 60.3078
43.97217 42.492943 61.0358
22.744175 56.804947 26.6688
24.531174 55.318947 26.115799
30.192173 58.089947 30.7738
29.088173 57.821945 32.9958
47.255173 41.733948 45.642803
48.506172 39.377945 47.019802
50.274174 35.865955 52.5778
51.765175 36.00295 51.071804
20.512173 24.457949 33.0378
19.556175 22.765947 30.882801
14.166172 19.06795 32.7188
14.728172 17.504946 34.002804
36.691174 3.9739456 62.0428
35.046173 4.809944 62.475803
37.373173 6.518944 68.9728
37.036175 7.7639465 0.08180237
36.653175 26.050951 40.0678
38.710175 25.20695 40.9948
36.751175 28.51095 45.236805
37.280174 27.991945 47.879803
32.022175 16.943947 45.904804
30.315174 16.114944 47.2188
28.205173 23.147951 50.241802
27.237173 24.95695 48.971806
23.266174 10.204948 54.9528
22.340172 9.762947 56.3968
17.094173 3.962944 57.190807
18.690174 2.9959488 55.6478
44.75717 12.404945 53.194805
44.099174 14.45295 54.156803
41.809174 17.41095 47.779804
43.821175 19.361948 47.338802
29.204174 40.975952 54.269802
31.137173 39.31695 54.5628
28.501173 33.809956 50.002804
26.486174 32.69395 50.527805
26.658175 12.68895 28.380798
26.908175 13.000946 30.6218
30.661173 8.280945 33.958805
32.766174 8.25695 35.794804
15.609173 21.614946 42.7288
13.047173 21.32895 42.7718
13.914173 19.781946 49.7568
14.102173 21.351946 51.352802
28.325174 47.379944 48.570805
26.205173 47.043945 48.420803
25.706173 53.725945 48.6338
23.995174 54.273945 47.519802
14.416172 23.533945 17.951797
14.366173 23.431948 20.5018
16.884174 16.407944 21.413795
19.501175 16.678947 21.721794
29.893173 10.691948 69.2808
27.792171 10.248947 69.5038
25.747173 3.4119492 0.12680054
27.170177 1.4419479 70.0888
28.545174 0.62194824 46.503803
31.248173 1.252945 46.248806
30.101173 6.556946 50.809803
28.001173 7.4109497 51.3148
36.065174 25.571947 26.875801
37.122173 24.193949 25.444801
34.448174 30.56795 20.8908
32.675175 31.10995 22.472801
27.160175 5.161949 55.000805
28.700174 5.0589447 56.152805
28.046175 0.9009476 62.885803
25.475178 1.0979462 63.4088
31.687174 57.529945 40.9268
30.434174 57.356945 42.876804
36.528175 56.683945 47.1778
37.235172 59.104946 46.8828
41.590176 60.576946 47.238804
43.178173 61.287945 45.9968
38.204174 60.558945 38.915806
38.743176 58.577946 38.555805
14.835175 0.6739502 5.1857986
13.961174 69.50994 3.7218018
19.436172 65.292946 0.2888031
19.915173 64.097946 2.115799
15.985172 45.407944 41.5798
18.033173 44.832943 42.790806
17.045174 52.411945 46.1878
18.649174 52.784946 47.5228
47.203175 4.7559433 24.908798
48.033173 3.9979477 27.0998
42.257175 3.328949 25.0428
40.193172 3.2739487 24.674797
23.493172 37.842953 26.2108
25.507175 36.462955 25.983795
24.692173 36.21995 18.852798
24.420174 34.910954 17.317802
30.697174 46.092945 39.1628
29.806173 47.699944 39.984806
37.384174 49.363945 43.989803
38.331173 47.732944 43.070805
19.452175 65.05395 39.932804
20.503174 63.355946 40.683804
20.595173 58.067947 43.9388
22.930172 57.283947 43.630802
31.078173 29.213945 36.394802
31.961174 30.743952 36.526806
33.388176 35.271954 42.6198
34.267174 37.794956 42.085804
30.420174 7.278946 63.550804
30.037174 5.3769455 64.536804
29.848173 6.109947 0.20680237
31.668173 7.292946 1.3158035
41.261173 9.142944 50.532803
41.858173 8.20195 48.5648
39.288174 12.0889435 43.585804
39.900173 14.047943 42.752804
32.822174 35.420956 26.271797
32.042175 36.866955 27.896797
30.629173 30.374949 33.7898
28.431173 30.722948 34.2858
13.331173 47.018944 18.438797
13.104172 44.706944 19.318802
15.930172 41.732944 25.101799
14.900173 42.650944 26.9328
25.475178 68.962944 60.179806
23.950172 67.945946 58.629803
26.440174 60.867947 58.8278
25.266178 58.773945 59.227802
2.921173 55.743946 64.8678
1.0831757 54.495945 65.078804
46.638172 54.589947 68.1748
46.966175 56.341946 69.633804
29.997173 31.667948 68.1168
31.661173 31.443949 69.7338
33.115173 38.20995 70.7398
34.371174 38.675953 69.1158
41.150173 49.898945 15.741798
40.583176 52.104946 16.375801
42.216175 57.051945 11.775803
40.525173 58.597946 11.158798
11.758175 69.59394 50.561802
11.633175 0.85295105 53.004803
12.845173 8.244949 52.1638
13.636173 8.295944 50.044804
46.33317 9.711945 50.6488
45.185173 11.431946 50.7858
45.762173 15.503944 44.402805
46.883175 15.538948 42.642803
23.048172 6.49395 35.7038
24.743172 5.186943 35.697803
24.052174 9.594948 29.210804
25.074177 8.02195 27.8638
12.232174 9.031944 37.6898
13.2241745 9.651947 39.170803
15.595173 3.72995 40.248806
17.597172 4.6219482 41.0648
31.044174 47.147945 46.407803
31.114174 47.598946 48.7188
27.438173 53.626945 46.3718
28.395174 56.019947 46.419804
42.636173 2.8089447 0.43979645
42.869175 0.7019501 0.165802
39.092175 66.529945 4.5518036
37.041172 66.99394 5.8438034
6.128174 38.540943 36.766804
7.957176 37.303944 35.809803
10.4171715 42.493946 30.403805
11.371174 41.088943 28.484802
19.738174 61.804947 54.467808
20.232174 59.850945 55.608807
16.222172 53.509945 55.025806
17.930172 51.597946 54.811802
17.774174 22.972948 48.227802
18.641174 25.20695 47.7988
12.4171715 27.098948 41.949802
12.915173 25.548952 40.859806
16.725174 16.191948 33.018803
17.132172 14.421944 31.784801
24.227173 12.191948 29.9138
24.197174 11.988945 27.685799
28.894173 9.237946 35.822803
30.442173 10.1649475 37.436802
27.264172 12.16095 43.9978
25.209179 12.761948 44.834805
22.542171 61.540947 54.778805
21.919174 62.772945 52.976803
26.699177 58.171947 48.3848
26.036175 56.291946 47.640804
16.757172 24.311945 39.4398
19.020172 23.35795 39.776806
23.034172 23.201952 45.8978
25.273174 22.530947 46.141804
14.059174 51.060944 25.325798
11.9171715 50.422947 26.068802
9.208172 44.655945 25.6678
9.735172 44.434944 28.313797
4.270176 66.292946 40.1778
5.3791733 64.670944 39.5948
3.3401756 58.966946 36.197803
1.2751732 58.953945 35.047802
6.025173 16.11995 57.615803
6.360176 14.635948 59.290802
2.258175 10.936943 64.5558
1.0991745 12.290947 66.1008
20.632172 56.529945 30.4278
20.529175 54.151947 30.922802
27.434177 50.904945 30.265804
27.079174 49.624947 31.835804
19.838173 28.48395 6.6528015
21.622173 27.709948 6.3787994
18.657173 21.17695 8.334801
17.396172 20.06495 7.5867996
20.229172 59.572945 62.8628
20.931175 58.528946 60.593807
13.115173 59.237946 59.168804
11.151173 57.985947 59.218807
27.207172 50.698944 44.9818
27.852177 48.537945 45.845806
21.945175 45.357944 40.948803
20.885174 43.359943 41.432804
4.7221756 34.34995 67.5658
3.626175 34.45995 69.3938
3.6111755 42.346947 0.9288025
3.5231743 44.01095 71.1348
12.235172 45.893944 35.670803
14.456173 46.022945 36.0898
16.495174 38.586945 37.3448
15.258175 36.773945 36.697803
23.869175 31.476946 33.693806
23.447174 32.48495 32.004803
19.385174 26.293947 31.102802
17.864174 26.32995 32.697803
9.380173 57.039948 19.635803
9.318172 56.257946 22.230797
2.2521744 53.908947 20.288803
0.756176 52.044945 20.120796
10.9101715 61.567947 27.4188
13.029175 61.935947 28.747799
15.007172 69.28794 27.532799
16.646172 70.14694 29.2318
50.818172 21.17695 41.528805
49.223175 19.534952 42.142803
49.409172 20.890947 34.543804
51.692173 20.23395 34.113804
6.645176 50.690945 45.5378
6.871174 49.355946 47.4788
12.400173 54.960945 51.475803
12.489178 53.816944 53.6508
8.516174 35.76195 46.947803
6.824173 35.74795 48.4288
6.0071754 33.341953 54.607807
3.8351746 33.134953 54.2448
17.048172 36.358944 33.641804
16.442173 38.496944 34.559803
15.905174 43.601944 30.818806
15.217175 45.539944 31.694805
37.183174 44.540943 42.2438
39.679173 44.881947 43.5658
42.731174 38.877945 40.777805
41.740173 36.915943 39.848804
0.99617386 2.6459503 63.007797
2.5761757 3.7799454 61.9888
0.8021736 10.581947 59.4108
2.013176 12.239944 58.010807
39.589172 50.649944 27.5588
37.696175 50.353947 25.832802
38.471172 57.985947 26.1128
36.443172 58.047947 27.165802
7.631176 17.964952 32.961803
5.6531754 18.090952 32.9788
2.744175 25.52395 33.1758
3.6951752 25.64995 34.9108
11.072174 9.982948 53.043804
12.262173 11.942947 52.3848
5.402176 13.6039505 56.1608
6.760174 12.610947 57.809803
29.471172 6.6579437 24.179802
29.904173 8.662949 23.846802
32.705173 12.278946 18.9348
32.072174 14.435944 19.096802
47.47917 32.69195 33.014805
48.246174 33.83595 35.477802
46.303173 28.642946 40.2618
48.063175 27.34295 39.9528
45.156174 65.89994 47.0378
46.790173 64.597946 46.431805
49.195175 63.338947 53.672802
48.505173 62.718945 55.560802
16.240173 48.595943 55.906803
17.352173 49.734947 57.474804
24.187172 52.157944 55.7308
24.477173 52.715946 53.557804
18.009174 60.731945 1.8287964
16.440174 59.367947 1.6108017
21.388172 54.666946 0.6977997
21.922173 53.773945 70.1948
47.97917 53.368946 49.030804
47.898174 51.378944 47.8848
40.943172 47.178944 49.361805
38.902172 47.606945 48.725803
6.7031746 14.948944 30.182804
7.346176 16.999947 30.458805
13.295174 19.20495 29.934803
15.100174 17.727945 30.735806
22.510174 17.91495 8.045799
21.540173 16.106949 8.137802
21.936172 13.18895 14.520798
20.763172 11.168945 14.979797
0.6521759 30.185946 41.152805
1.192173 28.475946 42.9808
50.934174 21.95695 45.725803
51.663174 20.71895 43.9248
11.771172 68.81694 1.9637985
11.132172 69.91394 0.27179718
9.437172 67.78394 64.5658
7.548176 68.76094 63.5558
50.713173 10.580948 34.7048
50.620174 8.682945 34.179806
5.1391754 4.8179474 35.1368
6.8441734 6.342949 34.790806
8.771172 64.90295 40.2758
7.3181725 66.76395 39.6908
6.3181725 2.6589432 43.545803
6.4201736 2.9879456 45.971806
14.677174 42.999943 55.829807
16.881172 43.076946 57.192806
19.441174 47.240944 63.4908
18.347172 48.687946 63.581802
33.445175 38.993946 53.235806
35.364174 39.684944 51.987804
32.795174 45.500946 49.434803
33.555176 47.580944 50.3268
44.006172 36.028946 55.304806
45.968174 36.099945 54.135807
48.787174 41.155945 58.237804
48.575172 42.933945 59.443806
48.367172 24.034952 49.7878
46.641174 24.637949 48.359806
47.495174 28.643946 42.7578
45.960175 29.92795 42.834805
43.167175 28.269945 68.1048
45.062172 26.777948 66.3738
44.795174 21.41495 62.830803
45.935173 21.684946 60.961803
9.502174 11.054947 49.155804
8.759174 10.27095 47.2428
9.594173 2.7799454 46.707806
9.075172 1.3999481 47.766804
50.950172 7.6789474 16.1848
50.124172 9.300949 16.603798
51.526173 15.207947 21.421799
50.165173 13.74295 22.283798
1.7201729 2.2339478 10.437798
1.0181732 0.73794556 8.962799
50.509174 1.4759445 2.4708023
49.75017 3.49395 1.4848022
41.083176 10.253944 54.947803
41.004173 7.908943 55.283802
34.405174 6.5239487 58.9668
34.924175 4.707947 59.595806
48.412174 58.681946 14.003799
46.922173 60.085945 13.879799
50.057175 66.80395 11.656799
51.47917 67.81294 10.915802
34.627174 11.449944 59.7028
36.180176 12.06395 57.915806
39.121174 10.079948 52.2608
39.169174 10.7139435 50.129803
18.790173 44.117947 27.901802
17.299175 42.445946 28.809803
21.849174 37.271946 32.1188
23.210175 36.999943 30.501804
47.767174 34.94595 56.457806
49.207172 33.672955 56.6058
49.212173 26.127947 55.669804
50.731174 25.333948 54.844807
46.341175 34.962955 59.281803
45.704174 36.80495 58.1478
0.64017487 39.61995 59.834805
2.3271751 39.92595 61.478798
4.1891747 47.222946 57.013805
4.7381744 45.551945 55.794804
4.6891747 38.254944 57.946804
2.6671753 38.754944 58.411808
35.597176 6.941948 49.610806
35.243176 8.818947 50.361805
31.611174 5.101944 57.190807
33.368176 3.3109436 57.755802
34.823174 69.25994 53.0898
34.122173 1.6099472 54.156803
38.164173 6.86895 51.2318
40.139175 7.5589447 52.6178
0.26117325 61.642944 27.207802
0.5391731 60.529945 25.303795
49.087173 59.112946 19.845802
47.262173 57.564945 20.6838
48.947174 57.445946 17.687798
49.641174 59.486946 16.064796
3.487175 61.469948 18.539803
3.7921753 63.465946 18.296799
30.656174 33.30695 62.025803
31.420174 34.68095 63.926804
27.632174 35.994953 69.8798
25.697174 35.211956 69.8508
30.132172 50.007946 29.171803
30.022175 49.091946 27.217796
24.693172 45.445946 31.221806
23.685173 43.999947 29.1218
42.917175 50.723946 35.3258
43.819176 51.777946 37.152805
40.842175 46.992947 42.016804
41.317173 47.255943 43.7478
36.606174 29.332949 51.811802
38.818172 28.866945 52.847805
38.183174 36.76195 56.461803
39.849174 37.689953 55.449802
41.140175 67.085945 34.0348
41.501175 69.10995 33.111805
44.909172 2.7569504 39.0118
46.376175 3.5239487 37.1888
1.2391739 47.785946 36.876804
2.487175 48.971943 38.5818
51.905174 53.229946 42.616802
1.067173 52.275944 44.015804
48.704174 14.541946 51.5258
50.211174 16.349945 51.684803
49.202175 19.197947 44.961803
47.154175 20.008951 44.0788
5.973175 24.446947 35.922802
8.364174 23.598948 36.3538
8.602173 23.688951 27.775795
10.001175 22.043947 27.995796
24.412174 2.5659485 35.894802
23.570175 3.6059494 37.741802
28.260176 0.9239502 43.7708
27.148174 2.6699448 45.1088
32.319176 32.368954 66.327805
33.495174 33.295956 65.0038
40.192173 36.897953 64.5978
40.595173 38.34895 66.4488
42.081173 6.0589447 7.2017975
42.846172 4.347946 5.7257996
48.484173 7.587944 1.8557968
49.46517 9.235947 3.2037964
30.123173 44.587944 50.2008
30.820173 42.638947 48.6878
29.881174 35.672943 46.1048
32.035175 35.894943 46.017803
38.528175 21.477945 58.294804
40.147175 19.655947 57.467808
40.831173 20.040949 50.445805
39.649174 18.966951 48.819805
42.068172 59.860947 25.1418
44.002174 61.209946 26.0298
45.195175 62.567947 33.491802
45.714172 61.066944 34.226803
35.101173 59.948944 51.3958
34.590176 58.396946 49.9138
27.266174 55.877945 50.073803
25.490173 55.241947 51.3428
43.464172 40.760944 15.542801
42.927174 39.604946 17.3238
50.943172 38.872944 20.498802
51.603172 39.177944 18.424797
0.9831734 20.424952 39.1888
1.9371758 19.388948 40.7318
3.232174 12.335945 41.6368
1.2671738 12.280945 43.322803
33.979176 7.708946 61.2098
33.013176 9.939949 61.802803
34.507175 12.884949 68.4558
35.437176 10.336945 69.4268
28.592176 47.832943 63.2358
27.496174 48.572945 60.939808
22.348175 46.521946 55.830807
20.495174 45.934944 57.405804
8.878174 36.55595 19.385803
9.769173 34.70995 19.648796
17.844173 36.312954 16.449799
18.702175 34.523952 17.467796
24.436172 34.592945 44.1618
23.693172 36.829945 44.560802
23.568172 42.347946 47.893803
22.885174 43.717945 45.934803
3.685173 11.559944 30.306805
5.3821754 12.523949 30.518803
3.2171745 15.913948 34.5208
3.8681755 18.19295 35.475803
23.953175 27.738947 26.147797
25.117174 26.389948 25.430801
31.607174 28.966951 27.4468
33.233173 29.657946 28.826801
34.344173 26.877947 38.1648
35.304173 27.504946 36.087803
34.973175 27.588945 31.059803
35.707172 29.102945 29.5928
13.044174 49.994946 18.3098
14.390175 51.555946 18.999802
18.060173 56.197945 15.534798
16.641174 56.743946 16.499802
33.212173 12.105949 53.184803
31.685173 11.928947 51.699802
30.546173 10.223946 58.427807
30.952173 8.420944 59.329807
9.0541725 69.63194 61.037807
8.318172 68.42794 59.709805
1.4671745 2.1269455 60.141804
1.0181732 1.0259476 57.753803
21.203175 26.687952 44.207806
22.391174 27.945948 45.4568
18.784172 32.18195 50.637806
16.674175 32.823948 51.7288
10.364174 12.692947 66.3668
8.614174 12.31295 68.3878
13.982174 6.39695 70.4438
12.039173 5.393944 69.3878
6.5331726 6.8789444 40.101803
5.4031754 8.769943 40.0258
0.7791748 10.957947 36.8018
51.769173 13.171944 37.0518
26.811174 14.571945 43.1738
29.406174 14.734947 43.015804
27.956173 14.998947 35.319805
27.635174 13.38195 33.989803
42.898174 46.650944 51.4398
41.950172 44.539944 51.031803
40.711174 39.999947 56.358807
42.726173 39.993946 57.7728
11.403172 38.117943 9.397797
9.421173 38.408943 9.912796
8.837173 41.188946 17.597801
10.140175 41.245945 19.3088
30.025173 50.833946 23.713799
28.684174 51.848946 22.479797
28.742174 51.998947 15.704796
28.201174 54.479946 15.082802
23.508175 14.773949 44.211803
22.459175 12.980949 44.0228
18.617172 9.846947 41.530804
18.756172 7.6389465 41.666805
20.071175 22.032946 17.284798
19.421173 20.31695 18.790802
19.835175 14.4149475 16.745796
18.026173 13.033943 16.9188
11.124172 15.245949 32.126804
12.617176 16.347946 32.8838
14.999172 9.074944 36.528805
16.508175 9.232948 38.3448
14.509174 21.930948 62.3518
14.241173 22.547945 60.2008
12.399174 27.931948 55.388805
12.239178 29.973948 56.3558
8.506172 51.959946 43.019802
9.831173 53.029945 41.848804
8.135174 54.123947 34.8998
9.169174 52.449947 33.765804
15.204174 36.26495 22.262802
15.766174 35.423954 24.427795
14.102173 41.014946 28.671803
13.787174 41.333946 30.640804
21.541172 0.40494537 29.687801
19.912174 1.1829453 29.959805
16.906174 68.545944 36.720806
14.710175 67.74594 35.542805
10.272175 43.098946 49.5818
11.465172 42.520947 47.9568
15.586174 36.949944 47.463802
17.621174 37.582943 47.948803
16.716175 48.093945 21.219803
17.996174 50.022945 21.095802
12.919174 53.858944 19.888802
11.723175 55.830944 20.672798
23.079174 13.394943 4.4357986
22.906174 11.057945 4.5367966
29.620174 8.928947 2.0998
29.418175 8.541946 4.3687973
37.573174 27.658945 6.068802
38.599174 26.15095 4.288803
35.352173 20.95495 8.896797
33.618176 19.42895 9.439796
0.10017395 31.851946 45.2008
51.437172 29.944948 44.8278
2.1221733 24.98495 48.610806
0.25217438 23.771952 49.9788
23.459175 59.892944 44.684803
24.949177 59.377945 43.059803
21.957172 66.14594 41.3308
23.192173 67.722946 39.9688
15.9101715 9.505943 32.804806
16.076172 11.759949 31.793804
21.591175 10.842949 26.540802
22.965172 9.042946 26.160797
9.658173 10.127945 26.644798
11.585175 10.449944 25.054802
9.891174 2.4979477 28.282799
11.649174 1.9429474 28.859806
11.222172 67.78995 44.333805
12.688175 69.24294 44.056805
15.689175 67.225945 50.490803
17.522175 68.23194 51.0938
10.685173 57.087948 27.498802
11.372173 58.722946 27.458801
18.743172 57.714947 29.117802
19.850174 57.761948 27.0018
5.7611732 58.715946 31.637806
5.3001747 60.513947 32.445805
51.415173 62.485947 29.824802
51.799175 64.639946 30.9118
19.449173 58.438946 32.5108
19.398174 56.231945 33.1738
13.877174 53.629944 30.1488
15.135174 51.346947 29.136799
46.872173 66.67594 44.806805
48.825172 67.37395 45.3548
51.731174 3.2469482 46.1638
51.456173 4.9069443 44.5768
33.882175 43.205944 38.1628
33.517174 45.152946 37.304806
41.527172 45.252945 40.1358
42.377174 46.867947 38.823803
13.028172 12.431946 49.8868
12.116177 10.448944 49.3568
12.777172 11.727943 41.694805
14.536175 12.094948 40.083805
7.664173 35.274952 8.666801
7.626175 34.822956 10.845802
0.050174713 33.883953 12.704796
0.10017395 32.65195 13.887802
11.111172 16.679947 42.1178
9.125172 15.487946 41.919804
5.777176 21.64895 38.7718
5.2291756 22.031946 36.639805
51.749172 53.873947 18.231796
49.849174 52.604946 17.2538
46.116173 53.610947 24.3488
46.120174 51.547947 24.569801
39.095173 7.030945 41.027805
37.265175 8.961945 40.8978
37.510174 9.185944 48.554806
39.176174 7.9549484 49.101803
23.723175 46.032944 47.750805
22.330173 44.608944 49.2598
18.882172 43.144943 44.783802
17.425175 41.578945 44.804806
24.847172 59.000946 62.144802
23.372173 58.198944 61.369804
25.983173 53.324947 66.2808
25.521175 51.580944 68.0848
9.653172 52.052944 61.9608
11.416172 52.597946 60.872807
10.500172 56.953945 56.769802
9.294174 58.499947 57.2588
3.3081741 39.497944 44.1488
2.1911736 41.406944 44.3698
2.8731728 49.131943 45.736805
4.213173 49.273945 47.625805
3.1501732 33.34995 34.9798
2.4101753 33.94495 33.3958
5.794174 34.09495 26.722801
4.5541725 34.419956 24.803795
4.423176 21.987947 25.173798
6.4341736 22.058947 25.649796
4.279175 16.553947 31.317799
2.1961746 15.485947 31.5778
3.3941727 21.791948 40.240803
2.5701752 22.541948 38.1478
48.370174 26.02595 37.237804
46.411175 25.53795 37.710804
6.5121727 35.22095 36.111805
8.097172 34.426952 36.889805
9.010174 27.491945 38.7458
10.802174 27.07995 39.4258
12.817173 60.566944 43.415806
13.916172 59.608948 41.655804
20.770172 60.897945 44.901806
21.909172 61.204945 47.213802
18.681175 52.573944 50.351803
18.445175 52.119946 51.960804
23.288174 45.290943 53.5498
21.036175 44.750946 54.024807
47.123173 55.548946 47.504803
45.410175 54.822945 48.3578
38.853172 50.909946 45.7738
37.899174 52.231945 44.7468
11.020172 4.986946 59.889805
9.629173 5.498947 57.917805
8.540173 69.84294 52.748806
7.1931725 68.39594 52.7148
45.411175 38.712955 31.291805
43.912174 39.48095 30.406803
42.957172 36.851955 23.810799
43.99317 35.59495 22.679802
7.338173 12.949944 47.557804
7.7151756 13.5889435 49.848804
11.634174 17.925951 52.9508
11.734173 20.335947 51.8858
32.856174 35.938953 56.032803
35.244175 36.254955 55.527805
33.900173 30.519945 49.405804
32.805176 31.265947 48.046803
25.716175 68.350945 33.047802
26.709179 69.78394 33.5348
21.463173 3.4189453 30.650799
20.478172 4.7279434 28.379799
48.345173 27.521952 34.6058
46.365173 26.840952 35.4128
42.282173 30.591951 39.9798
41.184174 32.157948 39.1318
46.838173 20.908945 7.2948
44.959175 19.66395 6.8608017
39.334175 23.785952 11.861801
38.147175 22.014948 11.098801
8.257172 58.589947 27.486801
7.6721725 58.997948 25.218796
1.4431725 53.249947 25.6008
1.6641731 51.209946 25.346802
13.534172 54.354946 27.1268
15.507172 53.038944 26.998802
21.836174 54.072945 24.940796
23.378174 52.920944 25.528801
10.9101715 53.858944 26.7398
9.701172 55.217945 25.615799
6.529175 46.797943 24.967796
4.180176 47.380943 25.243797
8.249172 66.84595 20.0878
6.192173 65.76395 19.796799
6.324173 68.042946 12.570801
6.1481743 0.17295074 12.537796
40.959175 25.06495 39.721806
43.167175 24.596949 38.766804
42.564175 28.841951 31.8568
41.038174 29.584948 30.854801
24.343174 30.973948 57.001804
25.093174 30.684946 54.306805
29.991173 27.60795 50.9528
28.724176 27.222948 48.644802
39.191174 65.06795 55.112804
38.908173 67.10995 54.140804
36.347176 0.9829483 61.192802
35.689175 69.250946 61.6668
31.744173 38.269955 43.045803
30.615173 36.311954 43.416805
26.738174 31.638948 40.1648
25.838173 31.435946 41.711803
14.484173 33.35995 31.184803
16.581173 32.77695 30.465801
20.929173 33.08595 25.496796
20.261173 30.73195 25.375801
23.779175 63.978947 54.9108
23.581173 65.00894 53.130802
18.187172 70.02294 53.151806
18.337173 2.151947 52.874805
0.79317474 4.9879456 15.284798
50.631172 4.948944 16.9198
49.660175 68.66695 13.8267975
47.273174 69.03394 13.185799
33.858173 69.13094 55.525806
33.692173 67.125946 54.7008
36.776173 61.860947 58.205807
35.434174 60.255947 58.2298
51.544174 34.58395 15.801796
50.266174 36.159954 14.666801
45.717175 35.16795 19.956802
45.427174 32.629948 20.9628
29.244173 50.210945 40.043804
30.713173 51.816944 39.1778
28.309174 56.991947 35.515804
28.223173 59.249947 35.8538
22.563175 41.750946 40.2568
23.413174 43.822945 39.0358
22.299175 43.916946 31.622799
23.042171 42.250946 30.932804
37.618176 59.916946 15.328796
37.038174 60.509945 17.385803
40.071175 53.478947 18.714798
41.938175 52.420944 19.260803
43.590176 42.244946 36.877804
43.000175 40.586945 38.444805
35.360172 40.710945 38.380802
34.391174 40.149944 40.6468
33.046173 45.516945 30.155804
34.029175 44.391945 32.115803
36.771175 50.621944 35.6348
38.754173 50.711945 35.084805
28.752174 17.475946 15.868797
30.354174 19.392946 15.415802
33.101173 16.109947 8.568802
34.714172 16.552948 9.511803
48.638172 15.998947 21.910797
47.759174 16.959946 23.1428
2.145176 21.235949 23.895798
2.8851738 23.51095 23.660797
38.194176 55.290947 59.3558
37.768173 53.780945 60.679802
39.402172 56.829945 67.1488
40.774174 58.997948 67.467804
7.2451744 4.0279465 15.054802
9.5801735 5.63295 15.0858
12.967175 8.43895 9.146797
14.5991745 9.842949 9.403801
30.693172 57.726948 15.8007965
29.548172 57.267944 13.9897995
23.433174 58.797947 9.898796
22.343174 57.680946 11.431801
44.912174 42.866943 30.1208
42.571175 43.853943 29.823803
42.093174 51.418945 29.020802
43.378174 53.169945 27.763802
23.670174 39.045944 28.687801
25.894175 38.992947 29.210804
32.394173 42.874943 30.754803
31.253174 43.364944 32.6898
15.585175 6.040947 68.0168
15.759174 3.4599457 67.1388
11.588173 69.559944 63.0768
11.457172 0.65795135 61.066803
19.258175 20.77495 39.7318
21.663174 21.015947 39.974804
22.832172 19.96995 31.354801
25.135174 19.624949 31.719799
31.831173 26.81595 17.7518
30.439175 28.628946 17.911797
24.133175 27.82895 23.191795
23.589172 25.70595 22.4348
29.662172 13.005943 44.9378
29.522173 10.921944 44.627804
34.126175 9.071945 38.2148
35.663174 10.07795 38.7428
29.790173 20.21795 42.9418
29.111174 20.71795 40.7178
32.000175 18.071947 34.3558
33.224174 16.224945 34.515804
1.0311737 30.672945 21.914795
2.6091728 29.666948 21.645798
51.601173 30.006952 14.898796
1.218174 28.848948 13.811798
46.537174 1.5679474 43.001804
44.154175 2.516945 42.776806
38.988174 68.41595 40.388805
38.147175 66.26195 41.518803
0.37417603 57.830944 44.683804
2.2081757 59.230946 43.949802
7.2851753 61.364944 40.394802
6.9371758 63.416946 41.530804
20.635174 46.355946 17.9478
18.529175 45.538944 17.923798
21.980175 41.751945 22.482796
22.896172 40.165943 24.286797
37.955173 62.686947 35.165806
38.925175 60.594948 36.139805
38.255173 53.646946 32.9238
36.245174 52.568947 33.4248
40.274174 57.444946 69.8418
38.498173 59.222946 70.4738
42.198174 58.910946 7.1698
41.653175 61.054947 7.2518005
4.457176 37.069946 45.265804
6.4391747 36.998943 45.721806
11.084175 42.124943 45.2298
9.774174 43.402946 45.9258
20.871174 60.012947 28.080795
22.793175 61.528946 28.035797
26.254177 65.68994 32.249805
23.977173 66.10294 33.2618
25.473179 60.009945 33.754803
25.691174 58.099945 35.429806
24.819172 51.085945 34.2438
25.912174 50.393944 36.1068
51.496174 33.009953 23.581795
51.914173 31.558947 24.755798
49.012173 30.992952 31.8008
51.167175 31.20695 32.6648
33.236176 53.190945 39.126804
34.679173 52.190945 38.1058
28.492174 52.796944 32.2188
27.610174 52.295944 34.5938
17.149174 41.655952 41.475803
15.169174 41.873947 43.4688
14.837173 34.55295 43.186802
16.645172 33.90195 41.861805
38.192173 65.17895 38.433804
39.431175 64.114944 40.183804
44.123173 63.946945 45.042805
42.698174 65.53894 45.8578
28.445177 40.219948 56.570805
26.782177 40.514946 55.391804
23.338173 34.671955 51.321804
22.028172 34.225956 53.1318
12.905174 45.840946 32.546803
12.447178 46.744946 30.836803
4.572174 47.148945 33.9838
3.815174 48.499943 32.447803
16.038174 46.437946 38.0628
14.375172 46.694946 39.240803
12.332172 52.974945 42.4668
13.776173 54.645947 42.554806
18.833172 67.962944 24.0728
17.703175 68.11894 22.177795
10.418175 66.711945 21.885796
9.379173 65.07894 21.790794
29.197174 14.794945 18.968796
27.501179 13.300949 19.055801
22.134174 14.872948 24.966797
21.670174 12.8389435 24.4058
44.533173 18.721949 44.837803
43.400173 16.831947 43.7598
36.275173 21.49795 45.4658
35.557175 19.521952 46.2728
42.876175 6.3179474 43.613804
41.469173 7.5439453 44.9818
39.814175 69.861946 47.6318
38.990173 69.12495 45.8178
28.038174 60.229946 32.2058
30.612173 60.492947 31.350803
33.112175 64.27695 25.510796
31.625174 65.15794 23.899796
30.944174 6.828949 26.282799
31.735174 5.10495 28.2258
28.701174 1.4319458 34.487804
27.204174 2.936943 35.3258
41.485172 62.053947 36.014805
43.049175 61.346947 34.421803
36.972176 59.970947 29.973804
36.648174 57.517944 29.950802
22.160172 63.892944 46.0348
22.123173 64.24394 47.907803
30.465172 63.484947 49.880802
30.817173 61.334946 50.2158
47.379173 60.269947 27.798798
47.433174 58.087948 27.925797
50.558174 53.295944 23.509796
0.6591759 54.216946 22.953796
34.635174 18.698946 33.263805
35.628174 17.217949 34.624805
40.998173 14.171944 30.2058
40.942173 12.11795 30.380802
23.816174 30.530947 23.441795
22.941174 30.284952 25.8378
25.603176 35.824955 28.597805
27.279179 36.938953 28.116798
30.933174 14.031944 48.6618
30.958172 14.317947 51.059803
24.011173 13.667946 51.430805
23.142174 13.36795 53.0678
31.352173 1.0539474 35.3448
31.036173 69.20294 36.0538
38.123173 66.55094 31.678799
39.143173 65.46995 33.4508
35.921173 10.609947 7.309799
33.848175 10.808945 8.870796
33.184174 7.96595 14.9028015
30.778173 6.990944 15.051796
27.360172 8.731949 25.722801
25.169178 8.470947 24.789795
25.343174 11.999947 18.236801
