5.3330917 114.23845 19.144081
8.671089 107.56345 16.71508
10.449093 107.51645 15.5930805
51.096092 14.124461 23.545082
48.821095 14.711455 23.158081
49.756096 9.977458 16.084082
49.463093 10.200465 14.03108
29.574093 67.08446 22.723082
27.74609 68.80046 23.453081
21.033092 61.83346 25.483082
21.43909 62.15946 27.789082
25.933094 87.492455 11.0340805
25.730091 86.545456 9.35608
25.171093 94.35745 3.0730808
26.337093 93.08545 1.4860808
37.190094 124.05145 34.54108
35.542095 123.28745 35.97008
37.570095 114.755455 35.26908
39.809093 113.94345 36.26908
1.3340912 98.811455 2.390081
2.881092 100.104454 4.035081
51.950092 100.56745 8.306081
52.498093 102.74545 9.37708
40.761093 78.46945 8.628081
42.352093 78.728455 10.353081
45.624096 85.52745 11.905081
47.655094 86.185455 11.211081
55.459095 116.976456 39.22808
53.830093 115.55645 39.26808
48.610096 112.977455 38.765083
49.622093 110.408455 38.35908
18.779095 85.56445 24.15508
16.759094 87.075455 23.792082
20.332088 94.10745 25.701082
22.695095 93.69245 25.73508
40.315094 116.03845 27.789082
40.559093 113.98245 28.858082
47.365093 107.283455 28.93308
48.028095 108.28745 31.09608
16.990093 50.305458 10.924081
15.334095 48.94346 9.83808
19.702091 43.08646 13.88008
18.251095 42.35746 15.553081
33.99309 44.40546 33.17908
35.74309 43.53246 32.086082
42.620094 44.647457 30.795082
44.478096 44.98946 32.100082
52.127094 65.84946 2.1380808
52.641094 65.33546 4.4130807
0.11709213 72.42945 8.743081
55.954094 72.587456 10.68008
28.91209 89.73745 30.538082
27.861095 91.576454 29.821081
27.865093 91.63945 22.503082
29.324093 92.59545 21.383081
41.732094 32.99146 35.55508
42.019093 31.252459 35.07508
44.564095 31.807459 26.316082
43.846096 33.62346 26.375082
49.064095 78.30646 14.342081
50.968094 77.82845 13.99808
0.3740921 82.28745 10.17908
0.42609406 81.13645 8.400081
13.615093 27.212458 34.446083
11.444096 27.466457 35.24808
5.7900925 25.615458 40.34508
5.244095 24.333458 1.3300813
32.06809 19.725458 22.592081
30.71809 21.589458 21.63408
30.27409 22.574457 14.926081
30.170094 23.765457 13.33808
2.3860931 111.52345 5.343081
1.2430916 110.94745 3.472081
4.291092 104.63345 -0.28891927
3.3480911 102.76645 0.061080858
35.174095 64.48846 10.318081
34.407093 64.58046 12.33308
33.77409 72.83245 15.1920805
34.722095 73.63946 17.150082
43.792095 0.8664551 16.054081
45.116093 0.021453857 14.56408
52.226093 125.67545 20.89808
50.923096 124.92945 22.37408
42.580093 88.256454 2.660083
43.262093 86.87145 0.5130844
35.998093 89.28045 36.710083
37.721092 90.20645 35.95008
45.780094 46.89746 24.948082
45.718094 44.58846 26.313082
38.915092 41.03146 24.809082
38.141094 39.598457 23.462082
30.619091 124.712456 -1.4909192
32.73409 125.40545 -1.4239193
34.153095 127.91145 6.575081
36.090096 127.699455 7.2530813
43.101093 104.99545 14.355081
43.967094 104.896454 12.341081
42.694096 97.588455 8.401081
42.921093 98.40345 6.363081
7.6350937 81.101456 18.255081
6.990093 79.52445 19.826082
56.176094 82.48045 23.35308
56.190094 82.881454 25.351082
38.591095 121.881454 37.54808
39.637093 121.79145 39.56008
42.864094 0.73846436 2.237083
45.207096 0.34346008 3.028083
26.377094 54.99346 27.920082
28.653095 55.89646 28.00608
29.237095 51.03846 21.156082
29.619091 48.80346 22.02308
47.826096 95.52845 30.712082
50.156094 96.39845 31.092081
50.127094 100.406456 24.048082
49.962093 102.10845 23.585081
38.741093 8.594462 15.763081
37.781094 10.567454 15.023081
34.724094 4.4844513 7.953081
32.419094 4.372452 8.440081
6.7670937 80.185455 31.611082
8.376091 80.58645 32.95708
1.0030937 81.68845 35.897083
55.882095 83.97245 34.95708
26.859089 50.89246 31.281082
28.855091 51.38346 29.770082
36.521095 51.74146 32.41408
37.289093 52.69646 29.875082
11.689095 62.87946 31.067081
11.846092 60.80046 29.86008
15.940094 55.71546 27.369081
15.494095 55.33846 24.94008
15.219093 58.32546 37.786083
14.985092 56.40946 37.455082
16.553093 53.06146 4.989082
16.431095 54.72546 6.084083
9.68409 115.67445 5.527084
11.159096 114.12145 4.217082
10.220093 109.14945 37.939083
9.560089 108.130455 40.47908
18.76109 27.621458 9.886081
19.243092 29.806458 10.26708
24.12209 34.11746 15.461081
26.577091 33.41446 14.332081
36.705093 107.281456 20.572083
35.198093 108.628456 20.331081
28.012089 107.295456 16.93008
27.213093 108.07845 14.87808
13.316093 116.52945 16.28708
14.951096 117.75845 15.842081
12.539093 125.74645 19.570082
10.536095 125.78745 21.392082
40.929092 102.63845 29.296082
40.464092 101.33345 28.012081
38.706093 95.91545 24.709082
39.779095 94.30345 23.38408
1.2650948 20.158459 20.685081
2.5120926 21.089458 19.18308
0.9740944 28.568457 22.612082
1.3750916 29.865458 20.465082
33.79009 77.92645 34.87408
35.869095 76.797455 34.04708
35.616093 78.57945 24.611082
33.184093 79.87545 24.307081
48.567093 50.20746 30.458082
48.930096 49.47646 32.62908
1.7480927 47.74446 31.628082
3.303093 47.17246 32.99108
54.215096 111.97545 14.950081
51.743095 112.243454 15.099081
46.242096 109.365456 9.992081
45.143093 107.93845 11.39908
52.596092 113.21145 20.01608
52.237095 112.673454 18.22208
44.873093 115.076454 13.006081
43.668095 112.95745 13.060081
49.671093 71.31445 33.86508
49.144093 70.81445 35.980083
54.308094 76.85545 37.78308
55.898094 76.090454 38.710083
3.3250923 63.71446 0.9080805
2.211094 64.70546 39.47608
51.972095 62.65046 33.920082
53.819096 61.88546 32.25608
0.52809143 54.93646 31.872082
0.6860924 56.33546 29.829082
2.4940948 57.81546 22.53708
3.0230942 55.92146 21.323082
32.30209 55.67346 5.559081
30.44109 55.41146 4.714081
33.06309 62.78846 0.106080696
35.290092 62.17746 0.20908086
26.599094 48.17346 21.72108
25.791096 45.813457 20.819082
33.655094 48.55746 20.717081
35.454094 47.42946 19.989082
54.765095 80.18845 29.341082
55.869095 79.798454 27.469082
48.989094 73.85745 26.622082
47.583096 73.59545 25.122082
29.334095 99.102455 31.472082
27.196095 98.39145 31.968082
22.448093 92.91045 28.319082
22.046093 90.784454 29.06808
36.502094 110.58045 19.167082
35.087093 112.07745 18.528082
27.686092 111.70445 13.832081
27.05009 111.409454 15.606081
51.036095 47.40746 -2.7619193
53.075092 46.92146 -1.8379191
55.003094 44.87446 7.118081
55.304092 46.86046 7.362081
42.575092 104.839455 1.5860819
41.379093 105.84145 3.134082
37.008095 111.29945 37.251083
38.97909 111.43945 35.84808
38.998093 116.43345 4.128081
40.276093 117.769455 4.969081
46.112095 110.09145 3.0820808
44.616093 110.14845 1.6330807
48.556095 1.9314575 36.385082
47.693096 3.9124603 35.34808
42.132095 8.962459 36.14408
42.468094 10.915462 34.73608
4.8850937 61.79246 38.008083
6.072094 64.05746 37.88208
7.0070915 67.32746 30.720081
7.319092 67.311455 28.37708
25.764095 65.74646 9.37708
24.169094 66.34346 11.122081
24.313091 57.83746 10.10908
22.224094 57.03946 8.88408
46.721096 87.21745 7.154081
44.824093 87.03745 7.114081
46.184093 95.98945 7.706081
45.209095 97.24645 5.640081
43.819096 124.68345 33.72808
42.686092 123.66145 32.02608
39.338093 116.51045 30.43308
40.810093 115.09245 31.380081
1.0180931 44.93446 27.202082
0.58309174 46.188457 29.078081
47.539093 45.890457 27.806082
46.161095 47.76846 28.781082
30.181095 43.799458 33.39708
30.908092 42.55046 32.02908
31.213093 46.06446 23.893082
29.05209 46.27946 23.468082
14.553093 108.16145 13.339081
14.431095 106.491455 15.049081
9.9760895 105.756454 8.321081
8.704094 104.41345 7.443081
28.032093 117.19145 3.5100808
29.89709 115.90545 2.9140809
36.341095 116.78845 3.037081
36.521095 115.47545 4.845081
36.254093 21.740458 38.40808
36.515095 24.008457 38.26908
44.523094 24.729458 40.551083
44.873093 22.637457 39.468082
54.263092 61.09146 29.515081
53.992092 60.19646 27.823082
6.595093 58.53146 28.892082
7.993088 59.04546 27.22108
30.739094 83.823456 37.81008
29.199093 81.91845 37.63808
25.35709 82.60045 5.662082
26.366093 84.07845 6.6460834
7.9780884 39.31646 33.91108
5.954094 37.99146 34.260082
2.6480942 44.68446 37.69308
4.2720947 45.028458 35.911083
16.655094 58.20646 2.093082
17.994091 56.61046 0.1890831
24.072094 62.99046 37.54208
25.39909 60.99346 37.99308
10.8020935 50.93146 24.997082
9.151093 50.38646 23.326082
1.4530945 48.48346 25.369081
0.9890938 46.53046 24.559082
7.3900948 117.020454 19.423082
8.735092 115.00045 20.178082
12.551094 109.51145 15.341081
13.587093 108.08345 17.080082
23.020092 48.48746 21.82508
24.310093 47.50746 23.039082
18.31409 50.06546 27.218082
17.597095 50.38346 29.482082
44.180096 46.03446 11.64708
46.176094 46.12846 10.26408
49.378094 49.62546 11.443081
50.667095 50.94046 10.584081
12.960094 72.920456 21.375082
11.637093 74.57845 21.46408
5.666092 71.560455 28.604082
7.270092 69.92846 29.119081
39.436092 52.23746 33.12008
38.441093 50.11446 33.135082
39.370094 45.87946 40.35208
41.523094 45.77346 0.6490822
54.971092 126.34345 14.820081
53.593094 126.61345 16.508081
44.582096 124.96945 16.217081
44.777096 124.99545 18.092081
15.736095 103.78945 12.42308
15.749092 102.256454 11.610081
11.774094 101.11945 5.370081
10.458092 102.75145 4.8600807
3.435093 2.1504517 14.988081
2.6060944 4.716461 14.773081
7.520092 8.551463 20.58908
7.0450935 8.547465 22.674082
12.594093 51.27046 23.072083
10.341091 52.47146 21.95008
9.247093 60.97546 24.548082
9.570091 61.46846 26.388083
28.202091 97.839455 15.30708
26.625095 97.170456 13.797081
27.142094 96.90545 6.066081
26.559093 98.63545 6.015081
19.729092 20.969458 16.488081
21.068089 21.92846 15.03108
25.380093 24.249458 10.62108
27.406094 24.604458 11.917081
47.079094 42.72646 4.780081
48.202095 43.42246 3.4370809
51.773094 49.63746 6.114081
51.383095 51.81546 5.713081
14.540092 114.784454 40.127083
16.431095 116.17745 39.337082
16.404095 123.462456 36.461082
14.412094 124.92645 36.043083
7.8560944 99.84445 27.073082
10.011093 98.85745 26.678082
16.478092 100.879456 21.902082
15.484093 100.41245 19.946081
19.270092 93.284454 11.084081
19.602093 92.699455 13.176081
15.672092 95.71045 21.184082
16.572094 94.601456 22.667082
12.6770935 121.86245 32.11908
10.124092 122.32845 31.903082
8.046089 126.22545 25.304081
9.668091 125.84445 24.26608
54.318092 63.37246 28.720081
53.297092 65.934456 29.045082
46.586094 61.59846 24.646082
47.643093 60.92946 22.510082
32.24409 57.16746 27.277082
33.83009 56.84246 25.807081
35.132095 49.90446 22.64808
38.059093 49.32946 23.409082
28.12209 39.65746 35.099083
28.53609 40.16246 37.502083
30.55209 47.16146 35.32708
29.073093 48.02746 33.53608
35.390095 90.715454 34.32008
33.52309 89.240456 34.787083
28.604092 94.839455 1.070083
27.437092 96.34745 40.079082
24.876095 103.68245 18.555082
25.304089 106.003456 18.710081
29.159092 106.64145 26.622082
28.27309 104.854454 26.61008
17.369095 104.53545 34.640083
18.09209 106.378456 35.40108
10.401093 110.84945 35.516083
9.468094 111.046455 33.600082
32.267094 27.975458 28.285082
32.237095 26.616457 26.462082
30.112095 31.269459 19.163082
28.331089 30.141459 18.888083
39.33309 117.76645 12.06208
39.409092 116.23945 13.72708
34.297092 114.76545 18.760082
33.61809 114.504456 21.145082
21.81509 115.19645 15.429081
23.255093 113.490456 16.37108
17.300095 108.53645 13.641081
16.688095 106.31845 13.29108
30.059093 73.79145 8.465081
31.216091 74.42945 7.079081
26.369091 68.77246 2.7710807
26.521091 68.20446 0.6430808
21.214092 43.56546 31.854082
19.359089 42.26046 30.680082
20.563091 46.02346 21.588081
22.99609 45.82146 21.232082
42.450092 5.8364716 16.83608
41.157093 7.051463 18.843082
36.658092 1.2714539 23.385082
38.459095 127.714455 23.621082
22.153095 59.22146 27.092081
21.560093 59.09046 25.019081
30.750095 57.28546 25.213081
32.24509 58.31446 23.810081
37.594093 124.42845 30.850082
38.674095 125.268456 32.781082
34.434093 4.095459 33.86908
35.001095 3.3284607 35.606083
46.878094 107.809456 0.83208084
44.942093 106.95845 0.672081
39.557095 105.94745 36.43808
39.352093 104.54945 34.705082
2.0190926 118.37645 28.195082
0.7210922 119.38745 26.317081
3.0210915 117.14845 19.679081
2.4290924 116.41545 17.88408
4.975094 20.339458 8.099081
4.364094 18.838459 9.82408
12.418095 15.4574585 9.51408
12.558094 17.627459 9.789081
18.118092 86.04945 19.312082
15.984093 85.42745 20.06508
11.693092 82.27845 13.724081
9.951088 83.09645 12.164081
22.346088 65.77646 0.13008118
21.44109 67.49846 38.995083
23.67609 71.20445 32.17508
21.936092 72.090454 30.72808
5.8920937 18.045458 29.059082
6.569092 20.309458 27.783081
7.3390923 23.443457 21.260082
8.912094 23.456457 18.697083
6.5490913 7.1924543 27.22808
5.242092 8.790462 26.783081
55.224094 4.4804535 25.886082
53.650093 3.821457 24.574081
8.866089 33.876457 35.33408
9.28009 34.97446 33.22208
13.271095 42.26746 32.51508
15.316093 41.60046 33.25008
11.488094 41.361458 4.215083
11.232094 41.20646 2.2200809
6.6750946 45.67746 38.899082
6.4450912 48.29846 40.148083
26.028095 59.52946 -0.22791918
26.172092 61.67946 0.018080877
26.39709 57.38546 7.232081
25.388088 55.80946 5.896081
40.096092 10.874461 32.586082
39.647095 12.175456 34.293083
30.962093 10.192454 33.44408
28.722095 11.530467 34.315083
51.445095 35.17246 0.6820808
51.821095 33.68346 1.9260807
41.853092 32.66346 2.762081
43.369095 33.22046 5.102081
3.6270943 100.13845 0.9320826
5.0830917 99.562454 2.5720818
13.493095 98.712456 2.124084
15.357094 97.15345 2.1570811
44.503094 122.26445 2.1930804
47.020096 122.756454 2.5740807
46.920094 1.243454 40.614082
47.638096 2.4054565 38.94208
45.119095 55.84046 8.244081
44.095093 53.75946 8.487081
38.712093 54.29446 4.040081
38.290092 56.13246 2.9970808
28.904095 55.63046 38.65908
29.765095 56.42246 40.42408
32.16009 51.15746 4.250083
33.50709 52.33846 6.079082
51.114094 104.20945 7.7010813
49.640095 102.24545 7.863081
42.911095 101.58345 4.067081
41.031094 102.892456 4.3200808
21.49709 53.17446 28.828081
21.277096 52.29746 31.390081
26.798092 52.86346 36.022083
28.699093 52.82846 34.63608
6.6630936 23.029457 17.11408
5.2050934 22.041458 16.738081
54.674095 26.981457 18.049082
52.944096 25.856457 18.09308
51.484093 70.018456 32.13008
53.337093 69.254456 30.393082
4.470093 75.10645 32.73808
3.2030945 77.241455 33.81308
18.793095 66.50246 39.65908
16.526093 66.91946 38.84508
13.475094 75.783455 40.232082
14.3020935 76.490456 1.7030824
44.672092 55.65946 3.3780816
42.489094 55.39146 1.9650835
48.222095 59.70646 38.592083
47.764095 61.30246 39.54908
11.397095 38.92146 40.46608
9.29509 38.81146 38.808083
9.276093 46.37846 39.67808
8.75309 48.19646 38.49008
25.59309 122.128456 3.7760804
25.892094 121.27745 1.8490824
20.421093 123.82245 36.01408
18.936092 121.51645 35.96308
54.742092 72.380455 0.3390808
54.483093 69.642456 0.013084412
45.236095 68.520454 40.10308
45.515095 70.79145 39.75608
26.706089 109.48545 17.540081
24.936092 109.41945 16.43608
19.80209 113.33245 22.586082
17.853092 112.18245 22.876081
52.683094 68.004456 33.468082
51.261093 68.75846 34.76408
46.390095 63.99746 40.62308
47.895096 64.53946 1.9890817
11.346092 82.91445 8.460081
12.035095 81.963455 6.619081
7.0990944 86.617455 0.58908075
5.6980934 87.158455 2.482081
2.1750946 81.977455 17.89808
0.8230934 83.42545 16.81908
54.116093 86.85545 24.39108
55.846092 85.71145 25.156082
29.751095 70.21745 38.01408
32.35709 69.56946 37.835083
27.55109 63.03146 38.849083
25.77209 64.476456 38.982082
45.767094 14.951459 8.401081
47.787094 15.6084585 8.921081
48.735096 21.279459 2.0000808
50.021095 20.68546 -0.22791918
14.348095 61.68146 10.21008
14.885094 63.59746 10.12708
15.762093 65.143456 0.96408075
14.562096 65.87546 -0.5269192
35.109093 18.559462 22.994081
37.006092 18.482466 23.452082
36.245094 10.34846 27.361082
37.82609 8.419459 26.78708
34.79909 23.025457 4.483081
34.02509 21.570457 5.415081
26.493092 27.222458 3.2570808
25.646091 26.208458 0.88008076
1.8000946 101.406456 25.20708
1.039093 101.908455 27.673082
51.047092 94.31645 27.75908
51.895092 92.85745 26.022081
15.081093 81.38845 8.253081
13.901093 83.44445 8.720081
13.242092 89.85745 2.8300807
11.3210945 89.79445 3.7860808
48.128094 33.83146 27.59608
48.452095 31.302458 27.475082
54.872093 27.360458 23.408081
54.561092 29.175457 22.101082
54.571095 83.56745 13.415081
54.461094 84.16745 10.96308
1.9560928 91.83145 8.576081
56.321095 92.33045 7.176081
54.865093 114.70345 16.199081
54.341095 114.670456 18.58908
45.936096 116.49845 17.647081
44.265095 118.33445 18.04408
37.219093 49.16746 21.048082
38.890095 48.21846 19.387081
32.34009 50.62946 19.52308
30.492094 51.51546 18.723082
5.1810913 46.63646 9.938081
3.4710922 46.30746 10.86408
52.905094 50.98146 9.24108
51.856094 52.83746 8.082081
30.098095 111.59945 31.651081
29.335094 111.62645 34.11908
25.820095 114.59445 35.58108
25.896091 115.977455 37.48608
18.321095 87.45945 16.967081
17.777096 90.08645 17.488081
12.005093 92.41345 23.55108
13.797092 92.62245 25.159082
20.05109 23.280458 12.537081
18.450092 22.407457 13.737081
16.343094 27.590458 8.54808
14.361095 28.624458 9.48808
49.071095 12.274455 9.674081
50.140095 14.483455 9.438081
0.8170929 10.708461 10.73608
56.052094 8.565455 10.719081
19.445095 48.82346 14.86408
18.94009 51.05846 15.754081
23.888088 57.34846 12.89708
21.73109 58.58546 13.648081
32.581093 26.745457 30.753082
31.564095 24.509457 30.556082
38.580093 19.288458 25.836082
37.87509 20.913458 24.422081
18.51009 35.73146 0.75408083
17.121094 37.53746 1.9770807
9.706093 39.139458 2.1020808
8.73909 39.89846 4.370081
17.694096 121.365456 20.723082
19.561092 120.75945 20.621082
23.268093 114.54445 26.25608
22.423092 114.11145 23.838081
42.994095 70.59645 38.870083
42.436092 69.16646 37.41608
39.25009 67.548454 32.32108
37.273094 66.658455 31.640081
30.252094 123.14745 28.92608
32.195095 123.28745 28.399082
32.936092 127.187454 34.869083
34.72909 126.19745 36.496082
51.239094 13.017467 31.835081
49.748093 12.003459 30.49908
43.810093 8.282466 29.178082
41.80509 8.540462 30.215082
11.134094 77.94646 31.666082
13.151093 78.57245 31.49508
17.463093 71.46146 31.432081
18.651089 71.76045 29.830082
0.8060913 30.539457 37.91008
3.2070923 30.232458 38.315083
7.4460945 37.05746 40.071083
8.844093 35.82546 0.5940819
45.023094 17.165459 10.615081
43.855095 17.597458 8.244081
36.829094 22.830458 6.361081
38.179092 23.822458 5.058081
35.763092 123.756454 12.021081
36.452095 121.89845 13.516081
44.471096 122.44145 18.150082
42.940094 122.14845 20.118082
48.733093 51.50546 37.77508
50.682095 52.56846 37.647083
54.904095 56.65946 31.585081
53.469093 57.88546 31.247082
6.336094 86.909454 37.786083
4.5430946 87.84545 38.628082
53.870094 88.253456 36.75508
52.419094 89.69745 36.62208
19.783092 109.16745 32.18208
19.961094 110.58345 29.695082
13.987095 109.15145 26.238081
13.208096 108.351456 24.449081
10.289093 119.81945 33.64508
10.9720955 118.158455 32.59008
19.250095 116.43245 34.18008
19.98109 116.03645 36.21608
14.382095 37.96446 23.008081
16.567093 38.646458 21.903082
10.708096 44.64546 23.569082
10.973095 46.87446 23.802082
12.307095 108.04345 29.865082
12.191093 106.62445 28.067081
10.812096 100.326454 32.78708
9.605087 100.06445 34.932083
16.109093 38.68946 13.93708
16.151093 36.73146 15.546081
22.199093 33.40646 20.835081
23.850094 34.41846 21.733082
9.035088 80.11445 15.094081
6.739094 79.92945 15.941081
7.2920914 72.158455 12.011081
5.115093 71.559456 10.547081
27.56609 57.88746 37.538082
25.657093 57.16446 38.781082
17.445095 57.40846 36.279083
17.326096 54.85946 35.82508
8.936089 45.46246 7.934081
8.16909 46.97646 6.586081
1.6080933 42.563457 8.462081
1.9300919 40.93646 10.19308
37.221092 119.812454 39.03408
36.235092 118.00145 39.48608
27.01009 117.451454 39.34508
26.26109 119.66945 39.68608
40.953094 8.131465 27.629082
41.609093 7.6654615 25.102081
42.525093 128.10745 22.13108
43.878094 0.24945068 20.167082
10.910095 28.081457 32.45908
13.105095 27.048458 31.64808
14.061092 19.635458 36.39608
13.547092 21.063457 38.23308
40.06309 66.61046 15.525081
38.77109 68.213455 16.594082
43.940094 75.06645 16.136082
45.864094 75.894455 15.051081
38.943092 43.54746 39.488083
40.30609 43.37746 37.85108
32.199093 40.81446 35.93608
31.053095 39.258457 38.11108
11.983093 62.59946 9.11608
10.726093 60.78446 10.1000805
7.0500946 59.37546 17.46508
5.815094 59.62546 18.629082
20.112095 76.58346 38.980083
19.905094 78.68945 40.53508
19.758091 83.34745 32.746082
20.960094 84.74945 31.639082
12.464092 117.365456 9.82608
12.787094 119.71845 10.304081
10.070091 122.69045 3.7200809
11.586094 123.73245 1.7090808
27.085094 11.545466 -0.14691932
27.031094 9.118464 0.24208085
21.298092 7.9854536 8.08108
19.517094 9.310466 7.737081
0.4840927 1.2054596 23.831081
1.3060913 0.46846008 21.910082
8.035088 3.9564514 25.323082
7.5140915 1.7194519 25.67608
0.14909363 63.64046 7.051081
55.940094 64.27746 8.888081
47.821095 65.35946 11.79808
47.834095 67.59646 11.619081
38.848095 3.0184631 25.945082
37.66009 1.3254547 26.269081
33.723095 7.8414564 30.088081
35.172092 9.52946 30.055082
19.100094 107.62745 8.809081
19.421093 105.021454 8.629081
23.021091 98.519455 9.35608
22.727093 97.29345 11.506081
28.78909 2.020462 15.19408
28.306095 3.1374512 13.2580805
21.40009 1.194458 11.931081
20.096088 2.6404572 11.542081
23.881092 78.534454 33.77908
23.987095 76.75046 35.120083
29.137089 76.64146 0.2570839
30.308094 79.16345 0.8830828
2.8340912 121.116455 37.51908
4.9840927 119.74645 37.37308
6.808094 121.659454 29.122082
8.537094 120.907455 30.24508
50.258095 37.26946 24.753082
48.340096 37.03946 23.761082
51.336094 39.69646 25.151081
53.260094 39.35746 26.51608
20.679089 56.51646 5.8140826
21.007092 56.06946 3.59608
17.734089 54.54846 38.661083
16.078094 53.70346 38.04208
53.109093 50.60046 3.877081
53.516094 52.82646 4.080081
2.7060928 56.84846 1.4900807
3.798092 57.26546 2.906081
24.53609 21.03946 4.928081
23.57909 22.534458 6.108081
26.56409 20.116459 13.627081
26.792095 21.106459 15.898081
14.011093 24.023458 20.066082
15.605095 23.794458 21.845081
19.20409 24.926458 26.849081
19.348095 26.668457 25.906082
3.1030922 93.22045 33.73008
3.9340935 94.561455 32.31008
54.170094 98.339455 37.93108
52.320095 98.62345 37.22108
5.249092 99.26245 13.85908
3.8850937 97.545456 13.28608
56.258095 93.906456 17.838081
54.458096 93.55545 19.08908
0.1240921 73.615456 38.17108
1.9160919 74.477455 36.50008
7.673088 68.226456 39.23508
9.334091 66.824455 38.39508
13.774094 39.20546 7.976081
13.983093 36.78746 8.486081
15.020092 32.26046 10.18008
16.147095 30.509459 10.032081
1.8800926 59.28846 0.04208374
2.0910912 56.97046 39.564083
50.775093 58.96546 37.71408
49.103096 57.44246 37.02708
27.976093 28.302458 29.460081
29.55109 26.725458 30.329082
35.168095 25.162458 35.13208
36.895092 26.021458 36.15908
46.126095 39.94146 10.724081
46.824093 40.85746 8.694081
51.158092 48.85346 9.00508
52.840096 48.16146 8.237081
17.406094 90.37645 39.59608
15.711094 88.907455 39.72208
22.963093 84.66045 2.3870804
23.174091 83.28945 4.215083
43.631096 104.756454 27.998081
41.248093 105.20945 28.455082
40.334095 113.269455 33.46008
42.049095 113.936455 34.71508
17.64909 25.179457 14.77408
17.432095 25.690458 16.65908
23.359089 31.327457 19.518082
25.461094 30.706457 18.422081
40.531094 7.278453 21.674082
40.81309 9.509456 22.810081
45.300095 8.045466 16.35708
44.964096 5.7344666 16.432081
48.221096 95.479454 13.174081
46.530094 94.53045 13.91608
45.099094 87.01045 14.07808
42.800095 87.01545 13.615081
27.237095 103.227455 16.20408
27.71809 104.868454 18.00908
32.002094 100.754456 22.969082
32.31709 100.28645 24.888083
21.471088 5.1614532 37.95608
22.991093 3.245453 38.63208
30.420094 5.350464 35.23508
32.41309 4.215454 36.45608
33.281094 9.440455 27.758081
34.034092 10.671458 25.903082
28.16409 5.1884613 24.550081
28.85709 3.2544556 23.593082
41.803093 48.57946 19.704082
43.006096 49.09846 21.723082
37.96509 42.250458 22.84608
35.999092 41.33046 21.988081
24.225094 87.436455 2.6390831
24.849094 85.866455 3.7350838
28.432095 86.70745 39.58308
29.684093 88.021454 37.82608
14.310093 40.72746 3.6830819
14.592094 42.33246 1.7810816
13.607094 45.369457 35.99008
15.848095 46.57946 35.27108
40.227093 15.820458 15.3170805
38.527092 15.493459 16.139082
31.406094 17.828459 11.117081
31.524094 19.622458 13.070081
4.7720947 58.70646 5.782081
5.7550926 57.01246 5.1030807
13.907093 55.27946 7.580081
14.856094 54.68946 8.729081
37.322094 69.295456 6.249081
36.309093 67.92646 7.6550813
28.904095 67.05446 7.9380813
28.068089 69.05146 6.847081
33.835094 67.92946 34.33408
33.54009 66.01346 33.91908
31.630093 60.93146 38.753082
30.77309 58.92846 38.745083
49.422092 59.11546 21.167082
50.716095 57.79746 19.809082
53.273094 50.62146 18.82508
54.441093 49.94846 20.632082
39.387093 63.76246 18.616081
39.650093 61.68646 17.900082
42.174095 56.83246 12.88508
41.488094 58.33146 11.362081
43.552094 95.007454 33.15208
45.876095 94.045456 34.21308
42.736095 86.27945 35.529083
44.238094 84.90245 37.008083
54.812096 37.30346 37.53208
55.309093 37.493458 39.74208
4.732094 35.021458 2.771083
4.940094 33.47646 4.4820814
31.492092 71.94345 10.30508
30.027096 72.91245 11.12108
26.305096 66.51446 13.44408
27.508091 65.78846 11.93708
47.909096 37.83146 12.36408
46.932095 35.82946 11.54808
45.329094 29.920458 16.199081
43.020096 29.457458 15.273081
11.168095 127.95545 7.627081
13.048096 0.45645142 6.545081
19.48309 123.58545 5.849081
20.973095 123.23645 4.6030807
53.540092 24.747458 26.644081
55.291096 23.304457 26.260082
50.201096 19.13346 24.101082
48.574093 18.149458 24.321081
48.657093 18.57446 20.107082
48.343094 16.763458 19.583082
41.885094 17.731459 13.67508
42.940094 19.975458 13.329081
9.75309 42.36446 24.013083
10.743095 40.70746 24.552082
14.250095 39.99546 31.112082
16.262093 39.87946 31.636082
31.231094 50.41246 34.19208
31.244095 49.84346 36.355083
38.476093 54.66646 35.45008
39.684093 56.38946 36.183083
2.8120918 74.13345 7.5890813
2.7120934 72.06545 8.261081
2.051094 65.02846 2.864081
3.4030914 63.62046 3.6450808
37.530094 17.797459 20.863081
37.841095 16.973457 18.697083
30.118092 18.082458 14.806081
29.44109 19.906458 15.452081
31.559093 125.51345 36.420082
30.50909 125.70845 34.420082
25.140095 121.94745 28.562082
27.860088 122.38445 27.795082
47.807095 101.53845 25.196081
46.438095 101.78845 23.099081
41.381092 95.07145 19.035082
40.72209 96.797455 17.327082
13.221092 69.908455 2.1380808
13.025093 70.34846 4.647081
18.98309 76.98445 2.867081
20.129093 76.43246 1.1780809
20.487095 48.74946 20.849081
20.672092 51.02946 21.63108
16.290092 51.81646 27.601082
15.231094 53.51546 28.594082
37.549095 107.23145 37.654083
37.31909 104.94245 38.052082
36.691093 104.27345 6.742084
37.738094 106.282455 7.1180835
14.904095 85.23145 23.138083
16.632095 84.54445 22.793081
14.086094 76.090454 21.285082
12.436092 76.81645 19.37408
2.683094 64.31446 11.31908
2.2310944 63.46946 9.50908
9.7000885 60.41146 7.683081
11.668095 60.88546 6.586081
42.061092 53.75446 4.4610815
40.727093 52.10346 3.7450821
47.594093 48.51746 37.99908
49.412094 49.19546 39.35108
12.711094 98.85845 34.54208
13.365093 100.69145 33.08108
8.867088 106.17845 38.11708
10.678093 105.94745 39.258083
40.893093 125.060455 24.969082
38.877094 125.200455 23.923082
36.648094 120.769455 15.973081
34.448093 121.602455 17.08308
22.484089 77.684456 20.763083
21.06509 78.64745 22.026081
15.470093 73.92545 22.510082
15.517094 72.05245 22.020082
22.42809 7.604457 24.911081
20.170094 7.183467 25.004082
18.173092 2.3134613 19.797081
18.672092 0.6924591 18.179081
38.196095 64.91946 2.391082
36.505093 64.658455 1.2910837
38.304092 62.67546 32.74708
38.915092 64.46046 32.57608
9.204094 26.146458 18.185081
9.136093 26.114458 20.091082
6.509094 25.688457 26.083082
7.2270927 23.427458 25.961082
5.645092 125.05345 22.344082
7.478092 124.797455 22.715082
2.794094 119.60545 17.504082
3.303093 118.628456 15.35708
46.156094 60.81746 28.057081
44.160095 59.93746 28.275082
40.29809 52.68746 28.99208
41.13209 52.01746 30.96408
45.685093 34.84946 17.97208
46.304096 33.507458 16.257082
51.521095 38.31746 20.098082
50.673096 37.78946 21.95008
12.933094 65.83046 15.34008
11.878094 65.339455 13.63508
2.3590927 65.90546 13.35708
1.1740913 65.61946 15.632081
19.03609 68.43146 23.791082
18.91209 70.78845 24.004082
24.56609 68.73546 30.37008
26.387089 66.82146 29.407082
43.313095 54.15646 12.134081
42.913094 52.26646 10.959081
48.473095 46.368458 15.434081
48.712093 44.31846 15.110081
47.991093 59.67446 26.258081
48.132095 58.78146 23.976082
48.586094 52.76146 29.329082
46.565094 52.02946 29.205082
54.110092 10.326457 5.0070834
53.452095 8.856456 3.7530816
50.168095 13.536464 37.56008
50.103096 13.381465 34.88808
29.88409 52.43346 3.5420809
28.724094 53.13446 5.3860807
30.35709 45.90946 8.219081
28.98209 44.354458 8.026081
47.679096 27.335457 17.206081
48.686096 26.702457 18.577082
48.390095 20.462458 22.050081
46.599094 20.802458 20.847082
53.755093 85.032455 27.109081
55.656094 83.88845 28.142082
1.921093 91.81645 31.355082
2.9550934 92.02945 29.442081
25.137089 27.896458 39.578083
24.306095 26.284458 37.99208
16.695095 29.659458 40.439083
14.883095 28.530458 39.09108
20.00909 5.7174683 35.45908
18.32909 7.3204603 36.177082
11.207092 2.3524628 34.641083
9.107094 3.29245 34.02708
43.194096 26.003458 15.660081
44.313095 27.052458 13.836081
38.869095 26.461458 6.262081
40.638092 25.931458 5.3070807
4.296093 33.33646 10.618081
4.5490913 32.521458 12.82808
55.921093 29.602457 18.665081
53.641094 29.987457 19.62708
38.330093 9.341456 21.043081
37.113094 9.715465 19.281082
30.804089 8.762462 16.03008
30.335094 6.8894606 13.9090805
22.778095 9.518458 13.868081
24.249088 9.646464 15.76208
16.897095 5.147461 19.505081
15.156094 6.6654615 18.05508
7.994095 43.737457 21.33208
8.812088 45.44246 19.54408
15.797092 40.18346 16.066082
15.124092 38.38846 17.53008
51.711094 31.594458 7.415081
50.581093 33.736458 7.259081
0.395092 38.18246 9.13708
2.150093 36.979458 9.8760805
44.028095 66.91546 33.88208
43.864094 68.739456 35.128082
45.602093 75.23846 29.643082
45.281094 76.881454 30.517082
56.120094 51.68446 22.833082
54.714092 50.30946 23.312082
47.899094 50.02546 27.114082
45.925095 50.41346 26.746082
0.2830925 122.103455 37.68108
0.65309143 122.407455 40.16608
49.810093 119.73545 4.372081
49.053093 121.55245 3.4290802
8.2380905 91.22145 28.651081
6.1700935 91.68845 29.527082
3.6510925 91.79345 20.10308
3.506092 94.15545 20.26608
28.157093 120.27345 7.6150813
25.846088 120.40245 7.796081
26.310093 112.54345 3.686081
28.089092 111.948456 4.100081
6.1460915 32.889458 19.562082
6.720093 31.453459 18.508081
4.614094 29.714458 11.740081
3.1470947 28.580458 9.789081
41.948093 12.455459 9.846081
41.102093 13.454458 8.017081
37.191093 17.842459 5.929081
34.927094 18.856459 5.521081
24.45409 72.84746 38.649082
26.216091 71.86045 40.54008
21.962093 79.66245 1.4620813
23.702091 80.934456 2.6850808
22.905094 121.29045 20.958082
22.210094 122.93345 19.26608
24.722095 126.63845 12.671081
22.45309 127.29245 12.329081
21.19209 115.18245 19.493082
22.893093 115.37345 18.518082
29.69109 116.79445 17.99208
31.625095 115.51345 17.553082
1.3610916 24.676458 26.570082
56.292095 26.108458 26.258081
1.9610939 31.143457 22.959082
2.0900917 32.75646 21.37008
9.90609 75.97446 1.8480808
8.89109 77.36246 -0.12991913
5.115093 81.714455 6.3980813
2.6790924 81.90045 6.6020813
48.502094 29.501457 19.62008
50.419094 27.963457 19.79408
49.016094 24.036457 28.795082
46.818096 24.117458 28.677082
26.67809 57.17846 12.10208
27.998089 55.68646 13.856081
20.69209 52.58446 17.15208
21.452091 51.76446 19.307081
26.625095 24.661457 25.24908
28.57909 23.950459 24.12708
27.823093 26.321457 15.48408
27.684093 23.819458 14.787081
44.712093 1.1254578 29.902082
44.413094 2.546463 31.600082
36.600094 6.830455 33.580082
38.037094 7.211467 35.86008
35.644093 88.87345 8.952081
33.131092 89.394455 9.78308
34.032093 85.378456 16.410082
35.371094 85.81345 18.219082
45.905094 24.638458 36.68508
46.954094 23.136457 37.77508
50.029095 16.945457 38.35808
51.814095 15.783459 38.13208
40.762093 14.323451 37.17408
41.112095 12.020457 36.42308
38.799095 9.150462 3.643081
39.93009 7.1164656 3.9390824
56.413094 37.13646 13.51508
54.381092 36.93346 14.825081
50.977093 30.198458 18.02008
52.311092 28.532457 17.820082
0.74209213 112.46045 1.3300813
2.6490936 112.20845 0.710083
2.631092 106.795456 36.59808
3.442093 105.282455 37.98408
0.28809357 77.94145 4.6330824
55.873093 77.534454 2.7250817
49.268093 76.69045 40.481083
46.923096 77.27946 40.48308
6.3060913 16.302458 34.24708
4.076092 17.012459 33.79008
0.065093994 24.100458 33.12608
0.34809113 25.771458 33.823082
9.875092 1.9614563 26.844082
11.040092 2.842453 28.842081
15.133095 8.054454 31.226082
13.895092 9.496455 31.223082
30.158092 14.452458 9.9750805
30.917095 13.1084585 8.105081
32.63809 15.885459 0.5030808
32.81709 18.291458 0.24208085
10.381092 109.90045 20.805082
9.6770935 112.15045 21.004082
15.830093 116.146454 22.118082
18.180096 116.66245 22.23508
16.102093 91.01045 37.45608
16.952095 93.450455 37.42108
24.657093 90.15045 38.856083
26.868092 90.616455 37.737083
39.756092 9.492457 18.10708
41.422092 9.325465 17.268082
47.085094 12.347453 11.679081
47.154095 13.785457 10.716081
21.810093 113.78645 8.341081
21.905094 114.52745 10.412081
17.398094 116.67545 15.76008
15.592094 114.92945 16.632082
50.020096 73.45745 15.560081
50.100094 73.812454 17.56108
56.080093 80.44145 18.585081
55.048096 81.92845 16.99508
10.452091 63.88846 39.427082
8.749092 64.144455 37.78908
13.921093 57.62346 35.377083
15.935093 56.74646 33.753082
5.412094 28.275457 4.708081
5.711094 29.142458 6.5300813
10.181091 29.617458 12.01708
11.906094 30.512459 12.81408
6.9760933 91.23345 13.108081
6.8680916 89.28045 15.105081
11.217094 87.505455 21.335081
11.093094 85.57745 21.800081
5.4450912 57.00646 17.012081
6.8110924 55.94346 15.695081
1.8140945 60.10246 10.83308
2.3640938 61.08346 8.098081
40.440094 100.24745 14.381081
39.17309 102.01445 14.71508
32.328094 104.518456 9.40608
33.233093 106.589455 10.334081
36.627094 59.36146 10.686081
37.909096 57.75246 10.620081
31.221088 53.83646 7.1350813
29.364094 53.10446 8.282081
52.036095 24.926458 14.940081
53.868095 25.873457 15.580081
3.310093 22.530458 8.492081
1.697094 22.529457 6.917081
26.27409 64.64946 31.402082
24.59209 65.38246 33.086082
26.883091 70.55345 38.230083
25.17809 70.12145 38.974083
38.100094 78.948456 35.717083
38.063095 79.031456 33.37708
34.110092 85.13745 37.772083
31.880095 86.11245 37.515083
49.792095 117.297455 6.871081
50.034096 115.340454 6.201081
56.056095 114.977455 0.54508084
2.039093 115.32945 1.1540809
38.246094 115.77945 40.481083
38.880093 114.80045 1.8810838
46.423096 111.340454 38.49708
45.389095 111.64845 36.315083
1.4950943 8.336467 8.62108
2.025093 6.5644636 9.478081
1.1690941 2.8614502 1.3330809
55.507095 2.6724548 1.7660807
12.270092 120.08645 14.386081
11.362095 121.367455 12.271081
9.356094 128.02246 12.278081
9.173088 1.5104523 11.46508
8.83609 124.08145 16.47908
7.2430916 125.267456 17.581081
1.4590912 120.604454 14.95108
0.007091522 120.59245 13.25508
13.655094 64.63846 37.607082
11.933094 65.63446 38.07508
10.098091 72.30846 0.14708328
11.072094 74.396454 40.482082
22.847095 74.38645 35.72008
21.58009 74.27846 38.07608
16.870094 69.32246 33.16008
14.556095 68.36346 33.337082
43.799095 28.076458 34.85108
44.167095 29.842457 35.864082
49.961094 25.361458 31.454082
51.481094 25.652458 29.79408
11.767094 72.392456 2.163081
10.226093 71.713455 3.884081
9.466087 75.09445 9.85608
8.881088 76.810455 11.282081
34.571095 36.55746 15.804081
34.880093 37.63146 13.82408
29.794094 44.42646 10.85208
31.543095 46.091457 10.80208
40.435093 105.409454 25.857082
40.523094 103.45445 26.13408
35.206093 98.25045 26.38108
33.447094 97.99445 24.295082
53.492092 123.16845 21.810081
54.090096 121.61345 23.168081
50.377094 113.253456 24.09608
51.973095 113.67745 25.663082
20.393093 32.29846 26.963081
22.378094 31.063457 26.306082
25.476093 29.865458 34.41508
23.145092 30.090458 35.13808
20.571095 28.926458 25.48508
18.71809 30.929459 25.541082
16.268093 34.74746 22.281082
15.022095 36.23446 20.99508
44.609093 76.743454 38.54108
44.074093 76.80245 0.20708084
36.421093 76.27645 37.517082
34.137093 76.20245 37.95608
47.813095 39.02746 19.118082
47.368095 40.903458 20.660082
45.315094 33.91946 23.640081
45.356094 32.299458 21.977081
23.282093 75.54045 32.64708
23.84309 73.670456 33.350082
31.528095 76.43945 36.468082
32.92609 75.22045 35.579082
43.999096 43.74546 28.417082
44.459095 42.660458 30.052082
39.142094 37.271458 30.192081
39.057095 34.88646 29.355082
20.561092 59.43246 22.608082
18.60809 58.805458 23.95008
12.762093 62.79846 28.37008
13.737095 64.00046 29.626081
2.7100945 101.267456 22.963081
3.249092 103.142456 21.729082
10.676094 107.28645 20.319082
11.236095 106.95645 18.18308
39.622093 55.29046 0.73708344
38.20809 54.81646 39.57008
36.794094 46.88346 2.9590828
36.163094 47.03946 5.4970813
43.734093 32.758457 37.95708
45.527096 31.355457 38.01408
49.890095 28.193457 4.851081
51.111095 30.320457 4.54708
13.335094 90.38645 0.40808105
13.897095 91.83445 39.91708
16.268093 95.80045 36.09808
16.270092 96.60545 33.837082
5.641094 11.25146 25.914082
3.5150948 11.189464 24.513083
0.105091095 17.484465 18.34608
0.5630913 15.961455 16.79108
55.152092 48.21546 24.649082
53.864094 46.89946 23.65508
49.945095 41.34446 20.97108
50.434093 42.58646 19.156082
47.885094 104.20945 9.52208
49.204094 106.005455 8.425081
51.581093 108.56545 16.842081
52.802094 110.31945 16.921082
33.783092 77.77545 7.362081
33.34109 78.83645 5.5700808
32.27209 87.560455 8.244081
30.179089 87.76445 9.01908
3.2080917 52.02546 31.744081
4.933094 53.79846 31.737082
11.018093 51.28946 35.953083
12.639095 50.01546 35.45208
27.05209 1.1934509 36.03208
28.669094 128.39946 37.34408
29.290089 6.6164656 2.747081
29.338093 8.799464 1.7410806
43.844093 43.28246 10.839081
42.082092 43.50446 11.547081
41.69509 50.11646 17.415081
41.214092 51.37446 15.146081
3.7280922 26.579458 6.316081
2.4270935 25.389458 6.014081
52.170094 24.189457 10.97708
52.029095 23.538458 9.0080805
52.072094 123.979454 31.733082
51.278095 122.35545 29.600082
53.802094 127.005455 22.806082
55.304092 127.79445 23.115082
53.250095 11.003459 15.785081
54.896095 11.220454 14.53108
5.3090935 9.924464 20.29408
4.270092 9.545466 22.213081
52.188095 93.36145 5.397081
50.724094 95.11245 5.375081
43.971096 90.281456 1.3900808
44.231094 89.11145 -0.7999192
56.213093 76.37445 9.80708
54.818092 74.62045 8.721081
51.609093 71.795456 6.394081
50.077095 69.949455 6.3190813
31.212093 76.94045 8.3430805
32.70709 76.91045 9.985081
28.323093 83.58145 11.776081
27.34409 84.269455 9.393081
43.123093 89.395454 24.481081
41.37509 90.33645 25.980082
43.451096 97.22445 31.56508
41.367092 97.85545 31.13408
39.012093 6.9404554 23.760082
37.960094 5.7624664 25.546082
32.88709 1.072464 24.650082
31.318089 128.26146 24.470081
49.505093 72.062454 9.070081
49.134094 70.94646 11.1000805
56.147095 67.02446 13.461081
1.4220924 68.56346 13.799081
19.96809 56.14346 16.81508
19.017094 58.19346 17.526081
13.217094 62.89246 12.799081
14.477093 64.55046 13.59008
12.402096 27.079458 28.987082
11.632095 27.891459 27.181082
14.298096 26.973457 20.952082
16.401093 26.057457 20.099081
46.746094 62.08446 13.115081
45.998093 63.29546 11.273081
37.820095 62.70046 11.018081
36.051094 61.81846 11.9680805
5.8960915 26.305458 37.63208
3.9950943 25.859457 36.17908
5.5640945 22.631458 28.062082
4.409092 24.803457 27.484081
6.7790947 44.25546 9.88008
8.849091 45.19746 11.39208
6.2970924 46.02546 19.298082
5.282093 47.92246 19.472082
35.88209 82.48145 20.44308
37.078094 80.48845 20.388083
43.038094 86.18345 16.262081
45.457096 85.37645 16.12808
45.958096 63.04746 16.14808
46.720093 62.89746 18.350082
50.956093 69.58046 20.365082
52.922092 69.02746 19.66908
53.327095 4.114456 27.713081
53.209095 6.47346 28.056082
48.610096 4.9994507 33.00008
46.884094 4.0364532 31.878082
31.119095 50.27446 7.670081
31.562094 48.98346 9.84408
37.760094 51.55046 5.065081
39.582092 50.51846 5.637081
38.036095 77.36146 21.50208
39.466095 78.31545 20.382082
46.036095 79.156456 27.31108
47.035095 77.41345 28.425081
47.993095 113.19545 6.491081
49.483093 112.907455 7.757081
0.3400917 113.129456 9.91808
1.0610924 111.727455 8.592081
13.721092 80.86345 29.30108
14.458096 79.04945 28.288082
9.80909 80.99945 20.981081
10.572094 81.741455 19.052082
20.251095 5.3794556 40.336082
20.887089 3.41745 0.58408356
14.540092 126.907455 38.822083
12.756092 128.38246 38.15808
24.96909 25.317457 7.019081
25.458096 26.141459 8.852081
34.240093 26.733458 5.598081
36.136093 25.794458 6.644081
20.187092 1.5574493 14.17708
19.146091 128.38046 15.651081
10.628094 126.09845 17.10408
9.565094 128.07646 16.932081
24.37009 99.37645 18.11008
25.611095 101.10845 18.570082
24.876095 101.131454 26.005081
23.321095 102.47045 27.185081
55.936092 0.46846008 18.848082
54.452095 128.22345 20.011082
48.518093 5.801468 22.574081
46.195095 6.7384596 21.636082
0.023094177 95.84845 7.538081
56.174095 94.51145 9.669081
55.181095 102.52745 12.99108
52.710094 103.10745 12.228081
7.548092 51.06246 16.74608
6.9460945 52.80146 15.490081
56.039093 52.03146 20.203081
56.325092 54.25346 20.972082
7.037094 38.104458 1.8260835
5.0730934 37.56446 3.688083
56.060093 40.38646 39.96908
53.980095 41.51846 39.161083
30.823093 80.576454 35.536083
31.769093 81.36345 33.57008
31.887089 89.15145 32.17308
33.63709 88.65245 31.927082
32.214092 109.05345 29.955082
32.503094 109.978455 31.852081
28.01009 105.38345 36.06308
25.959095 104.26345 36.641083
34.669094 123.533455 15.131081
34.13209 124.26045 16.613081
42.054092 126.58345 19.843082
42.958096 127.295456 17.99508
43.739094 124.67845 20.715082
44.848095 126.34645 20.996082
49.977093 2.7914581 23.960081
49.014095 4.3014526 24.975082
53.682095 21.857458 7.961081
51.864094 20.667458 6.854081
0.20409393 18.287458 -0.78891927
0.7940941 19.788458 -2.7309191
26.341091 55.88846 9.66508
24.626095 55.38646 8.2510805
17.399094 52.29346 7.489081
16.548096 52.70246 9.697081
0.28709412 5.567459 1.9160837
1.7250938 6.975459 2.5650818
1.3270912 11.559459 36.75508
0.9860916 13.369456 36.205082
20.785091 101.35045 27.178082
19.630093 103.379456 26.35308
20.17609 102.603455 33.97008
20.256092 104.26445 35.40308
49.113094 93.03545 31.593082
47.402096 91.99545 32.55508
42.056095 87.12745 27.921082
43.101093 85.200455 29.13108
24.92809 106.99645 16.195082
24.84209 104.55845 15.929081
29.695095 103.71045 9.29108
29.78709 102.101456 10.504081
28.23109 13.857463 30.008081
26.19109 13.361461 30.484081
20.81409 8.011455 27.775082
18.949093 9.021464 28.712082
49.826096 91.269455 25.401081
48.124096 91.72445 27.26608
43.471096 90.73045 22.091082
41.56309 90.79145 21.970081
17.393093 84.701454 33.14408
17.004093 85.94745 31.195082
12.492092 85.84145 24.13408
13.1770935 88.13745 23.601082
37.170094 84.45345 16.42308
35.598095 83.83145 14.652081
37.14609 76.713455 10.559081
36.329094 76.70245 8.6000805
25.48309 63.10046 16.647081
25.349094 62.67446 18.74508
30.670094 55.84346 20.50208
30.973095 56.07446 22.59608
0.0060920715 44.77346 9.66008
0.5880928 43.90546 11.467081
51.119095 46.27046 15.452081
51.471092 47.35946 17.45008
26.67509 100.73445 33.53908
27.55209 99.05545 34.905083
24.645092 103.91045 2.5720818
26.849094 105.17945 2.6730835
52.333096 15.287458 7.893081
51.159096 14.930459 6.244081
55.741093 15.995459 -1.6829191
54.373093 14.694459 -2.3689191
45.050095 67.351456 37.43008
43.296093 66.62246 38.308083
38.571095 59.79946 38.36008
38.136093 59.11846 40.28308
16.133095 44.222458 33.39008
15.459095 46.08246 32.68108
15.690094 48.34546 27.744081
14.192093 48.62046 26.376081
45.537094 17.525457 25.37708
43.544094 17.521458 26.814081
40.484093 14.255459 32.63108
40.748093 15.588459 34.745083
40.690094 59.73946 34.522083
40.748093 57.71046 34.01208
47.646095 54.51746 31.435081
49.698093 55.23546 30.305082
21.849094 74.16946 8.94308
22.964092 72.70645 7.739081
21.075092 67.93946 1.2630808
23.035091 69.45646 -0.2519191
42.089092 77.406456 6.140081
39.331093 77.51646 6.148081
33.126095 75.84645 5.772081
31.424095 76.950455 4.4680805
38.413094 25.570457 33.49208
37.776093 23.655458 34.75508
31.159092 22.148458 32.461082
29.421093 20.820457 31.545082
49.171093 56.75046 39.585083
49.499096 55.11046 38.842083
40.880093 55.51546 38.64408
39.478092 53.55446 37.772083
3.1260948 42.680458 11.93208
2.039093 41.33146 13.92308
4.0330925 44.90646 20.525082
3.8400917 44.21446 22.88108
14.393093 16.426466 7.7080812
15.323093 17.303465 9.780081
18.66209 9.486461 10.308081
19.132092 8.405467 12.07808
43.802094 125.059456 4.6560807
45.408092 125.227455 6.296081
39.426094 125.629456 7.3320813
37.81209 126.24545 8.612081
21.165089 93.98545 30.691082
20.75909 95.28945 28.953081
18.776089 89.65445 31.372082
18.200092 89.546455 33.24708
44.521095 23.749458 16.43308
45.026093 23.649458 14.462081
52.398094 18.793459 17.48508
54.447094 18.778458 17.032082
41.926094 90.78745 4.6820807
40.531094 91.964455 5.714081
42.528095 98.77745 2.8270807
41.079094 99.66845 3.8810809
7.2410927 96.21845 29.586082
8.48909 96.90245 31.557081
4.5190926 99.451454 36.42908
2.4750938 100.80845 37.81208
4.1840935 97.67545 10.64408
5.6950912 99.31345 11.26008
1.1480942 106.20345 8.341081
2.428093 108.142456 8.727081
41.092094 108.30345 14.058081
43.553093 107.68245 13.914081
47.069096 105.31445 19.109081
47.180096 104.09145 17.320082
35.492092 94.978455 9.7510805
35.684093 94.72345 12.27208
29.902096 93.532455 18.614082
29.588093 91.743454 18.612082
35.461094 39.855457 24.171082
33.309093 40.03946 24.010082
27.457088 36.98446 21.59608
25.96709 35.79746 21.09608
10.1580925 91.520454 25.616081
11.611095 93.006454 26.70008
15.151093 87.79045 32.43108
14.025093 86.16645 33.89808
45.115093 27.364458 17.151081
45.866093 25.235458 18.652082
42.022095 21.191458 25.531082
44.371094 21.100458 25.744081
44.133095 61.96546 9.56608
45.402096 59.90746 9.55508
38.416092 60.86146 3.351081
38.799095 60.62546 1.5360807
14.3020935 14.190458 19.41208
13.068092 12.705459 18.126081
7.400093 20.374458 16.175081
6.603092 18.438457 17.599081
18.991093 58.25746 3.6680808
20.099094 59.26546 5.687081
18.700092 65.96646 1.8130808
18.52309 64.21646 0.28408068
37.207092 123.94245 39.198082
38.030094 124.48945 36.97708
39.759094 4.8104553 36.772083
37.63909 4.750458 36.85808
5.4500923 89.05345 29.468082
6.9010925 88.32945 27.385082
11.5520935 81.47345 30.45708
9.492088 79.86345 30.64108
54.884094 67.23146 26.477081
55.964092 65.96746 27.843082
7.6090927 63.34446 25.38408
7.0800934 65.02946 23.922081
52.682095 37.348457 39.982082
52.177094 37.21946 37.72208
45.980095 43.33146 36.614082
45.142094 44.04446 38.59108
18.319096 12.672465 21.121082
16.262093 12.216456 19.81508
13.004093 4.096451 20.800081
12.663094 3.6144562 22.96408
19.958096 113.66145 33.698082
20.41109 111.69745 33.87208
27.470089 112.269455 26.777082
27.332088 114.658455 26.75208
11.417095 10.239467 18.962082
12.885094 10.188457 17.61408
14.8400955 8.07046 10.244081
15.9080925 10.241466 10.09008
12.621094 120.87345 29.489082
10.905094 119.56945 30.022081
7.951088 115.71145 22.564081
6.8250923 117.712456 22.166082
48.361095 68.75146 33.46308
47.331093 66.68046 33.54408
51.815094 59.81346 29.880081
50.020096 58.21146 29.611082
12.791096 50.21946 38.16708
13.817093 47.92046 37.98408
20.10609 45.93446 1.4850839
19.797092 43.917458 1.7140802
36.585094 15.066466 39.878082
38.186092 14.538466 37.988083
33.325092 6.7164564 34.28908
31.491095 7.804454 34.83908
40.140095 74.323456 28.071081
40.574093 75.43246 25.872082
44.459095 79.54145 31.158081
46.316093 80.23345 30.071081
48.513096 109.629456 35.68108
50.582096 108.81745 36.184082
54.112095 112.491455 28.770082
54.767094 110.17745 27.59608
51.129093 89.146454 26.383081
50.311096 87.253456 25.77308
46.745094 84.56745 33.57108
44.833096 83.712456 34.508083
24.777096 79.69545 13.124081
25.917095 79.20845 15.40408
31.03609 86.504456 18.753082
29.48309 85.88745 20.592081
20.37209 13.628459 19.809082
22.062092 14.735458 19.182081
20.876095 20.25846 13.132081
18.735088 19.85546 14.33108
33.065094 62.78146 10.152081
34.106094 60.81946 10.447081
37.082092 58.45746 2.6300807
35.836094 58.41146 0.65308076
52.396095 36.02446 27.723082
53.055096 36.81646 25.61008
47.681095 31.767458 22.534082
47.831093 34.53846 22.944082
38.039093 101.70745 31.555082
38.406094 101.70945 29.593082
29.69009 104.35945 28.970081
