29.361425 40.619556 42.446266
31.048426 39.724556 40.87927
31.607426 15.416557 10.53627
32.066425 13.155556 10.942268
24.570425 11.139557 9.892265
24.987425 8.997559 10.284271
40.71943 56.645557 31.340267
42.093426 58.114555 31.033268
45.973427 52.511555 27.117268
47.854427 53.180557 25.946268
9.143426 30.958557 19.573265
10.262425 29.177557 20.612267
12.746426 26.270557 14.449265
12.157426 24.125557 13.608269
35.374428 67.36856 26.516268
34.99843 66.75956 24.531267
42.23343 66.12056 27.035267
43.016426 63.96356 26.833267
28.804426 36.271557 70.69127
27.828426 35.50456 0.06427002
29.521425 37.431557 7.6852646
30.449425 39.273556 7.4182663
23.339426 11.831558 35.147266
23.804426 9.186554 36.55327
26.313425 4.490555 31.435266
26.437426 3.1555557 33.09527
28.252426 50.255558 21.679268
30.078426 49.92156 20.653267
31.670425 57.846558 19.833267
30.487425 59.691555 19.622269
32.138428 55.034557 7.344269
31.750425 55.92856 9.496269
25.782425 51.901558 12.665268
25.413425 49.808556 12.517265
18.597425 68.739555 2.9002686
19.323425 66.83056 1.5592651
23.070425 62.163555 6.1262665
21.595427 61.063557 4.7792664
50.543427 53.998558 72.02327
0.4864273 54.098557 1.3302689
5.2864265 60.635555 72.294266
3.8924294 61.916557 70.40327
17.953426 49.108555 7.4732666
19.165426 50.431557 5.599266
15.513426 52.356556 0.32826996
15.152426 54.85956 0.09926605
17.785425 35.860558 22.569267
17.773426 37.884556 21.784264
15.988425 34.721558 15.040268
15.020426 36.541557 13.918266
31.524426 1.7765579 19.605263
31.496426 1.6795578 17.521263
35.76243 1.9735565 13.27227
36.359425 2.4795532 11.107269
39.49743 52.889557 27.138268
39.39443 51.073555 26.956266
38.21943 49.17156 35.110268
36.634426 47.339558 34.847267
19.749426 27.861557 21.625267
19.451426 28.179558 19.655266
25.576426 22.173557 19.845268
24.143425 21.068558 18.400269
21.983425 43.536556 26.543266
22.114426 42.34456 28.257267
16.155426 39.311558 31.160267
15.029426 41.59556 30.756268
1.6584282 15.383556 26.398268
0.21042633 16.301558 28.399267
49.82343 22.404556 29.279268
49.124428 23.083557 31.041267
17.904427 64.68056 60.30927
16.297426 65.61856 61.27227
10.625425 60.853558 64.67727
10.030426 62.153557 66.66727
17.165426 27.294558 18.721268
17.641426 26.141558 20.807266
20.868425 20.234556 21.460266
22.132425 19.756557 22.794266
34.575428 41.339558 6.057266
35.319427 43.262558 6.7712708
39.947426 39.779556 10.757271
41.82443 40.81656 10.049271
8.658426 44.28956 8.943268
11.020426 43.092556 9.151268
6.754426 35.618557 9.178268
6.199426 36.42856 10.798271
13.929426 44.52556 63.01027
14.525426 44.62156 65.477264
11.635426 37.49656 66.977264
13.151425 36.97756 68.394264
23.230425 25.969557 33.551266
21.148426 26.761557 33.305267
20.369427 23.127558 38.863266
18.418427 22.640556 40.225266
18.841427 19.367558 69.22926
17.857426 20.521557 71.15127
16.048426 27.371557 70.30227
16.570427 26.534557 72.20527
34.099426 60.403557 16.831268
32.472427 60.637558 16.042267
30.845425 68.71956 15.379265
32.947426 69.03556 16.071266
23.244425 21.282557 12.293266
22.513426 19.121557 12.343269
23.383425 12.294557 14.672264
21.427425 11.5985565 15.505264
25.094425 24.757557 12.502266
26.869425 25.607557 11.681267
27.634426 21.523558 5.401268
29.337425 21.866556 4.06427
21.895426 58.094555 32.738266
22.898426 58.026558 31.095268
20.622425 61.486557 24.633266
20.550426 63.878555 23.570267
28.349426 53.83856 0.5472641
26.915426 54.987556 71.60827
21.686426 50.326557 4.371269
22.745426 51.022556 6.089264
18.230427 2.4675522 13.261269
16.194426 2.1225586 14.293266
12.365426 66.92456 11.32827
11.830426 67.863556 9.291267
20.811426 53.330555 69.12427
20.466427 55.454556 70.10426
18.060427 57.249557 5.0092697
18.019426 55.198555 6.0862656
20.706427 31.965557 27.197268
22.156425 29.945557 27.147266
19.789427 22.008556 27.016268
17.834427 22.230556 26.040268
2.6474266 35.41456 64.130264
3.5044289 33.172558 63.32427
9.532427 35.557556 67.50027
8.275427 36.67756 68.91026
24.578426 17.76955 10.549271
26.107426 16.09056 9.49427
28.535425 11.697556 16.23227
30.416426 11.224556 15.310265
50.006428 0.40255737 68.52227
48.125427 0.10255432 67.17627
44.910427 63.542557 68.155266
46.280426 62.195557 67.30327
19.487427 49.18556 29.565268
17.568426 49.18556 27.901268
17.054426 53.308556 33.27527
16.006426 52.535557 35.362267
16.910425 3.6795578 4.4562683
17.793427 1.4625549 4.903267
16.738426 3.8045578 11.222267
14.390426 3.200554 12.510269
9.811426 66.06656 8.882271
10.724425 64.65456 11.060265
8.202426 0.76355743 13.545265
6.182426 1.8475571 13.39827
1.3994293 57.503555 19.091263
0.45142746 56.871555 20.508263
48.74843 50.684555 19.568268
46.78243 50.019558 18.891266
21.574427 56.923557 19.328262
23.096426 57.533558 17.660263
19.002426 60.763557 12.181267
19.840425 62.892555 11.665268
9.796426 19.023556 17.804268
10.992426 17.14455 18.300262
6.765426 11.71656 14.098267
5.739426 10.643555 15.70327
5.253426 58.451557 64.960266
5.602426 60.033558 66.25027
8.036426 56.201557 71.657265
10.328425 56.259556 0.27926636
44.300426 66.22356 4.373268
42.60243 66.43856 5.6852646
45.28843 68.39756 12.690269
43.606426 68.40356 14.601265
2.330429 23.108557 11.219269
4.007427 23.991556 11.0772705
3.679428 30.557556 16.113266
4.778427 31.368557 14.540268
46.99843 2.2465515 54.494267
46.00543 1.4335556 56.45427
46.530426 63.819557 55.49827
48.686428 64.56456 56.901268
6.765425 57.616558 29.166267
5.2554283 56.583557 30.247267
4.5364265 51.882557 36.06027
4.374428 50.515556 34.495266
5.316429 45.51756 9.900269
6.7284265 45.168556 11.928268
5.5924263 52.799557 15.17527
7.1844277 52.450558 16.74327
15.128426 69.29056 61.318268
13.317426 0.3065567 60.187267
12.059425 5.4835587 55.181267
11.382425 6.9215546 56.805267
5.2934265 52.254555 18.537262
6.9364266 52.054558 19.509262
6.3794274 50.608555 27.112268
5.554428 48.367558 27.95727
10.554426 33.493557 4.719269
9.829426 32.15756 6.295265
13.943426 32.401558 12.552269
14.468426 34.35056 12.374268
14.490425 37.651558 11.079269
17.018427 38.306557 11.1382675
19.169426 35.35256 3.764267
17.181425 35.562557 2.4302673
46.223427 45.807556 40.78227
44.503426 45.243557 39.444267
49.843426 42.895557 37.24727
50.117428 41.78956 38.828266
44.96343 22.489557 4.45327
47.06643 23.251556 5.391266
48.466427 28.886557 9.809265
49.127426 28.312557 11.882271
26.135426 50.633556 60.71127
25.236425 50.405556 62.597267
19.533426 49.193558 62.096268
18.309425 50.063557 60.50527
3.2134285 14.378555 62.09427
4.160427 13.987556 60.117268
3.5284271 10.506554 53.370266
2.9964294 8.651558 53.72627
4.763426 23.825558 4.9382706
6.454426 25.725557 4.391266
13.643426 27.707558 3.198265
14.886426 27.284557 4.9942703
50.258427 42.189556 1.4282684
49.264427 39.966557 1.4092712
49.306427 33.35156 5.8152695
50.743427 33.75356 7.576271
8.187426 7.8405533 3.6162643
10.336426 6.7305527 2.7082672
13.812426 13.344559 5.3342667
15.402426 12.257561 6.6952667
8.443426 56.126556 27.075268
7.954426 54.929558 29.007267
10.620426 55.604557 35.19927
8.923426 54.256557 35.932266
20.237427 53.994556 14.596268
19.694426 55.830555 14.750267
18.261427 59.083557 7.007271
20.135426 59.217556 6.228264
10.344426 11.226555 62.486267
10.087426 12.571556 63.69027
6.790426 8.035553 70.211266
7.592426 8.581558 72.09227
45.39443 23.714558 54.181267
45.17043 23.697557 56.276268
46.000427 18.910557 61.875267
44.606426 19.688557 63.520267
2.5724297 46.33756 25.881266
1.773426 45.130558 24.031265
3.6494293 38.639557 25.58227
2.2954292 36.929558 25.659266
33.656425 32.165558 30.968267
32.565426 32.32256 29.262268
25.941425 32.311558 33.368267
24.051426 30.604557 33.818268
9.060426 10.269554 31.479267
9.918426 11.007561 33.134266
10.209426 18.412556 32.611267
12.133426 18.554554 33.040268
20.473427 25.442556 52.87827
19.160425 26.890556 51.61527
19.922426 31.988558 47.95527
18.030426 33.23456 47.618267
40.848427 46.97756 13.459267
39.853428 48.878555 13.432266
43.361427 55.743557 13.968269
43.079426 57.22756 12.608269
23.600426 54.690556 16.09127
22.236425 56.19956 15.281265
23.595425 61.476555 8.678268
24.603426 60.253555 7.1802673
2.1514282 50.256557 71.05327
4.045429 51.27556 72.085266
4.1124268 55.889557 65.06427
5.398426 53.598557 64.05427
43.714428 55.175556 0.6662674
45.030426 55.562557 2.2912674
46.834427 50.410557 7.6832657
45.02443 48.855556 7.9282684
6.381426 23.981556 9.288269
6.754426 23.820557 11.278267
7.6724257 30.560556 15.007271
9.509426 31.160557 15.180267
20.675426 49.779556 37.404266
21.315426 48.008556 36.522266
19.159426 42.98956 38.54627
20.451426 41.96256 40.530266
35.744427 14.053556 1.325264
37.250427 14.087557 71.83027
39.41343 18.916557 66.51327
40.633427 18.182556 65.115265
48.718426 39.430557 19.790268
49.62243 37.34556 20.580269
47.940426 30.702557 17.758263
47.95543 28.863558 18.217262
48.902428 0.7315521 11.909271
46.896427 69.44256 10.469269
41.54743 2.561554 5.6302643
41.90143 1.2395554 4.097267
47.10143 59.94256 68.06927
49.243427 60.60256 67.49727
3.219429 60.885555 66.43227
2.8014297 59.870556 64.239265
8.194426 57.974556 1.5372696
6.188427 57.744556 1.2842712
5.6904297 58.381557 7.5272675
4.1184273 59.050556 8.875267
51.53943 39.047558 20.137268
50.96943 40.341557 18.762268
2.7044296 36.152557 12.548271
4.844429 37.027557 13.34127
46.96243 1.5135574 3.2802658
48.953426 69.55056 4.0672684
1.6154289 69.55256 9.944267
3.7424278 69.08956 9.895264
44.23343 27.449556 60.02327
42.621426 26.962557 61.46627
38.978428 20.594557 63.917267
40.071426 22.493557 65.28627
34.00543 42.667557 3.1162643
32.355427 41.474556 4.3862686
33.263428 36.81756 70.31927
31.613426 35.39356 71.060265
33.194427 64.89356 28.251266
34.178425 63.18556 26.686268
30.415426 56.573555 27.984268
30.265425 55.372555 29.916267
49.111427 33.208557 67.08227
51.326427 33.77556 66.907265
5.393429 29.146557 65.45327
5.061428 27.138557 65.94027
50.652428 5.8005524 40.73427
0.93242645 4.941559 40.986267
48.13743 69.182556 44.321266
47.433426 67.07556 43.91427
49.27543 37.391556 25.510271
50.405426 35.832558 25.052269
42.889427 34.370556 23.248268
41.509426 32.645557 22.380264
4.688427 26.517557 7.6882706
3.5984268 24.732557 8.048271
0.06142807 22.718557 3.9972687
50.437428 20.295557 4.488266
32.517426 11.075554 31.142267
33.438427 10.513557 32.78927
32.615425 17.291553 36.985268
32.045425 19.733555 36.871265
42.971428 23.574556 1.0342712
44.078426 22.604557 71.86227
46.579426 16.020557 1.7582703
45.119427 14.240557 1.9842682
3.5984268 8.861557 69.283264
1.4114265 10.173553 68.62327
49.10143 3.309555 67.419266
48.464428 3.8305588 64.975266
40.33843 34.60256 54.743267
40.56743 33.276558 57.076267
32.958427 31.541557 55.745266
31.944426 29.288557 55.966267
42.97743 37.57356 66.95927
43.44943 40.01156 67.491264
43.771427 47.174557 65.34527
44.638428 47.480556 63.09927
28.003426 66.155556 4.6642685
27.685425 64.06856 5.167267
28.828426 63.466557 70.52527
30.422426 65.07656 69.726265
36.410427 27.862556 12.169266
38.353428 27.041557 11.958267
41.246426 30.801558 16.463264
42.286427 29.915558 18.485268
36.954426 11.670555 11.127266
35.822426 12.863556 12.710266
34.856426 10.339554 18.583267
32.856426 10.735558 17.990265
46.52643 14.186557 70.25127
45.857426 15.780557 71.36726
45.56743 20.709557 66.59427
44.356426 22.459557 67.02427
17.825426 24.087557 5.8192673
18.896425 22.099556 7.562271
19.046427 16.585556 4.054268
20.274426 15.3885565 5.4442673
31.811426 51.478558 24.413269
33.537426 52.535557 25.952265
34.022427 59.737556 23.567268
33.017426 60.481556 21.809265
17.870426 28.097557 61.034267
19.620426 29.376556 62.117268
16.212425 36.119556 62.415268
13.954426 36.31656 61.889267
38.54543 63.868557 67.670265
36.568428 63.115555 68.727264
32.979427 0.80755615 70.225266
32.815426 69.238556 72.14927
41.847427 55.557556 16.170265
41.20543 57.506557 14.978264
36.210426 62.175556 17.125267
36.765427 61.481556 19.577263
8.331426 52.517555 59.78627
8.159426 54.667557 59.95327
12.168426 58.695557 55.57227
10.917426 59.647556 54.16327
25.677425 11.463554 70.214264
24.722425 11.045555 72.158264
23.367426 5.637558 5.2072678
25.436426 6.054558 5.9092712
23.242426 43.56656 10.881264
24.328426 41.287556 11.179268
27.358425 39.39356 17.562263
26.216425 39.145557 19.146263
47.35943 24.977556 22.627266
48.856426 24.927557 20.929268
2.9334297 30.369556 19.485268
1.2974281 30.945557 17.734268
47.15843 37.041557 35.154266
45.81043 35.667557 36.44227
0.33142853 29.701557 37.66327
50.90843 29.301558 39.570267
25.564426 27.914557 13.875267
25.587425 28.751556 11.663269
20.649426 23.418556 11.011269
18.476425 23.481556 11.741264
36.555428 60.170555 65.380264
37.907425 61.254555 66.40926
44.60843 65.16356 65.033264
45.438427 63.247555 64.55127
0.8654289 65.45356 44.200268
0.51742935 63.408558 43.36627
48.522427 61.906555 50.905266
49.743427 59.90056 51.710266
31.167425 6.342552 4.4262695
30.923426 5.424553 7.0442657
30.136425 67.52756 7.379265
28.448425 65.81956 7.2322693
42.41543 44.12956 37.922268
41.021427 46.182556 36.96927
39.732426 44.417557 28.851267
37.824425 44.423557 28.465267
28.276426 56.767555 69.06527
27.984425 54.555557 68.96526
34.507427 51.718555 70.38226
36.663425 53.118557 70.70727
38.627426 40.383556 4.903267
36.621426 41.140556 4.3082657
36.275425 47.26156 6.306267
36.958427 45.68356 7.923271
45.107426 21.193558 20.904268
46.161427 22.717556 21.948267
48.26943 24.591557 28.461267
47.188427 26.406557 29.492268
15.171426 17.343557 17.978264
13.407426 16.784557 17.147263
10.277426 19.674557 11.503265
9.966426 21.767557 12.810265
21.743425 11.551559 22.171265
24.207426 11.292557 21.674263
23.068426 19.03355 19.906265
24.565426 19.443554 21.776268
27.429426 69.01356 13.55127
25.293425 69.210556 12.918266
26.008425 4.373558 8.083267
25.518425 6.540558 9.36927
20.101425 5.095558 28.378267
19.327427 3.113556 27.471268
24.140425 67.46556 25.311268
25.062426 67.68056 23.688267
38.072426 58.084557 10.985268
37.999428 56.098557 12.768265
37.802425 49.761555 8.558266
39.59543 49.203556 9.443268
27.226425 55.277557 49.481266
27.034426 56.510555 51.42027
30.130426 60.386555 57.061268
28.565426 59.43556 58.047268
32.695427 51.579556 44.950268
32.318428 49.270557 45.166267
29.371426 48.323555 38.244267
28.380426 49.794556 37.25427
19.333426 55.638557 23.126266
17.585426 55.92856 23.59327
12.323425 53.523556 25.438265
13.424426 53.266556 26.947268
25.436426 36.294556 49.22627
25.563425 37.60156 51.062267
27.518425 41.799557 44.207268
29.545425 42.43556 45.054268
12.9324255 59.337555 23.14927
14.786426 59.94956 22.532265
18.015427 57.40756 16.610268
16.582426 56.974556 14.66227
48.561428 21.822557 64.72027
47.259426 19.945557 64.504265
0.30742645 14.919557 67.33227
1.587429 14.863557 65.63527
26.804426 10.178558 21.604263
26.924425 10.242554 19.302269
27.308426 2.5805588 17.992264
29.331425 2.936554 18.253265
24.477425 11.66156 24.268265
22.837425 13.181557 24.476265
29.881426 15.863556 25.557268
31.793425 14.63356 24.863266
34.375427 24.173557 18.755264
35.944427 22.101557 18.900269
32.175426 16.616556 22.613266
32.40843 14.233557 22.147263
10.879426 53.931557 14.670265
11.846426 54.983555 15.999268
9.883426 49.503555 20.867264
9.499426 50.075558 23.212265
12.328425 48.885555 16.163269
13.716426 50.642555 15.012268
19.358425 55.02556 17.281265
21.574427 54.596558 18.081268
29.242426 37.22656 63.73927
31.282425 38.028557 62.12827
26.235426 33.759556 57.62227
27.435425 33.627556 55.436268
27.618425 33.919556 51.69127
27.733425 34.97056 49.85127
34.24143 40.230556 53.078266
35.943428 39.064556 52.604267
8.996426 10.183556 24.486267
9.424426 12.0865555 25.831266
5.370426 14.676559 31.694267
4.0554256 12.750557 31.984268
8.399427 26.862556 63.64827
6.258425 26.058558 63.17127
0.91342926 24.251556 66.561264
51.403427 22.078556 66.45126
20.875425 26.872557 0.20326996
22.810425 28.330557 1.2102661
20.546427 23.797556 5.3382645
21.679426 22.500557 6.228264
18.185427 7.271553 19.327263
17.919426 8.031555 17.351265
17.342426 15.122559 18.019264
17.907427 16.976551 17.008263
21.956427 45.08056 71.22227
20.178427 45.626556 70.32827
24.404425 48.17656 0.8862686
26.264425 47.776558 71.40327
30.782425 24.383556 1.1432648
31.772425 25.425556 2.7562637
29.833426 30.277557 7.7332687
31.733425 30.512558 8.91127
27.607426 59.999557 15.241264
29.314426 61.708557 14.96627
27.298426 63.65056 8.316269
25.508425 63.153557 7.510269
35.726425 1.3075562 71.227264
37.545425 0.2345581 71.52227
39.819427 69.46656 63.05827
41.62343 68.33956 63.526268
4.0104294 48.336555 70.363266
5.5004272 48.738556 71.96727
5.802429 48.575558 7.710266
3.6324272 48.710556 8.255264
10.943426 9.792557 29.559267
11.440426 11.041557 27.540268
15.067426 17.647556 29.214268
13.925426 19.184551 30.392267
20.590425 52.214558 42.833267
22.427425 53.358555 42.93327
26.553425 52.958557 37.327267
27.336426 54.827557 36.883266
5.891426 19.705555 13.389267
7.586426 19.414555 11.669266
10.862426 13.040558 10.632271
11.6234255 11.607559 12.05027
19.380426 65.04956 20.764267
17.804426 66.53356 20.261269
19.313425 66.16856 11.461266
17.707426 64.56456 11.632271
20.715425 36.791557 60.277267
22.517426 37.071556 61.24527
23.734425 38.686558 68.03927
25.471426 38.085556 68.82827
12.922426 37.67156 15.928268
12.801426 35.65656 15.559265
6.002426 36.654556 16.00927
5.250426 35.202557 15.154266
23.111425 18.636557 51.564266
22.805426 16.857557 52.689266
29.018425 16.617558 56.904266
30.474426 15.772556 55.083267
30.504425 66.18556 3.2482681
31.636425 65.67756 5.722267
31.850426 58.467556 5.9662704
30.738426 56.604557 5.7252655
13.975426 56.892555 25.404266
12.292426 58.748558 25.982267
13.691425 59.010555 34.22027
12.013426 60.434555 34.647266
5.9544296 25.723557 23.401268
5.4964294 23.293556 23.553267
0.10542679 26.890556 26.625267
49.871426 26.238558 26.969267
43.99743 12.1855545 58.077267
44.14443 11.443558 56.32927
47.627426 13.019554 50.512268
48.999428 11.496559 51.27527
4.410427 12.232559 8.768265
4.966427 14.049561 7.603264
51.292427 18.65855 10.935265
50.08143 18.638554 8.899269
35.238426 58.496555 67.01227
37.497425 58.850555 68.01527
31.606426 62.557556 69.366264
30.378426 61.222557 70.78927
3.587426 4.3765564 64.62527
4.283426 4.426552 62.533268
10.809425 5.896553 63.570267
12.357426 6.4835587 64.77827
12.277426 5.391556 1.4662704
13.573425 5.4495544 0.057266235
13.701426 4.4655533 66.23727
15.074426 5.920555 65.70927
43.258427 28.323557 55.306267
43.88743 27.380558 53.312267
46.710426 33.223557 53.884266
48.561428 34.285557 52.638268
9.816426 58.890556 16.45327
11.283425 58.799557 18.102264
9.881426 55.165558 24.387268
8.697426 53.672558 25.74827
39.638428 47.169556 25.130264
38.78243 45.222557 25.287264
32.486427 49.801556 22.544266
31.334425 48.181557 22.658264
50.332428 4.5935516 7.8382645
0.36542892 5.391556 8.963264
48.07443 8.083557 14.519264
45.758427 8.092552 14.976265
41.050426 61.830555 33.050266
42.18443 59.923557 33.187267
41.517426 52.707558 35.793266
42.334427 52.318558 34.06027
38.293427 53.981556 1.9852676
37.211426 55.082558 0.118270874
30.101425 58.232555 70.50726
28.755426 57.167557 71.863266
5.213426 60.69956 6.367264
7.403426 61.19256 7.3172684
7.6854258 60.51856 0.5892639
8.065426 60.247555 70.63427
23.084425 25.083557 14.214264
21.985426 23.339558 13.35627
19.995426 18.106556 18.420265
18.381426 19.343557 20.203262
40.961426 14.710556 45.42027
39.273426 15.271561 46.132267
40.04043 17.094555 53.45427
40.930428 16.865551 55.44927
8.455426 26.185556 60.729267
8.625426 25.804558 58.64027
7.166426 27.687557 51.340267
6.023426 29.459557 50.92127
2.0314293 61.362556 7.5252686
0.9214287 59.520557 8.010269
50.660427 53.51856 3.4712677
48.725426 52.176556 3.5042648
49.631428 1.0465546 54.651268
49.458427 1.2805557 52.611267
48.091427 63.688557 53.14927
48.974426 61.362556 53.85027
41.46943 61.090557 67.949265
43.141426 62.056557 69.56727
48.15143 56.107555 70.42326
48.26243 55.061558 0.5372696
44.97743 0.93455505 26.162264
46.103428 2.8515549 25.140266
41.44843 5.6295547 19.390266
41.80443 7.8955536 20.935265
38.67843 30.254557 6.306267
40.65843 30.737556 4.5172653
39.208427 29.542557 70.00927
38.54643 27.467558 69.80727
44.471428 11.298553 61.54427
44.92943 13.3105545 60.382267
43.193428 18.56055 65.53827
43.67843 19.057552 67.783264
3.6634293 45.090557 67.613266
1.6834297 44.58656 66.20527
48.12243 43.998558 71.62627
47.707428 45.527557 1.3362656
39.76243 18.817556 13.64827
39.818428 18.903557 11.558266
46.271427 15.8225565 13.320267
47.03943 16.589558 11.312271
46.44943 25.801558 57.200268
48.043427 26.422558 55.92627
43.767426 31.034557 56.272266
42.99143 33.287556 55.92727
1.3414268 61.834557 40.272266
0.6754265 60.031555 39.884266
8.148424 56.242558 37.571266
8.382425 55.864555 39.512268
17.781425 3.0485535 39.760265
15.836426 2.384552 38.995266
16.120426 67.21356 43.80327
14.936425 67.975555 45.418266
30.009426 8.292557 7.8312683
28.702425 6.7565536 8.05027
30.281425 0.39955902 12.658264
32.354427 0.0025558472 11.656265
3.7364273 36.174557 9.587265
2.2274284 38.075558 8.829269
1.5854263 42.01756 3.5812683
3.1064262 43.193558 4.6562653
48.287426 51.454556 67.77927
47.541428 53.58856 68.283264
2.0584297 56.735558 63.24727
2.1594276 54.597557 62.98727
41.298428 56.299557 60.18927
40.311428 56.468555 62.07927
42.17843 48.558556 63.17727
41.34443 48.439556 65.20627
40.862427 46.498558 9.048271
41.979427 47.47656 10.719269
44.154427 45.64256 15.879265
46.499428 45.36456 17.215263
40.600426 34.613556 64.835266
41.925426 34.216557 63.00327
49.842426 36.123558 66.11726
50.613426 34.44056 64.01527
39.66543 37.860558 67.43927
38.646427 38.84456 69.02927
31.981426 38.509556 64.77727
29.995426 39.187557 65.462265
48.496426 34.59356 69.23227
48.058426 32.672558 69.52026
43.618427 29.407557 64.95427
43.910427 27.140556 63.94927
24.383425 43.910557 8.451271
26.740425 43.74656 8.812271
25.455425 49.842556 5.611267
25.405426 51.851555 5.9662704
9.962426 21.419558 2.3732681
11.659426 22.395557 0.8802643
18.836426 22.142557 2.9122696
20.384426 23.623556 2.2722702
44.175426 60.28256 11.23027
42.61643 58.753555 10.39827
45.34543 57.991558 2.8572693
46.826427 60.010555 2.000267
37.88743 10.576553 47.78827
37.173428 12.565559 46.619267
30.121426 13.42556 49.800266
29.842426 12.946556 52.325268
40.340427 64.39956 5.99527
39.742428 62.635555 4.6162643
34.197426 67.23056 1.0502701
35.347427 68.25156 71.95527
29.832426 31.218557 53.256268
29.402426 31.610558 55.860268
22.343426 27.772556 57.72327
23.186426 25.434557 57.96127
15.660425 56.501556 5.3202667
15.417425 54.10256 5.859268
12.957426 52.651558 12.531265
13.589426 53.22756 14.62027
0.2894287 21.419558 11.067268
49.65843 21.780558 12.41127
48.056427 18.250557 7.2632675
47.334427 18.521557 5.002266
1.188427 34.63656 26.008266
0.24842834 35.44856 27.907267
3.417427 30.164557 31.681267
2.9034271 29.114557 34.040268
40.356426 28.356558 27.383265
40.46943 27.051558 26.014269
40.974426 31.518557 20.066269
40.229427 33.412556 19.339264
31.787426 16.568556 7.774269
31.073425 18.966557 7.059265
35.683426 24.224558 9.91227
34.706425 26.507557 10.757271
36.234425 9.119553 69.49927
34.822426 10.550552 68.478264
36.878426 10.337555 62.13027
35.633427 11.005554 60.520267
36.202427 67.52056 60.09927
37.802425 67.21956 61.79427
35.036427 61.933556 66.768265
32.885426 60.480556 67.226265
33.539425 68.67456 3.6522675
31.916426 68.38056 2.2442703
24.819426 1.4885559 1.5842667
23.104425 0.4205551 0.49926758
37.008427 11.357559 71.04227
36.122425 10.166557 0.44626617
38.570427 3.4925537 2.3962708
40.140427 2.948555 3.0432663
42.154427 34.946556 6.246269
42.759426 37.042557 7.1462708
49.65843 36.73456 10.826271
49.597427 39.063557 12.442268
49.750427 29.877558 14.083267
48.65143 28.826557 15.582268
51.286427 21.907557 16.082268
49.987427 21.110558 17.771263
23.560425 33.173557 11.424271
22.010426 31.117558 12.137268
16.268427 27.191557 8.533264
16.627426 26.363558 6.6602707
42.029427 49.480556 25.160265
39.876427 50.001556 23.944267
36.154427 48.636555 17.071266
37.378426 47.820557 15.964264
26.364426 16.734554 65.73627
24.042425 16.535557 65.073265
20.179426 13.160561 58.98327
22.142426 12.333557 57.73927
40.083427 59.964558 11.304268
41.711426 61.084557 11.877266
41.242428 65.86056 16.924263
41.515427 67.52156 16.098267
14.934425 13.640556 19.454262
14.754425 14.477554 17.186264
11.423426 8.018555 14.381264
10.038425 6.426552 14.696266
4.900429 47.38556 67.835266
2.9254265 48.10956 66.59427
50.076427 50.351555 65.41026
49.988426 48.920555 66.599266
25.493425 3.0295563 71.754265
23.310425 2.6735535 71.12427
19.250425 6.894554 2.2432709
18.418427 9.025558 2.8452682
23.223425 68.95756 41.292267
24.601425 67.65756 42.902267
18.225426 69.59356 42.981266
19.023426 1.9665527 42.24627
36.833427 36.155556 63.28227
38.336426 35.93456 61.87827
33.152428 30.569557 59.493267
31.554426 31.794558 57.89727
44.30343 30.740557 62.67127
45.332428 28.721558 62.39127
1.4274292 32.68356 61.55227
2.5084267 30.963556 62.028267
41.634426 31.535557 61.764267
41.64443 29.533558 61.478268
33.661427 26.788557 63.42727
32.370426 28.305557 61.82927
37.336426 42.79556 55.15627
36.081425 42.159557 53.708267
36.333427 45.042557 46.972267
36.905426 47.41456 47.155266
20.624426 0.9905548 2.4592667
19.258427 0.9035568 0.72927094
20.359426 5.0935516 68.641266
20.208426 5.4915543 66.50127
2.4564285 7.684555 21.221268
1.6454277 7.873558 19.108269
7.6264253 4.964554 14.938271
7.083426 4.3225555 12.804268
16.982426 45.69056 18.313263
18.427425 45.985558 20.213264
13.427425 48.78256 25.078262
12.773426 46.473557 26.159266
10.771426 16.314556 5.57827
11.889426 14.80056 6.77227
5.245426 11.0375595 6.0312653
4.588426 8.663559 6.3342667
44.21243 11.24456 68.59527
44.902428 9.898552 66.960266
50.154427 11.442558 62.78127
48.980427 10.422554 61.193268
1.3454285 41.512558 20.400269
0.85442734 42.526558 18.444267
48.92743 49.134556 15.660271
49.869427 50.823555 17.215263
29.951426 51.445557 53.869267
29.150425 50.695557 51.688267
24.577425 45.627556 49.294266
25.174425 44.28156 47.54527
10.816425 46.646557 20.262268
10.283425 44.14956 20.434265
14.527426 39.325558 23.403267
12.877426 37.75356 24.335266
27.686426 13.476555 49.069267
27.684425 14.552559 51.16327
24.742426 11.000557 57.29527
24.713425 8.399559 57.243267
3.850426 28.844557 5.8322678
5.826426 28.128557 4.9912643
8.714426 33.701557 2.6102676
8.137426 34.992558 1.2042694
1.556427 19.882557 4.811264
2.6204262 21.563557 4.007271
0.60842896 22.411556 69.34127
0.9184265 20.507557 68.449265
17.163425 37.652557 49.58827
15.166426 38.096558 50.299267
16.337425 30.613558 53.42827
14.018426 29.901558 54.028267
20.124426 18.015556 71.32827
20.176426 17.435556 0.76226807
12.666426 15.3555565 3.0312653
12.466426 17.733557 4.0532684
10.508426 21.423557 65.24527
11.600426 20.344557 67.127266
13.721426 26.747557 71.12327
14.263426 26.187557 1.2172699
7.840426 65.68556 51.821266
6.130426 65.002556 51.443268
8.309426 67.27056 45.56627
10.131426 66.045555 44.791267
24.555426 62.615555 58.60127
27.055426 62.365555 59.14327
29.843426 0.71455383 60.55027
32.028427 69.17756 59.91827
14.045425 34.84456 23.936268
14.947426 36.335556 24.903267
18.668427 33.410557 31.028267
17.993425 35.04656 32.51127
39.267426 50.012558 47.432266
39.959427 51.132557 49.444267
43.176426 56.364555 45.846268
44.08743 55.357555 43.744267
7.944426 31.895557 50.015266
6.042427 32.051556 49.74027
0.84742737 36.81056 47.395267
0.2554283 34.042557 47.17627
23.032425 19.226557 65.19327
21.297426 19.887556 66.75127
20.132425 26.679558 63.23027
20.225426 28.292557 64.91327
1.4744263 17.948557 65.12527
3.0114288 16.786556 64.72227
9.244425 18.899557 65.88327
9.426428 19.135557 68.06627
45.864426 53.856556 31.418268
45.68443 51.79656 31.522268
42.33143 45.498558 28.734268
41.22043 46.014557 26.962267
50.017426 67.252556 2.5832672
50.48343 65.919556 1.6112671
4.1574287 68.60756 68.39927
3.5974274 69.29856 66.61227
9.919428 3.5725555 54.97627
9.095427 5.7395554 55.19127
2.0604286 5.0415573 58.13427
3.2234268 6.7565536 59.528267
8.422426 59.373558 8.849266
8.243426 57.473557 7.9062653
13.012425 54.520557 2.0302658
14.701426 55.451557 2.7922668
7.799426 67.76956 5.964264
6.819426 67.378555 4.000267
11.4324255 64.17956 70.90027
11.503426 66.14456 70.49627
31.672426 7.335556 59.423267
33.620426 6.2255554 59.36627
30.901426 6.7045517 51.773266
31.262426 4.2135544 52.068268
24.799425 47.328556 5.018265
23.026426 48.015556 5.4702682
16.897427 45.398556 7.099266
16.300426 42.936558 7.4802704
31.027426 31.980556 6.115265
32.166428 32.875557 7.9772644
34.918427 38.10156 2.3412704
36.545425 38.755558 3.099266
49.772427 23.424557 53.79527
49.628426 20.820557 53.555267
0.33542633 18.484556 60.702267
51.015427 20.060556 61.43427
16.816425 38.570557 0.3352661
18.029427 36.590557 72.296265
17.241426 30.010557 71.14526
14.761426 29.981558 70.30727
16.687426 35.833557 35.680267
17.066425 37.32956 36.98427
19.070427 34.45656 43.87827
17.097425 35.381557 44.953266
34.121426 10.747559 8.764267
34.640427 13.247559 9.77227
39.01843 18.522556 8.949265
38.607426 20.383556 9.352264
51.565426 42.64256 64.82827
1.2214279 40.929558 64.433266
5.3424263 36.995556 69.26327
6.026428 39.062557 68.64526
0.72442627 35.200558 69.103264
0.9164276 32.96956 70.364265
4.3564262 28.353558 70.144264
5.1564293 27.212557 71.77827
30.244425 9.0605545 61.10027
30.257425 7.2535553 62.03627
28.689426 8.806557 69.365265
30.630426 7.509552 69.97027
14.323425 30.595556 1.8222656
13.947426 29.149557 0.44026947
6.575426 27.337557 68.905266
6.080426 29.314558 68.14927
40.42943 17.747555 6.5982666
41.51843 17.276554 8.362267
44.655426 10.789558 7.8132706
45.725426 9.709557 5.9162674
18.185427 38.95656 2.5442657
20.347425 38.174557 3.0742645
22.127426 40.334557 10.104271
20.446426 41.59356 10.562271
8.289427 18.567554 19.948265
6.7164254 19.456554 18.667267
5.983429 11.641556 18.601265
4.0344276 11.48156 17.837265
42.814426 21.175556 68.95827
42.704426 23.076557 69.08427
34.042427 23.143557 70.408264
33.315426 24.308558 68.92727
47.404427 25.051558 2.7492676
45.350426 25.343557 2.0322647
41.01843 28.413557 7.0962677
42.070427 30.680557 8.0132675
49.520428 46.44856 59.58027
48.73343 44.71356 58.45327
42.166428 43.877556 56.563267
40.47043 42.778557 57.306267
6.9854264 60.92156 53.479267
5.1544266 62.097557 54.485268
1.9414291 61.767555 60.80927
2.2584267 59.828556 61.79527
20.941425 61.989555 9.190269
21.437426 64.34456 8.238266
14.789426 64.43856 8.267265
13.752426 66.31656 8.554268
19.302425 51.508556 8.131264
17.863426 52.448555 7.2472687
13.663425 48.252556 13.64827
14.486425 46.105556 13.165268
7.693426 37.881557 66.545265
6.097426 39.259556 65.86027
11.747426 41.21256 60.30127
9.719426 42.376556 59.165268
9.680426 53.259556 61.94627
10.721426 52.35256 63.320267
9.671426 49.323555 70.56326
7.927426 47.785557 70.71627
18.636427 39.79656 70.58427
19.841427 40.715557 68.86826
14.732426 36.98356 66.18027
15.271425 34.791557 65.003265
3.8484268 42.95556 7.476265
3.601429 40.549557 8.2512665
8.819426 40.632557 14.506264
8.759424 38.634556 15.34227
25.541426 36.672558 62.05827
24.126425 34.85156 61.85827
30.320425 30.396557 61.88527
30.408426 30.178556 59.75327
12.203425 66.41156 66.13827
12.7484255 66.46356 68.004265
18.501427 61.737556 67.47926
18.454426 59.807556 66.38827
0.34342957 7.7635574 62.69027
1.0814285 10.1215515 62.07827
3.8074265 13.507561 64.54227
5.0814285 15.039558 64.46627
7.552428 59.425556 12.10527
8.313425 62.013557 12.433266
2.5694275 60.69256 15.48127
0.80742645 60.117558 16.812271
9.375426 45.60756 69.93826
11.486425 46.139557 69.46526
18.816425 43.88656 68.87227
19.098427 42.51056 70.70226
13.806426 57.186558 44.418266
11.737426 57.353558 45.353268
10.874426 55.487556 51.96227
12.273426 56.226555 53.76027
6.534426 55.138557 61.931267
4.5644264 54.721558 61.42027
4.247429 59.451557 54.896267
2.0384293 60.284557 54.638268
47.634426 40.717556 27.654266
48.384426 41.116558 29.624268
51.211426 40.132557 36.051266
1.3704262 39.231556 35.508266
37.278427 28.247557 9.38427
35.05443 28.517557 8.715271
34.960426 36.03156 13.298271
35.184425 35.08056 15.101265
42.51243 20.234556 53.98427
42.439426 21.377558 52.58627
42.565426 17.745556 46.28827
42.459427 18.167557 44.19027
50.357426 58.309555 38.871265
49.696426 59.543556 40.313267
42.46343 58.347557 42.23427
40.75443 59.065556 41.46227
2.8894272 29.350557 38.339268
1.8304291 30.355556 40.235268
3.0454292 26.224558 47.287266
1.3524284 25.202557 47.688267
48.10843 65.21356 2.9332657
47.410427 64.558556 5.002266
49.766426 59.354557 8.424271
50.270428 59.738556 10.274269
45.975426 30.806557 41.30927
45.443428 28.917557 42.716267
48.971428 25.437557 47.12827
50.68443 23.593557 46.876266
14.469425 8.188553 32.402267
14.011426 10.395554 33.912266
14.424425 17.259556 32.374268
14.959426 18.74155 34.054268
43.42243 1.9755554 64.103264
42.91343 0.8555527 62.12827
41.489426 7.9405518 57.479267
41.49043 10.043556 57.88627
34.906425 59.355556 14.382271
33.563427 60.166557 12.385269
32.690426 66.53856 9.449265
30.867426 68.06756 9.813271
41.119427 27.252558 50.05227
42.145428 25.378557 50.287266
48.815426 23.329557 49.59327
48.903427 21.463556 47.745266
0.27542877 15.354561 51.723267
1.1274261 13.57856 52.862267
48.08743 13.627556 59.528267
48.767426 13.585556 61.68227
44.686428 58.802555 66.17927
44.370426 57.297558 65.00027
48.611427 60.516556 60.611267
50.023426 60.869556 59.417267
42.36543 42.86456 51.181267
42.787426 43.513557 53.167267
38.697426 50.294556 51.71327
40.197426 51.357555 53.007267
41.391426 68.197556 4.2132645
43.034428 68.599556 2.7472687
45.70643 2.1175537 71.350266
45.44943 3.4305573 0.72426605
5.5204277 1.6545563 62.570267
3.240429 1.6685562 61.69727
51.46243 64.61256 62.575268
0.45142746 62.226555 63.08727
29.066425 16.876553 67.16227
31.392426 17.109554 68.06927
34.385426 12.199554 72.12327
33.603428 12.520554 1.8092651
1.4814262 46.931557 64.560265
3.5324287 46.16456 64.59527
6.0394287 50.776558 59.18427
5.4064293 52.569557 60.263268
27.684425 45.103558 69.81627
28.489426 47.637558 69.95627
27.420425 51.464558 63.72627
28.599426 53.104557 63.805267
41.30343 7.7335587 8.242264
40.964428 10.068558 9.093269
38.175426 13.157555 2.4342651
39.646427 14.044556 0.72626495
34.29043 31.628557 6.7792664
33.128426 30.723557 4.894264
35.176426 32.37956 70.20527
33.918427 33.930557 69.22926
10.855426 39.81056 54.186268
10.976426 38.320557 52.905266
7.379426 37.82256 46.81027
8.835426 38.33656 44.98927
1.4904289 42.901558 0.93426514
2.6144295 40.842556 0.3612671
48.757427 38.272556 70.62227
48.961426 37.277557 68.78827
34.205425 10.510551 3.7532654
36.15843 11.380554 2.9232712
39.71343 5.0045547 4.807266
40.999428 5.071556 6.5962677
29.443426 13.760559 32.58827
27.291426 12.8745575 33.19927
25.393425 11.96756 40.74827
25.614426 10.260551 39.26827
42.806427 40.973557 53.35827
42.674427 40.92156 55.703266
40.81743 35.660557 61.035267
41.355427 33.415558 59.958267
16.569426 6.083557 45.071266
15.912426 4.024559 45.077267
9.098426 3.986557 41.569267
9.310426 3.3145523 39.305267
28.744425 48.94956 15.882271
28.915426 50.226555 14.668266
27.347425 57.610558 17.143265
25.623426 58.358555 18.639267
38.61543 39.368557 71.683266
36.906425 38.632557 0.5652695
34.662426 44.509556 67.09827
33.349426 42.94756 65.685265
44.635426 2.6295547 35.69827
46.003426 2.8805542 34.000267
46.014427 4.3605576 27.605267
45.19143 6.0535583 28.561268
42.90143 35.55256 54.39927
43.97043 33.820557 53.526268
39.68543 32.66356 47.96927
40.38043 32.679558 45.833267
35.752426 35.327557 70.38627
35.67243 36.113556 0.6192703
40.02643 33.015556 5.875267
39.585426 32.417557 7.9302673
41.611427 40.631557 70.32927
40.954426 40.41456 68.50927
38.78843 47.46156 66.461266
38.008427 47.550556 64.46526
39.635426 54.682556 56.19227
39.67243 52.866558 55.431267
45.54043 50.866558 61.46327
45.836426 48.872555 60.35527
17.848427 29.731558 57.72627
18.044426 29.788557 55.485268
24.116426 33.741558 59.51127
22.471426 34.894558 59.534267
43.05943 60.272556 2.9962692
45.078426 61.772556 2.9312668
45.82343 67.16856 2.429268
45.695427 69.04756 1.7652664
44.62943 59.812557 44.814266
42.508427 60.94956 43.48927
38.793427 62.15756 50.47527
39.193428 63.247555 52.540268
30.108425 58.873558 15.424271
30.520426 59.820557 13.400269
27.196426 59.335556 7.2912674
27.305426 61.309555 6.5772705
38.305428 0.86255646 1.5972672
36.650425 2.0665588 1.2752686
33.191425 7.5395584 2.9262695
33.731426 8.207558 1.0852661
28.517426 17.110558 8.62027
28.298426 19.736557 8.505264
27.841425 21.800556 15.996269
27.497425 21.299557 18.116264
22.712425 33.638557 48.527267
21.745426 33.286556 46.651268
20.737427 26.844557 48.409267
22.546425 25.302557 48.94127
29.338425 43.584557 68.41327
30.098425 44.347557 70.06827
28.864426 41.745556 4.7532654
30.352425 43.21256 5.774269
41.959427 29.533558 41.81727
39.856426 28.779556 41.034267
38.763428 28.648558 49.59427
38.287426 26.750557 49.721268
45.978428 9.421555 47.894268
47.361427 9.525558 49.465267
2.4064293 6.5205536 52.271267
4.146427 7.611557 51.514267
42.88043 28.256557 11.988266
41.34543 27.563557 9.563271
41.246426 20.381557 8.747269
42.683426 18.880556 10.044266
15.2744255 29.594557 37.118267
16.483425 31.709557 36.940266
21.667425 31.827557 33.00527
20.813425 33.59556 32.938267
5.8894258 43.509556 68.86726
7.0344257 45.36456 68.13126
12.919426 46.33056 66.57027
13.556426 48.165558 65.740265
35.027428 58.116558 17.800262
32.646427 57.974556 17.476265
33.266426 50.247555 16.640266
34.628426 50.266556 18.275269
39.035427 62.097557 69.89626
40.728428 63.14356 69.59427
43.04043 65.78356 68.16227
44.284428 67.07956 67.143265
45.390427 41.134556 14.145264
44.743427 39.930557 12.290268
41.812428 41.01756 6.964264
41.958427 42.674557 5.708267
43.905426 57.626556 60.798267
44.628426 58.092556 58.583267
44.189426 51.777557 53.96827
46.474426 51.575558 53.695267
8.912426 37.569557 2.375267
10.411426 37.861557 3.948265
8.324426 44.439556 6.228264
6.720426 45.943558 7.262268
30.954426 21.831556 66.85527
31.397425 24.018557 66.74226
25.099426 27.156557 70.40227
25.016426 27.177557 0.2782669
37.370426 23.694557 45.341267
35.963425 22.615557 43.912266
34.659428 30.492558 40.318268
35.436428 29.608557 38.207268
35.191425 18.941557 65.49326
34.703426 17.572557 63.694267
41.910427 17.503557 58.861267
41.112427 15.378556 57.78027
40.507427 4.5115585 50.39227
40.360428 1.6675568 51.18527
33.754425 4.2015533 51.03927
32.592426 4.3085556 49.13527
17.547426 67.295555 59.66827
17.786427 69.35656 59.22627
20.718426 4.743553 61.54627
22.755426 5.1085587 62.277267
13.135426 9.664558 63.012268
15.593426 9.452553 62.64727
12.013426 14.1855545 65.16627
12.639426 14.658554 63.33427
13.6494255 64.83856 20.571266
12.722425 66.405556 19.650269
14.544426 64.099556 12.629265
13.348426 62.56756 12.503265
3.455429 62.049557 1.8622665
2.9134293 64.35456 1.6712646
7.8114266 62.555557 69.113266
9.575426 63.113556 69.269264
16.713427 48.533558 52.416267
15.960425 46.58856 53.118267
19.114426 46.388557 59.089268
20.956427 48.098557 60.068268
33.062428 44.266556 4.992264
32.266426 45.97556 6.1562653
27.014425 47.516556 1.7662659
25.986425 49.261555 2.9582672
15.860426 29.797558 19.675262
15.981425 28.426558 21.849266
9.765426 25.381557 24.440262
8.262425 24.978558 22.215263
7.6104264 24.444557 2.1812668
9.014425 23.150557 0.5692673
2.7494278 23.943558 69.88827
3.2094269 25.844557 69.58127
25.985426 58.494556 59.09927
26.949425 60.137558 60.60827
23.121426 63.584557 66.08327
21.346426 62.677555 67.44227
43.724426 6.5445557 50.467266
44.412426 6.880554 48.451267
41.84443 12.132561 42.75527
40.12343 12.920555 43.653267
22.778425 44.161556 50.58827
22.378426 43.654556 48.277267
17.285425 40.53256 50.443268
16.474426 42.363556 51.353268
35.383427 49.346558 69.69527
37.479427 49.335556 68.54027
43.54643 45.502556 69.95527
44.805428 46.81056 71.741264
47.23443 52.183556 34.391266
45.76243 50.464558 34.506268
50.328426 44.139557 34.854267
0.34642792 43.327557 35.72627
22.526426 40.986557 43.084267
21.527426 39.757557 41.583267
15.259425 38.277557 38.763268
15.372425 40.474556 37.69827
10.599425 50.085556 1.8592682
11.775426 48.343555 1.4612656
5.492426 42.96256 71.43127
5.772426 41.083557 0.5472641
22.175426 44.576557 68.41627
21.232426 46.429558 67.171265
24.509426 53.183556 69.822266
25.447426 54.23456 67.684265
24.218426 37.619556 28.891268
22.672426 38.31756 26.954268
17.129425 37.87156 24.535267
16.407427 39.44756 25.438267
24.518425 23.592556 1.651268
26.418425 25.102556 1.4442673
24.768425 30.385557 7.2942657
25.973425 30.080557 9.123268
26.622425 4.5965576 69.56727
27.109425 6.6165543 68.46727
27.387426 1.059555 62.49427
25.322426 1.849556 62.14227
16.456427 21.979557 41.721268
16.274426 23.157557 43.57927
16.982426 16.653557 47.209267
18.857426 16.471558 47.162266
44.022427 22.484556 64.46727
45.96243 22.265556 63.20627
50.939426 24.819557 59.202267
49.736427 25.144558 57.59327
29.912426 69.19556 47.48327
30.278425 1.1855545 46.37327
37.567425 67.87256 45.758266
38.596428 65.63656 45.85927
11.653426 46.80956 11.391266
12.467425 44.686558 12.03727
8.657426 45.578556 18.633263
7.287426 46.57356 19.415268
45.739426 34.389557 59.98927
47.042427 35.35856 58.62727
46.725426 41.682556 59.56427
47.642426 42.576557 61.659267
4.457428 29.681557 58.77327
3.5844269 31.774557 59.285267
50.056427 34.520557 55.03927
48.557426 34.161556 56.186268
13.779426 16.866556 20.472267
12.814425 18.770557 21.227264
15.418426 21.699556 26.764269
14.797425 23.898558 27.382265
29.838425 33.40056 69.56827
28.381426 32.000557 68.90227
32.13743 25.350557 71.224266
33.368427 24.746557 0.6452637
13.926426 30.170557 64.31827
11.657426 29.264557 63.81527
6.648426 29.120558 62.917267
5.772426 29.743557 61.346268
12.785426 25.893557 51.28927
11.419426 27.873556 51.887268
10.982426 21.553556 57.34427
9.856426 20.163557 55.786266
11.762425 15.412557 47.202267
14.266425 16.140556 47.82227
18.544426 15.680556 53.19127
20.119427 16.701557 52.298267
37.920425 64.682556 49.51827
35.648426 64.31656 49.939266
37.740425 67.22856 57.83827
38.77543 68.807556 56.78127
13.214426 46.665558 46.627266
14.527426 47.48956 44.98327
13.370426 46.11456 37.73327
12.384426 43.53856 37.147266
25.297426 23.312557 44.797268
25.066425 22.059557 43.19727
31.569426 20.152557 40.658268
32.926426 18.105556 41.08827
38.931427 57.243557 42.29627
39.371426 55.710556 43.71227
36.204426 59.314556 49.89227
35.930428 58.098557 51.44727
42.603428 25.800556 69.64027
44.03343 25.325558 71.14526
48.659428 31.408558 71.880264
51.098427 30.775557 71.67727
5.487426 68.62056 58.47627
7.413426 68.41856 59.67727
6.0144258 61.584557 63.457268
7.740426 61.715557 65.25626
1.601429 3.3015518 63.070267
0.5864296 2.1645584 61.769268
1.0254288 8.209557 59.729267
51.41343 10.000557 59.556267
39.813427 24.580557 49.751266
39.036427 24.214558 47.465267
43.245426 27.294558 43.25427
43.662426 27.459557 41.21227
5.295429 66.26056 44.030266
6.557425 67.65456 43.389267
6.243426 4.1995544 41.444267
4.978428 5.5135574 41.875267
5.5934296 6.0365524 2.1362686
5.5384293 6.5085526 0.07426453
3.0184288 1.8595581 68.42326
1.7984276 1.7015533 66.73027
23.963425 5.634552 68.60827
22.890425 5.6055527 67.352264
25.970425 8.964554 61.04327
27.827425 7.5915527 60.24727
38.707428 37.849556 64.62527
40.745426 37.974556 63.33427
38.433426 46.263557 62.145267
40.133427 47.221558 62.75527
20.241426 62.156555 61.215267
20.183426 64.628555 61.596268
23.933426 0.3045578 64.08127
26.255426 68.67456 64.825264
45.65043 62.830555 40.384266
45.092426 62.367558 42.500267
50.953426 58.716557 42.534267
1.733429 58.992558 42.299267
43.142426 64.83956 38.892265
43.190426 62.459557 39.660267
36.449425 63.854557 39.98327
35.555428 65.350555 42.140266
11.082426 16.031557 20.605263
10.115426 18.201557 21.933266
6.182426 17.484556 27.742266
7.674426 18.002556 29.338266
41.207428 10.205559 62.85027
40.739426 11.74556 64.45627
35.227425 15.10656 64.461266
33.74143 14.764557 66.18027
41.07343 42.39956 24.543266
40.891426 44.411556 23.62127
45.717426 47.203556 18.991264
44.082428 48.19256 17.030266
43.732426 9.691559 52.30227
45.43443 8.534554 51.104267
50.110428 3.6855545 54.008266
50.767426 3.5725555 56.24827
50.308426 14.644554 71.64827
0.14142609 13.13456 0.5732651
6.066429 14.53656 3.8432693
6.842425 16.13556 5.705269
47.850426 57.719555 51.036266
45.895428 56.958557 49.306267
42.45543 51.44256 51.269268
42.870426 49.575558 52.30827
28.875425 40.77556 32.026268
30.301426 42.201557 32.909267
28.809425 48.17756 27.516268
30.455425 48.504555 25.669268
5.7894287 64.65056 20.945267
7.8914247 63.688557 21.842262
2.042427 59.000557 21.341263
2.306427 58.174557 23.295265
4.448429 52.829556 57.87127
3.429428 50.568558 57.55127
49.257427 50.540558 62.85527
49.132427 48.549557 62.77327
1.8114281 37.688557 28.230267
0.09942627 37.922558 26.642267
50.820427 45.465557 25.144268
50.778427 47.55356 25.770267
6.630427 45.834557 47.460266
4.559429 44.620556 47.451267
0.17842865 45.69256 46.91327
49.627426 46.034557 46.889267
20.571426 20.021557 1.4242706
21.003426 19.746557 3.665268
22.156425 20.431557 8.157265
23.051426 22.152557 9.7892685
37.227425 19.124557 44.791267
37.094425 20.330557 42.783268
41.24843 21.121557 37.881268
43.26843 20.865557 38.176266
49.746426 61.064556 64.51427
47.763428 62.283558 62.92727
44.223427 67.31356 63.833267
43.862427 69.02056 65.05127
24.317425 40.048557 25.184267
25.305426 40.409557 23.038269
25.539425 33.64956 20.315262
26.572426 34.17056 18.320267
28.614426 67.86256 51.38527
28.686426 66.016556 52.597267
27.776426 59.358555 48.652267
29.655426 60.615555 47.222267
50.835426 22.883556 51.24627
51.249428 20.824556 51.39927
4.0004272 15.099557 52.745266
2.6174278 14.765556 50.992268
31.508425 55.068558 64.59227
33.437428 56.42156 64.26327
40.97643 55.849556 65.53927
41.464428 57.704556 64.33027
44.639427 61.028557 51.853268
46.27443 59.708557 53.06527
42.418427 59.372555 59.07327
40.80443 57.890556 57.568268
39.645428 37.42056 1.7062683
40.812428 38.785557 0.55926514
45.146427 44.32256 0.49626923
45.135426 45.575558 2.0582657
29.508425 22.906557 18.934265
30.926426 23.844557 20.12127
30.346426 28.999557 22.245262
28.891426 30.230556 22.964264
37.515427 10.396553 20.833267
39.433426 11.518555 21.181267
34.814426 15.179558 27.035265
34.787426 14.020554 28.74827
42.043427 8.577553 41.318268
41.786427 10.478554 40.369267
48.65843 14.561554 40.28827
49.835426 13.305557 39.11527
27.508425 11.339554 1.000267
27.880426 12.766556 71.114265
30.766426 18.499554 2.4662704
32.88043 18.360554 3.5462646
35.940426 67.76456 7.1992645
34.194427 66.77156 5.712265
34.28343 58.832558 8.732269
31.870426 58.830555 8.679268
38.467426 8.008553 60.07927
38.825428 7.6385574 57.604267
41.67843 1.2085571 54.77427
43.16443 1.8725586 56.370266
27.152426 58.137558 37.002266
27.632425 59.445557 38.909267
27.845425 63.618557 43.016266
28.305426 61.592556 45.056267
16.667425 63.911556 70.88327
17.897427 63.469555 0.5052643
24.767426 63.752556 68.56927
25.493425 64.87656 67.05427
33.136425 59.606556 62.09927
32.99143 58.719555 60.01127
35.704426 53.691555 56.464268
37.607426 52.100555 56.855267
6.722426 49.17856 55.814266
7.381426 47.354557 55.680267
11.255425 52.759556 52.777267
11.530426 53.903557 54.44027
18.421427 7.531555 66.41827
18.813425 7.394554 68.324265
22.324425 11.988556 72.268265
23.817425 13.637558 71.393265
20.303427 38.235558 56.905266
18.253426 38.474556 56.67027
11.405426 38.05156 56.049267
11.8334255 39.741558 57.853268
30.461426 16.837551 47.387268
29.163425 15.582558 45.923267
29.612425 9.239555 41.377266
31.403425 8.173553 42.22527
24.316425 36.603558 4.6242676
23.975426 36.30956 2.1462708
21.794426 41.535557 70.894264
22.502426 41.544556 68.84327
37.691425 64.72256 17.963264
37.173428 64.753555 20.363266
34.65843 1.4565582 22.582268
35.065426 69.43756 24.434265
39.154427 17.172556 27.752268
37.117428 17.201557 27.710268
32.660427 17.998556 24.933268
30.491426 18.315557 24.761267
26.825426 4.8415527 50.266266
25.271425 6.8675537 51.111267
27.354425 8.485558 57.659267
27.378426 10.669556 57.88327
18.279427 61.263557 54.105267
18.273426 59.478558 53.70527
24.605425 57.908558 50.257267
24.698425 55.806557 49.32327
48.361427 62.929558 58.98327
46.29543 62.347557 58.06427
40.632427 66.78556 61.37827
39.828426 68.74556 59.944267
