59.244 12.568983 9.463379
44.544 34.252983 8.840378
45.642998 36.059986 9.761383
45.888 45.546986 1.9453812
45.626 45.593987 3.923378
7.093998 39.853985 67.62438
7.866001 42.004986 66.426384
6.529995 8.612982 67.33838
4.791996 9.183981 66.35238
71.87399 4.3069825 56.968384
71.80299 3.1219811 55.05638
76.649994 38.958984 57.859383
77.69499 37.489986 56.454384
67.699 39.657986 18.138374
66.73799 37.818985 18.01838
63.625 36.644985 9.818382
62.452 37.928986 8.0503845
35.023 39.565987 32.354378
35.135998 41.686985 31.515373
38.302 4.8819833 36.875374
37.567997 4.010981 38.37937
54.920998 23.562983 23.370384
53.768997 25.940983 23.218376
53.564 36.149986 14.882378
53.305 38.215984 15.5123825
81.396996 28.475983 107.705376
80.17999 27.602983 109.62938
78.172 35.681984 5.0683823
75.92 36.508984 5.303383
68.034996 8.160984 24.480385
68.50299 9.289983 22.35337
64.89099 19.386984 20.635384
64.67 21.138983 22.245384
60.23 19.830984 85.14638
60.946 18.947983 83.32038
61.143997 16.318983 82.55638
62.371 16.164984 84.33338
14.140995 18.925983 55.068382
12.303997 18.876984 54.265373
84.315994 16.145985 57.290382
82.631 17.439983 57.705383
12.369999 17.344984 52.196373
10.303997 18.667984 51.915382
4.5269966 12.215983 42.43038
4.418995 10.401983 43.965385
44.338997 0.9349808 56.58838
45.129997 1.8029809 58.64238
54.072 44.613983 65.091385
53.942997 45.078983 63.14338
79.655 23.245983 78.43038
81.49 24.218983 77.62538
84.683 13.885983 67.88238
85.132996 12.460983 68.82538
21.263996 14.30298 4.237381
21.997997 12.429983 3.2043839
18.912998 14.897982 106.05438
20.239994 15.711982 104.14138
73.058 16.426983 104.42438
72.91499 16.949986 107.00538
68.896996 11.429983 107.52038
67.993 9.715982 107.07138
79.84599 40.977985 24.382378
80.81799 41.989986 26.172386
76.869995 5.9299836 29.51638
76.034996 5.8469834 27.183372
65.55799 9.194983 13.623383
67.104996 8.114981 11.868378
73.738 4.215983 21.658379
76.284 4.5709825 21.798378
36.614998 9.093981 29.189384
38.797997 10.135981 29.661385
48.476997 7.616984 24.07238
48.305 7.0709825 21.918373
28.508 30.035984 84.27538
29.952 30.226984 82.68238
32.699993 31.597984 71.25238
34.437 31.313984 72.78338
5.591999 4.677981 83.16938
7.569996 5.0709825 81.77138
5.130001 10.933981 68.62638
5.2599983 13.107981 68.39238
56.975 42.991985 60.895386
58.879997 42.022984 62.150383
68.59 1.0639825 63.304382
69.29399 2.8909822 63.758385
9.087002 9.849981 19.427376
8.575001 8.480982 21.248375
8.396999 19.232983 32.423378
6.563999 19.067986 32.32337
65.87399 8.257982 18.78637
66.829994 9.245981 20.293373
78.366 8.471983 19.805382
80.477 8.322981 19.444374
32.115993 15.580985 11.773384
32.670994 13.869982 10.846382
30.022 15.832984 19.765373
28.615993 16.406982 17.602379
44.086 11.371984 36.297386
44.741997 11.560984 39.121376
52.696 21.659983 32.177376
54.543 21.707983 30.436378
32.37 10.672983 59.013382
34.229 9.1759815 58.995384
41.285 46.718987 67.37838
39.858997 45.421986 65.37838
74.895 12.130983 83.72438
76.341995 11.342981 81.98038
75.297 6.128981 77.05338
75.685 4.6959825 75.34238
75.20599 12.565984 73.66738
73.284996 12.460983 72.354385
77.877 23.049984 74.61238
75.33299 23.520983 74.26338
9.187 22.816982 92.82138
7.374996 24.290983 93.082375
15.971996 22.967983 90.484375
15.437 22.632982 92.59938
36.644993 34.863983 49.62838
37.156994 37.026985 50.90438
27.831997 43.768986 48.233376
28.080997 42.287987 46.08837
9.617001 9.565983 101.07438
11.235996 10.672983 100.55038
14.466999 20.990984 101.66738
14.004002 22.145983 102.99038
27.55 46.350986 46.909386
28.814 45.278984 45.381386
28.407993 44.478985 31.155373
30.397 44.602985 31.858376
61.690998 46.473984 1.4143829
61.623997 1.1749825 0.2263794
71.49 6.7879815 6.8093796
73.1 8.599981 6.1233826
37.679996 18.705984 105.89338
39.354 17.387983 104.68138
51.934 19.457983 105.37638
53.636997 20.811983 105.48138
82.48499 40.115986 87.06838
83.809 42.284985 87.20938
77.796 0.5939812 76.70438
76.45599 2.057982 76.05438
2.247997 33.808987 63.718384
3.7319982 33.652985 65.092384
8.136997 22.118982 70.94537
6.938999 20.262983 70.09538
21.406994 38.694984 53.00538
20.898998 37.340984 54.707382
27.314999 29.137983 46.15737
27.552998 27.567984 47.73838
0.067993164 44.892986 29.882378
83.506 44.903984 29.424385
76.939995 7.496981 32.71238
77.28999 5.154982 32.03237
46.313 30.318983 62.370384
44.678997 32.028984 60.88938
33.656998 35.127983 65.36639
31.673998 36.519985 66.12438
37.733997 43.499985 26.372383
38.593998 42.844986 28.818382
41.547997 7.1299844 34.43238
39.984997 7.708983 33.728386
56.844997 39.424984 29.788383
54.635 39.884983 28.44738
54.272 5.1749825 24.246376
52.900997 6.015982 26.37838
23.247997 44.635986 49.678383
23.810993 46.064983 51.040382
26.995998 0.581984 61.56938
26.764996 45.340984 61.93138
82.409 11.996981 5.096382
83.476 10.548983 5.810379
78.033 15.756984 15.791374
76.202995 17.003983 16.43238
46.939 17.165983 8.331383
46.055 19.457983 7.620384
39.35 18.876984 2.0173798
38.200996 18.144983 0.49137878
52.392 23.746983 22.180382
50.531 22.921984 21.583382
50.614998 8.650983 22.000374
52.383 7.512984 22.03437
49.695 1.1629815 112.95038
50.614998 2.899981 111.62038
46.275997 0.52998203 8.254379
46.475998 45.585983 8.900383
38.51 26.622984 29.672386
40.774 26.430983 31.01638
41.712997 20.116983 43.306374
41.072 22.076982 44.97538
7.8739967 13.605982 39.582375
6.4070015 11.618982 40.021385
3.5069997 0.85398334 32.312386
1.1049994 0.9669823 32.159386
67.245995 6.0359826 52.136375
65.58099 6.741984 53.68638
69.26499 12.040983 55.90438
69.73399 10.338984 57.594383
63.839996 41.229984 5.582382
62.503998 40.078983 4.7693787
64.768 35.547985 107.17838
64.042 35.989986 105.302376
7.1170006 17.574984 94.72438
6.503002 15.997983 96.261375
81.826 19.955984 100.62938
79.800995 19.657984 99.40938
9.647999 35.873985 18.885384
7.9279976 37.318985 18.102379
10.315998 1.4059815 18.403374
12.545002 2.3039842 19.177376
61.977997 34.440987 8.562378
63.052 32.838985 9.793381
58.021 20.739983 15.18737
60.024 20.622984 16.185371
46.093 22.181984 81.07938
46.234997 24.714983 80.774376
42.720997 27.259983 69.39638
42.005997 25.387983 68.10638
22.600994 24.838984 100.971375
22.453999 24.174984 103.35438
35.962994 27.194983 105.16038
37.122997 28.315983 104.07738
35.360996 4.1259828 88.87038
33.788998 3.5899835 87.748375
36.551 42.792984 77.54438
35.671993 41.754986 79.70238
38.01 29.209984 106.36538
38.234997 30.747984 107.46238
37.226997 40.611984 112.50338
38.915997 40.943985 0.09438324
68.79399 4.644984 95.09938
67.409996 5.3089814 93.219376
75.163994 7.130984 83.24038
74.911995 8.997984 83.00038
9.896 16.645985 16.877373
10.468998 16.851986 19.37638
13.019001 14.183981 30.92138
12.677998 16.651985 30.519386
72.325 37.001984 62.340385
72.19399 39.079987 63.121384
0.62099457 41.886986 64.81038
1.8380011 40.370983 66.54238
52.974 11.874983 56.857384
53.267998 13.761984 58.328384
49.517 14.907984 70.690384
47.563 15.7069845 71.96338
70.113 36.690987 38.624382
69.954994 35.726986 40.621376
58.337997 31.544985 41.57337
57.01 31.150984 39.274376
35.315998 43.469986 109.91838
34.129993 44.654984 111.89138
35.600994 4.395983 1.5273819
37.695995 3.1579843 2.3493805
26.885998 10.912981 34.72338
24.532993 11.219984 34.13038
22.227993 12.828981 23.245384
20.326 12.438982 21.554375
57.973 18.700985 17.05738
58.399 18.178986 19.815376
62.498997 7.1959825 14.426384
62.047997 6.463984 16.476372
30.393993 20.932983 18.999382
29.706997 23.584984 19.52938
29.982998 32.960983 10.257378
30.884998 33.644985 12.317383
73.864 39.431984 84.86838
73.96999 37.213985 83.98838
62.021 31.697985 77.80538
62.204998 30.699984 75.55638
37.182 12.703981 104.49338
38.21 14.129984 105.57338
37.211998 4.963984 113.25738
39.26 4.0079827 0.43637848
31.288998 23.019983 89.580376
32.562 21.579983 90.55738
36.661 26.238983 98.35038
35.502995 28.035984 98.70438
44.691998 8.458982 58.25138
44.002 10.044981 56.496384
50.389 45.973984 51.687386
48.939 0.033985138 49.665382
9.561001 40.837986 52.056374
7.5099983 40.651985 50.873375
2.1679952 41.838985 62.589386
3.388996 40.462986 63.15538
11.478001 29.975983 38.02038
14.007 29.118984 38.693382
23.250996 23.097984 33.769386
23.515995 22.342983 35.30938
65.34499 36.851986 39.052376
66.80299 35.627983 37.762383
59.649 25.445984 36.76638
57.671997 24.916983 36.785378
23.063 14.270984 20.98037
23.099995 15.198983 22.662376
24.014996 25.840984 28.680382
25.476994 27.905983 28.655373
2.900997 43.620983 83.00238
1.3930014 45.536983 81.26338
80.116 38.199986 72.40338
79.35 39.283985 70.81138
57.757 45.706985 73.17938
57.443996 45.207985 75.15538
54.872997 46.189983 85.33938
55.702 44.088985 86.32838
54.898 5.2509828 97.48938
55.542 3.2899842 98.53338
64.09499 4.3779817 101.97338
66.20899 4.142981 100.68338
77.936 9.614981 109.43038
77.227 8.503981 108.08838
81.256996 9.980982 0.41438293
82.68099 10.611982 112.40738
61.397 25.531984 81.79938
59.399 27.168983 82.06138
56.231 16.406984 72.31638
57.934998 18.134983 71.77838
18.776997 3.7359834 17.977379
16.343998 3.4739823 18.500374
8.826 1.338984 28.55738
11.071995 3.057982 28.748375
60.139 12.721983 82.75538
60.711998 9.964983 82.65538
56.010998 11.587984 72.98638
53.98 11.564981 71.88738
76.127 5.121981 39.68638
74.20699 4.085982 40.211372
75.36199 1.781981 24.824379
73.22299 2.4909844 24.209373
58.757 44.486984 63.78038
58.003 45.637985 62.010384
69.66699 4.3639817 55.41738
68.434 5.357981 54.454384
54.419 18.403984 36.107384
56.179996 16.634983 35.897377
59.121998 9.4139805 28.039375
59.894997 7.899981 26.292381
48.822998 2.1259828 35.396385
49.176 1.3439813 37.749382
37.171997 42.119984 44.041374
38.118 43.773983 45.499382
79.439995 0.54898304 73.22538
78.938995 2.2979836 74.62838
5.319996 1.1199822 79.635376
3.4299963 0.19898605 81.56738
35.483997 31.856983 57.326385
37.111 30.466984 57.118385
44.149998 20.056984 60.686386
43.237 17.781982 60.01738
58.533997 4.965983 80.96438
59.477997 5.0499825 83.28638
59.961998 46.641983 74.52538
61.446 0.0129852295 73.30238
7.8240013 17.141983 102.91938
8.515995 14.827982 102.73838
15.901997 11.562983 113.11238
15.130001 11.892981 1.1843796
66.298996 41.919987 81.82638
66.645 41.246986 79.65138
59.484997 45.319984 68.66238
57.348 45.492985 68.26938
54.766 3.628981 68.35138
55.434 5.812983 67.88738
59.015 14.843981 70.77638
59.864998 17.014984 70.51738
41.128998 8.541983 87.32838
43.407997 9.751982 87.08338
38.281998 9.040983 75.94938
37.565 7.3609834 74.11838
58.024 2.7179818 49.12638
56.228996 3.1589837 49.85038
47.369 2.8899827 58.746384
46.093 4.659983 57.64038
1.7569999 43.870983 9.15638
3.1759984 45.886986 8.832382
5.3829994 4.9889817 19.994377
7.6430016 3.7389817 20.16938
11.065998 20.459984 32.15238
11.955997 21.647984 32.77938
18.440998 27.907984 41.099373
16.386997 26.906984 42.377373
29.418995 25.885983 22.959373
28.949993 27.007984 20.59037
34.953 38.094986 15.949379
36.675 37.990986 14.2623825
59.578 37.788986 93.85438
58.486 39.464985 94.71538
64.53 37.324986 98.01438
65.13999 38.690987 96.290375
85.31 23.499983 53.173378
0.46499634 23.212984 50.81138
76.835 15.838984 48.750374
75.795 13.808984 47.841377
64.294 32.388985 46.12838
66.05499 32.365986 44.637383
76.24899 31.143984 40.541374
75.315994 32.638985 39.48638
42.934 41.784985 90.90238
43.463997 41.117985 92.401375
49.711998 37.572987 101.00138
51.709 37.658985 100.17638
61.838997 12.979983 86.96338
61.112 15.195983 86.621376
52.319 16.972984 75.41938
50.343998 17.685984 75.593376
54.974 5.649981 30.002373
56.639 5.3419824 30.989372
59.329998 38.489986 32.511375
57.989 37.614986 34.469383
33.308994 7.2359834 26.267372
34.210995 5.1989846 25.594383
26.144993 0.2579827 30.855385
28.307995 1.2349839 31.198372
81.476 22.844984 103.859375
83.088 21.419983 105.23038
3.7799947 28.241983 108.00838
2.0159948 28.123983 109.63338
32.798996 20.266983 20.42138
33.315998 18.733984 18.762383
39.651997 9.465983 22.601372
38.490997 9.740983 20.51638
81.31799 31.135984 20.29438
81.30699 30.585983 18.289375
70.74999 30.730984 10.453384
71.467995 28.453983 10.135384
73.07099 44.557983 81.28938
72.328995 43.245983 83.01238
81.38899 45.417984 93.06938
83.627 44.817986 93.44638
27.324993 29.599983 100.802376
25.422993 29.657984 102.23038
24.435993 42.344986 109.14238
23.717999 43.264984 107.247375
37.399998 9.171984 6.9553833
36.065 7.9599824 8.164383
30.633 0.95998234 16.078377
31.744 0.060985565 17.78637
67.31899 46.612984 28.917381
66.66799 0.67598194 30.694374
70.439995 7.189982 23.74038
70.95699 7.6589837 21.520378
17.239994 5.8139825 58.91638
17.258 6.600981 56.603386
30.55 11.2019825 52.60038
29.864994 10.943983 50.420372
31.753994 6.677981 34.711372
31.676998 5.1919847 33.109383
31.314 38.573986 41.15737
29.308994 37.900986 41.097374
20.023998 21.985983 72.30538
21.717 22.909983 71.22138
21.087994 32.962986 73.21038
20.949993 31.486984 71.73738
17.767994 1.656981 71.90338
17.687 1.2699838 73.70538
10.575001 7.546984 84.51938
9.219997 9.111982 83.62738
28.077 43.042984 61.081383
28.886997 44.923985 59.367386
39.765995 46.123985 51.596382
39.460995 45.452984 49.720375
2.0870016 44.849983 31.846382
0.4419937 44.028984 32.938377
7.293995 38.500984 43.83837
5.9399986 40.461987 43.913383
73.782 20.231983 13.205383
73.036995 21.022984 10.629379
61.747997 20.096983 6.3313828
60.394997 21.213984 4.6963806
23.327 29.372984 89.693375
23.919994 31.237984 88.57338
24.081997 42.627983 98.23938
22.135998 43.307983 99.04938
40.679996 9.814981 57.65338
41.919 8.482981 58.763382
42.213997 6.399981 73.311386
42.137997 4.732981 75.117386
40.462997 23.858984 48.375374
39.725998 22.876984 50.44738
35.209 11.981983 57.659386
36.809998 10.481983 58.728386
57.045998 4.960982 86.09238
54.704 5.5869813 87.32238
44.375 3.2029824 85.52038
45.022 1.7439828 83.746376
49.473 7.708984 18.254372
50.605 9.193983 19.403374
45.297997 22.027983 17.205376
46.711 23.664984 18.551384
27.192997 37.815987 77.93038
27.41 40.021984 78.48838
21.469997 4.340983 74.35138
19.729 3.0739846 73.774376
81.74999 34.246986 38.58338
81.913994 32.105984 38.18537
84.551994 27.170984 26.357384
85.203995 25.818983 24.722374
67.645 34.073986 59.005386
65.704994 35.616985 58.329384
65.16699 34.520985 49.239372
65.617 35.348984 46.903374
74.714 20.966984 65.757385
76.392 21.948984 67.30738
81.660995 20.322983 60.03138
80.76399 22.699984 60.04538
38.880997 5.0989823 93.20938
39.292 5.720984 95.60338
50.345997 43.898983 98.511375
50.12 41.998985 97.30738
12.504002 16.017984 74.94938
14.639996 16.963984 75.28438
20.132 15.430984 75.78638
21.637997 14.393984 74.24738
60.505997 29.047983 80.61138
59.625 31.319984 80.72238
61.646 41.410984 83.77138
61.045 43.668983 84.04838
76.656 43.121986 68.86638
79.312996 43.224983 68.96237
84.739 44.658985 62.72438
0.053993225 45.339985 60.78138
22.393993 44.109985 101.456375
20.712994 43.244984 102.21738
25.782993 34.638985 96.40538
27.757 34.160984 97.19538
12.894001 32.575985 40.344383
11.450001 33.776985 42.29638
13.736996 46.698986 41.53237
14.574001 45.975986 43.35038
55.857998 18.632984 106.19338
57.658997 19.885983 106.28438
69.599 17.640984 101.67438
68.452995 18.566984 103.733376
50.778 38.751984 15.0353775
50.013 39.973984 16.810371
43.651997 2.859984 17.992378
44.961998 4.4089837 19.313377
71.296 44.621986 67.506386
69.466995 44.008984 68.22538
74.729996 32.947987 74.41838
74.524994 35.150986 75.009384
6.7540016 17.616983 15.346382
6.267002 17.606983 13.147377
0.62799835 29.869984 10.133377
1.3979987 31.610985 11.514381
68.768 28.872984 6.315384
68.96999 30.054983 7.9243774
63.663998 38.416985 13.842384
62.864 39.933987 15.274376
61.974 11.4259815 89.29638
64.090996 10.110983 88.47138
63.748997 17.925983 89.24138
61.484997 16.791985 88.64538
60.449997 31.461985 62.971382
60.810997 29.962984 65.009384
57.156 18.141983 69.30737
55.285 16.650984 69.83838
36.441998 23.645983 46.091377
38.21 25.044983 47.04638
37.565 27.233984 43.72538
38.51 25.436983 44.43638
48.812 30.263983 5.233383
49.866997 32.155983 4.893379
58.482998 36.331985 6.305382
61.015 37.611984 5.79438
13.518002 3.1069818 42.90638
15.050999 1.6239839 42.545372
24.933994 9.021982 35.899376
23.719997 11.097982 36.705376
34.920998 17.378983 78.00538
37.314 16.228983 77.51938
46.128998 17.342983 88.28038
48.281998 16.808983 88.33338
8.767002 34.046986 106.93238
9.646 35.529984 108.68738
3.1700017 46.310986 113.65238
1.313999 46.345985 1.1933823
7.0979958 8.450983 17.890373
6.031002 7.5409837 20.33538
3.235996 17.686985 28.055382
4.9090004 17.989983 29.976372
83.863 14.169981 59.342384
81.81899 14.9139805 58.285385
71.156 13.476984 57.146385
69.062996 14.5389805 56.79138
9.027996 44.618984 96.61338
9.311001 46.165985 95.024376
18.619 4.465983 93.99538
17.068996 2.1939836 93.65238
20.542995 6.6919847 88.88338
19.197994 4.5149827 88.97538
18.155994 39.312984 86.86838
17.637997 39.093987 84.67938
32.794994 12.235983 0.8563843
33.613995 12.341982 113.25238
37.702 7.1229844 105.73838
37.685993 6.6839814 103.45138
71.968994 21.855984 34.61338
73.996994 21.825983 35.660378
82.13999 19.488983 32.734383
82.577995 19.742983 34.85238
84.162994 2.1249833 50.316383
83.742 3.6939836 48.93537
5.676998 0.57798237 44.547386
4.607998 46.706985 46.137383
35.767994 29.334984 74.53738
36.551 27.800983 75.92638
30.689999 14.738983 78.80138
28.282993 13.793983 79.33838
41.078 6.187983 39.205376
39.864 4.288981 39.799385
50.801 44.311985 41.534386
50.419 44.645985 39.10038
62.507 37.530983 22.929375
63.686996 36.524986 22.39637
67.911995 42.096985 34.354378
67.58099 44.387985 33.97338
34.366993 39.803986 22.724373
33.111996 40.966984 24.18238
29.015995 28.183983 26.702385
29.576 26.575983 28.551384
16.494999 21.230984 88.038376
17.961994 20.328983 86.29738
24.016994 11.713984 95.37538
24.613995 9.374983 94.36438
19.933994 16.565983 73.01738
19.630993 18.343983 72.11537
28.385998 14.418983 75.86138
26.73 14.1289835 77.023384
47.316998 13.229982 94.43238
48.07 13.062983 96.73738
38.094997 8.365984 101.58438
36.959 10.033983 102.82838
75.478 22.274982 40.564384
77.38 20.703983 41.469383
84.905 20.039984 48.818382
0.41999817 18.385983 50.71337
63.646 6.519984 48.22538
62.193996 5.0499825 48.51638
53.626 45.269985 45.801384
51.100998 45.415985 44.883385
7.755001 17.005983 86.35138
8.296001 16.243984 88.40938
84.549995 13.726983 85.04138
84.587 11.699984 85.19738
44.126 9.657984 89.55038
44.880997 7.854983 91.08538
42.919 12.363981 91.177376
44.725 11.409983 91.73938
63.42 39.744984 92.24138
64.935 40.144985 93.83838
65.7 5.2049813 96.288376
65.853 7.152983 97.28438
74.27899 23.308983 68.69338
75.09499 21.998983 70.16638
72.103 23.097984 82.32838
70.46 21.850983 83.28238
16.063 19.352983 57.40538
17.476994 18.590982 59.274384
29.782993 13.3459835 54.05538
31.838993 14.043983 55.272385
47.211998 38.886986 16.75837
48.403 37.409985 15.632378
41.783997 30.826982 15.277382
39.632 29.849983 14.759377
51.656 6.6129823 61.693382
53.508 5.8069825 62.437386
52.919 9.290983 51.46238
53.268997 7.099982 51.441383
32.530994 39.633984 20.03637
33.709995 37.559986 20.226372
25.59 27.660984 25.943382
23.690998 27.548983 25.148384
49.287 13.238983 52.19738
49.199997 13.962983 49.979378
50.080997 27.258984 48.38938
51.611 28.919983 48.034386
30.388996 34.560986 98.441376
28.760998 35.716984 99.40938
35.731 31.384983 104.399376
34.610996 29.462984 103.56238
31.249996 11.713984 56.886383
30.082996 13.454981 58.46038
18.036 14.046984 53.955376
17.665997 12.746981 55.72438
71.090996 18.652983 53.729378
70.755 18.702984 55.74038
68.451996 32.124985 52.980385
70.40099 33.412987 53.732384
70.606995 7.0639825 59.90338
72.633995 6.2829843 58.605385
79.871994 18.541985 57.80638
79.729996 20.824986 57.00138
46.499 17.379986 59.75138
47.347 15.722983 61.72238
32.094997 13.176981 61.161385
33.711 12.813982 59.72238
12.452 32.719986 109.593376
10.735996 33.782986 110.56538
16.733997 39.400986 6.645378
14.843998 38.293983 8.096382
49.247997 39.329987 83.788376
51.446 38.804985 84.86938
58.947998 30.602983 87.61238
61.248997 29.796984 88.566376
29.622997 20.389984 32.871376
28.107998 19.425983 31.04438
16.635998 26.137983 27.931374
16.662998 28.047983 28.792381
69.09699 34.327984 50.263374
67.98499 35.254986 48.497383
61.94 39.526985 42.37638
63.352997 38.058987 41.295372
15.803997 20.503983 99.04138
13.954998 19.259983 99.10138
16.015995 7.439982 89.65838
17.225994 6.003981 90.68338
47.619 38.853985 67.646385
47.444 41.493984 67.67038
53.194 2.597983 66.34538
52.439 2.9619813 63.94938
54.068996 30.355984 87.92238
55.725 31.990984 87.85238
49.063 40.222984 95.12638
48.895 41.759983 93.52738
10.088001 37.989986 92.78438
8.992001 38.691986 91.04738
1.0979956 37.670986 85.99438
85.312996 36.223984 87.61338
44.628 24.552984 30.196373
44.976997 23.610983 28.098381
37.588997 12.459983 29.773384
36.233997 11.5959835 31.841377
69.059 4.562983 99.24138
67.92999 6.5659814 99.06338
77.01199 9.347982 94.85438
79.271996 9.587984 94.36838
68.188995 8.188982 101.46538
67.965996 5.9549813 101.60138
63.866997 2.6939836 111.47338
62.336 4.328982 110.35038
14.791996 19.945984 16.012383
13.023998 20.360983 15.529381
20.920994 15.870983 6.6323776
18.994 16.903984 5.7283783
48.68 24.500984 22.31237
48.257 26.014984 24.41938
55.611 37.461987 28.02938
56.03 37.782986 25.670372
33.989994 8.890982 32.15838
34.059994 7.184981 33.563377
31.593998 42.154984 32.759377
31.722996 40.491985 34.678383
62.871 36.092983 33.041374
60.845997 36.157986 32.441383
62.233997 28.137983 23.726372
62.450996 30.421984 24.414375
79.755 13.235983 30.288383
79.62299 11.234983 31.08738
83.44599 9.567984 22.042381
82.42799 7.5329843 21.476372
66.507996 35.978985 61.17138
68.55599 36.323986 60.499382
72.423996 24.560984 66.35938
74.644 25.265984 66.826385
50.732 5.621981 31.980385
49.23 6.9319825 32.178383
45.25 20.442986 29.458382
45.509 20.839985 26.99038
19.276997 28.578983 14.7623825
21.042995 27.590984 15.444374
30.234997 36.425983 12.024384
29.650997 35.689983 9.65638
30.446995 4.3609834 64.58038
31.926998 2.4179826 65.65338
41.979 2.425982 56.287384
41.785 0.9359841 54.80838
75.448 22.806984 63.491386
76.599 24.051983 65.40038
81.05699 35.105984 64.286385
83.605995 35.511986 64.04438
20.336994 1.3279824 93.25238
19.283993 46.927986 93.46238
26.558994 37.773983 87.13438
26.317997 35.777985 87.40238
31.217999 28.974983 66.797386
32.617996 30.780983 67.87938
45.191998 28.516983 67.412384
44.924 29.198984 65.549385
48.074997 36.491985 109.164375
46.696 35.865986 110.636375
38.621998 39.360985 101.37538
39.836998 39.207985 99.49338
60.018997 7.4459825 22.817375
60.834 7.1129823 20.761375
64.339 40.228985 17.707375
63.912 38.394985 18.634377
57.3 8.823984 22.82238
59.056 9.893984 23.435371
53.127 12.914984 10.76638
53.296997 10.817984 10.022377
75.724 38.102985 86.32038
77.905 36.594986 86.18638
75.73699 34.637985 77.58338
74.548 33.177986 78.86738
1.190998 46.272984 3.7643814
84.40299 46.700985 5.62838
77.51299 8.9709835 3.0523834
77.393 11.069983 3.9453812
47.07 12.463984 90.26838
48.642998 11.588984 89.30838
44.283997 9.603983 76.37838
44.197 7.1579843 76.34538
15.785 3.7789826 62.783386
14.368 3.7909837 64.17138
9.468998 45.205986 62.651382
7.7560005 44.093987 62.757385
17.755993 35.397984 72.84838
14.888996 35.534985 72.64138
13.099995 34.947987 80.95738
10.904995 34.596985 81.29238
25.393993 38.978985 84.982376
23.646 36.951984 85.39538
19.042995 41.161983 71.24438
16.776997 41.791985 72.56438
61.509 8.624983 90.30738
62.176 9.512983 92.61138
60.559 19.541985 89.33638
60.039997 22.081985 88.62738
1.5470008 22.643984 90.66938
1.2339972 23.726984 89.13938
79.451 11.481983 85.62738
76.842995 11.068983 85.44238
23.641994 46.280983 17.027382
25.849995 45.768986 16.344383
32.664997 37.163986 10.976379
32.434994 36.515984 8.393379
11.164997 35.728985 44.47637
9.523998 36.842983 44.34838
84.578995 28.597984 45.18638
82.676994 29.288984 46.161385
28.711994 23.067984 22.139381
30.391994 21.779984 22.04937
31.184994 27.854984 32.80938
30.291996 28.692984 30.648384
51.917 30.411983 61.138382
51.146 28.197983 61.538383
50.599 27.244984 71.43338
52.771 28.851984 71.72638
52.281 29.165983 94.43738
52.402 29.024984 91.692375
51.059 27.680983 89.68338
50.523 25.301983 89.46138
76.69199 37.757984 19.349373
76.781 35.837986 18.272377
70.689995 25.567984 19.12838
70.90299 24.996983 17.15937
21.019993 40.876984 4.3183823
19.884998 39.260986 4.5493774
11.162998 2.9039826 2.713379
11.227001 2.4479814 4.83638
33.473995 28.835983 15.969383
34.930996 27.054983 16.903374
37.466 30.679983 30.292381
36.110996 30.459984 31.92138
57.760998 0.18998337 70.63937
59.837997 0.7339844 71.12038
64.008995 14.7209835 69.39938
66.007996 15.594985 68.76738
82.436 29.126984 58.117386
80.897995 27.238983 58.706383
77.049995 31.847984 71.51138
78.66599 32.420986 70.484375
65.92899 31.305984 95.89638
66.93299 31.923985 97.58538
54.603996 36.174984 101.88138
54.897 35.015984 100.343376
1.7879981 44.668983 94.649376
3.1580007 45.783985 94.29138
5.549 6.637984 84.69938
7.965 6.2579827 84.26338
10.286999 31.585983 78.43238
10.302998 32.254986 80.59438
7.7680016 30.673983 92.84038
5.8989983 29.230984 92.10438
72.44199 0.892981 67.07738
73.952995 2.543982 68.15038
74.072 3.1059823 80.75238
72.295 4.2569833 82.04238
52.468 23.019983 73.329384
53.782997 21.058983 73.08138
64.852 20.041983 68.41438
64.981995 18.068983 68.22238
45.059 33.058987 6.1423798
45.796997 30.328983 6.105377
44.761997 25.098984 0.7203827
46.628 24.840984 113.33638
54.009 15.071982 8.819382
55.066998 13.093981 8.046379
57.447998 17.788982 112.31538
55.830997 18.067986 111.23038
74.354 11.7539835 49.40737
75.90099 11.002983 47.86738
83.023994 21.649982 54.112373
84.90399 20.844984 53.526375
7.355999 6.210982 42.291374
8.472996 6.562983 39.959373
1.2729987 0.7469811 35.97338
0.29599762 1.8779817 37.672386
20.619999 26.058983 82.788376
19.527996 23.786983 81.46338
10.319996 28.346983 78.31138
8.843998 29.387983 78.89938
52.267 2.8519845 32.241386
54.336998 3.760981 32.02938
62.695 4.5119843 42.314384
63.836 3.189982 41.729378
7.928997 30.972984 81.00538
7.626995 32.039986 78.88338
10.675999 37.102985 83.74738
9.924999 35.167984 83.80038
9.857998 0.6049828 31.709373
10.682995 46.444984 33.312386
10.932995 0.57398456 42.017372
11.866001 1.9169831 40.757378
81.17899 38.479984 23.514381
79.449 37.128986 23.008385
73.715996 28.349983 30.927376
71.478 26.915983 30.860374
59.600998 27.319983 91.86538
61.883 27.414984 90.51738
66.676994 27.993984 95.41838
67.312996 29.042984 97.47638
75.716995 30.552984 84.28438
75.782 30.198984 81.45838
66.467995 29.929983 72.69338
64.618 29.528984 70.76438
43.983997 45.650986 52.27938
45.212997 43.532986 52.219383
51.162 3.6389832 61.828384
49.413 4.7269845 62.689384
51.465 22.289984 80.64538
53.266 21.220984 79.46438
49.343 14.323983 89.45338
49.357998 12.997983 91.83438
49.27 38.256985 34.028374
51.513 37.731983 34.886375
45.919 26.038984 27.464378
48.139 24.215984 26.619377
64.870995 10.693983 11.634384
62.774998 10.847983 11.449379
68.615 22.376984 15.339378
69.951996 22.483984 17.601372
22.984997 11.818983 19.548378
23.986996 11.346983 21.265373
21.237995 9.438982 32.99238
23.156994 8.0959835 33.73838
30.055996 14.711981 0.41238403
31.175999 13.496981 112.275375
24.141994 4.359984 105.857376
23.560993 2.9349809 107.47338
12.241001 32.073986 106.621376
11.083996 33.772984 105.29638
16.404995 24.120983 100.00138
17.250996 22.750982 98.01538
81.204994 2.201983 45.444374
80.798 2.8879838 48.00437
3.463001 46.800983 55.785385
2.3950002 0.00598526 57.563385
43.704 23.371983 79.92238
43.021 24.489983 81.93638
35.913998 22.337984 87.57738
33.341 22.260983 87.873375
16.760998 28.938984 44.047386
15.343998 30.327984 42.327385
17.680996 42.909985 46.523384
15.642002 44.065987 46.56037
50.395 37.813984 78.48138
48.323997 38.237984 79.27538
40.476997 26.282984 79.29838
41.144997 24.643984 77.83538
23.725994 18.477983 78.72638
25.844997 18.788982 78.21938
32.481 23.892984 84.43138
33.576 25.852983 85.42338
26.837994 20.032986 88.692375
27.181995 19.941986 86.29238
24.033993 6.682982 83.07238
23.501995 4.7689843 83.98638
63.310997 34.905983 44.25338
62.671997 37.007984 43.57438
53.147 32.579987 45.316383
53.232 32.088985 43.150383
76.198 21.967983 92.28738
74.659996 22.843983 90.983376
80.510994 26.024984 79.33738
82.377 26.814983 81.08538
49.600998 38.241985 69.36538
48.424 36.510986 70.79538
43.427 0.4039826 77.28738
42.723 1.906981 75.79738
63.809 0.64198154 52.996376
62.307 1.5139832 54.625374
55.578 1.8969827 63.220383
55.842 46.831985 62.956383
2.7550008 1.6199822 29.519386
3.9159963 2.5159822 28.174385
80.033 41.690987 20.323372
78.536995 41.390984 18.313377
68.77799 19.187984 107.14538
69.546 17.375984 106.64738
71.605995 9.785982 4.0943832
70.28999 8.922983 5.6043777
57.357998 8.541983 11.246384
59.57 8.457983 11.48838
60.155 18.018986 4.650383
61.408997 17.744984 2.5763779
62.913998 42.539986 14.039383
64.663994 43.027985 16.039375
64.995995 43.881985 5.485382
63.114 44.331985 4.2693787
7.555996 21.494984 33.672386
9.334995 22.417984 33.717384
3.0929983 30.957983 41.36738
2.3329961 30.772984 43.358376
43.977997 40.133984 113.080376
41.692997 40.205986 0.6143799
34.82 35.205986 8.644379
34.952 35.478985 11.03138
38.003998 28.358984 32.08837
40.132 29.209984 31.79438
49.188 21.230984 39.74038
50.382 19.405983 39.306374
6.7229958 20.499983 113.66638
8.077999 21.879984 0.90138245
19.941998 23.334984 103.929375
18.907993 25.515984 103.26738
7.6010017 41.727985 47.112373
5.521 41.310986 46.75338
82.605995 39.974983 54.470375
82.298996 41.509983 53.218376
33.350994 11.608984 8.775383
33.774998 9.107981 9.342384
26.188 46.737984 14.004379
26.268993 44.871986 13.727379
33.999996 5.171984 90.859375
32.248997 5.5899835 88.74038
30.955997 17.246983 87.54438
29.842 19.112984 86.61938
8.271 2.590983 98.39638
8.972996 4.602984 99.16938
83.564995 9.613981 91.357376
81.106995 9.404982 90.82738
52.128998 13.215982 53.29438
51.809 12.5319805 51.53237
60.024998 13.581984 40.410378
61.293 15.160983 40.413383
52.293 4.5049844 71.163376
54.969997 4.2099824 71.39838
51.879997 9.137983 71.897385
51.02 10.283983 70.07338
63.809 20.955984 107.16638
62.179996 22.203983 107.74138
69.592995 26.548983 108.47838
69.828995 28.690983 110.13138
7.7229958 8.605982 99.05838
7.602001 7.798983 101.012375
81.29099 1.6539826 96.14538
80.687 0.5599808 94.67138
48.636997 37.008984 65.730385
49.677998 34.984985 66.46338
36.133 34.037987 74.16338
35.740997 33.436985 72.20938
9.274998 11.209982 98.37838
9.583996 9.126982 97.22238
15.616001 46.565987 92.30738
17.046993 0.92798084 90.80138
68.993996 38.646984 36.000374
69.87299 40.775986 35.26638
83.978 40.932983 32.124382
83.631996 42.729984 31.116386
19.050999 45.933987 74.44938
17.178997 45.954987 75.46738
23.469997 43.589985 87.52238
24.143993 41.754986 89.41238
14.505001 44.668983 76.10138
14.370998 46.525986 76.36138
1.0349997 44.249985 71.43638
84.55299 44.882984 71.91438
47.073997 28.827984 2.0153809
49.256 30.080984 2.4083786
48.296997 18.894983 3.8003845
47.282997 19.466984 5.4133835
15.920002 39.020985 26.71038
13.48 39.234985 27.678383
22.102993 43.512985 23.532372
23.272999 44.179985 25.23838
81.934 16.892982 29.94738
80.671 18.105984 30.43438
82.33399 27.494984 24.958382
83.077995 29.703983 25.26638
54.517 36.443985 49.46438
55.96 36.958984 51.74238
65.87699 32.144985 48.237373
67.799995 32.784985 47.192375
71.22299 17.800983 30.714378
70.631 15.830985 31.338371
64.243 10.254984 19.599373
63.707996 8.117983 20.892372
81.933 26.513983 44.83938
80.524994 28.246983 45.021385
70.113 31.930984 51.075386
72.16699 32.428986 52.150383
10.305996 0.26598212 15.474373
11.541996 45.666985 15.232384
23.8 0.9369835 13.202377
24.168995 45.687984 12.338379
22.969997 20.438984 63.868385
21.348995 20.701984 64.675385
20.287998 7.7599816 61.08438
21.592999 5.842982 61.827385
11.563 20.943983 28.033379
11.427998 20.133984 26.306374
7.4859962 15.042983 15.678383
5.8530006 14.344983 14.265373
13.207996 39.209984 93.94438
12.466 37.203983 94.90838
16.946995 26.710983 99.09938
19.211994 25.984983 100.33838
44.813 11.263984 74.45838
42.711 10.861983 73.731384
43.581997 19.571983 66.60938
44.565 20.167984 65.33338
7.2859993 0.60398334 4.98938
4.8729973 0.76698154 5.207382
79.814995 6.5289826 11.695381
79.57099 4.5429826 12.500381
9.624996 13.887983 6.707382
10.562 12.874983 5.065384
4.8510017 0.64798206 2.5193787
6.682995 45.981983 2.4653778
35.161 10.540983 6.282379
33.179996 11.453981 6.1183777
30.329998 45.179985 6.8653793
32.440998 44.953983 6.180382
13.538998 22.316986 46.349373
13.422001 20.360985 48.356377
12.4679985 6.758982 45.920372
13.763996 5.0759835 44.981377
76.58399 32.704987 82.55038
77.336 33.894985 80.59538
79.173 34.317986 72.62538
78.48499 36.186985 71.42238
42.314 17.956984 93.79338
41.267 18.716984 91.816376
38.982998 21.370983 103.67138
37.782997 21.445984 105.70738
51.618 15.9049835 73.172386
49.62 16.992983 72.96338
45.344997 27.001984 69.861374
47.351997 27.136984 69.372375
2.7589986 46.977985 110.91838
1.9259986 45.942986 108.54538
5.128002 32.646984 108.56838
5.263996 30.984983 109.67938
56.712997 25.672983 39.319374
55.582996 24.565983 38.15838
54.126 38.959984 35.11538
53.310997 40.383984 36.40238
39.111 0.63998264 10.054382
38.336 2.635981 11.470383
38.970997 13.824984 3.3563843
36.851997 14.429983 2.5293808
22.028996 5.871981 107.42838
22.110996 7.114981 105.18338
31.933994 15.970984 108.52138
32.19 15.329982 110.49838
4.321995 33.336987 42.237373
5.3930016 34.514984 40.967384
14.223995 34.116985 29.398384
13.338001 32.860985 27.617378
69.86099 12.775984 71.09837
67.63699 12.216982 70.275375
64.977 0.22698446 69.068375
63.990997 46.799984 70.93738
49.829998 34.516983 109.96738
50.065998 35.290985 107.67038
46.352997 27.637983 113.62338
44.843998 27.765984 1.0443802
83.102 11.646982 2.3923798
83.712 12.097982 0.5143814
12.16 12.882982 1.4603806
12.064999 14.921984 0.32437897
9.132 41.187984 14.870384
7.397999 40.277985 16.71038
82.675995 38.493984 20.701378
80.38699 39.243984 21.157372
18.261997 30.161983 109.64838
17.747997 31.044983 107.31738
19.647 43.774986 104.83438
18.134998 44.579987 103.43038
32.052 17.474983 21.01838
31.741999 18.824984 22.819374
43.591 26.258984 21.341377
45.060997 24.384983 20.525383
47.142 32.538986 4.4823837
46.391 30.853983 3.5033798
35.531 28.943983 110.44038
33.085 29.110983 110.22438
36.113995 38.297985 20.023384
37.877995 36.637985 18.63337
33.255993 38.088985 30.99038
32.377995 39.651985 29.483376
69.185 46.872986 67.55338
68.008995 46.586987 69.28538
68.533 43.360985 81.12538
70.451 43.367985 80.72938
19.036999 40.442986 67.56938
17.451 39.774986 69.47438
3.4060018 36.028984 66.839386
5.4070015 36.910984 65.20538
34.609997 41.014984 28.380379
34.821995 41.680984 26.137383
36.969997 6.9999833 20.250374
37.514996 7.9809823 18.54737
54.468998 22.067984 34.616386
55.912 21.644983 32.983376
66.798 28.268984 29.40638
68.493 28.941984 31.226372
12.451 22.351984 95.33638
10.535 21.453983 95.13938
3.34 20.335983 92.39338
3.9640005 21.284983 91.07338
39.621998 46.284985 47.18238
38.505993 0.5619835 48.373375
29.619999 10.848982 47.707375
27.884998 9.985983 46.90737
42.898 30.196983 28.748375
42.532997 30.138983 30.826378
50.888 30.469984 43.22538
52.084 28.355984 42.62638
30.838993 21.619984 86.90438
29.025997 21.927982 88.42338
21.550999 28.019983 88.00338
19.502995 29.361984 88.31138
10.262997 41.590984 48.138374
12.812 41.205986 47.87838
22.675 40.713985 51.632378
24.073994 40.919987 53.405373
17.918995 26.382984 91.54138
19.247997 26.364983 93.609375
20.765995 31.080984 102.318375
22.778996 31.187984 103.03138
19.790997 44.954987 46.983376
19.431995 43.543983 48.765373
9.906002 42.482986 45.345375
7.706997 43.057983 44.581383
23.468998 27.938984 69.44238
21.664997 29.179983 68.78638
20.868 36.392986 64.26138
21.566998 37.354984 65.940384
62.688 20.037983 91.54738
61.477997 20.843983 92.969376
52.871 19.845984 99.60638
51.689 20.082983 101.358376
53.099 8.6639805 68.76638
52.869 6.260981 69.41937
45.736 4.5639825 73.37238
46.281998 6.1769814 74.83638
25.402996 41.726986 48.40838
25.16 39.815987 46.53237
30.989994 33.478985 42.87838
32.037 32.956985 41.112373
39.655 36.622986 51.970375
38.081997 34.308987 51.98638
50.037 31.393984 47.349373
50.701 29.693983 45.78338
27.716 1.2159829 16.640373
25.224995 1.3879838 15.874382
30.062 13.8079815 11.880379
30.443996 15.143985 13.871384
29.078999 15.999984 60.59938
30.413998 15.1689825 62.11438
31.227993 6.736983 65.759384
32.549 6.616984 67.98738
24.720997 25.760983 55.940384
23.683994 25.271984 54.299385
14.763996 24.444983 47.722374
14.367001 24.602983 49.472374
35.746 16.748985 106.59738
36.079 16.132984 104.80538
22.604 16.149982 102.955376
21.786 14.600981 101.74538
19.800999 5.9879823 75.76138
20.467999 4.8889832 77.39138
12.876995 11.633982 84.27138
10.514996 11.691984 83.26438
62.765 8.969984 84.76638
61.214996 9.195982 86.65638
64.95599 43.423985 84.35838
63.324997 43.228985 85.84038
36.163 24.346983 89.496376
34.156 24.177984 89.94738
44.218 33.677986 89.50638
43.163998 33.017986 91.60638
67.575 34.951984 52.411385
66.157 32.999985 52.052376
54.612 41.496986 50.747383
53.166 40.743984 52.512383
52.559 45.194984 100.06138
53.850998 45.899986 101.93038
43.524 42.958984 113.38338
41.503998 42.696983 113.55038
34.163 45.486984 19.300377
35.822998 46.170986 17.458382
46.205997 40.812984 12.55838
46.914997 39.522984 14.049377
10.939999 16.495983 2.338379
9.734997 18.347984 1.5203781
83.923 11.931982 108.78638
0.22899628 10.7819805 107.95938
51.641 44.800983 96.43638
50.521 43.355984 94.955376
50.571 10.0319805 96.74338
52.328 9.207983 96.88438
80.516 11.893984 108.093376
79.590996 10.078981 107.01938
77.93099 17.014984 97.513374
79.783 16.357983 95.76438
2.4399984 30.607983 1.0693817
2.8759954 30.488983 3.395378
3.7820013 44.754986 3.97538
3.6459997 45.176987 6.096382
42.848 44.421986 65.92938
43.406998 42.540985 67.55438
34.12 35.245983 70.357376
33.566998 33.139984 69.37538
84.327995 0.7889809 33.991386
84.871994 45.893986 34.390373
74.17999 41.214985 41.75437
75.589 42.030983 43.65238
50.76 40.040985 36.224373
48.379997 39.553986 36.423378
55.032997 43.482986 35.468376
55.046997 41.259983 33.620384
37.664997 3.074984 91.346375
37.732998 2.5919824 93.38338
39.823997 47.003986 102.81338
38.065 45.974983 103.00238
38.629993 6.8349824 4.888382
36.227993 6.996981 5.570381
37.165997 0.15998459 14.602379
38.002995 2.7289834 14.259377
81.88999 1.267981 36.821373
83.71999 2.6159844 35.924385
83.506996 3.5949845 44.954384
84.65399 2.5659814 46.416374
17.91 45.160984 71.89038
17.416996 43.748985 69.675385
30.526997 41.139984 70.318375
30.665997 43.206985 70.00137
35.269993 39.719986 74.32238
34.907993 40.402985 76.61138
38.526997 27.984983 78.10038
37.231 26.720984 78.91838
32.934994 33.472984 10.265381
33.987995 32.179985 8.30838
27.283993 28.196983 0.68938446
27.386997 29.667984 2.4383774
2.2309988 31.298985 106.54038
0.40499115 32.027985 106.20638
0.59399414 33.775986 91.84938
1.5340003 36.102985 91.28338
73.67 37.646984 58.408386
75.37299 36.242985 57.733383
79.752 34.880985 69.29138
81.104 37.079987 68.65839
64.685 27.553984 25.468376
65.407 29.281984 23.538383
76.823 37.456985 23.618385
77.70899 38.637985 24.780373
68.966995 12.782984 100.927376
66.812996 13.092981 101.47538
55.154 8.998983 95.830376
53.656998 10.678984 95.00138
83.503 45.046986 96.26438
84.925995 43.306984 95.734375
0.8739929 3.163981 106.94338
1.9799994 1.3809838 107.41138
44.616997 35.927986 34.50437
43.37 37.788986 34.356377
48.552998 1.3439813 32.68638
49.350998 3.2469811 32.864372
51.282997 19.517982 36.749382
51.599 21.679983 37.800377
48.382 19.778984 43.597374
47.767 18.648983 45.441383
0.99299985 35.324986 108.31438
0.3849945 34.893986 106.03438
14.527996 39.173985 101.79938
13.760998 40.302986 103.47738
55.35 21.037983 37.15638
54.195 21.928984 39.104378
63.0 17.799984 49.952385
65.546 17.031984 49.881386
78.531 5.6539826 18.232384
79.27 4.361983 16.561378
74.851 40.791985 21.765373
76.743 40.778984 20.619377
40.002 38.786983 50.636375
41.447 38.542984 49.27038
49.829998 34.627983 60.440384
48.399 33.115986 61.48838
8.031002 26.229984 2.8923798
9.397999 24.403984 3.9743805
8.000996 15.263984 12.469383
10.02 14.531983 14.23838
11.689999 34.239986 55.69938
11.546001 32.739986 57.427383
11.511997 36.194984 53.812386
11.686001 39.055984 53.487373
17.178997 26.227983 11.1983795
19.473995 25.649984 10.203384
13.982998 33.882984 11.125381
14.0289955 35.789986 13.165382
21.833996 26.930983 2.6953812
24.512997 26.459984 2.7293777
25.246998 18.010983 104.66738
27.347996 18.112984 103.30038
75.974 9.578981 80.01438
74.439995 7.649981 80.47538
62.62 3.1859841 76.69838
63.125 4.8229814 74.72938
84.80699 1.6059823 56.18338
0.20199585 0.5879845 58.73938
75.59799 2.0989823 66.01939
76.129 46.696983 67.02838
36.887997 6.9549813 2.6433792
38.591 5.883982 1.9443817
47.865997 11.830984 10.208382
48.927 12.672983 8.132378
69.964 10.643984 62.08738
68.62399 8.637983 61.409386
61.174 15.328982 66.59938
63.198997 16.071983 66.204384
71.753 24.653984 97.68038
73.141 26.375984 97.109375
69.383995 38.123985 91.14538
68.607994 36.441986 90.00438
33.416996 13.699984 4.3413773
31.586994 14.393984 5.315384
35.622997 21.322983 15.604378
35.771 23.850983 16.616371
17.860996 30.593983 40.868385
19.124996 31.012983 42.49238
27.911 39.785984 44.828377
29.689 40.174984 42.987373
6.785 31.942984 96.76538
8.166996 32.087986 95.360374
15.688999 38.768986 88.13138
15.487995 40.458984 89.39238
37.290997 20.383984 110.24438
39.731 19.274982 110.03538
50.566998 23.803984 101.58338
52.035 25.590984 102.36738
27.582996 14.449984 14.64637
27.505993 16.805983 14.242378
16.563 14.273983 18.402382
15.356998 12.365983 17.400383
2.2950017 38.272984 64.870384
3.1179998 36.376984 63.609383
78.701 34.282986 53.159386
78.90099 33.932983 50.510384
48.328 29.552984 60.87538
47.086 31.236984 59.91938
44.142 21.100983 58.270386
45.287 19.674984 57.31938
42.217 25.952984 15.82238
39.656 26.069983 15.75338
46.605 19.502983 14.839378
47.467 17.446983 15.721382
29.996998 10.475981 76.84738
31.604 10.197981 78.77738
26.559994 12.751982 89.72638
28.837994 12.291983 91.57638
6.376995 20.387983 82.54238
4.920002 19.505983 83.05738
84.474 13.725984 72.94738
85.092995 11.676983 73.90338
13.523998 45.462986 29.99038
11.965 44.851986 31.425377
0.19499207 40.976986 29.92138
0.45399475 42.574986 28.339378
76.439995 25.592983 79.31538
74.574 25.022984 78.31838
63.665997 23.537983 81.48638
62.695 23.063984 83.56938
71.897995 43.074986 108.74438
70.405 44.796986 109.88238
77.377 9.742983 0.22238159
76.822 12.087984 1.5433807
39.658997 42.065987 102.36238
40.536 41.466984 104.27138
51.705997 36.889984 102.97638
52.009 34.848984 103.18538
27.406994 29.253983 86.60338
29.568996 28.616983 87.00438
38.801 28.592983 95.53238
37.819996 30.811983 95.41638
5.581997 43.886986 47.80538
5.9259987 43.021984 50.220375
15.534 6.4269814 54.443382
14.192997 8.179983 55.15238
9.291996 5.7429833 101.51438
10.085995 6.913981 99.72238
17.735996 12.910982 104.276375
20.015995 12.9519825 104.86538
47.536 36.609985 81.47038
50.017998 36.018986 80.35238
51.39 26.199984 73.91538
52.551 26.815983 75.94038
5.442997 46.678986 60.498383
4.581997 0.574984 58.841385
13.262997 5.5069833 61.939384
12.633999 5.609984 59.509384
9.897999 20.249983 89.07738
10.545002 18.483984 87.49538
19.596996 19.937983 76.49338
19.667995 18.617983 75.00338
74.462 22.654984 12.060379
74.863 22.547983 14.895378
2.102001 21.968983 16.981377
2.9529989 19.655983 15.926384
70.794 38.927986 86.40538
72.632996 38.901985 87.46738
78.481995 1.7669816 95.09138
77.812 2.411982 97.21438
67.352 10.336981 9.44738
65.69399 10.416983 7.4553833
63.586 7.0639825 111.07338
63.532997 7.3849816 108.96738
74.813995 3.9829812 48.941383
75.561 5.944983 49.89538
83.635994 12.464983 57.27738
84.405 13.773981 55.964386
38.095997 43.293983 104.318375
37.082996 44.594986 105.22938
25.646 40.461987 100.89238
26.307995 42.171986 99.887375
3.3920019 27.713984 91.56538
1.0079993 26.295984 90.68238
77.44599 34.143986 88.41838
77.141 34.140984 85.47138
24.593998 41.284985 60.343384
25.490993 42.516983 62.051384
26.470997 28.752983 68.88138
27.681995 29.051983 70.42438
64.65099 5.8419824 37.412376
63.863 5.3419824 39.784386
59.443996 6.755984 28.926384
58.748997 7.8439813 30.842384
25.282993 23.340984 61.345383
26.323994 20.890984 61.262383
30.567997 10.666984 67.78138
31.682995 12.748983 67.72238
41.759 16.099983 92.06238
43.057 14.860983 90.17538
37.5 6.319983 88.96338
39.216 4.569983 89.18538
67.13999 36.431984 96.443375
68.772995 35.028984 96.45438
77.58299 29.655983 92.17438
77.02899 30.427984 94.26938
3.1819952 43.678986 79.81838
4.577999 45.636986 78.54538
13.688 37.884983 83.39738
15.177998 37.928986 85.29938
49.720997 23.775984 106.36238
48.92 22.255983 108.52838
42.447998 20.429983 0.48738098
40.713997 19.282984 113.48038
50.362 13.067984 106.22938
50.815998 13.561983 104.12538
41.447 21.037983 102.00838
40.725998 19.308983 103.38238
42.147 22.877983 113.28138
44.194 23.311983 112.191376
50.994 33.473984 0.66638184
50.506 34.976986 112.88838
83.84 22.771984 78.45238
82.29299 22.103985 80.04738
2.445995 10.2819805 81.76838
3.509998 8.558981 82.14038
4.0600014 19.366983 85.89238
3.8250005 16.886984 86.24038
74.78 17.019983 84.72038
74.771996 16.732983 87.59638
64.745995 0.41198203 74.84838
63.526997 1.6799836 73.093376
69.27899 13.242983 73.76138
70.38699 15.310985 74.66138
8.221996 33.361984 18.48037
8.424 33.328983 20.833382
1.9080008 24.497984 23.554375
2.2519948 21.967983 23.955376
58.082996 7.9249825 80.90438
57.372997 7.543982 83.05038
48.016 7.8139825 75.899376
47.494 9.775984 75.17938
68.328995 43.553986 76.69838
69.494995 41.720985 75.83138
65.98699 30.911983 68.53238
67.229 29.587984 69.436386
54.404 17.097982 56.828384
53.529 15.912983 55.160385
48.767998 25.242983 51.939384
47.532997 27.355984 52.53338
53.014 36.181984 73.05338
55.394997 35.810986 73.46138
57.339996 45.467983 81.13038
57.76 0.16398239 80.23638
24.803997 40.850986 0.8513794
22.452 40.962986 0.7883835
11.863995 43.379986 104.76938
10.105999 41.869984 105.47838
57.484997 2.0939813 82.49238
57.273 3.779982 83.48438
50.135 42.273983 88.02938
51.397 40.993984 86.55738
83.105995 37.334984 34.551384
81.836 38.121986 33.43238
70.05399 27.937983 35.52938
71.004 27.477983 33.52938
58.781 11.522982 32.291374
56.850998 11.234983 32.933372
44.411 7.6959825 34.914375
43.712997 7.553984 32.787376
46.357 1.774981 73.01338
45.092 0.13498306 72.37838
50.008 38.552986 81.43938
51.467 37.529984 82.17838
67.533 25.380983 95.57538
69.854 24.663984 95.026375
78.933 19.454983 102.11838
78.30499 17.681984 103.19538
54.989 6.710982 10.524384
55.044 8.443983 9.3493805
58.177 1.2169824 2.751381
60.575996 2.0939813 2.5793839
24.304996 21.083982 37.909386
26.283993 20.983984 36.96238
35.954 24.818983 41.232384
38.350994 24.791983 41.767372
15.874996 32.178986 112.40338
15.897999 30.158983 113.19538
11.158001 33.490986 11.064384
11.348995 35.585983 12.283379
43.059994 46.941986 0.6873779
42.389996 46.292984 3.284378
31.077 42.540985 7.7763824
29.508 43.776985 8.786377
63.654 17.299984 35.814384
61.343998 16.840982 36.221382
67.823 25.780983 28.636375
68.00299 24.479984 26.662376
30.344997 29.578983 71.42138
30.585995 28.273983 69.64038
27.795994 16.883984 76.66538
25.291996 16.523983 76.51538
2.5180013 43.141983 68.53238
2.3530004 40.868984 69.04637
10.185001 30.072983 74.08638
8.638996 29.171984 76.007385
82.426994 40.454987 15.880379
84.563995 41.375984 15.714378
83.641 41.488983 26.635384
83.242 40.164986 28.473381
13.035999 33.332985 74.73638
13.450001 35.643986 75.61938
2.2649953 42.320984 73.27238
0.11899567 42.255985 73.79138
24.678997 33.767986 86.19238
25.388996 34.962986 84.66138
22.495998 21.742983 79.54438
21.655994 22.494984 77.54238
45.740997 19.140984 63.00238
46.011997 21.128983 62.735382
48.201 31.661983 64.287384
49.895 31.655983 63.04338
62.272 30.809984 71.78438
61.214996 30.885983 69.72337
51.057 33.439983 64.43538
51.045998 35.502983 63.561386
24.801998 13.707983 6.2003784
25.671993 13.526983 8.483383
20.832996 7.3369813 18.72837
21.071995 5.2839837 20.329384
11.027996 20.979982 53.314384
13.228001 21.972982 52.119377
