26.208984 37.42254 68.743904
26.984983 33.388542 28.442902
24.645985 34.575542 29.155914
29.273985 25.845543 36.676903
30.664984 24.671543 37.744904
41.90798 17.430542 6.346901
40.281982 16.141542 6.910904
28.554985 12.398543 4.415901
27.190985 13.985543 3.5319061
83.512985 8.581543 59.720905
82.455986 9.788543 57.885906
0.30098724 18.000544 64.073906
91.20299 19.359543 65.97491
72.441986 29.192543 30.430908
70.60699 28.338543 29.170914
82.903984 33.378544 23.81691
81.830986 34.129543 22.007904
4.1509867 44.06654 85.8559
3.2339869 44.87454 87.6789
86.35699 43.263542 82.645905
84.63299 43.35054 83.851906
11.544982 8.3395405 60.958904
12.216987 7.892542 59.007904
3.889985 3.1765404 60.413906
5.5599833 1.8305397 60.512905
79.38299 32.74554 103.72391
76.90799 31.980543 105.0949
81.749985 23.203543 98.34791
82.83899 21.910543 97.2059
43.548985 37.68854 103.1089
41.890984 36.248543 102.839905
38.538982 33.837543 6.894905
37.902985 31.511543 6.8229065
22.070984 11.500544 84.075905
22.567984 13.235543 82.4839
28.305984 12.289543 73.755905
26.867985 13.556543 72.8159
66.10398 44.74554 52.509907
64.28599 45.27254 52.388905
61.85298 6.626543 43.161907
60.816982 6.0705395 41.700905
66.21098 4.3085403 18.854904
67.55998 6.232542 18.446907
73.78298 2.1395378 26.35791
72.90999 1.6795387 24.589905
28.630985 4.1505394 60.011906
28.163984 3.8725395 61.833904
38.520985 4.70154 65.8699
39.622982 5.815542 67.285904
86.429985 33.248543 28.137909
84.22699 34.033543 28.646912
79.25799 35.777542 42.114906
77.92599 37.84354 43.007904
85.96699 3.1175385 28.621902
87.93699 3.897541 29.685913
9.183984 10.79254 25.555908
10.68699 9.467543 25.578903
77.96899 1.9335403 105.19291
75.84299 1.6555405 103.4419
71.441986 10.942541 105.785904
69.402985 9.435541 105.97391
33.390987 36.183544 54.091908
32.061985 34.846542 54.171906
34.300987 28.899544 66.90391
33.102985 27.298544 67.8429
14.254985 24.053543 64.270905
16.231985 22.902542 65.521904
10.486985 10.467544 61.824905
11.201985 12.051543 60.157906
27.558985 29.064543 7.226906
28.684984 29.520544 5.464905
39.575985 23.049543 0.087898254
39.325985 23.063543 106.9979
90.93699 42.66454 8.954903
1.2079849 43.735542 10.842903
8.29699 5.8205395 8.5839
9.345986 6.5925426 10.439903
89.71098 16.990543 39.974907
89.21499 16.825542 42.730904
5.29799 23.139544 49.324905
5.523988 25.529543 49.566902
39.241985 21.274544 48.827904
40.412983 22.625544 49.936905
31.010984 24.387543 40.466904
28.625984 24.394543 40.0429
10.461985 38.97354 86.9839
11.029985 37.95154 88.9699
15.936985 36.92854 96.520905
14.767985 35.304543 95.76591
67.70499 28.746544 20.867905
68.88098 26.907543 21.207901
71.207985 23.372543 11.062904
72.71498 24.602543 10.010902
63.550983 7.855543 60.037907
63.211983 8.804541 58.386906
75.72899 12.383545 54.127907
77.278984 11.383543 54.620907
12.125983 17.508543 102.893906
10.626985 18.603542 103.9129
12.752982 25.896544 102.659904
13.880988 24.362543 103.602905
34.152985 1.0675392 12.682907
34.927986 44.82254 12.992905
26.356985 4.7035427 1.9639053
25.177984 5.7685413 3.4379044
2.1849823 15.648543 23.267914
1.3159866 16.013542 24.958908
83.96098 13.192543 27.284912
82.60399 12.327543 28.236908
30.642984 11.292543 70.462906
29.738985 12.983543 71.54091
37.261982 24.641542 64.04091
36.386982 23.777542 62.076904
24.301985 40.85054 69.37491
23.437984 38.66954 68.3429
14.094985 33.905544 58.302906
13.867986 33.401543 56.257904
89.95199 36.71054 48.2639
88.89599 37.85754 46.648903
88.23099 0.50753784 38.256905
89.928986 1.5385399 39.843903
43.503983 24.080544 56.537907
42.833984 26.257544 55.980907
50.682983 38.48454 52.925907
53.008984 38.03154 52.278908
85.29999 20.223543 40.100906
84.056984 22.453543 41.478905
81.262985 33.940544 41.8189
81.512985 32.677544 44.099907
37.034985 7.84754 3.1389008
38.391983 10.11054 3.5249023
27.476984 10.689543 105.9809
26.905985 11.561541 104.243904
46.153984 17.133543 98.587906
44.88198 16.347542 99.93091
42.964985 18.166542 2.705902
44.29798 17.769543 4.948906
68.959984 3.2035408 17.9599
67.55199 1.7905388 18.307907
59.67998 45.21454 10.246902
60.62498 0.9645386 9.013901
53.703983 23.496544 9.816902
55.112984 25.286543 9.017906
62.159985 19.248543 107.92991
61.954983 21.108543 106.3169
1.6349869 2.0455399 42.4709
2.1499863 4.2595406 43.268906
88.290985 15.125542 36.6379
89.28399 17.033543 36.828903
28.868984 36.506542 106.254906
29.365984 38.51854 107.59591
26.563984 34.662544 11.027901
27.375984 33.13254 9.998901
53.534985 22.190542 41.590908
52.486984 20.216543 41.836906
59.057983 22.793543 53.640907
58.924984 20.747543 55.617905
51.35998 2.154541 13.178902
52.786983 3.4855385 14.423904
60.536983 9.40254 19.56491
58.627983 10.952539 20.171906
37.740982 27.946543 101.8039
38.310986 29.730543 102.3989
28.092985 35.961544 103.129906
28.447985 37.55754 101.61291
17.879986 25.305544 68.50091
17.022985 23.569544 69.546906
15.6999855 14.732543 63.956905
15.935986 12.872543 62.404907
72.60098 8.5635395 67.48791
75.03499 8.240541 67.132904
74.91998 1.3185387 56.347904
74.21398 44.45054 56.247906
40.886982 25.747543 37.515907
39.768982 24.766542 38.836906
34.855984 16.397543 38.538902
34.008987 14.173543 39.0429
67.681984 29.249544 26.509903
66.36698 30.366543 27.430908
72.584984 35.497543 19.382904
73.056984 33.87054 17.7779
43.33998 6.5755405 0.1489029
42.509983 5.2175426 1.6279068
38.995983 42.75254 104.382904
37.804985 41.54254 103.08291
43.003983 1.4605408 86.32091
44.272984 0.009540558 85.325905
53.208984 8.36754 78.80491
53.190983 9.866541 76.99691
23.531984 2.0875397 85.76691
22.778984 3.7105408 86.575905
10.828985 11.568541 87.019905
9.4239855 9.511541 86.36491
2.4289856 26.613543 94.48991
3.882989 28.540543 95.23891
6.0329905 28.526543 0.37689972
7.7489862 26.365543 0.3289032
79.874985 17.072542 79.93091
81.40999 17.248543 78.39091
69.02199 17.231543 75.56891
67.763985 18.592543 75.020905
9.706986 37.25954 8.538902
8.051988 39.25854 8.961906
88.91099 43.235542 7.1899033
87.35699 43.40854 6.1579056
13.170985 44.92254 73.91691
14.256986 45.74254 75.4689
25.566984 40.74554 82.172905
25.446983 41.193542 79.97391
67.74198 1.1995392 75.5639
69.858986 0.73653793 74.673904
77.49099 3.9785385 82.3449
78.25799 1.9675407 81.1919
29.252985 37.51154 28.813904
29.836985 35.107544 29.647903
40.404984 28.826544 36.813904
41.303986 27.627542 35.300903
6.0459833 37.56454 69.590904
4.8719873 36.83654 68.2589
5.3629847 6.954542 69.89991
5.5369883 6.2035427 72.4119
76.46899 32.812542 53.379906
75.75599 35.073544 53.037907
72.61298 43.32454 50.802906
73.749985 44.49554 51.832905
49.069984 29.317543 2.3299026
49.99998 30.538544 0.5749054
59.253983 37.74454 107.4409
60.933983 36.992542 108.506905
43.954983 21.967543 58.230907
42.966984 23.680544 59.189907
43.92198 22.736544 70.687904
41.953983 22.065542 71.852905
16.058985 15.655543 58.155907
15.672985 13.999543 60.000904
13.064985 24.160543 59.119907
13.245985 26.048544 60.771908
7.5759897 30.806543 109.254906
7.794984 31.639544 107.25391
1.4189835 33.555542 100.3419
0.8249893 33.33354 98.12891
82.77299 44.88054 32.599915
82.34898 44.45954 34.939903
70.972984 7.4195423 33.975906
71.389984 9.469542 33.32791
59.156982 40.49554 64.53891
57.018982 41.29654 65.2039
47.20098 40.96554 61.923904
47.18698 43.44854 60.457905
8.197985 14.586543 72.686905
9.530985 14.294543 70.49791
23.369984 12.529543 74.684906
23.606985 10.461543 73.618904
27.124985 18.001545 86.7319
28.194984 16.569542 88.66791
22.946983 10.09654 81.72191
21.707985 8.614542 82.18291
50.287983 9.015543 18.604904
50.16498 8.922541 16.3749
40.381985 10.442541 7.8279037
38.408985 8.50754 8.327904
52.67998 33.16054 76.2729
52.079983 30.515543 75.743904
42.576984 24.499542 84.58391
40.627983 24.940542 85.714905
19.009985 3.2715378 17.961906
20.928984 2.3765411 18.949905
24.562984 3.486538 31.577911
26.059984 1.9765396 32.725906
71.651985 43.117542 75.726906
71.94998 44.49854 77.88991
80.720985 39.24554 80.9819
80.89499 40.374542 79.22491
76.17499 39.513542 18.654907
73.566986 39.72554 18.529907
76.45099 45.56854 10.400902
77.24499 0.20454025 8.600906
6.066987 0.5635376 89.6079
5.981988 44.51254 88.1789
91.12899 36.34054 97.9539
0.33298492 37.15754 99.44391
71.89699 27.727543 90.963905
71.44099 27.679543 89.087906
67.14398 37.88454 88.09691
64.82598 39.02854 87.8279
41.418983 18.811543 73.3149
41.805984 18.647543 75.40291
36.749985 10.783544 86.5099
33.847984 11.167543 86.3139
63.826984 43.42554 31.77591
62.28298 42.05854 33.102905
54.822983 2.9995384 42.503906
53.22898 4.03154 41.523903
27.563984 36.85854 62.339905
26.487984 34.561543 62.347904
27.659985 37.381542 75.97591
27.264984 37.04954 77.9819
43.69398 29.241543 44.564907
45.564983 28.480543 45.845905
48.647984 40.64654 52.194904
47.870983 42.42054 52.822906
63.371983 25.366543 49.030907
65.151985 23.476543 48.340908
60.500984 20.795544 57.684906
58.719982 20.032543 58.392906
38.261982 18.491543 48.080902
40.095985 18.509542 47.907906
38.959984 12.591543 37.127907
36.943985 12.207543 35.351906
50.834984 10.613543 56.161907
50.869984 7.97954 56.583904
50.912983 7.734541 42.200905
49.466984 8.821543 40.572906
54.19998 28.720543 6.182907
55.27698 27.654543 4.932907
69.403984 23.650543 6.846901
70.32699 25.205544 5.085907
59.884983 32.89654 61.671906
59.612984 35.25754 61.645905
54.36698 34.95954 73.4259
56.037983 34.42454 74.880905
63.07598 29.749544 76.339905
62.177982 30.154543 74.65191
66.78599 18.059544 78.02591
67.76598 20.036543 79.09791
41.135983 26.847544 65.91591
39.484985 27.012543 64.45691
37.201984 39.673542 60.947906
38.975983 39.03554 59.910908
34.178986 20.739544 101.062904
33.886986 19.142542 99.65291
37.205982 8.720543 92.6499
36.911983 9.506543 90.80491
89.92099 17.327543 107.7059
88.02299 18.444542 107.09991
88.54599 20.041542 93.06891
86.64999 20.450542 92.031906
25.421984 1.12854 15.064903
26.241983 44.71454 14.281906
23.519983 0.5935402 16.808907
25.185984 1.0665398 17.7639
42.158985 23.354544 108.768906
40.979984 25.210543 0.27090454
39.443985 19.536543 12.381905
39.901985 17.758543 11.087906
27.221985 42.33654 31.376907
27.697985 43.937542 29.429901
30.920984 2.854538 20.4319
32.605984 3.3025398 21.083908
58.689983 28.152544 85.05791
59.47898 30.147543 84.34991
66.469986 39.50954 93.366905
67.64498 39.84754 91.52691
48.391983 3.8485413 31.5849
46.627983 2.4565392 31.605911
37.360985 9.630541 35.654907
39.594982 9.906542 36.5129
75.22999 3.0585403 24.187912
76.17499 0.8535385 23.280914
78.36499 39.568542 12.074905
78.86799 37.80454 13.453903
66.624985 35.455544 95.031906
64.67399 35.594543 96.184906
60.668983 28.161543 95.4809
62.174984 27.431543 94.2589
19.702984 32.530544 96.82291
17.920984 33.553543 97.795906
18.140985 40.18454 107.254906
20.974985 39.69154 107.755905
86.99499 27.291542 8.827904
87.80898 26.907543 6.724907
85.53199 33.81454 103.88791
86.06499 33.683544 101.73791
48.750984 13.509543 101.13991
47.33198 14.740543 99.9259
59.336983 10.546543 95.395905
59.649982 10.320543 97.26291
78.04899 21.503544 83.12391
77.889984 19.151543 83.59991
69.401985 13.775543 74.340904
70.11398 11.730543 74.4129
52.58998 38.36654 91.1889
50.42198 38.91854 91.407906
56.177982 34.54954 98.840904
58.54698 35.492542 98.98991
63.945984 41.069542 34.849907
64.930984 41.43254 37.371902
54.10398 38.77454 44.418907
53.222984 40.055542 45.941902
70.958984 29.176544 84.41591
72.81299 27.809544 84.340904
77.14499 23.599543 75.89091
75.443985 25.193542 73.94391
21.259985 42.90854 39.148903
22.012983 43.23354 36.8069
16.505985 34.31354 30.269913
14.655985 33.57154 29.266907
54.372982 14.214543 6.775902
52.82598 13.305543 5.101906
45.92998 9.874543 0.2268982
44.055984 9.199543 1.1298981
45.724983 32.62054 3.5639038
43.437984 32.755543 3.9549026
44.511982 24.591543 13.910904
44.73598 23.554543 16.215904
83.93599 3.28854 102.3419
82.93398 2.5045395 100.3989
84.552986 39.423542 93.8859
85.068985 39.589542 91.84891
89.943985 3.5645409 51.676907
89.99299 1.3715401 52.113907
91.56199 37.68354 56.754906
0.2509842 35.468544 57.265907
14.845985 36.402542 10.179901
12.772985 36.051544 10.869904
15.762985 40.67454 23.605911
15.760985 39.92654 25.933914
15.479985 5.8065395 22.128906
17.708984 6.3115406 22.070908
24.778984 11.501543 29.10791
25.637983 10.296541 30.992905
0.84698486 3.925541 92.795906
90.55898 3.9155388 93.811905
88.96599 0.6255379 93.8859
87.38499 0.07753754 92.381905
39.829983 20.677544 75.532906
41.251984 22.381542 74.54391
52.902985 25.954542 75.80591
51.333984 27.853542 74.782906
58.518982 40.56354 107.08291
59.01298 43.18454 106.478905
69.52399 5.95854 108.269905
68.78198 7.9265423 108.58591
90.818985 44.83554 14.8209
1.6269836 45.24754 16.267906
7.962983 0.5315399 19.728912
8.694985 2.3635406 20.693909
50.580982 40.40454 18.615906
49.670982 40.55954 16.372902
37.253983 39.25254 18.260902
36.219982 41.13354 17.2499
10.686985 11.283544 89.785904
10.127985 9.378543 90.47491
20.747984 13.781544 84.80591
21.279984 15.680543 83.795906
17.717985 18.421543 101.573906
17.749985 15.989543 101.851906
25.975985 18.697542 89.56791
24.452984 18.902542 87.90191
58.53998 39.42454 25.836914
56.240982 40.50554 26.001907
57.370983 34.70854 31.159912
56.791985 33.47454 29.4169
10.82599 8.532541 28.20491
11.396987 7.6585407 30.073914
88.20399 7.97954 29.920914
87.53599 10.123541 30.46791
2.3799896 24.010544 81.021904
2.6879883 26.125544 80.422905
10.431985 17.755543 78.6919
11.351981 15.650543 79.3029
21.348984 12.263543 49.105907
22.320984 13.255544 47.577908
23.977983 24.712543 43.228905
21.996984 24.183542 43.440907
52.29798 42.270542 46.896908
50.691982 41.48854 48.136906
44.614983 5.584543 52.943905
43.48498 3.9235382 53.675907
3.9459848 22.565542 88.77991
5.6909876 21.337543 88.66691
7.721986 10.855543 92.3299
7.8279886 9.126543 91.8279
56.118984 30.163544 38.659904
55.626984 32.186543 38.010902
46.79798 41.34254 38.202904
44.522984 42.26254 38.955902
55.20698 24.431543 69.27791
55.947983 22.467543 69.743904
51.08998 16.873543 75.255905
49.17298 18.097542 74.4959
18.682985 16.782543 41.2639
18.072985 19.095543 40.384903
17.300985 23.724543 28.040909
18.716986 25.280542 28.03891
42.057983 21.556543 83.3729
42.397984 21.657543 80.97291
46.86698 20.704542 89.67991
44.97198 21.337543 91.062904
12.263986 29.312544 62.412907
12.865985 31.317543 62.092907
20.512983 22.487543 56.863907
19.912985 21.539543 59.065907
16.485985 24.144543 106.3869
14.993985 22.358543 106.66691
10.179985 19.468542 9.9319
10.174985 17.181543 10.391907
42.078983 25.225542 53.500908
41.183983 27.159542 53.749905
33.053986 26.285543 62.304905
31.383986 25.293543 62.835907
2.644989 29.641544 57.376907
1.5209885 27.286543 57.294907
5.056985 15.878543 57.060905
4.620988 14.553543 55.143906
1.9809875 39.562542 37.3339
3.8369837 39.88754 36.205902
14.371985 35.381542 34.3599
14.641982 36.89454 32.49991
85.18899 12.941544 11.696907
84.58699 11.388543 10.453903
81.91199 19.732542 0.29090118
79.65999 20.450542 0.5168991
45.143982 23.215544 4.4849014
47.278984 23.065542 2.936905
53.83298 14.134543 11.044907
55.511982 13.555543 11.826904
70.61498 19.984543 46.114906
72.90999 18.984543 46.419907
73.66099 18.094543 59.478905
73.36398 19.629543 60.915905
52.190983 1.9315376 21.915909
52.04098 3.866539 21.910904
61.42898 12.680542 24.867905
61.584984 13.374542 23.017914
2.0389862 44.46254 99.672905
3.351983 43.78554 101.15591
16.121984 1.4035378 98.54191
17.519987 1.0305405 96.60091
3.9749842 1.0555382 43.012905
3.9869852 2.6105385 44.262905
2.6839828 7.4195423 51.277905
1.7729874 5.5215397 51.525906
49.677982 31.096544 90.38991
50.863983 30.568544 88.129906
61.578983 38.89154 86.1079
61.378983 41.131542 87.19591
87.22999 42.17154 88.1339
85.594986 42.85754 86.61191
79.45399 40.09354 94.7319
77.983986 41.55254 95.1229
64.83598 32.62654 12.263901
64.81599 33.12554 14.482903
64.90798 21.622543 20.968903
63.416985 19.919542 20.880905
83.20399 0.53754044 1.1029053
83.70099 1.491539 108.604904
0.9569855 44.50554 102.3019
1.5579834 1.0745392 100.98691
25.752985 1.0265388 84.5659
24.171984 45.45354 84.8029
19.243984 33.32054 84.632904
17.079985 34.211544 85.81791
57.681984 29.384544 42.427902
59.752983 28.283543 43.579903
66.50799 14.571544 45.7759
67.820984 14.610543 43.825905
84.51899 36.80454 61.691906
83.11599 38.527542 61.352905
73.636986 43.770542 67.80591
71.735985 42.88754 68.976906
22.877985 26.458544 45.261906
20.316984 26.411543 46.418907
18.888985 18.480543 57.201904
20.411983 18.993544 58.966908
65.580986 41.96754 93.33391
66.622986 44.41054 93.23991
54.633984 40.34054 92.93391
52.715984 40.87854 94.270905
84.443985 28.916544 58.834908
85.541985 28.565544 60.929905
86.58999 40.777542 63.903908
87.36298 42.68454 64.574905
62.057983 15.291543 31.343903
62.279984 16.214542 29.37291
70.47498 10.162543 35.996902
69.709984 11.335544 37.635902
22.973984 12.834545 10.855904
22.597984 12.135544 12.924904
9.413985 10.392542 7.311905
8.820985 11.85454 9.328903
25.811985 40.92654 61.601906
24.195984 40.12654 63.388905
29.248985 5.4275417 64.4529
28.521984 6.7945423 65.83491
14.225986 28.118544 81.798904
15.621985 29.584543 79.9419
28.191984 25.697542 86.9829
26.760984 24.911543 88.51391
5.6079874 40.21954 41.633904
7.3299875 38.91954 40.6809
9.488984 25.822542 36.9589
11.337981 25.525543 35.926903
21.643984 3.0515404 33.0549
22.109983 1.984539 35.0539
17.049984 5.352541 47.954903
14.869986 6.5065403 47.935905
57.93598 1.1195412 43.259907
58.198982 44.89354 44.342907
53.738983 38.17854 54.616905
54.08198 36.93254 56.600906
24.535984 5.96554 12.844902
26.969984 5.0025425 11.949905
21.108984 41.58154 7.9289017
19.251984 41.28054 6.179901
13.139983 41.21754 56.636906
11.565986 39.48654 57.009907
3.115982 36.76554 55.332905
2.120987 37.93454 53.539906
68.96799 37.77954 32.690903
68.500984 38.791542 30.841904
72.39999 33.016544 20.645905
73.24298 31.437544 19.4449
39.850983 12.159543 22.980911
42.155983 12.672544 23.060913
46.58198 20.056543 17.090904
46.573982 20.174543 19.321915
10.714985 13.798543 77.15491
11.847985 14.311543 75.15091
14.473986 17.831543 72.588905
13.920985 19.435543 71.16991
60.536983 31.461544 59.560905
60.06098 33.227543 58.496906
59.066982 32.60654 47.550907
61.02598 33.83454 46.813908
18.486984 23.177544 25.574905
18.974985 22.028543 23.908905
20.223984 10.096543 29.64891
22.051985 10.813543 29.280914
58.63098 31.430544 4.9099045
56.487984 31.245543 5.7229004
53.268982 35.360542 16.878906
53.795982 36.207542 18.971909
16.395985 29.449543 47.140907
14.616985 28.868544 47.7759
10.893985 23.082542 37.099907
10.011985 21.516542 37.870903
8.544984 8.047541 40.210907
8.08999 7.4465427 38.218903
88.66399 3.5335388 37.733902
88.316986 2.1075401 35.979904
51.134983 37.93454 88.4969
52.600983 38.34254 86.657906
49.173985 31.704544 86.421906
46.993984 31.367544 87.1619
34.309986 37.49854 27.740906
36.331985 37.65554 26.23291
36.202984 2.7285385 23.646912
37.444984 4.623541 23.841904
65.35198 12.454544 88.518906
65.834984 13.104542 86.12791
68.444984 7.97954 77.03891
66.47798 9.18154 76.698906
11.930985 42.22754 43.337906
12.885985 39.74354 44.184906
24.728985 37.73754 44.239906
25.785984 36.024544 44.032906
78.35199 20.399544 4.0779037
79.802986 21.271544 3.4059067
85.64599 32.117542 5.880905
84.82899 33.96054 6.4619064
81.983986 11.570539 84.172905
83.095985 12.905544 86.1089
90.57799 4.8985424 90.396904
1.019989 5.022543 89.8029
27.158985 38.97554 83.1219
28.895985 38.50854 80.9969
41.026985 45.076538 86.30791
41.944984 44.66754 84.059906
2.6499863 30.956543 31.66391
2.271988 29.027544 32.759903
87.55199 21.835543 25.179901
88.70099 19.910543 24.798904
16.451984 0.53754044 77.241905
18.134985 45.81754 75.38691
21.074984 4.7145405 71.906906
20.271984 6.62554 71.6479
42.051983 22.788544 35.668907
41.201984 22.046543 38.3479
43.431984 19.709543 49.716904
45.09698 19.092543 51.559906
29.646984 4.18454 47.237907
31.501986 4.4485397 45.568905
42.845985 44.43854 51.862907
42.860985 1.4645386 52.148907
71.070984 36.087543 102.8569
69.67499 35.11854 104.4129
76.19099 22.254543 103.0949
76.62199 22.533543 105.79291
64.39799 34.00754 9.930901
63.173985 33.98754 8.3199005
66.07398 0.9935379 6.057907
68.00698 1.7525406 6.7259064
73.998985 39.17454 49.243904
71.81399 38.291542 50.2499
74.48299 40.38354 39.0399
76.414986 40.09354 40.559906
2.542984 43.54754 61.669907
3.476983 42.56454 62.917908
13.910987 41.17554 59.645905
13.166984 43.16854 58.695908
77.64899 38.07154 91.3869
75.552986 37.39854 91.34991
66.24599 29.827543 92.37691
66.137985 30.308544 94.72191
68.972984 12.664543 91.04391
66.76099 13.235542 90.907906
65.69898 1.7315407 88.50391
64.32298 0.6635399 87.4129
17.388985 42.64654 59.765907
16.362986 43.485542 58.012905
13.332985 2.918541 48.162907
13.448985 4.814543 49.022907
47.48598 0.8555412 29.41391
48.092983 44.750538 30.429901
54.143982 34.511543 24.839905
52.129982 35.067543 22.9449
19.671984 6.3065395 68.51091
18.420984 5.232542 69.94791
11.040985 3.4635391 71.21191
10.214985 4.7855396 72.783905
45.976982 19.343542 22.595901
46.29098 17.304543 22.252914
40.512985 12.790544 11.4869
39.768982 14.216543 10.442902
12.182985 42.45154 38.488907
10.972985 41.36554 40.092903
19.935984 34.398544 42.997902
18.891985 32.95154 44.781906
41.192986 19.002542 50.787907
40.134983 20.821543 51.735905
31.041985 24.252542 55.030907
29.550985 23.872543 54.388905
54.980984 5.8305416 66.448906
55.149982 6.3355427 64.09891
44.375984 0.62154007 66.66791
43.674984 0.40653992 64.84891
26.091984 6.19454 47.176907
26.333984 6.2145405 49.615906
22.669985 41.20154 55.740906
20.591984 41.16454 56.542908
9.236985 14.835544 105.271904
11.220985 16.170544 105.2869
20.384985 19.883543 5.7709045
22.785984 19.130543 6.2379
85.98099 25.161543 57.517906
87.76099 23.838543 57.249905
80.374985 12.680544 54.416904
79.929985 11.328544 55.994907
83.00198 23.188543 44.143906
81.56199 22.945543 42.6519
72.49298 24.665543 35.104904
73.29698 24.899544 32.923904
51.183983 43.749542 16.464905
51.459984 43.06354 18.698906
64.819984 0.4405403 23.06691
65.209984 2.4215393 22.455902
89.07799 0.411541 33.17891
89.43298 2.479538 31.308914
84.12899 44.83254 28.442902
84.06199 0.9535408 29.149902
15.896985 26.917543 76.396904
15.011985 27.841543 74.80491
6.3539853 37.735542 72.560905
5.398985 38.78554 74.16491
55.264984 42.20554 23.530914
53.552982 43.596542 24.586914
46.739983 5.7005405 24.744904
45.77698 7.432543 25.08191
39.389984 41.423542 52.332905
38.222984 39.32454 51.003906
45.127983 41.416542 41.335907
43.465984 42.43154 41.572906
84.262985 35.394543 2.285904
83.81099 34.20854 3.8289032
73.75698 34.05754 107.061905
74.31299 32.721542 105.05591
70.180984 44.52954 51.092907
68.45299 0.009540558 52.241905
64.43899 11.641542 46.281906
63.163982 13.217545 44.710907
18.009985 0.69553757 71.783905
19.219984 44.36354 72.63591
26.450985 39.68554 76.533905
27.384985 39.71554 78.7759
38.486984 32.864544 85.58391
39.172985 31.621544 83.38991
35.211983 28.559544 72.8009
35.705982 30.510544 71.66691
78.25599 27.809544 45.212906
76.55898 27.055544 44.5989
73.80998 36.281544 35.6939
74.75799 37.68954 36.4319
13.517985 7.3085423 100.212906
14.5749855 6.225542 101.83491
26.340984 14.250542 104.37391
26.513985 16.556541 104.92991
23.928984 22.157543 39.286903
24.686985 21.835543 37.407906
12.340985 26.107542 32.783905
11.966986 26.339542 30.756912
26.853985 9.866541 67.59791
26.546984 8.69454 65.42991
22.393984 6.0025425 68.19491
24.667984 5.338541 67.632904
52.542984 25.011543 72.670906
52.834984 24.446543 70.587906
53.246983 22.755543 61.032906
52.334984 21.538544 59.014904
89.693985 1.6855392 45.5679
90.888985 1.4395409 44.1659
8.187989 41.37854 41.173904
9.137986 41.96054 43.0549
27.527985 22.501543 71.88891
26.909985 23.807543 73.66991
28.698984 28.475544 80.90191
27.800985 28.250544 82.921906
5.691987 36.520542 98.56791
5.1949854 39.21054 99.934906
6.243989 4.75054 94.491905
6.7899866 6.5045414 93.27791
71.44898 44.27254 95.53091
68.72498 44.23954 95.16991
73.72898 3.7375412 106.81991
73.750984 5.387541 107.77791
61.403984 30.885544 46.5269
61.126984 30.620543 44.173904
66.263985 35.77254 35.801903
67.15698 37.617542 35.5149
55.229984 25.438543 35.468903
55.70098 26.392544 33.629906
64.90898 20.227543 26.8479
65.29498 19.193542 24.475906
5.4329844 17.803543 6.4879
5.937989 15.654543 7.0649033
2.7049866 16.906542 104.59891
2.1229858 15.440543 106.2879
58.385983 14.732544 4.7369003
56.396984 13.509544 5.2849045
52.590984 4.451538 106.88991
53.390984 3.6765404 104.9679
21.480984 15.368544 42.461906
23.155985 13.905543 42.5009
32.258987 17.284542 50.3209
32.186985 19.026543 51.215904
50.70798 38.15154 57.509907
51.20098 36.77454 58.938908
53.841984 25.780542 63.131905
53.10398 26.257544 65.35991
22.056984 43.30654 0.01789856
21.775984 43.08054 2.3159027
25.559984 29.870543 5.144905
25.079985 28.159544 6.7379
0.12198639 36.55154 36.294907
90.74499 34.948544 35.590904
7.1709833 28.361544 41.342903
7.068986 29.279543 43.3329
39.556984 4.0655403 89.532906
40.384983 2.4875412 89.96191
49.996983 7.8515415 97.91591
49.50598 8.677542 95.98991
59.253983 37.49754 70.06891
59.814983 34.64654 70.29391
62.344982 28.547543 58.707905
62.850983 29.506544 57.243904
35.954983 33.519543 6.330902
34.564987 32.638542 7.9319
43.368984 36.546543 4.1789017
41.242985 37.17254 2.7509003
24.174984 12.624543 6.4429016
22.783985 14.761543 5.3739014
11.435986 10.711543 108.26791
11.083985 10.877543 106.255905
78.401985 32.679543 55.448906
79.74599 33.678543 56.915905
76.11499 45.70454 54.157906
77.72699 1.0565376 55.112907
33.476986 21.130543 52.236908
31.446985 22.432543 52.637905
27.852985 30.144543 52.705906
29.675985 31.296543 52.874905
32.489986 6.084543 101.73791
30.574986 4.9155407 103.367905
39.521984 2.5715408 5.0539017
39.818985 0.19654083 4.943901
14.859985 27.585543 103.7029
15.584986 29.688543 104.646904
11.398985 35.631542 6.5979004
11.667985 35.234543 8.696907
34.538986 0.17353821 25.417908
32.893986 45.014538 25.632904
21.992985 7.92354 30.1539
20.768984 5.7545414 30.6129
84.74199 21.976543 16.2089
86.59199 23.448544 15.756905
88.651985 12.845544 13.454903
86.53199 14.045544 14.0429
19.190985 43.39654 1.0749054
17.700985 42.256542 109.0369
14.657986 44.91754 100.90591
16.653984 45.118538 100.436905
55.45698 3.7215385 45.332905
54.944984 1.8245392 45.255905
62.83998 2.951538 59.071907
64.249985 2.597538 58.104904
57.694984 5.7755413 63.738907
59.083984 7.545542 64.69291
67.53799 9.350542 74.07091
67.39999 11.512541 74.9809
60.764984 2.2775383 108.38791
61.122982 2.6055412 1.4859009
52.042984 5.0305424 11.954903
51.945984 6.560541 9.963905
8.94999 30.382544 45.140907
8.917985 31.691544 43.144905
89.92699 40.089542 45.190903
89.96499 40.874542 47.563904
75.39899 35.76454 55.547905
76.666985 34.52254 56.731907
74.095985 36.025543 67.97591
75.247986 34.287544 68.631905
16.561987 36.38354 51.861908
15.183982 38.15654 52.322906
6.721986 41.13454 43.869907
4.8279886 42.72354 43.762905
27.590984 43.55354 33.975906
27.635984 0.1885376 34.878906
36.270985 43.06354 42.161903
38.083984 43.54354 44.316902
58.800983 43.98254 89.5109
60.083984 44.875538 88.1759
62.092983 9.370543 85.658905
62.183983 11.435541 86.4699
56.223984 32.387543 23.435913
54.765984 31.469543 24.540909
51.153984 26.915543 25.091904
50.015984 24.677544 24.714905
26.340984 34.857544 86.40191
26.563984 34.546543 88.30591
22.114985 32.25854 99.8449
23.070984 31.003544 101.963905
81.87099 2.5145378 78.94691
80.320984 4.9245396 77.71191
81.04799 39.582542 75.47491
82.652985 40.05254 77.19691
82.511986 15.276544 76.673904
83.79999 16.017542 75.2589
0.11898804 12.262544 71.0229
0.8989868 10.318543 69.615906
28.985985 15.990543 103.632904
30.689985 15.305543 102.75291
39.768982 13.728543 5.5799026
41.949986 14.4955435 5.448906
10.707985 0.27653885 19.605911
13.0419855 0.3985405 19.39891
17.268986 35.761543 13.350906
19.964985 35.665543 12.964905
74.42599 42.63954 94.93291
74.29899 44.98854 95.85991
72.651985 9.559542 89.8149
70.803986 11.008543 90.07191
31.638985 18.205544 88.27791
32.290985 16.328543 89.3449
25.734983 24.018543 96.96191
25.005983 25.522543 99.01591
86.32899 22.796543 81.8579
87.706985 24.433542 80.670906
0.9359894 27.053543 78.420906
91.66898 26.859543 80.296906
65.17399 5.920542 16.0559
65.58998 7.982542 17.324905
64.50999 2.6365395 25.443909
62.96398 4.021538 26.599915
79.68999 31.452543 49.02791
80.125984 32.124542 47.156906
69.89298 25.779543 48.698906
68.38499 25.459543 50.424908
89.97498 39.18954 50.505905
91.46399 41.08854 51.187904
10.466989 42.16754 57.865906
10.861985 44.11354 57.338905
81.903984 42.25954 33.322906
80.791985 40.91154 34.643906
76.28899 32.38254 30.923904
74.205986 32.39754 30.267914
86.64599 44.65754 85.0659
88.90799 44.35054 85.6919
5.340989 43.57254 74.838905
5.7549906 41.36254 75.26391
41.394985 1.2015381 74.0779
41.827984 45.54054 76.12591
46.76398 33.074543 70.77691
47.379982 31.441544 72.0649
36.051983 34.91154 52.281906
36.549984 32.733543 53.474907
27.526985 26.667543 43.705906
25.984983 28.381544 42.390907
31.904985 26.745543 38.7769
31.053986 28.153543 36.933907
40.413982 24.499542 29.496902
41.945984 23.280542 29.0289
18.619986 5.7665424 93.325905
18.906984 4.1505394 91.26691
7.1679854 2.4575386 85.15191
6.086985 0.5235405 85.69791
10.913985 20.303543 72.61091
12.955985 19.747543 73.449905
20.024984 17.500544 85.6779
18.548985 17.418543 87.26291
31.104984 27.475542 79.31891
31.486984 26.868544 77.31791
36.090984 27.726543 69.26091
37.563984 28.244543 67.8699
10.386987 23.843542 33.8899
9.515985 25.644543 32.892914
6.038987 23.900543 21.054901
4.7969904 23.814543 19.391907
5.340989 29.136543 92.698906
6.6739893 29.184544 91.31991
10.535989 34.61954 86.269905
12.262984 33.36954 87.55891
75.985985 20.158543 47.891907
75.695984 22.324543 48.853905
88.028984 24.657543 54.453907
87.664986 26.684544 55.804905
40.441982 33.569542 100.43191
40.42198 31.443544 100.171906
44.106983 25.402542 104.36191
42.709984 27.214542 105.520905
86.56599 3.91354 64.339905
87.483986 2.5115395 63.288906
80.653984 9.87454 53.647907
81.55999 10.287542 51.907906
7.675988 34.36154 107.23791
6.639985 36.02154 106.337906
13.6459875 37.49054 6.481903
16.096983 37.80354 5.618904
79.85499 23.991543 47.297905
77.36398 23.965544 47.580902
69.624985 15.471543 41.773903
70.91299 15.423543 39.211906
24.511984 42.24154 37.588905
24.152985 43.291542 38.751907
36.820984 41.65754 39.676903
37.697983 44.13454 39.841904
78.136986 44.86254 82.51591
77.09199 1.0675392 83.50391
80.986984 41.61854 88.34691
82.55099 41.24654 86.562904
12.181983 12.896542 17.197906
10.079988 12.5615425 17.884903
89.64999 8.864542 12.461906
90.041985 10.82654 11.643906
68.00999 11.762544 105.657906
67.67699 10.466543 103.91891
71.78899 22.670544 98.79291
73.152985 20.956543 98.12491
9.757989 2.1515388 1.6639023
8.020989 2.36454 2.9019012
2.0859833 41.55854 102.1779
3.7999887 40.832542 101.7329
15.854987 9.843542 50.454906
15.007987 7.87554 50.270905
3.4739847 15.180542 48.508907
1.8719864 13.8115425 48.116905
5.5039835 37.09754 14.011902
7.601983 37.17554 13.895905
15.852988 35.95154 23.3889
15.414985 33.928543 25.702911
41.876984 19.121542 0.3459015
40.765984 20.949543 1.0499039
33.890987 19.854544 103.51491
35.444984 18.496542 103.143906
88.680984 26.563543 84.1479
87.23099 26.732542 81.93091
80.34898 36.992542 85.3699
79.51598 36.053543 87.59691
17.929985 41.70554 26.34491
19.648985 40.80254 25.090912
24.814983 40.01054 35.699905
26.862984 41.20654 35.5539
8.086985 25.012543 22.339905
7.7799854 26.492542 21.290909
17.937984 27.489544 26.246902
16.176985 26.852543 27.95691
39.865982 8.046543 86.7169
39.77598 10.5875435 86.54191
49.135983 15.5875435 77.893906
48.809982 17.288542 77.08691
83.21899 8.69454 29.554901
84.78899 10.649542 29.158905
0.3529892 3.7265396 22.043915
1.1179886 4.841543 20.0699
1.2829895 30.338543 78.28891
2.2869873 29.029543 79.4959
2.1349869 37.110542 74.518906
0.5409851 38.10254 73.9549
53.19998 12.738544 80.3579
53.792984 11.7335415 79.268906
61.56798 7.623541 73.62191
62.184982 9.80554 72.33491
19.123985 10.05554 49.825905
17.841986 7.732542 50.406906
23.075985 0.029541016 43.017906
24.082985 44.55254 41.724907
22.438984 45.01554 4.5919037
23.205984 45.56554 2.809906
32.225986 38.87354 106.23791
33.917984 38.00354 107.088905
15.8909855 25.504543 22.953903
17.805984 25.507544 24.227905
28.306984 29.396544 26.126907
27.441984 30.790543 27.462906
76.25298 42.527542 23.708908
77.236984 43.88254 25.052902
80.764984 8.754541 23.480911
80.945984 10.84654 24.983902
14.125983 26.854544 72.3299
13.922988 28.769543 72.4669
1.5959854 32.197544 75.089905
0.4709854 33.718544 76.59691
66.31198 22.688543 27.440903
65.10499 22.288544 29.409912
58.395985 27.461542 34.157906
59.53298 29.527544 34.716904
6.398988 28.368544 19.843903
4.028985 27.045544 18.883911
85.66998 31.199543 26.155914
84.553986 29.200544 26.212906
27.966984 26.002542 81.35091
29.858984 24.607542 80.28091
38.669983 29.059544 90.0939
40.823982 28.491543 89.2739
4.7969904 13.627543 83.0809
4.38099 15.140543 80.66691
84.513985 11.763543 78.82191
83.289986 10.840543 80.5239
86.79699 43.47554 62.170906
84.678986 44.05754 62.794907
87.443985 7.91654 67.824905
87.860985 5.8045406 68.5239
89.14999 1.2965393 87.9669
89.38199 0.4575386 89.909904
7.0899897 40.27854 86.07091
5.1039896 39.48654 85.074905
75.97699 6.772543 24.693909
78.10599 7.71554 24.134903
80.77998 43.08854 20.524902
82.360985 42.86154 21.315903
79.43999 39.06454 19.739914
78.900986 38.69854 17.520905
88.42099 44.03954 9.8069
90.21499 44.639538 10.683907
34.179985 16.932543 48.622906
36.476982 17.367542 49.982906
41.966984 10.052543 60.047905
43.618984 8.560543 59.597904
62.906982 1.2375412 4.6239014
63.76398 2.9455376 4.427902
59.313984 11.452539 14.073906
59.468983 9.30554 14.783905
9.050985 0.6905403 58.427906
10.244985 3.3185387 59.132904
17.763985 11.593542 54.030907
17.787985 10.362543 52.330906
63.58998 30.337543 94.171906
63.604984 29.156544 91.768906
55.990982 39.24154 90.616905
54.844982 40.73954 90.07091
79.57699 29.559544 63.050907
79.389984 28.938543 65.46091
69.44898 19.758543 64.29191
69.49699 19.155542 62.244907
27.313984 27.168543 38.186905
29.073984 26.940542 39.330902
41.437984 29.152544 46.1939
41.319984 30.591543 43.960907
89.64599 35.791542 101.021904
88.86599 37.12254 102.2739
84.83999 37.089542 109.2339
82.91898 36.402542 109.0789
81.845985 39.89754 66.852905
82.93699 38.80254 68.28991
74.80199 44.61554 77.4529
76.33699 0.8285408 77.1629
42.847984 27.544542 49.888905
42.386982 29.066544 52.149906
54.419983 36.190544 47.036907
54.923985 35.594543 44.780907
21.053984 32.319542 16.577904
22.040985 30.370543 17.7789
27.231985 39.25054 28.037903
26.180984 39.930542 30.380905
85.29699 39.32054 78.075905
87.85799 39.42654 77.257904
7.872987 43.20254 81.3169
6.842988 45.13554 81.84691
37.229984 0.8225403 100.243904
36.344982 45.49754 102.12791
33.773987 3.7845383 3.7849045
33.214985 6.105543 3.7089005
83.91199 38.30954 81.227905
86.17099 36.91954 80.66591
1.8229828 25.921543 84.6779
3.0719833 25.099543 83.547905
4.3929834 32.402542 37.672905
1.9129868 32.405544 37.907906
0.4349823 37.37854 50.135902
1.8589859 39.35254 49.825905
19.157986 24.422543 104.950905
17.768986 26.307543 106.1639
22.123983 28.262543 11.196907
21.588984 30.161543 10.781906
33.797985 34.962543 26.970901
35.645985 35.261543 25.893906
46.711983 31.184544 22.086914
47.04098 30.070543 19.688904
9.525987 8.01454 35.646904
8.696984 10.09754 37.091904
88.92699 14.1065445 33.996902
86.71599 13.761543 34.100906
2.1989822 24.508543 89.4819
1.9789886 24.800543 87.2309
87.444984 28.896544 93.76491
89.13099 29.204544 95.186905
88.23299 9.29854 106.2049
88.262985 7.5395412 104.96191
86.12999 3.7635384 2.6359024
84.41399 3.4275398 1.2849045
32.875984 14.957543 97.77791
31.495985 15.931543 99.81791
44.173985 9.920543 105.478905
44.523983 7.9115434 106.2169
82.14198 32.391544 103.2309
83.443985 33.809544 102.12791
81.914986 39.33654 93.785904
82.06199 40.45554 91.4839
66.13098 6.3115406 76.52991
68.02199 5.1885395 77.04291
63.268982 41.02554 84.799904
62.902985 42.93154 83.770905
80.292984 35.374542 19.661911
81.344986 37.14654 20.417908
90.09199 42.90054 12.5959015
91.50399 41.61854 12.642906
87.58699 2.5185394 41.4739
88.847984 0.82353973 42.4319
81.30099 39.99854 37.494904
81.28199 42.24754 36.691902
48.030983 32.881542 89.0389
48.614983 34.523544 87.15491
34.581985 37.02154 87.22391
33.897987 35.492542 86.048904
63.986984 20.824543 83.2169
62.76998 21.361544 84.51691
65.01898 14.500544 93.9389
67.50298 14.907543 93.4839
65.721985 0.94654083 91.65491
68.33898 0.6055412 91.118904
67.29398 12.402542 96.9289
68.04598 13.844543 98.70891
51.417984 39.99154 85.158905
49.212982 39.10754 84.88891
39.898983 40.110542 77.198906
38.527985 40.93154 75.37891
88.05798 31.936543 4.3719025
88.43298 31.773544 6.738907
4.1569834 33.20254 14.502907
6.113984 33.162544 13.352905
11.505988 14.233543 36.5259
11.779983 15.765543 34.981903
8.400987 12.726543 23.930908
9.965989 13.477544 22.326904
42.951984 29.812544 48.424904
42.140984 31.866543 46.641907
38.883984 39.89454 39.4169
40.862984 40.39254 38.739906
76.47398 26.860542 15.664902
78.138985 27.512543 17.255905
77.623985 15.159543 14.411903
79.916985 14.708544 15.162903
34.958984 37.32654 0.32289886
33.463985 35.456543 0.8199005
35.430984 40.19654 14.304901
36.967983 41.50354 14.790901
32.112988 6.142542 64.85991
31.924984 6.90954 62.332905
39.843983 2.604538 67.740906
41.996983 3.2945404 68.368904
39.691982 24.102543 64.602905
41.731983 24.089542 65.54191
52.101982 22.229544 72.12791
50.153984 22.770542 73.5239
13.714988 28.156544 77.98491
12.700988 26.845543 75.838905
8.03399 21.860542 86.7039
8.135987 23.578543 88.658905
39.934982 41.74654 64.866905
38.388985 41.32254 62.840908
29.200985 2.0045395 56.417908
29.172985 2.8445396 54.211906
49.836983 41.06554 61.334908
48.938984 41.86254 59.436905
56.04098 0.5565376 67.03891
57.97198 1.1375389 66.84491
9.476983 34.256542 65.84991
9.460984 33.082542 63.800907
1.7979889 39.62654 57.903908
1.7859879 37.332542 58.924908
15.321985 17.253542 102.91891
14.650986 14.964543 103.0229
24.958984 13.260544 1.4689026
26.144983 14.461543 0.074905396
5.844985 39.87754 13.453903
6.673985 41.499542 15.374901
15.460985 38.96854 10.724907
17.288984 37.96154 9.813904
70.93398 20.583544 7.3899
70.983986 20.842543 9.868904
67.747986 30.459543 15.789902
69.39799 31.140543 16.980904
77.50799 17.180542 12.019905
78.93398 15.358543 12.0089035
71.86298 11.422544 108.910904
72.414986 9.531543 108.26391
91.66099 42.964542 62.284904
1.0789871 41.20454 62.750908
2.3349838 32.281544 58.225906
0.54898834 30.496544 58.954906
79.96599 33.013542 61.229904
81.15799 33.21654 59.057907
91.57899 29.968544 54.954906
90.942986 28.109543 55.781906
7.7259836 18.266542 72.18091
7.0959864 19.424543 70.478905
2.3099823 29.724543 75.81791
4.3339853 30.018543 76.950905
12.847985 1.9415398 0.27090454
12.064985 0.42554092 2.1319046
17.783985 2.01754 14.259903
18.597984 0.82753754 16.126907
21.511984 4.276539 66.1759
23.329985 3.3175392 66.54191
16.344984 44.903538 73.41791
17.348986 43.37354 74.34891
45.409985 10.996542 57.078907
45.316982 8.73654 57.174908
41.177982 12.802544 44.342907
40.120983 13.937542 45.533905
58.614983 17.649542 30.58191
60.563984 18.359543 31.85791
58.508984 31.007544 32.586914
59.238983 32.664543 30.981903
45.418983 28.667543 18.071907
46.17898 30.537544 16.599907
36.250984 37.84454 15.8839035
35.416985 37.43154 14.214905
45.639984 5.258543 74.3849
47.493984 4.1485405 75.37491
41.064983 43.04754 77.84791
39.285984 42.97754 78.30491
45.68598 12.550543 26.530914
46.245983 10.032543 25.549911
55.91598 16.808542 30.251907
56.66598 18.982542 29.494904
21.569984 2.8285408 3.3169022
23.537985 3.4875412 4.1119003
20.376984 0.75354004 4.5019073
18.733984 1.3085403 3.2709045
0.21498871 3.779541 53.479908
0.07398224 5.878542 53.835907
90.36899 10.6085415 65.26791
90.86999 13.049541 65.3009
88.442986 21.438543 66.004906
86.263985 21.019543 66.76691
86.99299 10.714543 64.04091
87.65598 10.298543 66.11491
17.902985 33.135544 27.813904
19.673985 31.768543 28.419907
24.914984 27.174543 40.0409
22.665985 25.870543 40.743904
35.908985 7.503542 83.34691
34.860985 8.8515415 81.645905
32.585987 8.171541 92.6789
31.394985 9.683542 92.243904
28.981985 42.99754 44.240906
29.462984 41.04254 44.588905
39.548985 31.248543 39.809906
41.158985 33.197544 40.756905
51.176983 42.35054 86.4809
50.43698 43.805542 88.379906
50.865982 11.651541 87.62391
52.522984 12.672543 88.934906
61.61798 5.720541 60.377907
63.17198 6.001543 61.926907
65.790985 43.49454 73.8279
67.53899 44.67454 74.118904
37.964985 8.481544 81.992905
36.868984 7.8525434 79.7749
37.174984 17.969543 78.62791
37.821983 18.988543 76.32191
22.072985 28.439543 101.51791
24.168983 28.569544 100.852905
32.774986 24.509542 102.073906
32.024986 22.544542 101.492905
2.4289856 14.076544 57.435905
2.132988 15.446544 55.948906
86.86699 7.2985435 46.948906
87.733986 5.8545437 48.40291
80.444984 18.621542 82.16991
82.457985 19.070543 80.771904
89.430984 21.533543 90.7459
91.052986 20.978542 91.7169
76.957985 3.27454 47.5429
74.25598 3.5945396 48.731903
68.30099 5.79154 40.176903
68.61598 7.675543 38.643906
58.170982 37.07354 75.26391
59.701984 37.93254 73.57091
60.413982 45.64954 70.18291
58.53998 1.51054 69.312904
69.29498 33.325542 82.5919
68.805984 35.290543 81.3039
77.055984 34.98654 87.867905
77.35799 33.12654 87.520905
80.41099 27.599543 68.894905
81.21599 28.625544 67.33691
89.30999 38.59254 72.83491
88.695984 38.60554 74.62291
58.72898 6.251543 57.239906
59.038982 8.253542 57.002907
58.183983 4.2125397 44.632908
58.07498 6.56254 44.199905
32.562984 33.57054 84.006905
30.656984 33.652542 83.3859
33.240986 30.381544 72.949905
31.881985 30.149544 70.9689
5.148988 36.61854 101.229904
7.1929865 38.00054 101.060905
10.15799 1.222538 108.3299
9.829988 45.51554 0.69190216
13.426986 24.167543 75.367905
12.251983 22.720543 73.80291
1.8159866 21.279543 67.629906
2.783989 19.460543 67.14991
69.957985 7.966543 73.48491
70.42499 9.182543 75.57091
75.35199 8.926542 88.1369
77.95399 8.46554 88.1199
21.874985 28.218544 15.3839035
19.740984 29.500544 16.302902
6.509985 28.746544 13.422905
5.658985 29.520544 11.6129
82.707985 9.973543 77.769905
82.51598 7.977541 77.40491
86.124985 2.7665405 66.8559
87.87798 3.01754 67.713905
73.45399 24.849543 97.810905
71.81198 26.713543 98.715904
75.60599 32.09054 89.71191
74.568985 34.185543 89.7309
71.67399 44.34854 65.131905
71.55099 0.42654037 66.909904
77.57198 10.768541 58.871906
79.108986 9.462542 57.789906
7.9269876 3.484539 73.72591
7.646989 1.0235405 74.51091
85.847984 44.91554 80.299904
85.81599 1.734539 81.37591
10.002985 5.822542 39.283905
10.909985 6.64554 40.870903
22.722984 10.60354 32.238907
23.895985 8.17454 32.1799
67.72798 37.43554 47.646908
68.695984 38.72354 49.617905
60.355984 37.78354 58.933907
58.460983 36.728542 59.548904
45.340984 29.849543 2.9299011
43.344982 29.841543 4.441902
32.303986 35.93254 107.30891
31.354984 35.61854 104.83491
91.261986 31.460543 31.535904
1.2379837 32.71554 30.26091
1.1829834 42.16754 18.524902
90.776985 41.527542 17.2779
77.49099 30.904543 64.66691
77.914986 31.059544 66.6059
88.21399 40.19554 69.62691
89.00699 41.19254 67.53991
8.0189905 12.669544 19.345901
8.148988 10.587542 19.155914
87.69099 8.644541 18.90091
87.84099 10.7075405 17.086906
4.0459833 36.86354 71.12791
2.155983 37.42054 71.57191
89.02099 26.487543 63.183907
86.927986 26.500544 63.293907
29.072985 33.461544 54.060905
29.775984 34.844543 52.764908
25.072985 43.46154 58.309906
26.611984 45.10954 59.535908
83.44798 24.493544 19.488907
81.43398 24.899544 18.414902
72.46298 18.674543 10.096901
70.820984 17.469543 10.425903
80.429985 20.481543 84.4119
79.39399 18.649542 86.021904
84.15999 12.147543 93.73591
82.71098 10.036543 94.46091
32.002987 30.875544 27.82991
29.885984 30.998543 28.172913
25.553984 35.499542 39.741905
25.819984 34.20154 41.704903
41.999985 7.0525417 52.337906
41.872982 8.02054 54.968906
40.619984 41.94154 61.835907
41.898983 42.40754 63.417908
41.891983 26.837543 25.78891
40.466984 24.970543 25.327911
45.614983 22.077543 23.975906
47.358982 21.855543 23.402908
2.9079895 35.517544 27.134903
5.2729883 34.944542 26.052902
7.012986 0.89553833 22.526901
5.9899836 45.222538 21.201904
69.291985 2.0585403 72.490906
70.36999 3.9755402 72.893906
80.055984 7.35454 76.52491
80.24199 8.878542 78.51491
16.029985 22.691544 104.25291
16.577986 20.469543 104.79291
29.760984 21.184544 103.65291
30.596985 19.056543 103.5249
91.46699 25.273542 92.31791
90.29999 23.532543 92.684906
82.750984 15.431543 88.61091
83.57699 15.578544 86.38991
15.819985 32.63954 83.59891
16.341986 32.066544 81.4419
7.730985 42.575542 78.04191
8.437985 41.67054 75.797905
38.058983 5.0145397 79.15391
37.065983 6.2495403 77.68191
24.279984 10.184542 76.1909
23.995985 11.980545 77.23991
84.74499 14.535543 31.867905
82.91199 14.803543 33.602905
79.68699 12.100543 22.300903
77.75499 10.835544 21.158905
19.212984 43.85554 98.06891
18.705984 0.5405388 98.838905
31.427984 6.8185406 97.85091
33.001987 7.468542 96.12691
76.19899 29.733543 68.34491
75.08699 30.891544 65.97591
68.13499 21.961542 70.8299
65.681984 22.066544 69.824905
36.321983 39.03954 58.306908
34.957985 37.50054 58.864906
33.891987 35.997543 71.5509
31.607985 36.34254 72.80791
8.656983 6.716543 83.0239
7.5319834 8.171541 83.9549
88.58799 11.348543 91.6629
87.92199 9.581541 90.01791
23.538984 14.109544 72.14091
24.699984 15.960544 72.04091
22.030985 19.205544 85.271904
22.839985 17.572542 86.29491
52.020985 12.335545 85.4819
53.897984 10.695539 85.812904
61.490982 4.6295414 82.533905
61.34598 7.00054 83.0119
67.43698 5.9465427 31.075912
69.94798 5.894541 31.633911
81.94999 42.90054 29.822906
82.18599 45.11954 30.090912
42.239983 41.110542 52.170906
41.483982 40.01554 53.856907
39.955982 27.198544 56.342907
40.517982 27.942543 59.105907
75.51799 1.2995377 52.127907
73.87698 1.590538 53.281906
66.45199 3.0995407 55.850906
65.387985 1.5825386 54.033905
71.84299 41.71554 73.3429
70.083984 40.784542 72.48791
59.54798 43.36154 65.80891
58.33898 45.11954 64.823906
34.679985 40.08354 72.29191
35.888985 39.42454 73.78891
40.648983 27.424543 75.26691
41.617985 26.117542 76.963905
7.7209854 10.03554 81.87891
9.981985 11.115541 82.02891
16.875984 7.2245426 70.63791
17.964985 8.186541 69.16391
34.888985 44.82254 16.100906
34.346985 43.19854 15.023903
22.208984 37.18654 8.564903
20.759985 38.98354 8.9869
5.7869883 14.442543 23.174911
6.8229837 16.109543 21.848907
2.6409836 15.534543 10.613907
4.2919855 13.226543 10.946907
44.649982 9.197542 61.916904
46.90198 9.52854 61.235905
46.09598 43.700542 54.720905
45.869984 44.48054 52.639908
47.68598 14.432544 55.409904
46.459984 12.776544 54.757904
49.018982 12.357543 41.392906
47.56098 10.726543 40.810905
58.05498 36.18154 29.080902
58.35998 34.387543 27.443909
58.787983 23.018543 21.923904
60.946983 22.785543 22.85991
6.226983 22.286543 40.349907
8.082986 22.827543 39.298904
91.21699 19.377542 27.53891
0.44298553 17.465542 27.406906
82.042984 13.128544 12.332901
82.109985 10.98654 13.818901
78.42299 0.2205391 6.0139008
80.47799 45.40654 4.4309006
39.100983 38.17654 37.0419
39.489983 36.303543 35.881905
25.050983 40.43554 39.269905
26.224985 40.75354 41.211906
63.563984 21.379543 68.089905
63.65898 23.254543 66.79091
54.612984 30.654543 76.09791
53.966984 28.585543 77.226906
81.431984 12.006542 20.289902
81.89499 9.908541 21.004913
86.38199 2.0795403 13.6339035
86.86999 3.9155388 13.039902
36.898983 30.412544 69.21091
37.018982 32.546543 69.87791
39.563984 45.39754 70.073906
38.021984 1.5135384 69.59991
40.109985 27.528543 83.45991
39.134983 28.988543 82.199905
30.769985 33.769543 88.23491
29.299984 35.04354 87.6769
13.341986 38.21954 36.503906
15.050985 38.68954 34.996902
27.467985 36.72454 30.901901
27.997984 38.47954 31.5569
90.42499 20.391542 59.618904
89.14399 20.953543 61.341908
79.66299 10.891543 60.805904
81.721985 10.430543 60.758907
56.565983 37.450542 25.180908
56.958984 35.005543 24.4169
64.344986 35.57654 13.430901
64.68498 36.490543 11.2509
61.43698 34.544544 107.90391
60.604984 32.991543 108.656906
68.345985 28.472544 0.5809021
67.36298 30.398544 108.132904
