36.62940849839522 44.677946159852034 27.063351611575232
38.03244330786484 45.44523259636863 28.93504562565423
38.30835610029054 44.997675733025446 31.195492855361664
40.65116766231332 50.03150405004778 23.61015549015171
38.68277909888247 49.99366801614558 24.903505259778445
37.23177600881997 51.98642055059612 25.77019324543087
38.00442858730461 54.281038247925196 26.441252327469492
45.32324432407494 58.33880369242194 21.428294792447993
44.0565372750038 57.075874421750754 19.72295653682247
42.47972617824312 54.883278649146334 19.82231453213864
41.31892067820331 53.8098217147395 21.442605179017463
5.442578088787027 14.577383745300201 2.0161176828449867
23.844143690959807 19.529713283155715 38.99053285430675
24.652631219462073 21.841535674679573 38.67243058585019
26.77126134773515 21.674252322778315 36.67982378669825
26.570999884030307 20.39894567126375 34.52096309369124
26.44440994920698 60.99183230449455 15.535357963461411
24.07832936401238 62.39512375551762 15.793304909540405
27.13411736858502 32.278319773844345 38.88794211378944
27.378834532600642 30.756552209970966 41.055509947856976
25.620151653125454 29.548277715296997 42.187984318515134
25.573193484562097 30.78210309300256 43.53048396705087
54.713776866027885 20.157422155243584 26.152006970236762
56.336725114326114 19.60487201301998 25.335971115876898
16.369783763369306 1.4849913786176319 8.569817831833918
35.644918888150414 32.273857700986525 17.666224840884322
25.75588549035635 17.4652491864796 40.487678761979865
27.18850238438449 17.681693048722387 38.08108511830622
28.689083873946412 15.91776525521833 37.00705682844271
11.23153597511716 47.50585519337684 34.10298489552963
13.278004653592548 46.92282732146677 33.61894907301162
15.19713273089939 49.355592500014204 33.71644936144153
14.835413064318747 51.19560267622675 35.001919125816926
43.730179343524746 36.433689018065685 24.373838700834714
41.84242386153592 38.355551882169635 24.04748828683813
40.01457852640355 37.65816171550345 22.16395210045145
40.83004961542055 35.80735057675139 20.215283633056725
3.972231102320313 15.653447384467254 4.572239675457107
45.90555610008925 2.0403477798468126 41.137163012805665
46.28731327470579 3.3586544056362917 42.56696036543909
26.9621096993422 33.05238984245481 50.51393777743739
27.959444103907533 35.27486048172286 51.706276088681086
26.731449637350046 37.18071766115208 52.753841524372824
16.26302459588357 46.50827744879459 27.197699591767805
16.355620667465562 44.00733518210387 26.41168244666979
14.275199698474761 43.60330956790267 24.445006776328754
54.72604093035578 17.578182235437897 27.28052944318716
52.924051591656706 17.62566154902253 25.45188288548584
45.922133320512955 29.26243219208696 14.758682145678018
46.00610087190223 28.611005124888823 16.692116352273796
45.73646821456164 30.252550653103 19.213951520235746
44.49884825532493 32.09982004045287 19.43488511984766
49.494041394130655 59.6078258859126 21.208841947092232
47.132446198731614 60.52274181734107 22.115456093520066
39.0649474379617 6.384522194543229 40.34723392320453
41.84525511649721 7.241009652721444 39.922840961054355
43.28024660053428 5.412969603088579 38.34131098996611
42.46407294210402 3.223488078610083 37.31636761710511
17.113157209224298 43.290988387215414 29.084728158957738
15.994576469365034 43.829886872352795 31.177367409567328
15.491249313588185 46.65249796673265 31.520331315988024
16.686685133699925 48.26467686087946 30.631010276094557
13.460318423805608 2.635585992525962 2.4486792481887427
13.908405842297514 1.9358279356272141 4.448808202551916
12.708474138952887 2.0931194132753546 6.341409127817056
10.705421069424691 1.5164967556294708 5.890147328189351
48.590505685640174 7.565396451568966 41.640595129688975
46.171276063382166 6.633646241387642 41.771493087872784
45.507337686203066 4.807036665697072 40.090791988179966
45.90378846641356 4.237594608773534 38.10455079339461
33.06222064585279 4.490626095277825 13.283224194460427
33.05737659581653 6.437498065208038 13.015212718074237
34.17619342632111 7.588722975990221 11.038485126888947
34.56882454999425 6.849454347356976 8.791081275934099
59.37723592565921 47.61020431898441 22.08088554273639
58.761844716915284 44.90337693321545 21.78470684613178
56.90641355447748 43.77231757643941 21.52396429676408
54.93789068675164 43.90141315990414 20.38681937071264
42.94204356747046 1.2215007247443732 38.82890461698719
42.966610512866474 2.2201618871085813 40.7315355156079
21.797587559620357 30.49550633530358 1.3633457952832118
20.37963086442001 30.892987435291367 3.3033732358739516
18.59326485426845 1.0481192355366131 12.397974853358665
17.69013383838643 2.143061937746399 13.638478199624688
15.049842969556163 2.085990370975927 13.899536379244893
13.506521169187588 0.4262756648386039 13.810066065256247
14.930789231493916 13.54397189961787 24.20988902242979
13.994199880340096 13.1853234103416 22.265933568541328
11.66935528879827 14.546928482385955 21.70867291129876
43.3701632683309 9.49071949451284 39.507494694790104
44.30080835091817 8.671976079893343 41.745918932883455
44.35220545830246 9.560661061754898 44.17237114536437
3.4389314959224064 26.364029330055384 9.337606051626825
2.803733118173143 23.651567551418037 9.572996961368828
45.63915196873642 52.52551957433932 11.806399320300201
43.965105390241504 52.326995001059544 12.988364595213028
42.39858288959952 54.18203694397118 14.18741134272798
42.4634148002779 56.55541375554958 14.148186839517956
34.459381810037975 11.91921109063027 12.369237981351224
35.61323308832888 13.800676901966062 13.232976879305575
34.64155342889972 15.24909798939445 15.146949363812777
32.16284707782386 15.814946291508306 15.794922898271759
10.827635450692215 35.34158647079332 27.087570402556832
12.659696895852482 35.36824883736024 25.874978620327152
6.905467421859673 36.886806948588244 27.46785044187918
9.02761076438869 37.36475887782499 26.377101553695137
10.616137135455569 54.430821250988075 30.873679067324748
11.255536343709982 52.97091893792082 32.606330736351936
10.269315685956398 50.376980591401654 33.313656980087515
9.161563947141595 49.026313272516724 32.26989286364106
39.55214894122409 22.775298164221407 21.545960678607045
44.73357034778518 2.551168382933138 33.774082532410766
44.34969286174776 3.5679327565955887 35.48060815940146
13.775529223490068 6.117226460088489 7.931126165508646
13.408291173020228 3.5718777150380734 8.578316799117301
14.410644479006756 3.4298890446182617 11.095515998341451
14.551949610976568 4.460129008758557 12.646929945046796
16.61398636568284 4.4591233689430965 15.310061812256249
15.948064695993988 6.654084734275113 14.97225272969635
17.18956455091035 8.924614994508282 15.662093349118958
18.662839897919437 9.2900978397442 17.98202464396255
50.42789099123366 30.825769050905713 3.3043435024175607
48.71713236739678 29.18086249976599 3.029364534991842
50.34606812825622 25.53713439736616 0.5209383229680681
50.25814218939803 32.0927947042313 5.545942708994584
45.85181475098056 32.358897048958646 3.301929590815132
48.10625614278498 31.424145023701996 2.114375325452631
56.8347603733213 81.95288702764479 55.3399536546945
54.936078599277316 83.59084000252045 55.5848124050612
54.568060954680895 85.7304217974328 57.25184702472828
55.970829452430905 86.06305855316818 59.30929688331041
27.311078521092956 88.33134351414512 30.534331993468783
47.03925241045185 66.3602904234229 48.542231983584585
48.907715998967774 68.10186342159442 48.538487876499715
49.11686460362539 70.44244293886884 49.29280473357238
48.03659504312784 71.60434177835977 50.98427141976703
49.15854885749443 67.53994862581025 45.90979033762546
50.28727785741196 66.72083925350807 44.32448609295592
50.42257498043237 63.76676194139388 44.90600596165512
49.03360848643067 62.5052268765111 46.20722373820097
35.698539353050485 43.87498182130243 58.4795967339291
36.134879274990496 46.05842769375988 56.87502043221851
21.688979718403388 64.97622209089154 15.925918880316635
20.82757422411673 66.44851904002205 14.760943347432361
37.42781665490493 83.33313405152579 44.60261368936269
35.19313833044558 82.60330564579246 44.58069348299017
8.8027946262484 84.43917199691288 54.030121281780566
10.399879880222159 84.32781487062698 52.10218086630846
10.716386192995765 82.86325807992576 50.06510483313785
10.427636417446369 80.6309214882594 49.69454781519153
53.50929151402443 94.73140667620021 59.82737380027757
52.2052919310012 95.54145770778743 61.52147032336792
20.56683268590289 94.88588006692575 34.459941287238244
22.106216480060933 94.77385443082052 33.02442468219903
20.103682530549108 93.66936071663696 31.578478773017018
19.764215291770974 91.37452511550764 30.92468703935063
38.617279338184964 45.5475963842174 55.85518273123059
51.98582642195729 66.84652461930514 53.173310963588705
50.538020277722 66.74710564125809 50.85567404451436
50.39923154172536 65.30773745672111 49.05506740053488
50.994747409418274 62.94769293228393 48.624575353282886
50.877565095550885 55.49573301438659 39.117179431045315
52.588586593863816 56.88728938709211 40.85486332212409
52.62838191106994 58.875107189259566 41.682032940017734
59.43108241846976 82.51425779666764 49.720471159131556
57.74371822443974 81.81429900472702 51.4344484451594
55.90526144308946 83.28814458189298 52.65122420714236
55.96702687686894 85.32998975171002 53.54062013560232
11.092010590935695 95.92966172824545 34.95919302334383
35.573484234871934 76.01726054351701 7.632600636541327
27.34619004873338 89.14936195873274 48.04953750790264
36.578714884496 57.88903355600858 60.083684515611736
36.21262152629373 59.84359505487719 58.38985904435251
53.22995211270122 65.3848269895227 44.61077401365284
52.96214268691078 63.290876842300875 45.50215494091037
53.92046180574121 62.8017807804608 47.756164473962485
55.629205574610495 64.26600247308963 48.911099444993454
21.39864214573602 89.7646340716617 29.76758769380583
23.634266484798964 90.96781824729725 28.467946385402836
23.252507315256683 92.78473535824956 26.841739575189138
38.41751201136753 53.98598469748164 60.98817588012961
40.41343487924462 52.968364189477825 61.27060596249729
40.81139216113987 50.2631540413785 61.75639775357974
39.701989666275054 48.37440802380122 61.334679927757044
53.787766826451566 85.99832535563675 52.248018236131486
52.486801130313104 86.29786793308847 54.39399036886438
51.22302995126347 88.97661407652534 54.87309959683575
51.22120626405501 90.6800886609037 53.85941108144358
42.45772031149228 52.78530626744112 58.53373434999986
43.62212199353222 52.43355965646713 60.267960372012496
31.540873863775065 90.98130927946568 27.253492694618505
29.038435327817474 89.78577269895149 28.17673292687359
26.646032116084804 90.37673053772025 27.670975790689774
25.441526673436318 91.3931215362423 25.630832462209405
45.229533423206476 87.36473951251756 57.18913898204865
47.06188019811784 88.36535044221789 57.08681935626829
47.61296574032807 90.77193827105697 58.11289326493485
29.430623508713364 90.34342876638917 32.5369180365652
29.26326917280326 91.53082492019458 30.540670811873273
27.157226126872413 92.81596226758154 29.42353272042472
25.028974025953467 92.91583256499187 30.48820715490293
17.606530150467666 93.72277807260056 33.052382798874746
17.111985962058768 91.6707081454428 32.2215095872968
54.108789493042174 95.27664328346339 32.238116650127225
53.417469180891125 93.24658282419998 32.36521206340108
37.58191546335454 72.64756658425385 5.580392598040916
8.383709893473283 85.08676265821083 47.01374598606713
9.81548846169664 85.27304215293482 49.47360619896185
10.40141178531322 87.0646218833088 50.743101069008326
10.016163628808663 89.433582405025 50.572230658494824
38.44896021417297 59.40943274897668 56.601732408850765
40.25606765946897 58.447632367899786 57.79862180946594
40.92610557182413 56.37368375518648 58.486714228277
40.30274600293742 54.05655587133282 58.13749224304699
55.97663789193045 79.52832846445129 54.72594178532635
53.79486799109146 80.9809306122759 54.19388653771162
51.38678397619174 80.49280784439908 54.54450501974243
56.10289954528838 55.78887878534422 40.33366979083431
54.78086735540458 58.18985345429383 40.184647810510704
50.75475728824841 79.5077751359351 51.78747251040475
52.32383516128093 79.87747720257943 50.21733287213379
53.946465901788386 81.97026129521497 51.16125327474096
53.15635001559956 83.54259983959241 52.86569535817716
52.33778323112423 82.23579795858832 56.78227773141584
51.36037391166066 83.8240020597482 55.10560310948689
49.92296980708903 86.18002154227169 55.430499968139515
49.56732021809718 87.42750497873716 57.318108572793506
16.92505321837021 81.66832073083202 49.09470062330287
15.38193091922494 79.37289085667454 48.25199499567472
14.69488071116396 79.00275827944002 45.97313120839643
42.6245112659799 45.99047309312946 55.678640760680494
40.80410238890319 47.062817839315514 57.07631451593338
41.03416396907123 49.41241661348633 58.75443071943863
42.80766304410987 50.07406153819201 59.76018554029804
57.21088436045353 92.43425536618119 31.751971032315797
57.128299928312174 90.27584443755828 32.2084314395202
31.46100823435467 89.49885809817044 30.482290311060215
32.406547959295764 92.32714666063443 30.94335978902127
51.270742755435734 94.07381290373799 29.438096461993904
51.65644077032853 91.43247549520082 29.258718261133176
17.939688446441565 89.06789144319188 31.109424477672256
18.253334334578792 89.81425884280266 33.9784585339843
14.474766548575417 86.74801140851707 48.64769080662841
13.144454060699916 86.31200142231131 50.60031463832753
12.100816602219563 88.12607777614006 52.55922293247426
12.693499969773576 90.26646007078709 53.17194252755003
52.418119444810344 95.08934624273984 57.158660556153016
51.70914530028681 92.69759592284704 57.206840130187764
52.7875837874462 90.59627726112807 56.49105048350939
57.78766480279874 94.57046662179884 28.83333965594924
56.094078621333445 94.62583731263602 30.54568619744047
54.51365137432078 92.21455049480195 29.862025788495647
13.173273794449013 81.43868007225747 43.64720350853894
13.464206912296559 82.04628647853015 46.07443043499468
12.12284052899626 83.37448539733143 47.48836641541821
12.052248186916698 85.57824247189322 47.83552825298171
48.94155954622247 93.5180126916306 60.435707659219645
46.734487711948624 94.68793950338703 60.85108151129906
14.716515683082571 77.26100238015046 49.75812524592401
16.11871324363477 78.78665777079463 51.092698499533
51.8484790198772 52.04407982050111 44.26577501762969
51.25428529712046 54.755854063898944 44.72680441188845
50.73155907130602 56.057862119444536 46.71040967481991
51.16717814068543 55.75335576769145 49.132294750329905
34.90928110842046 74.98007408900949 3.48180063064834
34.927846103515336 73.39042540223807 2.1901262629949287
46.33865639508106 69.63369946799398 55.53251682295385
55.216102126316315 60.60833611317964 46.283512153457316
53.260533553168216 60.204717104222006 44.48996005194112
52.52655289887656 57.492361823870596 44.14203607832352
53.62258204350994 55.747738369436455 44.58933707818665
43.771892752455415 42.72972234414443 61.49471279418958
24.26456258221596 95.29393804126265 31.375560905548042
24.006306634313002 65.89039117679128 14.337389423694441
40.19633655348329 40.899816585343515 61.8245731480822
41.49791123431498 42.61091923473502 60.253981832083475
40.985428059470884 45.04243504692512 59.58756980572185
39.28064825194403 46.319797758782016 59.418091246894555
43.099275872558515 45.68057775981191 61.4027802246591
10.99272157218647 78.08075442605546 50.91179053773081
11.816319650048937 78.16617182791347 48.62738886033991
50.257348923047566 90.98142025645333 61.159639481220275
50.28844664061732 90.06519020059318 59.113238778206544
52.177637132939495 88.29772885464466 57.87064006068563
52.39782369850709 86.28384495553182 58.917365646285525
10.326712509410916 91.99561615058568 52.5852173047289
8.00958022055688 92.19795836340808 53.93511123880797
55.75962361224033 80.53026582095679 49.06452019856237
57.44986020075937 81.46097797708222 47.51491803262847
47.629489600867366 52.25004851470036 44.922462053776485
49.48049951256649 53.024286174760135 43.306588379430345
49.27351303238986 54.08748113290965 40.856593147402656
47.5825378546836 54.681633840972246 39.4436997063355
13.472821309269817 79.46348509275522 51.702500779399315
13.613261329213286 81.01781147912394 49.59031670874087
14.776318873784726 83.072649055037 49.18549160142561
15.344795787388444 85.02557123403712 50.700764627506565
10.446618332532932 86.82584107670354 54.843059410237124
52.77220214782297 68.26139045546716 45.397984310372046
53.79143273659402 66.93580236182974 47.237682546149884
52.650781675806414 67.67372747343987 49.495198527745245
51.42659622937075 69.61718257665754 50.1136462407886
21.216506882070732 95.45254678256984 29.367018627318746
7.3716821873964555 80.69853640122876 47.83345493072524
9.915104469881085 81.54498112623725 47.17610994283945
11.692984758380764 80.03075667831025 46.39475317765394
54.402011934111016 54.918000353940464 42.26998572273573
52.47246839990451 54.19109276193479 42.13173060295591
30.07561455398195 88.24872865456966 46.54749428700382
32.894965722614664 85.65054604024918 45.90389834139114
33.38704042364246 84.64798594110935 43.81813488153655
29.542033525070956 81.34456817906725 6.883418098845499
30.177648445069593 83.25746908281548 7.832982869904616
28.8618180585915 85.40150408805002 8.738225632050233
42.07837965929957 43.82314958548291 57.45387311579398
35.11522898789815 72.20574850458596 5.064033997018481
33.58617988693639 74.32575474687826 6.308927175516311
31.822236064942267 74.0538890129495 7.903717447836917
48.151338658398 70.28572809213115 53.34479207447531
48.85439637298182 67.91262851501784 52.73407416556396
32.42039079761193 78.6628337079119 7.809959521993936
30.19990477319091 79.5611846358686 8.527949716270479
50.59792601004416 58.42041415541916 49.45980467232426
51.35183347155563 60.00055035595281 47.993119639101806
50.96017091489618 60.42920196174876 45.52199890892809
50.05559248121562 58.79792944056974 43.95617490581142
53.4446960366857 73.43488392156719 52.6800795814566
52.6762962390001 71.19189281098316 53.077829153154084
53.514364059453044 68.76672226375061 52.19359056556639
54.93426464257145 68.34923227547077 50.54020489411209
54.49285408207814 90.2958094096882 32.35424262466417
47.34951621757823 84.09526105359116 55.47575134556993
47.34467216754195 86.04213302352139 55.207739869183754
50.85923044888356 94.18180959852243 32.084461801851795
49.57037754813665 91.76399781755842 31.839477071371515
54.11619486935045 54.84232257268184 49.74916598008594
54.043730186405476 56.38964657774752 48.19985846971175
53.690950948658084 58.87484855038953 48.10932461265978
53.16181482644499 60.54489136382596 50.30205540585711
32.53231157714389 76.25414026396396 4.5483992429852815
49.90052866005432 93.4053118602794 55.425504030415084
48.92884900062517 94.85373294770778 57.33947651492229
50.78222945418849 72.87807142881643 49.77194780062458
51.55203115069853 74.74271186564823 51.02923734641159
50.3004040679906 75.1080849205715 53.245546207322256
48.118259476027234 74.42133065584159 54.068014523172614
8.982071774255816 88.24561583248375 53.17860440679181
7.994752065177916 86.5594126617447 52.424012072463526
0.2785838620418412 91.17859891648473 56.09949332758421
5.2530771651109385 90.86977831479491 53.319762044032956
39.1087335025266 59.14720903372816 60.21297705540071
40.240612387366156 57.2894858709894 60.86884319019205
57.134906922798415 79.26132442713227 51.25191718006364
34.19111754886841 80.8820704961351 7.793201621958194
35.95994926930156 79.77062642718893 7.244122401922677
36.611565205408006 76.6994622854608 5.221730701697866
38.58218516902678 76.75856895422453 4.322590185286319
30.001313365429294 87.2112979186924 7.308087117860745
31.79252095772662 85.43241859771959 7.5864659806822035
33.12892104501636 84.0704091326249 6.202991358386328
33.0723895788785 83.66088739134308 3.538071200220834
60.18831930965591 82.47059005502398 40.88126135334815
39.23997358418955 74.78808673289394 0.7776130411068661
39.98934649424612 79.43467570800885 4.603443116724205
37.980906760907274 79.19478140605874 5.246431106060284
35.69947692050567 80.25492162052439 4.53199577339742
34.840690745894705 81.54047980479832 3.0081854512264905
37.34832271582343 77.64540143151619 1.006608345804551
35.812994494998584 77.94035394336507 2.9620725098032734
59.08791583531834 80.06727635383726 39.11496466310704
33.76090863765641 78.44905481637001 5.228102882327305
32.940652411954474 81.02737991792503 5.123671731583859
31.154100119651854 82.11694720322859 4.612577984844004
46.90120640974078 75.43176326737313 2.8346329581418734
42.74745977302036 88.17712028565371 1.6942740458968721
42.5233161685221 92.18959117912863 0.43155847334907727
42.75622074575895 90.71788488647579 2.6887276475829407
45.42821474392138 84.06227988716755 3.2673304248009436
45.81486112873866 82.95799185864348 1.5646946034288105
49.173562884221866 85.79176595218094 0.5284260936254787
46.748726371770395 87.57630357774029 2.378473164020539
44.702271023514875 86.73853350079993 3.2773753069727474
45.565848768202436 80.10966422522688 1.802785765706644
17.321728940571877 81.77402380856934 34.319197357862464
18.39847648970753 84.19378035071973 34.46398317103076
37.298577905730404 87.5721674056116 57.13076009548743
36.60377885392628 86.96825198632162 54.994909290329986
35.82728343590202 88.92677827612525 53.294182727052025
34.800875313150186 91.08474800509012 54.02802218054275
38.42310940259143 56.675945781469785 42.84075561606413
36.52442762854745 58.31389875634545 43.08561436643085
36.15640998395103 60.4534805512578 44.75264898609791
37.55917848170103 60.78611730699316 46.810098844680056
23.437196420414192 60.97565629855825 61.51121187405114
24.298787225172124 59.57296266316831 60.49234597546894
23.78460538918579 57.18279655133788 60.044044881216614
12.553981420024769 66.0625569856277 52.13964507074985
12.5837660349748 65.47366986239284 49.75532560646143
11.24164086055589 63.75135912620195 48.63100449817292
9.189466914560118 62.07153556049117 49.43649829608223
31.144614930567506 94.92787782636911 52.26789044383222
30.594820379781716 94.04161385052564 50.42622233193382
26.217725795193413 49.64196899002515 60.36464616956482
27.904544412053333 49.16683532086611 58.45320807942454
36.53076991354724 70.7905263275574 46.452314713174026
35.09764054329458 69.4544654300252 47.3281757616472
33.793640960271325 70.26451646161242 49.022272284737575
35.358672962240384 70.2220991301727 51.332274806576905
40.56151969358924 67.7992903102812 21.86246281098732
43.256926366620434 67.24607356221782 22.510350495076775
44.74786678512622 68.47875662678629 24.24667472989072
45.08656295457702 70.51905679475624 24.448246098671028
44.5042612143469 65.19999755859115 24.016386229669713
45.823832087255994 63.903428757872206 22.05158668525721
38.12471616292611 85.8296911678549 46.283651001013304
37.44379394308968 86.02465961586242 48.67614873072706
35.37873133993817 86.97675686560889 49.557003196449166
33.778665090345534 88.7139669786018 48.71529975729697
39.70941310096112 84.81670434663124 32.85360861078199
41.48336527068873 84.03869607312909 33.78086500483872
42.4483107222285 83.99185004249578 36.036225680935004
41.646698632551036 82.47384128691897 37.7476138561698
41.0194314477399 57.23731655049262 37.221273120501195
39.332067253709866 56.53735775855201 38.935250406529036
37.493610472359585 58.01120333571796 40.152026168512
37.55537590613908 60.05304850553502 41.04142209697196
36.74889990907993 75.33860593426203 9.728214464290383
24.22226633810974 87.84389690152548 28.805002196152714
24.09181432281012 86.04901566798016 30.480922048547406
25.597282456491364 84.96184248076473 31.9080282910865
26.58291243388328 93.75542102546811 51.187741587834715
28.335615301841816 93.25622862820796 49.603157593555196
28.710068182470906 91.40365674990105 47.97261635595714
28.018714056234742 43.696952761319054 55.50012002465696
27.860554580149284 46.22516137588259 56.28626530829436
44.26194816061213 85.4355307609104 37.3650848164568
45.86143608640943 83.78670906077065 37.95554995249525
17.298821538141944 70.42757919426673 19.436657368793995
18.75931801781759 70.938110998866 21.7261484033735
18.316627156262644 70.3963750270192 24.17419669098219
16.77413556923498 69.05209920089096 25.413299450591218
17.667637100319023 56.03360626647848 36.46008925359234
16.221376905159488 56.45284925581671 38.02406758778038
14.787993591644195 54.57832206743805 39.15796374635155
14.766879465306856 52.11817389756651 38.09944830973014
41.33560439980854 76.49704886289874 29.165253472717314
42.51574972200124 79.00562639905773 29.433881702961024
41.40733295838672 81.10741376209421 30.177989333605687
39.5273659268866 82.08795332293153 29.87018499807755
39.16262124994705 88.10330463434934 55.248418698772255
38.48213512215476 87.01658977891653 52.78512970686647
39.87943156159365 84.89338686831518 51.6317846080468
42.32200158947171 85.24888141708416 51.31842352941593
44.53054921055726 81.31650766908903 31.257566225704682
32.14014231343915 84.45513990500702 49.996644740181964
33.936081581304286 84.69479484080598 51.17611269272476
34.25176360105887 86.79310339035779 53.24749750021115
32.90911165424185 88.03322814023355 54.125370770942766
38.12199103101399 80.5931624022085 51.9702303273617
37.687355434734 82.91296293158011 51.42716406918551
36.07040909506111 84.71222216091415 52.954685203018556
34.986692482843196 84.67753483259473 54.539903559190286
14.71706558056544 71.7632020195441 26.515730743091876
16.888741087610317 73.44807169664924 26.628898174567908
17.31634657032593 75.4854728780228 28.20483395304968
15.464959465716635 77.18593423395052 28.13184679779963
21.76709878748803 64.45641268426894 19.7305503789079
19.877906190254638 65.78414394612581 19.840131513067657
19.89033744033904 68.41643540417988 20.819906406826114
20.877835945497658 69.31717553313948 22.797886298657218
26.18110880508879 44.31433965273269 52.28933802217258
46.21711655331 73.51411352810669 58.73480715460008
48.085833461882046 71.96109073471001 57.85628776679446
35.37611585572171 60.72138410946174 39.74882019750112
34.07515015958324 61.020926686913455 41.894792330234026
32.81137898053359 63.69967283035033 42.3739015582054
32.80955529332516 65.40314741472869 41.36021304281322
28.724652090952098 72.62132225932314 45.430666003929275
30.831100995405407 72.85966838793054 45.75685339378133
32.99886717909871 72.47108020115799 44.15396933357739
33.12161325808377 72.21901187179756 41.377674542031414
5.42140509541581 58.59480168464322 42.26188033225494
7.353274397702724 57.47767976270859 42.38970128679278
8.276907229313258 55.527783801999746 40.46596224502856
7.090809168063317 54.80325735919265 38.47623775087069
8.934157648450173 65.50256525535245 42.71187908683496
10.011288062978515 63.34699094549424 41.43899560983429
12.840227473819466 63.99867241670911 40.440645011879155
13.551489476835927 65.87850692898655 39.83774690178226
25.310591162211338 71.86920165723278 18.640740108246604
25.578879835819073 69.67257416676213 19.356630815708513
26.079954282615905 67.3421354353756 18.05408595500061
26.386501676685825 66.8322520169743 15.674194986509972
26.81788245247658 62.08779826634254 44.68994094341829
28.65022922738796 63.088409196042875 44.58762131763793
29.2013147695982 65.49499702488197 45.61369522630449
27.088868441839274 65.55676338635723 44.15160862453109
14.183814664430777 62.57815532095232 42.759779443815034
12.826535044763215 60.884974245164706 41.62422212265112
13.44416255971704 58.30343577392066 41.07902643095031
15.792756321366685 57.27591021997065 40.61486209121071
36.71859448488334 73.1743729578232 44.43811816868321
34.67108179000226 72.99198491690152 46.42624161552466
33.79345113212394 74.60160365623656 47.791728113976525
34.03836162554039 76.7431705631009 48.40325043278237
20.709905585259484 85.74926675579368 33.82499748753912
12.401345534521573 73.40811501034354 53.58407822950835
10.458953165048152 71.40466105148799 53.739280755514294
5.29566640072171 75.36185696655119 50.93869638721017
6.013241027782147 73.28454376950882 51.067306672045234
8.603843881166068 72.49163167044583 51.61301753798564
10.665856569313812 73.56278928955014 51.27157754248033
39.94413790018102 81.00859456558346 47.448528263391005
15.803915534689486 57.994961073947145 35.46777846714323
13.694985316962343 57.381590604670805 36.80823321361149
12.05734222475444 58.51933732389412 38.366069320345794
11.987280717589504 60.696452336075616 39.16021259529118
21.395101990650687 84.70168469907534 36.096601323882396
23.858558105467193 85.4251338655678 34.485692983265906
15.291483431428684 53.78245118343137 33.740442355914226
13.215095569848232 54.675909592691596 34.233755232642125
12.343383300925527 57.358313598598585 34.40697224322985
18.721513479699887 54.63432030080284 34.150854955236156
14.359752141247572 71.9306799925117 52.380257872751244
12.720343294976786 69.8543831156007 52.030628765133656
10.848726630451477 69.61166758559374 50.05160569778233
10.115870963118374 71.13309825682558 48.47754236727261
34.60769061148163 51.45929844691427 40.393261387168664
35.5649713562405 52.88914302502276 38.955123157162085
26.95071253987947 81.89714538057837 10.652438034373326
27.579436986127046 83.59163272112222 11.853339371874046
29.689486107216105 83.09206241184077 13.452692571735993
30.145815255508357 80.60106314629539 14.033698665002788
11.56336561488576 94.11782152560939 61.68681905477101
11.5283764593196 95.35460606299299 60.457571638893505
11.050760480874578 94.94353274957525 57.99702510701424
11.946871393810916 93.21994370943274 56.35722116703623
36.87401905401148 51.50781009743838 42.22642577260666
37.56498692120057 54.251387218276285 42.22674374669597
35.38321702036159 55.703989366100885 41.694688499081266
32.975133005461856 55.215866598224075 42.04530698111207
15.278186350132922 78.85885953330563 25.713334777969834
17.49945831379134 78.71964219654542 26.284024983872186
19.51766599641593 80.78715968113066 26.473027902088003
18.96294625977222 82.91877667025835 27.09808589936379
32.34310631751853 54.23083388976009 39.288274471774386
33.91218419055106 54.60053595640442 37.71813483350342
35.53481493105851 56.69332004903996 38.6620552361106
34.74469904486968 58.265658593417406 40.36649731954682
33.92613226039435 56.958856712413315 44.283079692785485
32.94872294093079 58.547060813573175 42.60640507085653
31.511318836359163 60.90308029609668 42.931301929509154
31.155669247367303 62.15056373256215 44.818910534163145
13.739771700202805 68.61143925327936 48.26729155877192
11.334521423929104 67.54178543109914 48.40827174291005
10.120390880429998 66.0957040953789 46.10572096028284
11.187709269131231 64.95440675695173 44.58519793980572
29.352874980186275 75.25995226879245 54.59645730398529
41.796681054250655 76.8609978099589 33.81431758234368
42.18246293403852 78.88763789696496 32.75432458414141
42.964685670498696 81.25982181067558 33.36689024530675
44.32823839231513 82.27745558837383 35.05857610593952
30.424591182355822 84.56383254130336 11.085044050082113
31.816513957520115 82.47434018537952 10.859042338630035
23.275692416785873 71.93534458171291 27.82632145724809
21.702844305276532 72.38902502663574 29.099975199199235
21.21849621146032 75.18194299793903 29.697071225313028
23.0904165790679 76.77747360049806 29.781672318313188
4.754455549068128 71.2376628130827 49.667294245767806
6.9291527620167574 70.78655290791234 49.627729530600796
8.38497326782518 68.88220454617323 48.12470139350407
7.892803984786747 67.5680450721611 46.471027820301494
47.1493015005618 64.11033875642534 18.938673110540705
47.13687286830249 66.28034545095534 20.912282695093655
48.968772828916244 67.53389187271375 21.49955344098943
35.093745180073874 71.16315640266014 43.11038432735366
34.00646847408048 69.81240499656484 44.65946251752266
33.29749432955693 67.42065467667202 44.7076420915574
34.375932816716336 65.31933601495305 43.99185244487902
30.72772296084817 76.96909457895468 50.56710922512518
31.435147177967842 76.53654697054301 48.34159174536142
33.65824522183809 94.65434223490153 53.55386226394892
44.72020563926271 78.38333304961375 31.926549205895018
43.405718659051836 76.82885973510334 31.342622100815436
43.977012919953914 74.97744834621297 29.797735059071954
46.76035310412874 74.41076437874527 28.942133825153185
40.02697269707739 87.37320730083626 32.22461508422234
24.697521484758695 86.94402135019149 50.99178837389257
26.366622080163015 87.39725475635723 52.597506465990676
29.29409124786256 86.77732008241276 51.68557933855612
29.543620649290954 86.70356180717206 49.155942364041024
41.789029516841495 69.16671692435631 18.892972635330434
43.31621912969829 68.05023429897855 19.70054347984455
43.627248617801996 65.47972919551913 19.460371467864235
23.602512364383426 83.48714984007286 28.927756485730566
21.539318452540876 81.93698451622438 29.04111399861114
21.12673623213577 79.54382407394415 28.08929890511395
22.62398859198879 77.83541801816983 27.084348089869344
40.52541697768153 79.9614457059185 50.85233088205634
40.98181072070039 82.03069311846795 51.72413628602645
28.04851220175403 88.83662297403161 13.718274489766424
28.03321550324565 86.63631313328442 12.479557050809733
47.56023400052464 73.0214930355206 22.047929029566244
45.937195218440614 71.09596561660233 21.624472819596484
46.21490558075933 68.85329222331971 20.557757285040257
32.69131756675176 69.03499257065391 52.124652659129325
32.5001678395247 68.02020462816256 49.69524205164003
30.52990857549261 68.24107144545557 47.93650962058929
28.322836741218754 69.41099825721201 48.3518834726687
22.908030511337532 67.35353224268506 27.34551293653367
22.52507047816152 69.49978094924599 26.890591118426155
20.591965392660494 70.99577493241381 26.301394696875953
18.249331256737424 70.99586680962337 26.82412918772966
26.596284096669788 77.66414693289843 61.10160365142121
8.70118512055667 89.06835460258648 58.67027199779908
9.048329350860527 91.57766656881255 57.490883298766114
8.434363733951795 93.89061990029666 57.83472331434816
8.105136416125921 95.04746742019609 60.29552002269835
24.021336976574396 83.05931103652097 31.58079800310351
21.70528574308623 83.00657730229742 31.80176018680824
20.228501504829637 81.84082912687451 33.69635673209016
21.14608963011447 81.85335706565874 36.334692486160215
21.20688047933057 76.02061363865997 32.33607396742952
21.348683453524085 78.41531999291713 31.788743701830587
19.33906417504436 79.33639263983117 30.25483943305066
17.67398750350361 78.35500801254481 29.358205076368815
46.947641920867866 69.64233402080383 57.65810381745751
45.21506856345417 69.99361472081013 59.89505196907808
43.110749020421785 71.41206908266659 59.960063830717665
31.390362989617497 90.59560902146745 46.738865730422845
31.393862803371274 90.5033458151797 48.942270976540954
32.442986376071424 92.02820278549204 50.89988898506256
34.205435312376146 93.82538213146451 50.99871482499081
20.07726012686332 70.3982497751936 18.62252094208323
21.778783408620324 69.69889155325146 19.018797171048014
22.996632821270776 70.77231244839368 21.268276789685704
23.016909331780806 73.26037796301392 21.8655541841513
0.5956686797293139 75.60267446858931 36.95449826835727
29.243249628382642 72.23691736130618 48.258345537492175
31.715508881829255 72.22278520142056 48.6544496263906
33.21306278033886 73.67253854156954 50.284163767120575
32.64230118456554 75.13989016699432 51.99112065965297
49.4438571311813 70.01410203809458 43.97643557849177
36.65390919063405 79.40203530792763 49.698192616885734
37.75410609486249 81.57542319412524 48.858125354174575
36.758617674149896 83.33748222724738 47.428156321211496
34.17927963570645 84.26018547963741 47.54954237359329
20.084236503658648 73.0844148817934 22.45519426266121
21.48256817046289 72.95531971248006 24.63602982513379
21.448148013797883 74.73829898057687 26.634107910875827
20.0907271412529 76.52550219193414 27.348881498059125
35.15109856230033 70.69786855677559 54.08748612058776
33.93300026477527 72.19749986691444 52.91381929810749
35.09747210432489 75.05548268315663 52.844214518109005
43.24457966269803 75.67901856004117 27.39847199075144
45.4024200764936 76.11715773583119 27.043981626966197
46.82293406357385 74.88147978481344 25.247638997671295
45.821105389103735 74.8647534445235 22.97440366424088
31.845697952317686 65.70447901027832 48.66044144258992
31.876795669887453 64.78824895441817 46.61404073957619
33.76598616220964 63.020787608469654 45.37144202205527
33.98617272777721 61.0069037093568 46.41816760765516
5.728949050736647 65.59465789885289 44.34660868355997
6.450021109794191 64.97141693524725 46.77199386908652
8.481752279847766 64.27065799511129 47.31382007742482
9.698429499999534 61.662039145205966 46.16698634126877
40.917596134680885 83.44199228248796 27.92766824026461
11.938375182576674 93.06743711935022 53.430913312651796
6.834003792502659 93.7885222602321 54.9270305877149
18.971603679918548 64.64093467909291 50.924865966526866
18.10971667793362 65.18112803110206 49.004695662940115
15.482800114366523 66.15540797049229 49.02994851224818
14.450735165007115 67.20257659313494 50.54157104847705
37.347972641510474 55.253324574781765 36.56532215993201
39.0382092300295 56.184036730907216 35.01571999399811
10.334486412506175 56.53977814161345 46.319050729171586
9.310150271774841 58.95291947677478 45.518406950976136
6.659767651729722 59.10458438612208 45.00783634716367
11.383704075782724 84.53969486659958 55.26781775078002
10.994734052385535 89.05519936327106 55.23149084118562
11.583840489226874 90.12762899186984 57.32765940672842
32.43795387020148 92.40297645795968 54.25773639953068
32.23375274313383 90.36126808398724 52.8195621161419
30.07169427482267 89.42872395428195 51.63595048646993
28.17723110094444 89.40781005432628 53.02447707842469
1.3182226897825902 68.90507745743852 31.709446795324137
23.396956608089223 63.81852970575889 18.063385531376777
24.793342423371186 65.35935510334166 19.50444415750029
50.58942146702345 74.48511586738191 55.84533608271591
52.21236971532168 73.9325657251583 55.02930022835605
9.123530298464987 53.440572436655195 34.764395032207176
10.754314710742365 52.48263606054113 35.42857569564834
12.509895167195799 54.07265043524592 36.773809832028746
12.24542836436487 55.812685090755956 38.26314694431307
26.177925022539156 45.447552435711465 58.48976920609057
31.520563489145975 86.60155141312485 47.35955395336347
25.737621084259658 73.3267624912828 21.772636743652757
26.003837087718413 72.59525703160286 24.443226159996396
23.965068142109086 74.10919820027972 25.567170938304912
23.082561218232513 76.31492576377029 25.011793698031155
47.13112837816689 69.30004348550776 25.481161951229065
48.21562832895805 71.37605748533555 24.395510164845025
49.00216493759659 73.47561250098397 25.43569644231226
49.37377624419303 74.30216472383127 27.711260760733737
39.60582394452031 90.76138273020402 54.067167813313866
37.718068462531484 92.68324559430796 53.74081739931729
35.89022312739911 91.98585542764178 51.8572812129306
36.70569421641611 90.13504428888972 49.908612745535876
50.60168553135134 71.90587594757622 56.97385855566631
48.79969619265227 71.95335526116085 55.14521199796499
41.79777792150852 83.59012590422527 44.452011258157164
41.88174547289779 82.93869883702715 46.38544546475295
41.612112815557204 84.58024436524133 48.9072806327149
40.374492856320494 86.4275137525912 49.12821423232681
46.49804621379624 61.12428888921085 24.40965801127129
48.053732550349686 60.657300948578744 26.850263326354845
27.589732854824224 68.70080673964335 21.444198885641953
26.694532074741367 70.69020866716181 21.820176341323545
24.663930774646328 70.53703971211372 23.389090860150755
23.86284888951291 68.36478968890509 24.643947916084972
34.700088242161264 78.13494933294967 9.029160376723546
29.822096638339303 80.87261398417232 10.380234497715907
25.12097703474336 50.40211739015698 57.667661361431065
23.4968046084506 49.1556042601642 57.22160906884207
23.646776094017444 46.91993660608987 56.31775460479953
25.46101196512578 45.732225115936835 54.733283816244686
24.90677979481654 53.528118325385286 61.550338938263536
27.126873775298506 53.98063689391384 60.428695444345166
9.335963024801172 56.96327970466429 32.142008360667894
9.784050443293076 56.26352164776554 34.142137315031064
8.584118739948451 56.42081312541368 36.03473824029621
6.581065670420255 55.844190467767795 35.583476440668505
28.937865246848354 58.81831980741615 42.97655330693958
28.933021196812092 60.76519177734637 42.708541830553386
30.051838027316673 61.91641668812855 40.7318142393681
30.444469150989814 61.1771480594953 38.48441038841325
50.62147595929869 70.40808179871875 23.181744122015864
16.20543963026808 80.63827150609414 29.19723264357646
17.992603463508445 82.55608069053498 29.543321791662695
17.67323216061592 84.8232000474419 31.056674907762364
16.255275465415576 85.22068114742969 32.996702348353104
46.723322901168885 62.716834975943776 28.08316475773044
46.34865305648295 63.359936749331524 25.672535084108475
47.73871441420312 64.92685283022114 24.109723562315622
48.78390559951917 67.21182836212893 24.353450281539917
14.468909455264013 55.37581294767494 42.09130396583782
13.565778439381994 56.47075564988472 43.33180731210384
10.925487570551727 56.413684083114255 43.59286549172404
9.38216577018315 54.75396937697693 43.5033951777354
10.80643383248948 67.8716656117562 53.90321813490894
9.86984448133566 67.51301712247992 51.95926268102048
7.544999889793834 68.87462219452428 51.40200202377791
30.33502641103354 66.2469048027686 42.062567093830374
31.488877689324443 68.12837061410438 42.92630599178472
30.517198029895283 69.57679170153277 44.84027847629193
28.038491678819426 70.14264000364663 45.48825201075091
6.703280051687778 89.66928018293164 56.78089951503598
8.535341496848046 89.69594254949857 55.5683077328063
2.781112022855237 91.21450066072657 57.16117955435833
4.903255365384255 91.69245258996331 56.07043066617429
35.42779354221965 77.10299187635974 51.2392897910862
9.65117382448563 60.444920172226816 37.6244552779878
9.283935774015792 57.8995714271764 38.27164591159645
10.28628908000232 57.75758275675659 40.7888451108206
10.427594211972131 58.787822720896884 42.34025905752595
42.704375730660814 54.24482157576753 36.52205488301975
40.22245346268598 54.16595665175903 36.69338764109836
38.72325595206854 53.98438318095726 38.75271914143329
39.72304390250622 52.59764160227348 41.10483920311674
12.489630966678405 58.78681708108142 45.0033909247354
11.82370929698955 60.981778446413436 44.665581842175506
13.065209151905917 63.25230870664661 45.35542246159811
14.538484498915 63.617791551882526 47.6753537564417
30.396397315875788 86.49633177628085 16.70329876684937
29.426861792101604 85.24573124960982 15.024809224808179
26.493014554487107 85.73564108929376 15.114857193818713
25.267478027631746 86.84014285621386 17.013808098256675
32.72493278953116 92.82562411970699 10.744008403966657
30.951389112202715 90.83906367077645 10.82590730930095
31.239676982749554 88.27551975784289 10.195473777405429
33.28427882598057 87.24954287064617 8.898841344049764
53.53396271331279 80.61341426900518 26.16727408856712
52.84175108288919 79.06060393386163 25.04431478148621
54.033432328537664 77.34437504280262 23.257150077056146
56.53901917321924 76.8858784431683 23.64411884959238
34.868211891262526 85.0755752539052 9.72312017674867
33.56360164697002 82.85926377310169 9.034577482906663
35.39764873976556 94.23062487102055 12.331729243624052
33.655303954296905 95.42196536103408 13.556857884186227
46.303535592229224 85.15346276304403 32.997672614896715
44.59277696839234 83.50855621190432 32.72269364747099
46.221712729251784 79.86482810950449 30.21426743544722
46.13378679039359 86.42048841636962 35.239271821473736
50.77517437800777 94.10864186502648 16.894430988065352
49.589076316757826 93.38411542221938 14.904706493907488
28.481658533831094 94.3582909038275 12.670225785410183
30.645150809738624 95.14351369088392 12.533383577606715
46.564890750278664 81.14662211547387 23.238432940913363
48.07717297761028 80.08763344502434 25.12935567543125
50.303023383735116 81.10625678371765 26.1871605255622
51.83766078929216 82.83260352466132 25.36972412631954
31.9788859905797 87.36729608469548 14.261448141499056
30.636124094284813 86.68665741941685 12.450714396616306
41.72745935197612 86.68659076109698 32.99525870329428
43.98190074378054 85.75183873584032 31.807704437931783
44.25018327843871 85.04009004480328 29.412741553262745
28.495530591945116 91.11867078924364 12.760270451133822
49.752023815031535 73.82215354763004 20.708010841033058
28.645667214474244 91.7869000376975 15.409302397563401
30.21529583049245 93.57966269181128 14.629390365320738
30.535811890751432 95.9105500526013 15.300144208110334
34.57714933934542 92.49438709644792 14.283640179779843
32.65909930268437 91.59080239244877 13.176711092984712
31.112186468936628 89.6934178789273 13.62890504346019
29.742895389111887 89.42377903454745 15.830959087959922
52.842463298406784 77.88757564239522 20.806490186213377
51.35320509771313 77.9866419800767 22.940311928036245
48.98969228148168 78.4234910994019 23.482175355418846
46.973708476937084 78.43449235080335 22.37153196348654
43.35540666461787 82.55526866798648 28.984128010509874
44.4089639993425 80.71689725530688 28.40378716540147
46.23818346016969 80.4108738356457 27.057469496144492
47.76578298893156 78.33010234612554 28.319704280248217
47.95487982780243 77.3706591768865 26.07414584142046
49.3516859465032 76.30225027078585 24.85894720853656
52.106923645931644 76.19204959645948 24.784061749792194
51.574882268406405 93.10182184042004 23.390460787275973
54.26432990164753 74.85403859758318 22.374568380596155
51.716020340098694 74.4759469780371 22.639286647705433
50.51044171117131 72.4120531406528 23.184281131132618
51.880432918877666 93.33482744000368 19.931863920772212
49.40373457055418 75.46766501161498 3.8963191849159804
15.396412183280187 2.5904886011826473 57.70967498969129
35.57594404206206 12.22279906597747 55.53298314275687
34.75505543100075 9.724452784223313 54.50469627367256
33.04425980134851 9.078413550028035 53.33479837419025
13.971194218048478 15.608331949594124 61.855658179778935
9.390614201226084 7.628341739802393 60.97385748709968
11.130110442388508 9.39158927695355 60.6572349536848
36.01050824584647 7.966478223542536 52.66676489250033
37.5877619128309 9.525718593737555 54.46932177939731
12.729056787791558 1.4033820416638576 58.50205284224372
33.723812624774446 4.955933296922781 55.22274917277723
33.381129528709735 7.2569124456570355 55.34640402822027
34.94316935229513 9.959936640613877 48.93782096325328
34.25977713334059 8.806901442669172 50.854262620041176
13.250802001378661 6.040928012579491 56.66156395023497
12.680040405605338 7.508279638004249 58.36852084276737
15.188837783340137 3.0662580277855467 60.46488630370215
13.970739485815079 4.565889337924375 59.29121948122189
15.135211325364695 7.423872154166577 59.22161470122341
14.903873356069962 8.477383095009607 61.01849602300821
35.99891984993867 5.539460943269378 56.725980785904966
37.222103769797755 7.844324814084689 56.48869331093038
36.25662657144907 10.18315786702746 58.09962146915538
34.56577157711543 11.976279582964295 59.10214240498206
15.705644813516285 13.629915156590217 61.80513975678946
13.838081240169789 12.131280429945502 61.02619061739541
13.406496261070396 10.468862386002149 59.50403184880146
15.465532763259455 9.471381347369682 57.61668997420059
0.19016165273135077 31.744157404744882 21.93482152917058
35.0179377988444 14.045918479223195 54.3546727230184
21.046846032939353 38.57538507215918 62.001420394371365
22.246657980849754 34.261495517970204 60.96822111516652
1.3741432088921137 28.373413301686092 25.55461987575491
0.596743894713979 28.978236411466284 21.073252961131875
0.7586592179259221 28.66521549919108 46.08188175203997
2.2495996364317103 29.89789856375956 47.81820598685391
2.588295805882525 31.938198731729496 48.01977735563421
2.0059940656523874 26.619139495564404 47.58791748663291
3.3255649385614867 25.322570694845474 45.623117942220404
2.994140916315787 23.524895086593357 44.21547797323427
1.6220978820175156 21.76594779090455 43.80645274066149
0.017482573306730212 40.42476833603099 53.00541295992422
4.926367334841312 12.167435847220096 37.42820161085214
1.1373263190299068 19.987253696621575 39.26827697085226
