38.97049806991149 66.31869666826832 24.281429324568325
36.71138421254597 66.10091369334084 25.59213260469005
60.219739126295245 64.27403504655778 53.52681105957186
59.28718478391888 66.76194195112464 52.57984303788781
59.47458419052845 68.92995397513674 53.75823938534452
49.0110655388134 66.14746687553601 25.302185159837325
47.03088595668119 64.43565176466787 25.067793719095885
44.79947408237396 64.3218600757034 26.75774130129366
43.864639196238144 65.97912259497963 27.789680722588372
45.7506326300701 56.25463673631603 49.84295876337378
44.630628834099724 54.45071437802656 49.03254301620337
43.14536713672125 53.028968752266074 50.982522936214394
43.71646870821976 52.645048884505265 53.142905806598826
30.773537501886818 63.0992919400786 16.030988805580733
30.43074098109736 63.122371942258575 13.96452726857831
31.990835835323082 62.21075260674591 11.871913246291985
34.043747612952124 60.659562265599845 11.965156475695201
32.49691651858269 95.31747192428115 60.053334975930134
35.0680868384213 94.33133225665448 60.09032566708886
51.93706762001869 55.89985773958683 14.753674288712343
52.55853430611755 58.27261459831427 15.208093510208045
51.49507124118825 60.1515148535471 16.98064608274765
50.42436751771655 59.936231659470174 18.961196584860165
24.026178106663775 86.61855965001665 30.72587428629369
23.50458859688382 88.96759284415708 30.568883862032635
56.329553142206 41.27550180488613 31.471744126630327
54.819358146710556 41.04418189173502 33.14745730839351
23.30880125046499 85.96386413769316 20.484425101577845
24.814280407874456 87.95802546083684 21.200357988146738
24.936060086301815 90.12263263269689 20.11692624455663
58.93798214017228 42.269142655778936 18.686734064693223
47.252718982060436 61.799140984498706 27.49043871414863
46.444687585428035 63.11347670467017 28.82801806577487
44.13088640616716 63.38482797463854 30.013815504011845
42.244674786847675 61.42952751615081 29.659141671063402
49.7720317262942 72.43859917754394 49.75946996725509
52.132467372284154 72.7752766858475 50.47437009708844
54.44930948526311 71.59928818211124 49.63220273211828
54.98090511848307 69.98699262355572 48.246197259800425
44.27301462566353 93.97115238197532 50.43228106905263
44.58500902011107 92.61669448649431 48.5283712342468
43.8445198554444 90.2062339958253 47.83382370312162
42.339258488656014 88.7339914252278 48.70001147763364
24.09365718884351 70.32167670196142 17.863793117692865
41.16357725207609 60.96732612337475 49.915007016116725
42.75429141527289 59.30430163974811 50.875983346944075
42.96838688301464 56.91276885533971 50.278298851271366
42.004508871165164 55.399737215647754 48.65594431507013
29.812946486011544 66.5975760230246 14.973775763027813
28.99768034639411 67.57307994024798 12.885752921896016
29.432871735037132 66.2033954252574 11.000817050330967
31.274717650010643 64.50484935214173 10.432947822168936
59.492940140982974 73.9899057933049 55.88864775263983
56.86252965445455 75.0785413115248 55.11039739854175
56.258538521441565 77.47477034835329 55.42031513258817
59.515527123863905 72.1218950423051 54.069081697711724
58.3024258556471 74.11754659931287 52.659098888665746
35.111636409827895 87.16458794839016 9.006725113485466
36.51264835878664 85.51817218608831 8.897784716383162
36.73130658391579 83.01667993848348 10.141679313711855
35.92793328280482 82.32480459612971 12.22705300041495
59.618644342233445 85.53507169663646 24.189532506164007
57.663437728904114 84.64986198447116 23.926543290313063
55.04836408492138 85.0405121881992 24.959715340380807
54.31873974544586 86.74600981612313 26.17125283797018
51.79574874317353 62.51895585039281 15.240201278086877
53.94694346789043 62.21827707471182 15.269841760485743
56.01699835981632 62.11596050764442 13.662152562756985
56.234875494540695 62.70443235976794 11.205385020939085
22.482704354256988 74.60446855236316 59.61490490119921
24.400313341054737 75.32000478354615 58.66954100056015
25.289450797575164 75.31319646602707 56.03025919225921
24.280688161545047 74.02031383535095 54.02730498587836
24.11611660344742 84.61202195144548 23.73567603298135
26.102457970448796 85.39994913477491 24.6751446114535
26.844337265269257 86.35896024995849 27.235288190122443
25.691565968787604 87.67449789089461 28.423074725176644
49.53772794734684 91.33336403439438 44.59279948949904
48.72758458170378 90.56711306007976 42.2640824931307
48.75113416612563 88.03644509664339 40.97553947765821
49.07382463072346 86.11460609699574 41.90184557564915
22.384016347949043 78.32253509661129 46.03455894381935
23.432175851369266 78.84190514248093 47.90841787744365
22.632509862341863 80.37727837760207 49.848775563697075
20.89303740515547 81.66878061844038 50.42625199313896
43.01314809299395 64.995027147716 52.32456244924729
40.749520401889264 63.189013667052 52.4789737625185
39.099862739797295 62.96736969399421 50.522893216105054
37.54090764028965 64.89970756001647 50.273492629998366
50.906528360091755 87.01172396948306 36.22616315902152
48.781435230349295 86.27330769150123 37.56384474595944
48.48372735480354 84.84387437006205 39.63651543540568
49.72730122400643 82.44689346470545 40.244430749903366
27.539269796474144 75.7948716920268 36.62351051680555
26.780173077440132 74.37374154184256 38.611083371120166
27.093229507360995 75.04859054360655 41.21466163954736
28.66668592468126 76.7198625534786 42.156303334704425
35.85414232013655 52.82099572883242 60.656533678310694
33.96009091054781 80.52513155172072 11.313300816340384
34.256363564540436 81.4030874511273 9.333268494306237
40.715333611163146 53.030104743645325 48.471687590357305
42.02859023691746 51.13612167576656 48.11204738566196
42.92468438927878 50.24913822891139 45.91183719801662
41.725265796969566 49.942417074042986 43.59840313661305
53.563571718728795 84.83309757726224 21.41312014334019
55.369599777485256 84.03392466652335 22.189894432486895
57.82992896350771 84.28310893910127 21.289867915723462
58.00219211746037 86.99273506870325 21.307687995358247
40.19215049346992 77.7632199846401 15.806353513723842
39.699316922254965 79.28964524852742 13.818536167349253
39.259832604128086 81.88195797368685 13.449521963695558
38.588961056494334 83.24860619482949 14.937256472583606
31.318315762372833 63.91085960247419 60.24291970656742
32.24024172265144 62.336086744090316 61.756813572246124
44.364588062121996 43.53295211994387 39.177843204644596
44.31061977232228 43.835242141142324 41.55778913814803
46.6183081568743 45.52613604238276 42.22091665303531
48.58835738418056 45.80045994667435 40.43999902538669
55.63869046542293 82.82581225674657 57.74033049666263
53.853020002405835 81.57840042978006 58.144197412980034
53.36174892243838 79.35255484582912 56.55776461230701
54.710906687522474 79.24398833741785 54.24440808643682
23.253693373776173 76.5014284847818 49.94803521826688
23.530662620614127 78.42729410540944 51.38722562615777
22.584340377795165 78.8752502339922 53.80992803767092
21.527283468771657 77.35807842991677 55.4541674350553
32.21693321464106 69.04679599972263 37.49798446585949
30.128789793808497 69.76816991297203 38.05814372701497
29.476508553500196 72.23670662178381 38.210750634430376
30.373933757696907 73.8835775103436 39.481497167127564
17.06509192438384 81.36090567224556 55.29139543215402
17.592365529541496 79.84413167084269 53.374294032095825
20.40642250519888 80.23393114035505 52.66763529906938
21.89184276220891 81.76044366102836 53.77631691541353
38.28720371547753 57.27183921998672 53.58780928666615
40.33737274452259 56.004571109344056 54.37912065480387
41.2074106362576 53.56176009913103 54.030581337872334
40.658779435170665 52.1513594120337 51.93497113813967
23.66603086053214 82.49095471441073 56.34345040213825
22.62775548493239 80.45643308122497 56.21845971780645
22.957152383430103 78.22852400003516 57.40484635645648
24.957097850390284 77.86655242593069 56.39882955509188
45.675267295036235 90.33896637833809 29.561504293596805
47.67507256824293 89.36394994173547 30.246723602086544
48.18615396681912 87.79443158996146 32.28001212782843
46.8995340692666 87.34456729760028 34.43006188664799
40.912038914839734 71.14106714811747 32.872294553568636
38.87632404857534 70.62583611352798 32.32985755738858
37.789231219568094 69.09390407965144 30.000123808455974
38.637136598640645 67.88344955091597 28.73197957746188
45.44338430972616 43.218508163685016 35.30150561010394
45.843194396082346 44.56061589560723 37.06574479120221
44.68149456601249 46.951859726520105 38.017193620438775
44.58175868583388 48.9034853263714 35.78565893478922
53.34030433582721 43.686121796578526 36.878172779805396
52.95891721502319 45.004913450634184 38.378781468257394
50.49241482609708 46.53440455383341 38.32199302132899
48.232088681892854 45.673961378136646 37.075101553269384
48.66477460602668 85.35134775667652 34.931133466499546
50.26770715707837 86.31799244742993 33.563998646066445
51.273500656205066 85.83445324902105 31.216331064882926
51.67740393701981 83.88525935666418 29.92569043978975
46.71145888869124 88.30925507613557 38.4419912957811
46.38953287454953 87.32563667536586 40.971776188264485
44.69775785657513 87.88257060674697 42.558498791136024
43.012889773926105 89.34895141064493 42.81455609330939
28.341782020262738 93.81348232018121 24.098966552105825
29.090843411044034 92.38581149553634 22.602005277520057
28.456696139441764 89.92389207686051 22.97330615784196
26.349177761442473 89.13987690289491 23.830914209540545
40.3270619867432 84.95487299483335 18.182318076463442
38.19550300384069 84.34494054286085 19.146660893461473
36.02141005848653 85.7700315118147 19.425700503114147
35.3684561974239 87.34342314523879 18.46592280144408
51.56395584842414 47.31663537216154 43.44133224251551
49.82932537073434 47.06692924769121 42.26843950728287
47.16177359189972 48.140108693325544 42.92382439688305
46.20687867354727 48.724971823937956 44.695726103349784
53.73928101548431 47.30874391104947 39.0758024479484
51.983818504119284 48.5131942206982 38.1228615859754
50.176055574328586 50.104138668213956 38.91802724471998
49.84281253403601 50.817148517701426 41.377257828205806
23.75646308641198 70.779336872595 22.670348572231052
21.354790986386288 75.53584060286957 45.346096301231285
22.989072087553065 75.350510948595 46.78822584313416
25.45122931505867 76.04419933855408 45.02435013546213
25.218976445289783 76.17418225913447 42.662925759531824
39.50110142400765 69.7622528277177 39.41004412987091
38.732768304215654 70.31749527093565 37.531818240436515
39.59043986601771 69.72328922447568 35.29714533837895
42.21696949301515 69.49729225013532 34.475204174244666
48.5741145468632 80.48504515441921 61.842682548426374
51.92292621135018 78.52125113670732 61.81833384944793
51.90972504425079 77.33181818746934 59.77934208220536
44.70822275569252 47.203596132404684 50.335920789101934
44.457599845072544 49.196890715030676 51.19507630174749
44.18348504161558 51.05600594303303 49.510862012722484
45.48221091077933 51.11511522476889 47.02860163530383
39.25022968271739 93.82588754149118 50.77031132418472
38.625505272955 92.2076691934121 49.088696910699866
58.046743442733636 74.44051271184124 60.63453521007996
57.782763125805324 73.30874236314817 58.22669790915444
58.73916756058809 71.08720519073422 57.321034829788516
26.544264428227326 90.27026390685973 16.998442395395227
28.04016947567492 89.81933961511922 19.43989862135074
29.89186699352143 91.300032047163 20.43409129144872
30.023495500240507 93.48055476280074 20.106344002113133
39.947371249535195 50.61132420241622 49.81696467662921
40.84517622975942 48.72591884381281 48.87951266699123
42.177651380411255 47.44229176953266 50.53482155714406
42.11256389655864 47.49229787887812 53.05357216706064
38.75784407702139 60.7580803588466 56.842877262861975
40.60730961285559 59.93700192804045 55.16591791670915
39.87201931800685 59.49447144326881 52.4421016801646
38.06145747007005 60.30572324803817 51.01247132031447
43.43712602741549 50.70309117951989 41.37396846455696
44.514389729351066 48.691412192567185 41.30665122465618
46.79055850479757 48.17248516706317 39.71394299374536
47.74050459374427 49.545306603756025 38.14939349115875
40.08141340141665 69.76413350830923 25.85853299271658
41.30592470917598 67.6830435814522 25.942105790328498
43.00098184851664 66.45653867611834 24.60241977247423
43.47197402888422 66.38313620737787 22.441291049951726
25.7795288576728 90.50523983079758 35.7202533692548
24.68648038626916 89.90291391270425 33.48286375805142
24.918229985572406 91.31127000429811 31.423732021659976
26.596891855317057 92.02040055323796 30.246713694291973
51.34765080363736 50.784516150586896 35.25409544554433
51.956284968303876 48.306701026730515 35.49928868350197
53.83400043729165 46.69978218229898 35.76962202907966
56.0504127847996 47.18210650691757 36.078868108330546
23.79487710985374 79.72442501813927 61.07513809737537
43.858906841460595 61.335985928242 25.97327582643955
45.93723142343879 61.52179738304887 24.92708844258847
45.72417415390933 63.24666472596433 22.700270304512106
44.037959245961716 63.8711677850261 21.37908273615438
27.127676088209977 75.92322274501285 57.98041954751937
28.135977844656104 77.80564137054589 56.448976432369165
28.45602877309098 76.6957443593003 54.476957812218714
29.99563332635896 75.0352383387621 53.522046162647555
51.47208750711514 64.61266641054874 17.418735460953197
51.2583621175055 63.43966089842277 19.224983222383454
52.72604395558608 61.210227798062434 19.467949417250747
54.54353455342723 60.67196041683618 17.921595098790586
50.085172537401405 87.34728734305584 46.70725381506031
48.422816196520124 87.34844387784426 48.32892901897513
46.27495612473129 88.8817144076177 47.729341677510774
45.77111662885666 89.24848793660563 44.85180868929999
36.55785526247688 64.30814973421671 32.18966193006378
35.57706233083997 66.2310314431376 32.071724169202994
35.45513823729967 67.47424741566493 29.962689504143096
35.03859335305283 66.84756343910135 27.972999692090987
44.54883080458438 95.75030746510295 55.20780437532734
42.30671305047445 95.25669421547276 54.714266388395885
39.981849783078225 95.83023819501216 55.54876523148283
52.0822840405168 70.83267540324002 52.60851230735731
53.88581674874402 71.81042316607399 52.49112386634013
56.5056805331016 71.47304120414552 53.705843017233356
57.37985040045389 70.04174655018791 55.013411559184284
25.902491185866342 78.11388964273756 61.301919473454724
27.518756958935498 78.35541296786631 59.450832074338024
29.622522660312615 79.0047145780309 59.09000831102601
56.388093259606094 81.84360352543594 24.078750945112418
56.43482022621792 81.32897147126036 22.16543963773131
58.05794452908842 79.39930375697445 20.967944368294155
59.04789345982057 77.15926208105853 22.7212588752572
49.19778823559711 74.16320902107648 60.6816168244239
48.66956493950705 76.63709727809157 60.171182375326396
46.483931345968465 78.0355777853599 60.74138839779626
20.391460714741534 76.55347266647338 57.97586254285946
21.45366891892343 77.38422737243135 60.06294885565494
20.423611977904553 75.97751947371422 62.04045365755477
18.05661249282709 74.85563000181841 61.935064996112665
59.534185067267934 83.03318592554339 19.60347151935405
29.686343959131335 65.72730886082236 8.290481151934916
25.496550602924508 75.21814028624252 61.4215905819448
33.48212778021779 74.32556247828441 31.84504077273973
32.50314877938801 72.55549319936158 32.87276226351855
30.70762804771439 72.32240160825356 35.1348555577917
29.67731709497515 74.19970616666448 36.543160358929136
43.57511361102077 43.1469404485585 19.097049337966038
38.61060381149326 54.447643638755544 60.215675975661384
37.951603702527 56.305132273139805 60.39545143394849
38.337604896051154 58.30117104758724 58.22129163218996
39.968724511308366 58.47492603439925 57.40415059724141
22.479762602813466 84.34055522061435 48.95337882775129
25.185440478379512 83.56938620274025 48.136579508524314
25.730273881132767 81.77715167910124 50.17184516666227
24.672433217364844 81.64496993502371 52.184775714014954
53.217318298483065 87.62353678308067 22.382288817536903
51.619448089879036 86.7458714769542 21.09132743810764
50.315013703359185 86.7937689421135 23.928668956097837
48.863992846391504 88.42538917143331 24.607571322962702
45.60815005070852 44.801757791686 44.662879281987465
44.18405503017181 47.04256195519013 45.71296053710398
42.64639029668373 47.33929227255752 47.25059307252427
40.43268315868434 46.44285397446932 46.67225186928369
32.041395383695914 62.79718242869292 8.75183656683291
34.15071542377047 61.939270538353576 9.560264758957343
28.471512924899184 73.51847864655399 51.89395333470329
26.667877981779608 74.20113939025423 52.80317802532232
25.709146199506105 75.69649793791248 50.37725293174573
25.98853343682247 75.22751711752024 48.352160785052654
33.16334962316165 69.30333127569635 28.274052812526534
33.96087521563104 71.04415927371377 30.33385747422242
34.13859967409657 69.47209753886114 32.55536909925224
32.77661792074924 67.80264356317676 33.313808649754634
39.297470923558436 72.32393425015162 34.898426004564605
37.210440438820754 72.11624767987476 35.83478107118489
35.37544711246804 72.03495424247556 33.566372486973556
35.654178025563105 73.02594616660761 31.62161547597344
38.693584422177175 50.69422554174803 54.113482982792036
38.90695975789782 52.819209418029914 55.851349103470014
37.655735106241934 51.93931943404899 58.17529266987643
36.648732357069974 54.10104667223143 58.45257654151891
41.74459116426572 95.2115955282992 51.45221607923449
42.319849346586295 95.39623177548219 48.95929554912309
27.609527758160738 87.252013186422 17.951549053034814
29.46612417993687 88.2608675371898 17.194012524529107
31.889991619561734 87.32704327238142 18.103596027583702
32.25628712289178 84.94631664004875 18.731860312832424
40.42510400366729 64.74597483174364 36.259719095724655
40.843554269279146 66.90177097328257 34.70508991072395
40.72826477729272 66.04077156252048 32.052006096849034
41.282867343240696 63.79790142617657 31.247358267713725
49.636768440516185 59.20792987256303 9.40803192560652
51.60874809876814 60.01055078927606 11.399687816090768
50.930844531139904 60.157324070011605 13.961971554539412
49.14507880086834 60.52381408769885 15.174012325821387
58.46645588718529 76.83515567205967 59.19698924957561
56.062105774197185 77.76174639570674 58.11273424962204
54.490059848511756 79.1518806280582 58.865173985961334
54.02458673902799 80.25643118262454 61.41365329308083
43.196744859060736 80.3071811433139 61.625400740784585
45.68290820714018 63.8254749158666 51.84576972446674
43.88290256350041 62.5720485858951 51.73363729686361
42.48592717387097 60.901468376817455 53.26659187236071
43.76725329825446 59.44382182680611 54.76868810972264
36.22024653592386 94.27343298131615 52.95960204154607
45.92897152328363 42.38513279005745 9.598112765472184
44.204383204733716 43.8717244333859 14.534291040464511
53.34806174871489 66.42301152906187 22.938588497504373
51.109608618801595 65.23278533802403 22.94410899661472
49.89888573136826 63.56985224931663 24.36055217475574
50.64180122964063 61.986130828486175 25.954336295741406
26.318874807334744 78.73125745498842 42.33904701700072
27.279115950147055 77.90925712849342 44.56190044951808
26.98478709560259 79.17468194205212 46.787236202026996
25.239253571791163 80.9637457815353 47.47847110384595
46.57985599737615 51.2118835316439 34.944435379859634
47.266424881101855 48.984760268374 35.61971639399224
49.40036928752457 47.23655207870691 34.77904594904281
49.713271905642 47.26184940378342 32.05613831348124
30.502318222966746 86.26504768051078 23.281790162621903
29.285483266593033 87.04571322908488 21.516891533310943
26.988848661984882 86.28366416357646 20.444495038838195
25.39785674777437 84.52250049018006 21.079840588193765
57.9927328964448 83.89382935117132 29.13604462623984
56.29354691755855 84.20099591671719 27.677866259782416
53.737109417897905 85.4282627798824 28.628910825136725
53.88797995089998 86.55287445876189 31.149235989181324
54.661430356073055 44.30327110318124 34.474765111405496
56.37036404746545 43.334960978837756 33.7476532023688
58.54104791335758 44.291869816372184 33.06045350139412
58.93035349231423 46.687781013013186 31.71969375489172
53.68215491165071 60.80323978755494 9.656721169302427
46.31271629633363 49.93000954845721 54.79565091632343
44.003441635732564 49.80977839662945 53.88225596305351
41.47281897468838 50.095792645902904 55.3168132952668
40.978070205204574 50.9578005185526 56.91804739478072
58.170214955456544 66.11723708111275 47.080949810797186
58.36917526601836 68.5366968776703 48.130592187389354
57.19085903849638 69.64024116288961 49.91511315151129
56.81795184895196 68.9814502782105 51.89085147453324
26.483906431070583 66.81043636932061 39.53052636042871
28.197433375733848 68.61047824161861 39.84321052088244
28.163148440531895 70.81208702606064 40.584666373060216
26.597104462372464 72.39073291025312 40.77030339296819
33.47058983106142 77.78947755794741 47.5598348618426
31.74900666736705 76.26763984867296 47.7189321713275
30.060699747482236 76.02914752356904 49.89538617499554
30.32842888784477 77.26278066570745 51.841717878125934
49.80483379824941 72.9621085379024 52.55047074891498
51.01814288012466 72.86948502510586 54.5273278240097
51.01961580592319 74.19598251268162 56.77467664238716
49.59592680301627 75.55332653893787 57.70445404967654
40.32229991001761 92.40289270634003 54.376853089420294
38.29104292062938 93.83281923080024 54.955726658982094
36.7372184797388 93.84037119977538 57.045110103795146
37.581487436143725 93.5757941963612 59.45626314498067
38.57347711185055 87.73375822259213 9.355270108715217
39.2304128426081 85.47598721844975 10.063107623452725
28.96481994419801 72.8240919224766 42.280701953134354
27.934107848271374 74.38269207260103 43.63768165765002
28.129941078402506 75.3322714509195 46.20820436200661
29.132292899711754 74.4582909679889 47.74462466843067
59.30840926883076 61.104596397162915 9.904307500871768
58.75355690107456 62.13965198832683 12.05559396498886
59.50297790688041 64.7096747720359 12.863212910409692
35.428040891772135 85.57283970389389 22.247233128240552
33.52274273182029 86.63249385445341 20.570780267604462
31.87504579706988 88.33710984893617 20.60817938672357
31.677057468404467 90.29663651547938 21.89405970203949
58.359883023921455 67.2716762250577 41.651290160572536
60.21110272040338 68.4542934063234 41.41992181466136
39.39188988020658 60.01331480989702 60.09270824118019
37.522451293288334 59.77550225366841 60.63151676419402
35.277700452953965 61.682870866703155 61.60392181732186
34.98282675267942 63.753208945157006 60.36411703127379
47.20327771121122 59.26932382421324 22.75107823489665
47.749789945459455 61.53740847749917 21.941091184811597
50.13604341499079 62.75852352925458 21.85198835345724
52.24015427337708 61.95115468333837 21.82361620955129
27.55878188326657 65.48483411531917 37.477206158815754
29.648503942844563 64.67113792939884 36.75669367791185
31.143007574622544 67.04798606359533 35.61153873720098
30.2959646859857 69.27724390596748 35.19973884672046
29.00764433106624 91.74169186974753 28.738677939975055
27.615697522212937 90.10545339371828 28.696159351965743
27.39031742430553 88.99562543010562 26.645582593300432
29.319222795009978 87.85049804176363 25.10880440169831
38.25452583936015 89.7047799020989 47.15102809905829
40.808515814296 88.64634690544216 46.62349282907212
41.614920940808744 86.9613746984725 45.5815789914212
40.35650423200506 85.11469445536771 44.981740856106256
38.86624287805758 63.971646027580775 30.00613021850611
38.57904610774679 65.36135552455526 27.925211553994483
40.72522352532806 65.07182866277714 26.081151956974278
42.3724115849354 63.32523390132093 26.058304247168874
59.34936024974935 57.00025251096707 19.865178585054203
57.06554399666898 57.57537977541837 18.320592995227507
55.028786762715534 58.41575444252721 18.753926558116394
54.01886637880161 58.92940754852431 21.23483479136324
46.908096249216214 50.969579865527145 43.18566290083767
44.71804593886098 51.573508795878034 43.667603545318016
43.650077192603035 54.04528493467967 44.65200661485664
44.51770752352979 55.618500032783466 45.96378239459762
52.40349977764202 88.94797052589867 31.00415119203323
50.33811876111669 88.23585784362518 30.582936775407568
50.06265515779515 86.68564238934144 28.582683222101807
49.88298662643443 86.92710071216642 26.552013524101824
42.965023835529024 85.0303824792423 43.41880929604616
44.70019598887265 85.4806360897895 44.741641738731204
46.92483564937402 85.49349747561932 43.29861095801341
47.8714945678825 83.48105106202087 42.24351291097232
40.632057457792406 47.42129196938252 44.268255616023374
42.675527206804865 47.44384230130477 42.96741054862112
43.43540580658974 46.33348073500522 40.776964620253295
42.47057790455126 45.694717134663414 38.8184106542507
37.563877651175794 64.83472934322587 34.8287886881097
38.03234989602338 67.06643814084984 33.82394459487347
36.94708143684594 69.47282007587641 34.342849027298854
34.23028973635938 69.5186364896666 35.53882363553437
26.271741481627828 80.6755594591256 54.15022871024875
26.577199874745617 78.43278536189645 54.00901313364062
27.288983965079616 77.2866856806786 51.78765477259826
27.845836870528615 78.2548765927174 49.56834329296645
43.91686946869918 80.9929380456938 9.902657437390676
38.18103494865063 79.97728654230018 10.339446234411659
44.389473673939946 91.97147525662919 43.75903480809434
42.79610078486869 91.14736061288717 45.34898067439124
40.61583748587257 92.35493559545762 46.407439199258114
40.470078842145526 94.84087073686523 47.185409422548915
44.06159485135544 86.80715232645012 48.47432106428976
43.10550747562399 85.19555271328255 47.168855190008635
40.377490444077466 84.60713302340879 47.92019059459499
39.16026598985514 84.89549977775057 50.07785224583106
51.94119005345127 57.13722976514789 12.229686710154672
54.20488130141567 57.82216688319725 11.762574368396207
56.40985357098223 56.671798199513795 10.597204788160903
56.078009868842756 55.050682115054215 8.735230572459091
37.24841876576291 87.61786185179814 49.281309725564505
39.20408811568985 89.04533415251518 49.603998139357785
39.69153006296624 90.98161962200264 51.3880841774035
38.05697846622957 91.92146806218602 52.642949700814206
33.75465123521171 92.46496964585222 25.056497799628826
31.669942078162503 92.46014591590226 24.10517297348884
29.6122428056253 93.01187902678384 26.12842008433806
29.692445883294702 94.49219803534781 28.033262609636655
46.17401987734443 87.15425790532473 25.048936748522365
46.564122846907345 88.47514554629103 27.29504013163335
47.495403590112524 86.95622607523066 28.96212983863001
47.42657464330048 84.1532053229304 29.22239354364824
45.96151291455965 61.91022890785469 15.033724235237552
47.455889582530695 62.47810797003368 16.42701656192193
47.97661659757324 61.22667612191718 19.107263779161922
46.72161649932921 59.50470157270226 20.03285522172676
59.058403059680025 82.22884762282774 24.33319748323113
58.49888357712414 82.73254143044039 26.470330853552458
30.802876372421586 56.062393286600596 59.41537540441039
32.19184786859653 58.36912025849956 60.15695270653621
59.59086433817217 59.38762077532337 12.588126915384422
58.11557453767 57.834025783858515 12.641169352450932
56.110123517098835 57.25818514983034 14.12488239195163
55.238614727096255 58.36394141793849 16.172487116482348
31.85508441878555 60.26778360750883 9.734754012789463
29.639805367357194 60.63605713546905 9.739230912360682
28.51937228379485 61.49290314563743 7.128704761591462
3.730492539334771 39.1305614829876 43.44402047215474
3.919287213945542 38.68714216701315 46.22430049335655
2.5734727905649257 39.72182698325066 48.019802070677365
1.2178348378827641 41.6964193660467 48.270501272602544
22.082226392042905 53.404951809423075 48.64740423045013
21.02643386871827 54.86163566129076 47.057219692688705
18.523227911157694 55.60176425876809 46.90434187770009
16.48611860759555 55.175344659711705 48.54290324817984
0.5804944434545211 70.37032075324414 11.29645703437463
1.0674868705219787 69.18751804779244 9.003996079443361
26.44832941942032 19.564802640986734 15.196926306115465
25.18585815993259 20.155421657923775 16.697087414561523
21.086639579415955 19.82465256105398 51.61875211902352
18.792858924921564 19.085877413531435 52.606088897279115
18.282830700079707 17.887833743352857 54.7698368102655
19.664130252738623 17.504751788968136 57.02923887774869
37.80262842691576 49.120468787408726 15.084045082016122
38.40684809714914 49.408746562999326 17.576701896588517
36.85728323087894 49.04375218426402 19.82230638749246
34.61991675358648 48.02928136871861 20.04778674036472
13.387579437703375 81.46423476880624 8.267013824931341
20.98223252292478 46.134188488552645 36.824646751574406
20.513262102302352 48.48759493186682 36.960803379413484
19.577175890021767 50.158059526276624 38.63750859033804
18.49174639161548 50.06146526525662 40.50600513482746
0.5934554347478609 48.55039103550978 20.320387407507
1.7590133301395174 49.180618877629485 17.90181193969867
1.1446898841924564 48.27818645930689 15.930951992315064
11.812359676158158 9.082289292319347 19.94205665453529
7.341042182834754 5.618397724173498 21.865293873052497
8.277448154040282 18.429729072980013 11.484236058317924
6.295432607406952 19.322470933061524 12.046734363537649
4.042425138545253 19.51349064315467 10.82930035725965
4.251279490450648 19.495531034060683 8.26791536762968
0.8084213188972701 37.18018677747132 52.14825545827195
2.029050779057591 38.71104948602638 53.565880921242616
3.700385030601095 39.97607393766238 51.96253507946945
4.4077802693897645 39.355397104825435 49.8154945982569
7.802845002204184 24.85714851284669 36.62603091246731
8.83315524530645 27.20144535275878 35.59032446475492
7.923425490815894 29.662842830970252 36.53898916685088
6.222367030854464 30.35906884046728 37.81514214444047
31.115211402122384 40.051434851677314 52.72485613738052
33.23358486025284 38.655343634005575 52.724989869593
34.46720558454534 37.60434523047305 50.46787507804712
34.79905761681141 38.23772052593799 48.508814122832675
8.60822206027813 67.74099083197576 34.12720797310726
7.542422833732044 68.90301057306972 32.93907918010372
9.708758800819911 70.38015271399657 33.15414954346042
11.180659769898677 70.73291978058049 31.210317723460445
21.33516358434906 22.24849804196983 59.69901508123245
21.10002146209189 19.9390126034064 61.034600275265284
19.2669708724533 18.673377680734816 59.37073550223284
17.941739404902652 20.098857670192793 57.619954144921934
8.50904926597829 36.51262302145883 38.35104913940148
9.032993803816037 35.61130827019931 40.50006464693515
7.9101648003757825 36.43617111009691 42.97870310499294
6.460907983868174 38.28103816288844 43.46624735841377
32.78029373114691 26.645333360008884 44.881176935645954
34.997252194362225 26.378493518645893 44.68165825684533
1.4977630536171378 73.3855254077938 43.24424271972625
0.44429282420015986 71.12862394469805 42.064877417224054
9.181643245009466 57.466256965152226 61.10872301936828
12.648742074272583 61.19667680326752 60.42838107990661
12.340750151809969 25.715780807664963 34.03083631530975
14.91263272083842 25.63142324993433 33.50700711926887
15.12058527284175 26.43990157293563 30.899417999956896
13.472530349118635 26.474801548217656 29.091699906041207
25.73839624996547 29.745166164866227 15.334906429082714
26.319854220003684 27.755099452609937 16.306141078705338
26.159068340113862 26.674367894181913 18.752999537193915
25.30678561985322 27.66535771554242 20.56613197190281
0.4144489439997717 56.39395207932409 26.310121215126976
18.379319068277045 52.494662234991736 33.75321298737836
18.776778999226103 52.08736091804383 36.011250163143345
18.042286747744782 53.37847508651503 38.274339657240844
17.14177725242431 55.882119212981486 38.511885991611365
14.02110366948873 26.25919288754375 61.65995763741902
16.599705670381418 21.366507808368894 61.512994569939295
4.800909756506626 8.152858533999293 33.080837348606615
6.6759090160649 9.663367345155788 32.02602227640269
8.257769034990963 8.8870725542651 29.73125791199877
8.038308368110366 7.036294068134927 28.551674821682948
11.046998197849053 27.73269757628903 48.18924300317353
10.025083937497321 28.466731318465794 46.5600330725059
9.092529595120958 30.954638223032653 45.61306505082185
9.27992900173052 33.12265024704475 46.79146139827855
14.122883330599228 56.589234583373674 47.03589136149729
14.287819190114938 57.800810435658555 49.22161400975132
12.435281842804978 58.24507882145307 51.022642312065685
10.058800647242116 56.78063360800698 51.419148030805005
35.195845475144374 31.56505888914995 54.3838681887536
33.627450353209646 32.696389475109044 55.29124009411741
33.76575645529771 35.58654309230079 54.839579679141515
36.06247636538022 36.855423954194144 55.016457644093556
47.94386771300187 35.88472575484025 7.93503618122664
2.232456457113136 47.89536838905232 60.45461149040971
1.3623976588620224 48.86456456344915 58.02783131052093
1.7290418962800267 46.49863763290949 56.61808042481896
3.2670665779301076 44.782188401122596 57.298064117731606
14.90824111841528 58.72283671812377 43.47725211642952
15.662513946398565 58.68782814992566 46.06056972123805
15.074566831376039 59.917818583474876 47.920448217602015
14.092300753038947 61.551391475905156 48.551909798755254
12.24323777269185 63.001157544625364 50.49501335751468
12.252453022907122 61.303955113048055 52.25807491853502
12.266839141640846 61.36589499281339 54.721773080182004
13.575154598321872 62.87035373938506 56.373686432528125
45.69945882583939 34.6708742416236 7.107296776984235
44.27375812579777 35.084307599233185 8.948493731451101
24.49307063102608 49.782018426128865 38.35560640228326
22.49061305000992 50.579050393204994 37.46422885011812
21.709069334281285 50.6880707162236 34.60797765645248
22.205311084540938 49.35945637330899 33.016179223372546
1.7424124312207658 20.092554011494837 7.786896301646379
2.3638791173196276 22.46531087022228 8.241315523142081
1.3004160523903274 24.34421112545511 10.013868095681687
0.22971232891862214 24.128927931378183 11.994418597794203
18.985878635081008 47.87860251770707 31.19818147480344
19.563661318691725 48.10534562477868 33.28910483595357
18.457334082428602 48.82925758296602 35.50866399654141
15.875901353099835 48.91060794096893 36.04549265248794
6.134897953408079 5.46819807679414 24.504966139564363
4.624702957912636 5.236878163643034 26.180679321327545
8.743326951374355 6.461838927686945 11.719956077627259
32.450933844512626 30.80525830614601 40.04360314111112
33.349369457669994 32.744965843651826 41.449729876015006
33.289946096667805 35.410914962496854 41.00992516122515
32.58232420655068 36.69602981921457 39.31610502735885
10.51001096620779 76.66764337609254 23.290217800636796
10.741986742412307 73.99576127940922 23.45238288955804
12.71163281951272 72.35930950393094 22.659985249512168
14.821520844326223 72.83209610809811 21.532367318982594
1.9378121834862336 36.967972957755514 43.50759211002248
4.254654296465186 35.79198445401925 42.66542474505231
4.786249929685152 34.179688895463734 41.279419272734465
22.601691431933883 68.34405365149121 17.526538592784494
20.947882094851668 67.84990251567538 19.379016671696103
20.38838916387872 69.6919836851777 21.1031777189872
31.113025004225946 42.68078958256662 23.19469557598047
29.497957981029277 44.3640371148976 24.33593782919006
26.98925258536785 44.4122964069262 24.420868914742716
25.279096203050308 42.8050945795391 23.40451814172872
31.570332625726426 37.18555594099517 42.45254421246389
33.73164306646506 38.433915496561994 43.61251591524379
34.894404150897024 37.69676472896684 45.92633068702127
34.54802379298005 35.6073949917901 47.092319062181694
10.265480451031582 39.4711060403059 50.42743666972202
9.298284952185048 38.18260206521291 48.92186976557387
6.6678744656566264 39.271237583432814 48.14361941147578
6.063883332643646 41.6674666202613 48.453537145522205
41.05797767318261 46.24252909019638 15.149943372829158
41.53531874901074 44.28985290143865 14.372360708551643
39.23974872830659 42.57749455080446 13.49172859816942
36.99305407271952 43.115457328831326 12.984055751517712
10.966261553649348 34.989117159205584 43.34262505099818
11.244851248204885 34.377245518682436 45.50452769172493
9.320871935065984 36.314591314213104 47.10230371064576
8.107770666849179 38.310242871220886 45.692320901599786
7.027087594484194 59.786502551964645 61.35771529206637
6.171866803812886 57.729933831594224 61.21175876060289
14.19021147779499 56.8052495808602 41.54834299410418
16.290946778833803 56.428108262025496 40.85604117735072
17.936395370631168 55.88671634081687 42.658330702551304
18.166426844843432 54.63104052033479 44.35533350003375
9.42398915343552 49.72776796854448 17.222754519098043
7.468782540106192 48.84255825637917 16.9597653032471
4.853708896123456 49.233208460107214 17.992937353314844
4.124084556647939 50.93870608803114 19.204474850904212
10.081268827719455 74.83026066216655 26.043418589959522
10.870445385483842 73.41699371978396 27.781677902917746
9.287586912921634 72.37386423700188 30.020714634175313
7.3157429138226036 71.92181720576028 30.54591410699172
13.129708147853272 65.19166514421566 57.404859435118276
10.87145682689087 63.54997087060476 57.80713649599059
10.261794863173847 62.83728404524793 60.27820862511936
8.366899970480675 64.59465936648425 60.80123103693921
1.6010935543756084 26.711652122300816 8.273423291020913
3.7522882790925025 26.41097334661983 8.30306377341978
5.822343171018396 26.30865677955243 6.695374575691021
6.040220305742771 26.89712863167595 4.238607033873121
9.952651616647426 71.42288593998936 24.924257456320163
12.12260940627081 71.47308150419626 26.524542112965932
13.52866031305285 70.07956442373843 27.14577491707199
14.066374204886747 67.57474723135634 26.25940385188625
39.731026932701944 46.08559532989882 17.87522628559708
38.761872622132174 46.03054953036615 19.511823648620574
37.957131019942906 43.6957529194302 20.387609472311535
38.836507613518016 41.27485249857418 20.099652600243555
30.744123926750653 28.219032207007803 43.43830315949258
32.90374366918237 29.006881986265764 42.85363578277051
34.515340957011226 30.991585507431413 43.38798456905158
34.84016479906724 32.22568159623727 45.65985732832016
18.50546309148229 15.20955785913272 53.95452006511931
20.126845767985778 25.11465960757345 14.983421975583218
21.37704180995411 23.988081402605275 16.157166889862314
23.083952875294763 21.76772049341801 15.912410696125932
23.069205335484494 19.977440889081162 14.808451826733833
13.534077043428912 18.08038863943775 50.96080823143289
14.303867999137891 16.049614057317815 52.449885805070025
16.80070398656413 15.024532051151605 51.8242550738348
17.94054716277722 14.86183826250401 49.70291572528154
26.542926951567086 26.234937982047384 25.29098910602046
24.98544254903522 24.340940791568645 25.548233402960555
24.552002155384145 22.172911806521974 24.183161702360813
25.574940705836667 20.962689462051003 22.721511958903907
16.152702889965788 19.277514691914764 51.11097762135377
15.567571413950356 18.372167615847633 53.41587255280297
14.354774206281133 19.1831611658471 55.447257074934925
13.820334644699086 21.312789883084438 56.26114504977302
14.052709232560316 75.431616357456 26.046334061781376
13.866670970232292 72.90311339856535 25.3838927634151
15.651486461828819 70.9839653466609 25.73729639562922
17.588999294609437 70.84568933975822 26.952741365164183
19.709265754708483 18.23304221377439 49.97712830675205
20.710212796281258 15.921591571687234 50.0676906528278
36.15980947861147 32.86674021433638 51.94386953762215
35.09621910385177 31.156093475259947 51.60135861610645
34.44968105841142 30.245572691975713 48.92446265148715
35.44492887328114 30.06430809113296 47.34364410871518
13.402917897718995 11.431694131233916 58.38774106250065
14.12895103664873 13.25591057022561 59.92839248460765
12.519877092412926 15.02883420640515 59.56801524373564
10.45664749754572 15.107570787132087 58.415431797966995
38.60761701064135 47.56018549991102 21.730211379880053
36.71468452611567 46.80150342408023 21.169803345441295
34.31719027079574 46.39007434211935 22.4153656512518
33.899143265691045 46.559836106512634 24.830894665205406
2.4380862872812537 62.54419420741241 4.078203425219671
4.043858163374192 64.73035558398438 4.5365010304237225
5.532732734359149 65.46470802107082 5.755067823951668
0.7118731712938349 51.20442024139107 29.25938517195555
13.630043146900737 31.697627206039364 36.685766774479795
12.698350620696457 30.21421669720778 35.41850476002246
13.79871220460361 28.254019952258595 33.69997566207706
15.920170554460311 28.276441430227464 32.78199894075316
10.484529010491128 32.05784081867812 31.801939152818182
11.748856769551216 30.435506761663955 30.959734677549438
11.571095166202154 28.058794451056684 32.28975738843828
10.387141885853485 27.007666031760625 33.388152033007444
0.1046534608740222 63.98636118621898 3.9746305735497525
3.36891652993087 49.02579384917025 14.446342156274225
5.1749445886873335 48.22662093843136 15.223116445420933
7.635273774709786 48.47580521100927 14.323089928657499
7.807536928662448 51.18543134061127 14.340910008292282
6.57602441683391 71.73263070410286 40.33920265506095
5.837965385854452 73.87900195774428 41.981913320585136
4.22859309445773 73.29154166528241 44.15410978146403
4.447768368422826 71.72895630328432 45.75218071310008
38.26734412340081 33.48801398896847 44.95768363276049
37.072567491484534 32.49995437321705 43.41403030011166
36.86552737350439 29.92870446377713 42.65945355428705
37.47394920903252 28.09891480264643 43.76163194659085
11.00618284727972 49.38531077680818 11.929813550007974
13.038284278605433 48.562840285034895 11.393442620094715
14.074331055837659 48.04914070744047 8.884851134703103
12.654581616008645 47.76006351921778 6.598611813078474
30.503001538828705 39.275352920553146 61.365068444795426
32.72617263567801 40.078858527844105 60.18864591183831
5.444035276625012 47.018508528654586 50.77355250959666
3.658364813607912 45.77109670168807 51.17741942591407
3.1670937336404568 43.54525111773712 49.590986625241044
4.516251498724553 43.43668460932585 47.27763009937086
26.266303530876975 40.614950854974886 61.62501034949206
29.70689773653163 44.325139834745194 27.37686765730068
28.80280055698947 45.86778845587446 28.669575888826273
28.78837630458983 48.51213701625246 27.553489435342144
30.585489081460356 49.69649167786777 26.429389264296866
45.09269538909156 37.547422558616454 7.970040315738876
46.001718412382914 39.34285852416603 8.705337094011899
4.327170441364367 68.73372915373885 29.952118886326456
5.334977797970662 70.05092834925044 31.142271861270153
5.118340291328716 70.59333913894686 33.37102194997071
3.467281104749589 71.68689191169446 34.88107343775832
34.06393951621161 24.747353113822086 50.126048141017144
34.42379000052093 27.06123083787147 48.67992565589492
35.75400464747517 27.66224471438796 46.79269833301151
2.6827892040701578 75.49911751705207 45.281079640602655
14.689403561235428 25.890809983337917 37.36260541766795
13.107797964218506 26.866396328378222 36.22647622962674
11.1269434910181 28.12035029960672 36.72316661884572
10.110734294300872 28.841905492652607 38.626180871474396
35.70382342783253 39.720053086877485 20.21883615149352
36.103461105039194 41.55501777996841 20.332909993917692
35.10825894501655 43.83339049298468 21.929642456763265
33.7379925394184 43.59739268624303 23.75235575400268
22.32860013089906 62.61289917887896 21.741133352812376
23.179093673010055 63.393455566334715 19.92928021909612
24.49237230169145 62.18422924837238 17.94709561860297
26.28206907155434 61.01270851839373 18.751320383799364
32.909381023203345 33.66163758864921 58.425029949383024
31.657750996013636 34.33824224474403 56.14534658782444
29.741092646763246 36.154700014489734 56.20084052255622
27.646548341532807 36.28961791268054 57.77290239297363
3.1456491470292924 7.878818068486536 29.91139479273943
2.7642620262252713 9.197609722542197 31.41200348119143
0.29775963729915944 10.727100825741422 31.35521503426303
0.07305196828044805 50.510688719337935 26.597220659000477
1.0788454674071455 50.02714952092906 24.24955307781696
1.482748748221892 48.077955628572184 22.958912452723787
41.71298407571754 37.39261504922801 18.402417866055316
40.78536003300016 39.125356127820474 19.33289844209415
39.42605097792707 40.637119996676084 17.589040301285646
38.32228154424771 39.568090194387764 15.218007620899005
17.44808238873398 66.25137328384947 29.626840020619696
16.821334223346174 67.851285459347 27.86101808272718
17.4067921249255 68.14971383856349 25.190711701213672
18.328933166149074 66.99453489527 23.629078773718255
11.501673121049281 19.080020347493083 52.71743491922197
11.535874727963842 19.08548482126813 54.678471974030856
12.148938777225185 16.946641446181534 56.15105333730054
11.323765656446081 14.801897623682967 55.68065853869833
22.643418703330948 17.394000141034304 19.664886889301332
23.922423684500927 19.62167072886415 20.607538388698156
23.011960351507614 21.524909541476102 21.526729721700914
20.56678831992623 22.632170407209347 21.5714942625989
0.6744432553184065 37.886655525556854 55.77050149585377
2.8910105124264964 39.60461777070413 56.13162540579544
2.5667646411721705 42.09154597980479 57.103852372328554
0.4757390871276086 42.76090389166471 59.00313266850622
13.999326433044946 73.78257312528018 18.5273768251122
15.424090426498765 71.80981684546884 17.181432548429537
17.952581802729107 71.3581891858279 18.100763043592067
19.474140598552335 72.9800928010236 19.17132864219306
1.3693006596262205 11.509331644069551 36.47455425544954
24.78798336406007 46.28864646778333 30.218203767363352
26.138648645525816 47.170128189148 28.55906433463455
26.78607009232524 50.23935294731258 28.470966605123778
26.101426646777533 51.791733669168075 30.43044156018899
3.5446258266863886 11.501440182957477 32.10902446088243
1.7891633153213655 12.70589049260621 31.156083598909436
26.91501822880687 24.246007307001832 28.477366215638405
24.51249962683854 23.609104450261405 28.0322989055245
22.286930925009457 25.047351363045518 28.106912580283165
21.96504384245307 27.308801961464997 28.787087808754002
17.52962460437758 13.84562736087168 56.13201765367526
15.310287796129032 13.834476134230112 57.332113859722746
14.232424296846084 16.159791853111905 57.80461007439664
15.252175837655777 18.546427947477397 57.865376343036765
21.807077874526854 69.74013427672153 23.29940918394903
19.573943626899514 70.63157434824471 24.813902221316706
18.50719030935966 72.75765051932541 23.30904454307283
34.92300816706385 36.361121574483526 59.24712341850713
32.985811897944856 37.56671022637783 59.92726335754481
26.637436714958596 22.33410257981661 15.766406522624068
25.012232457678675 23.7276996902417 16.037929610040926
23.501780429962164 24.35867990532051 18.075222695497967
23.845986883684695 23.861872445022392 20.330829704017685
24.96941942213697 55.649969869550844 42.999778847892024
22.88560598577247 56.91073095796348 43.53528888364238
21.958082070117523 57.51207083134098 45.818024209124616
22.806847836061014 58.40136593441856 47.832759857838596
20.519048286713506 49.466279575265325 29.01214727517995
22.719902826473085 50.110180908297245 29.556011872013766
22.893018177196065 51.503658686637515 31.51389579568847
20.843834388258923 52.92877433673256 32.5939567761228
0.3746311549955976 44.577683595096694 55.613086905301756
1.7282710225522602 42.71394740861533 54.851555862381964
1.7150698554528663 41.52451445937734 52.8125640951394
21.83727299034919 17.054929221026317 25.20290348349681
21.79329809889954 16.316856989013235 22.802539084663316
9.536635478622001 38.490773405681544 55.22194928843762
7.852088253935714 38.63320898374925 53.66775722301399
7.588107937007401 37.50143863505618 51.25991992208847
8.544512371790175 35.27990146264223 50.354256842722556
12.098650774259188 30.296283689344783 27.890353270994083
13.764475264915367 30.386685010959116 29.08634515822183
16.45987154991604 30.26190440012751 29.056028431900614
17.681562031968998 28.977978398009096 27.547663903171838
26.36454292562335 19.59928676777466 31.281077896995853
25.5842490268405 20.965089026124154 29.713924867860026
25.936502832930913 21.221513465194313 26.909009261042847
27.5089117064527 20.752038040338697 25.679363534162214
34.98302944526074 38.65794682411716 56.797999196522255
32.654530525660974 37.924012960217034 56.932897462248384
30.509954760949263 39.01493324528315 56.30310455913616
