31.042538501252043 56.97745933127813 29.639228201481714
33.06745972323091 55.74402298144704 29.961294848430374
48.790702060452425 26.989677207225515 28.169021101068147
50.14091857810075 25.207528096680672 27.419178792491714
49.14082328147549 24.48990359414944 24.902373857564466
28.0112751924841 32.015688734398466 60.54590235947256
25.830468103764755 32.35487335668229 61.10224190762982
23.772678323223282 34.09978060720471 60.50825050025228
23.77711806319005 35.495829932864446 58.50392681338057
7.2802463155696735 23.385699302089133 29.64969321046512
9.301590894721445 23.299444866043327 30.90649432633514
9.771826914437977 24.316165473719757 33.36650271643588
9.577404406815035 26.1143829711203 34.12152416877847
28.549226365589636 39.09169802690996 33.586929349647704
30.088666448303883 39.455490794105295 32.21706678814987
32.602189407271574 40.22381287119943 32.624339374336834
33.302029933777405 41.72512317412056 34.89257537910436
17.371409481478736 55.831221529161645 50.6158351262515
16.36874882950719 53.694041817660924 50.8707712016241
16.406213864189063 51.414046167501766 49.18991535666368
16.575183443038444 51.21436509031467 46.95620535631342
11.497186650549747 68.16067821438453 20.28750266340512
9.696212349884782 66.90993270243987 19.961608473158247
16.37043740075597 19.13844417462374 38.69922381460304
14.108837319002063 20.078772139843252 38.686340952400215
12.172095158693116 19.648747428253408 38.21393609101888
11.151650692065502 17.31716877097019 37.01373932964857
0.12620050494540647 18.58242126571457 57.968343910095015
0.12674940692964065 16.00656871612154 57.722946852295564
11.814142001075313 39.74018906310318 32.57804300035363
10.844484277652473 41.05288215095764 31.43991262555189
9.58206795110909 41.48299653441484 29.231222158585304
8.989900329538875 40.251945395124615 27.551435169611786
50.56159334458764 21.275745327685055 26.51492170660914
5.759009927876336 10.153925019785252 52.19766566864816
3.485719243081137 11.185751539607468 51.90450327796091
2.3256256570609564 12.85572966287011 53.722506362537764
3.1190790080695265 14.16674648622093 55.457991966101204
18.60279385945262 44.95623392380779 43.74499621820855
17.657737431072356 46.927063803040745 44.64528797422647
18.077316421111803 47.87391085114964 47.26108898239027
16.774936320094756 46.31474363313343 48.83493808217257
31.425427170404475 30.35308169392601 54.84699286560424
29.676288667311365 28.953533127635144 55.64483354785342
28.294092466261848 27.583170274554746 53.48961816246435
29.228691934233275 27.382028050121257 51.37407991098961
55.629745457667774 31.51395359676186 29.31313571610286
55.93446193524987 31.715969514909403 31.50119282547095
31.165124629608776 9.928756300867338 62.009137560977024
27.038874033614835 36.084374261804705 26.98986029231974
27.138512233169475 33.58488958827534 26.404084518978692
28.320536005482936 32.706717969837634 24.273345982766816
28.358953661252446 33.371035099474355 22.271164775749646
41.27324612668961 16.717969909973167 43.48308333386981
40.953864574437446 15.339757472366804 44.4996054653878
40.23752641076604 12.927082639187091 43.69845085920046
41.006598110061965 11.849811248104512 41.36471362510604
55.142904955076574 70.25747436490143 38.09426209815444
55.969640353890306 72.04244856310193 39.236905816951605
57.452582758866285 72.21070214375645 41.46239932028669
57.58544342967851 70.52641168580631 43.250859887639585
39.62492011377904 13.045007682758058 46.18347171164837
40.70501514770063 14.573976544891481 47.20625305241018
42.19279662401198 15.014450394954432 49.22547591396075
43.538257442533386 13.412719605130858 50.38972131629211
16.9043070270601 3.0873265678647868 44.13485135432143
17.800952195756494 3.369324575931271 46.611129894459786
20.003465969157254 4.6571375593979925 47.34761476226116
20.965640788052752 7.069728139240623 46.50896562817404
21.22319373573966 6.4711475697217855 60.47489656294763
20.893256950179413 4.818329254164936 58.68923039797232
59.98926644423125 50.615103890978226 40.71390360585958
16.55927852565337 42.580123758397036 42.35036569116374
15.849714005873949 42.81541984302546 40.14773254069258
15.15561074717097 40.89388282066677 38.20964018250466
13.996135630647952 38.6195226677544 39.06087081825305
0.1806959375325589 33.7147556201189 49.123678581262084
25.807103828823646 11.843854982313538 16.299732295103496
24.882520263052708 10.564652003708936 14.548470891116924
45.42061610780392 73.04649172318219 61.91254620468415
52.47229165407611 71.99414877900489 43.13498916962429
53.598495912534666 72.20160565982528 40.84229499576204
52.648250927293724 71.88317230889118 38.19301193356592
50.44081857608312 71.10558352551277 37.42819742818054
44.653987546517584 66.71541862850077 60.45045743975783
31.839878789812136 52.18090473156207 31.99014175916391
31.816195613099918 52.21094988873877 34.56800343040739
33.34620362206523 50.76373962104858 36.044307763888334
34.96788498410565 48.60734966516318 35.31885191874659
8.342343324668793 60.44805677440528 26.094037332730963
6.958770315879133 60.136175772938344 24.55456643363248
7.225393478479546 61.81452172419609 22.319159008550027
9.08927807556971 62.96806731499494 21.569013110059117
6.863231959487095 39.562330011869136 21.961476193480475
7.4479749747740565 41.04159962077619 24.12970690258054
9.841864763518108 41.216117056689164 25.149763207389643
11.882815949317115 39.75161075028323 24.76876115464353
21.765109577502404 46.792591510580436 56.61273618508683
21.132886119387308 48.414575473276976 55.0663466337966
18.95077734799558 49.922083200984645 54.80316636073985
16.719519897235514 49.79200890185666 55.67097641073808
23.561954557759655 30.549507840903797 25.20627440439882
25.56245031892524 30.357376462952875 25.07297013970077
27.152354089817493 30.801929521983013 26.808828088200183
26.928077772707127 31.013104079380966 29.490614890894086
20.10980554605373 31.078470152287135 49.68574391455023
21.044238756613726 31.496712928728666 52.08014633899342
23.278943308420683 30.394800276975825 52.6436423946109
24.761199378751684 29.592348774617868 51.55778272366472
20.21610303712163 51.77476846356746 56.893708201227554
19.02550068855687 52.0340847174446 58.93840172444942
19.184629536729044 53.924146329632144 60.88377477279043
20.988453063854223 54.77885812864041 61.711814650895086
35.01854088753496 64.0293883219576 36.94393969059899
35.00326348492707 61.89966160119347 36.877118929766596
33.50691581827667 60.1185777053139 35.494812410928084
31.62612198037675 60.611234868098315 33.89623042898671
31.06191186701934 15.022696983225094 32.15082407578704
31.956026258119014 12.50973649107872 32.12904251661611
33.65070699539258 11.420477626844335 30.972829887320923
36.177572099776235 12.690100619374599 30.292305628601106
4.621578023532236 44.69570386687591 23.498490218436473
4.893084730229169 43.66420499984655 21.642659818027532
3.368390256160586 43.21588182848868 19.444571251371887
0.848438685414249 42.79042197186939 19.388415137725968
39.043003187786965 66.46319746898125 42.96170222367905
37.69413032336306 64.82438834255949 43.46580452623398
36.50934769632198 63.26359569950187 41.34280442892891
36.25712326149388 63.547578545858926 39.4306022307025
27.95998194756082 31.81833222461877 18.523313860907262
6.678039747921644 22.78740856727319 33.81366384088221
9.235571669945744 22.01025197659936 35.085025424764396
9.781848923743095 21.295302335360464 36.89327036117469
8.986968343163502 19.113360800259436 37.660485079117365
11.344858205065051 20.40009210989436 17.949199567133977
9.448200378580804 19.537145565814562 19.646760039288832
9.635916723978873 18.779434002009832 21.962669869063014
11.400971608757043 18.750536974725104 23.634649209418097
59.99421366488654 73.61670397686773 48.27308386141066
31.417458844548865 53.88415530921183 24.39628534574425
12.082037012829366 40.94472756807526 39.55901166525132
12.511211772548423 41.44418757901312 37.54096421409522
12.035325882319842 40.56603629655209 35.1743788293919
9.758028076278265 39.156099599951794 34.37304089485393
18.487756447824164 6.1189145887068985 57.84133688808957
19.6225701453555 6.297735439785726 55.47566011342426
19.06582967966002 5.445636855974862 53.19113720495369
16.924411889181684 4.092129406031531 52.412175128684325
15.28555094401221 51.98678871062969 56.62988890692978
17.012973626128485 53.381093370679665 57.59514703451007
17.175522440797774 55.12294875360535 59.14334894247561
14.513421284891022 56.84804213240298 59.61060963205713
39.045246966587236 64.59751143796905 35.748569913313055
37.33818271358791 62.43569770384368 35.54515267444126
37.70641633209263 60.15221249633828 36.64205872906149
38.66388550712882 59.446747046751646 38.84892890450508
44.491834111812494 62.91427810387306 53.40864891420938
44.12989473250182 63.917068963230335 56.03899926047116
45.97420038303764 64.97286063908842 57.34357549622953
48.387908237983694 64.78063058328497 57.25416286309221
10.615520428871697 1.6919333967243502 29.00402174188479
10.24256872746473 36.379909049435476 15.316903914408883
9.086249658362574 38.489293961975356 15.516229071171121
7.232149454216105 39.40248543445419 16.92890882110366
6.6653079054909075 38.94758429490304 19.11135043581328
49.78189569800853 18.827647454760935 60.46782631446148
47.25473657934051 17.526084228112214 60.72750834467718
13.786373467414984 24.23639914879463 49.27164072134095
16.03178489600942 22.537390385563857 48.597832281290884
14.932152691960132 21.241862328889965 46.268334747489895
12.428560865216664 21.46566084071817 45.59651489388865
43.801221551800474 38.88580163919824 54.064971116739954
42.343078505784376 40.47718913348347 52.615383367928175
43.578483354975056 42.76358951462683 51.1427351468277
45.9757787088794 43.13571726007822 50.94423422000405
23.91753719090885 22.277329328291202 51.23212849548657
22.8143127622992 24.944912527766924 51.920674511498724
24.363849940874214 27.073916356526286 51.52184635114372
26.33965013927735 27.49252079048397 51.1478120268968
3.1706607488107705 15.867504561652787 13.29081168569227
4.359003809570921 18.061275431995774 14.939933492799733
5.838448263528536 17.725924026859992 16.941536377106537
5.846467753973459 15.893334561448729 18.62529390612996
32.800951591083866 41.43097874236006 30.323105838958657
31.769969658227232 42.650340568182855 28.914316906744105
31.869528553895147 41.77757025932833 26.426927954093948
34.14828868820958 40.67147933989672 25.146375990679143
26.498193411210316 7.277097523610634 55.62152232151769
24.25884922222262 6.598799659924758 55.473507158721894
22.503421684559104 6.237049436434441 53.49300072986244
22.777462528707222 6.155235199914874 51.42201922484966
45.28631616277787 48.791015892704564 55.30660267829648
44.82187961516175 46.69603869419987 56.54914225494604
43.726228377428605 44.352166669191945 55.66871094836526
43.04402405878126 43.647062029324196 53.5985347071715
60.2152765527073 27.316018756957426 44.72023365884878
0.012455583046721027 37.345346114514044 48.17339759332501
0.09268315005119285 35.80546293727575 46.50961123177324
1.117525281419281 38.87903840246927 43.39011335146846
48.292618679772374 59.142101972909856 58.62255042915609
47.21521515284221 60.69188486700714 56.96994686152349
44.97626490252126 58.952474763594864 55.71782383538365
45.334924789222825 57.026786285236 54.44536447301069
18.18161630556114 20.863758371807087 47.62463973474516
19.753785942071637 21.890618994588184 47.17229518861396
20.17427050194692 24.107849557863734 48.26249548618754
20.23284577691819 24.81851418049464 50.409185608346725
40.65992181637574 12.024013937695859 35.60178459020199
39.30109782480365 13.721887582330153 36.190649893435825
39.53641472408329 15.705113902928304 37.81867603009911
41.96933615370799 16.369061630941147 39.03531277751534
21.56278436845551 46.27429799289501 42.04105715782496
19.529059914632775 47.170292675215684 42.44535769736296
17.007107448931986 46.563450911786 40.93327560092535
16.580547032909987 45.374797789801406 38.911458167510965
6.077720249231137 22.383923155007725 27.55205255482903
8.101109161948443 21.052365775391145 26.49886150887586
8.553076582901996 20.2138067151169 24.120842669633397
7.917356760957954 20.958677335474686 22.107749152765546
10.28276222704883 23.71183796393915 38.79389360039575
12.725155083329543 22.783978258150427 38.929813772888465
13.961724721475749 21.52593548616615 40.900708743898214
13.540099664458376 20.703829560738093 42.86663247855343
33.432806593411854 65.67038273693696 32.19053584403601
34.875539101583676 64.9122764060289 34.051440865195495
36.62000578663208 65.8359876408086 35.3910064193412
38.32845328114098 67.81739839065453 35.164270002537776
48.07222314663844 43.52495817273926 56.23798291976789
46.64365479320213 42.74230672571248 54.7187289925754
44.258738948710324 41.267238870099966 55.69595081559347
43.77989836124704 41.06955179938517 57.87548146018576
35.14366706452644 38.65125668940486 29.293136208242007
33.39201863700019 38.27575148782562 27.66574933587699
32.745589209898654 36.78292104819703 25.92449782357024
32.21769809027919 35.206901293156456 27.201786636604673
14.644592143280768 7.227689891593769 46.97585255283505
14.422631252012557 4.667317620747457 46.60669267033312
16.22511607885127 3.794793742477099 48.70820019836209
17.348945017911372 5.368776587200806 50.12364491493758
5.592673603098381 65.55092800071947 25.731491056197502
5.712629451788669 64.57883615803713 23.79401296230429
4.173053242615805 62.39990345579738 23.397878106294176
2.323317207458329 61.33964605396057 25.014612506103646
7.512059333768843 23.731002853926185 60.67109903837882
6.763749225223587 21.477230979146178 61.24162743394684
0.17103975602570712 43.91903683197982 16.253485396679395
1.5060068312522763 41.561076669985624 15.813907501843032
1.352896303163581 39.8575446037875 14.167933996427863
40.31665793957228 46.162760486317225 52.56760053074499
40.43586869909315 44.243242813836105 52.771941683867446
40.84606553533544 42.431382427549075 51.03404665448067
40.70108717421285 42.83273707339934 48.54434152370125
12.64391767881043 65.46860340337517 34.05535606106475
13.84204492566869 66.9078357054759 35.09708516259777
15.536509172065239 67.1938651040577 37.37512006324222
16.119262993211247 64.70916384464859 38.80952899336486
2.2098952183772322 9.597208719601 33.23003959867042
37.48778105099362 39.601435310679285 50.9916233427274
39.89051505371018 40.012531739952934 50.47214644165249
41.22490395906235 40.10979460739872 48.2255412381327
40.450207126895215 39.823386024493466 46.019755382436664
23.28328401978671 3.8841657258005546 57.391204297731385
21.948088960490573 4.55059581036009 55.848729767803356
21.252395987688335 3.6165807712698146 53.415466937952225
1.2910912909935592 60.38515859127487 56.73247935681874
12.54052932777174 46.21236736194753 20.70897777976799
11.669148921184673 44.433630016442955 21.240432207403078
11.437405899850548 42.777603893514105 23.720680772413118
12.630155887934436 42.653866431648744 25.32093134290897
28.48293464489417 9.684623853399279 17.15408119749811
8.337413010023415 65.4856397057463 22.24236259536215
8.378838328771055 64.51597815566535 24.549889671588435
8.430348357349565 65.2659865085793 26.761507408425178
52.27685938587173 49.40858076177868 33.34117783150329
57.876658304983934 71.57314440415765 48.46942144697611
56.89172843252652 73.23227253378239 47.804794834047954
56.34186718952554 72.61919998384845 45.00469310173831
54.987930885494684 71.1118141190659 44.04538447109802
3.479611727892351 43.42157017359196 16.640537834269445
3.3679465954168366 42.64105948551964 14.23152662927423
5.889832193840763 41.13944637386817 13.559965854269523
7.378478598616122 43.01415499605594 13.278669411518461
7.970625574205678 41.172693249249136 33.795947095923516
8.29038294310647 42.46237084074223 31.720948435766857
7.117587754759781 42.94410497860512 29.819244959995537
4.668277574301265 43.893839800730085 29.853235104629892
40.57047477270845 64.11358911317632 42.52928200122917
39.000675361888156 62.48163294194627 43.54948826991881
38.92586485329814 61.23633998088372 45.88862008955869
40.31355163639456 60.97378913832656 47.54328124409566
50.398408431278206 61.150881852116605 60.148506220841156
48.95754974273822 62.521476082845226 58.60891057507018
46.168373091174566 62.460245306366076 59.27358853165402
45.34349881280018 62.98766849436219 61.27580129956404
8.029884748075578 0.4443110953988527 32.59907487800015
59.26367208541998 28.0313227908438 35.472391582765646
58.181592850747904 25.732338190631083 35.43583470309378
15.355683147250476 48.836573107606064 40.13512674148124
14.255905173333359 46.50286017546093 39.28377486623276
13.528989340776162 45.48919891056662 36.86045771721382
13.279004263740555 46.65847243575475 34.6565638146187
9.716550211413093 2.089382369402108 33.795239440774324
9.762488475172246 1.709755579690171 39.60600095975921
11.101563480912207 21.274589176322802 24.64228762680058
10.630250239850024 20.242627235423452 26.681585849255764
11.20852546147842 20.762117134672753 29.25003593097093
12.228879037005948 22.579441874935185 30.452646338254866
32.380977740843484 30.027859991208242 22.788166867296496
30.369618761456845 31.194449029841806 22.555924052455637
27.805548010480223 30.311221883460796 22.8711226678017
26.994903221659982 28.286511913024423 23.452911258336716
41.25636305844779 65.86153210923625 57.8776196087954
39.616752067389655 64.45090580202232 57.26658203328262
38.23054641079825 64.40509819137783 54.86666761829308
39.04202217808451 64.61983965107045 52.60929942018593
48.394368041639666 44.896044910782514 50.95513058367444
47.76583808075326 44.249752433585655 52.86983339296318
47.12793763452878 45.84792318711846 54.947451107661585
47.74301575596948 47.78774666172055 55.67679887426835
10.692014694555716 45.59993068107428 32.035612266393
8.825115723998794 45.809918427241136 30.853800297011908
8.993383910981695 44.2478801647566 28.30480108089576
11.326268480817735 42.94324685749491 27.637614454623257
5.716404837320399 64.03494738112809 28.129941333530525
26.794745459995973 7.921647239320899 24.20686287561119
8.526491376482877 66.36055011420551 30.532735850160332
9.319970672873659 64.70921485277043 31.935085063558347
27.08242279946395 8.908066976657253 29.79855102179898
29.08028245180539 8.902853966939839 28.82619223794444
31.494193809664687 9.077487695797208 29.72691500074306
32.20138752751873 9.582083674473202 32.66627611970851
39.63276931001811 10.947545364459696 39.05554766339069
18.639639966565994 69.07071960011626 41.68411559096816
18.6347191480913 67.31377138427118 39.71686032980389
19.358138917644688 65.45883192188143 39.27790434251396
56.843462123101475 27.035465786951793 37.67151680368898
58.047050861515835 28.601732011793253 38.743849702407445
58.24761165080881 31.237317830919974 37.76931654475809
56.96761755575936 31.987564704257743 35.79593150114448
19.43053399032171 26.561435263625118 45.58483194263578
18.133010995751775 25.447720347025623 47.175205478684
17.167777911911518 23.311956248904426 46.462867187342496
16.443935887489506 22.4197065308337 44.413781740445266
43.413753811338886 60.533076756494864 53.98501470562944
41.55299993478507 60.92696170265143 54.13287847403287
40.15586199790515 62.344559366825834 52.034616296445115
41.51010597068982 62.81011047508928 49.82684515579536
18.659815009541354 58.50495685253283 57.409472631625576
18.87325279100595 56.26661339140183 57.61681247283384
18.89356883353441 54.24357801952215 55.88559828696578
17.90698177111895 53.954533333845255 53.49381310704378
15.689743170946528 24.797629313283572 38.285176517494705
15.724677825065928 24.244387690057618 40.82789230605579
17.01672724166708 21.901513209111403 41.6171212796601
18.675218857464337 21.020019597355862 40.789769197719885
48.64207261812627 18.483681250411564 53.70653013796956
46.16221857756533 17.404194604531398 54.23921050619838
44.56047111591325 16.614693632666 52.89427260642722
44.492362965832 15.957283229273312 50.40724747762164
40.34928083098133 31.631971348496613 40.980203851028946
39.08222191343253 33.68949051799673 40.652204560265574
38.07812024864696 34.80209026275912 38.94025633859088
37.485551118465985 34.1406571694544 36.384978331342275
54.20067847617846 74.45998088792352 39.088223093204455
53.537900971539294 74.79768527389581 41.28656806301188
51.363587570781505 75.59940767281164 42.03390888346552
21.40999808411665 46.353262189820704 53.32933521932397
22.309815114680998 48.351243266713844 51.577482167059394
20.65428856717492 49.75765494445103 50.14447201199773
18.24832094083282 49.41116823532686 49.44596446558468
1.3424979647112654 12.713581464531087 4.176469456922097
37.56209271327226 13.052280664128986 43.33872081523488
38.738742414877926 13.40943536547347 40.85902049597312
37.919402795502876 12.931495781900141 38.536065743054046
35.66558160676302 12.729342143564066 37.71407435743858
29.579161578459164 31.472217825007903 29.42733413844817
29.75988666949439 33.28731958233142 27.667927720811036
31.10865835179027 33.17673988504313 25.24512547135148
32.79750129647965 31.774406251958677 24.605446031887205
18.516070205190438 67.20239970244575 36.9528158990659
16.89473060474275 68.61623272308694 35.67773164655349
36.85249865603897 12.145301374240969 32.63520882182426
38.36897157136427 14.076982641838047 33.59467420806341
39.79189411470791 14.796640414454732 51.04309494924543
41.6801909167983 15.46946133482183 51.92824314625818
42.18934147556268 17.937372893567304 52.09556684922904
41.37784918880332 19.488690260317405 53.19156917803754
23.385587196502925 22.383051530490867 47.704595603226714
21.911667551177832 22.68584314035832 45.737711207178
21.338056650132664 21.527373502908272 44.180829887003775
22.055385803594504 18.996007899150626 43.039573974012285
0.8988628944156516 34.83012852757142 8.030405684857428
38.685238195691824 42.74021662317945 59.497887478562674
40.892663661130115 43.79486214190689 58.778845115519616
41.617101344165384 45.52095503058749 56.806407765319705
40.58480576264155 46.49711862001692 55.054972763115465
29.937536857863055 37.42449846379092 24.40338405915241
29.81416027157182 36.93235438221416 26.895053222168038
29.994094172976354 38.44042128536193 29.141980070366543
29.899457175053143 40.58890136843102 29.589474962157205
21.00422186098145 10.020507844945532 61.189552543425364
22.572181794572003 8.744239637472887 59.87016372382091
22.776667246526227 7.971489839611205 57.57014745838964
21.833377554489136 8.558955031979108 55.4862530049123
35.78571577198232 62.26794235127689 32.92211741393884
35.361850907840875 59.791998501974916 33.534627251225615
36.51589087928551 57.841265284294515 33.459635432182004
39.15327714839224 57.174630641707466 32.99614578503705
1.477596718106658 17.73396142927932 6.398108754553261
1.2594986038823315 16.49145033285055 55.40142599176749
32.099750958624895 12.902640927783018 27.817221435956135
32.9618076497003 10.734189981823876 28.525308843254972
12.473889181166463 66.47686307743261 31.76635702943125
11.179571559304744 66.42789062813405 29.439703981197408
31.292046989584126 33.33925132126694 21.08726570074549
31.376117702441963 35.18228138169583 23.082627981951315
32.762056117878316 36.98940319667629 23.3035250457533
17.658133362939065 33.55922962601248 59.44276045514492
19.196641913366772 34.68974404912933 61.840303819393434
1.18024249674902 11.958697924177303 57.26216009132762
2.589223472909536 13.4258690524592 58.44552212498504
2.9555542643044013 13.62489519036276 61.39189316767788
44.25013717542251 20.49729815515842 61.40427230962974
45.67721710942689 20.362961419210535 59.83857055731062
45.28940286360695 20.524085623720683 57.071982052114386
43.65121413565385 19.47063565261284 55.77649887639913
3.9453411977982795 57.24179369841762 26.449209935301177
4.722073136926158 59.250095659729645 25.75926308941266
6.022065756475585 61.395762049415865 27.19882722552584
7.071906494125505 61.72842110799858 29.06863664308093
47.33149586961026 46.39789710129102 49.11907458952613
45.4438308254807 45.73923464009643 50.012298748633285
43.19127833787856 44.55855653122215 48.89250580297002
43.313342686237704 43.0818763197635 46.74194120283938
2.315462697094785 59.47482021829895 19.117148629559782
4.7293713658874905 59.66724923170521 19.572713794879743
6.242574154200549 59.05725471482485 21.31792013822865
5.753834650382119 57.90353025665545 23.720377561864968
2.202339158914741 16.35140105831687 10.537962488273537
2.8119475740946274 17.236492439362657 8.692334093404952
4.6187256683745845 17.89196681310449 9.90681968981582
4.728116413748814 20.392153488523995 11.517921694948855
41.320318238536785 35.508073025746675 36.34219881070209
40.16638413082861 36.209176860172185 38.41640251929488
41.102624857986065 36.534343766101564 40.78601181123756
43.710347374476605 36.766838576586515 41.53710559091752
5.813663225840688 14.623279788383533 13.733917626584342
5.551901076190307 15.695935383290498 11.797647352627889
6.545899675031647 15.26027306826369 9.21074118705394
7.885371574224583 13.521354273636813 8.41542191618461
44.54702137668022 41.5078601687904 40.3106212051356
43.42449277038218 39.30795698611749 41.204668617568956
42.565294332926335 38.81491329885938 43.466584057843775
42.936406524361374 39.870028277088444 45.76142144786532
43.275137995769086 22.78757972107368 50.563719825100605
43.763006967687 20.90136203887777 51.483089404779165
45.5179236520095 19.957072331069558 53.23294901209804
47.20840230115485 20.820000780390227 54.2986150630361
13.778562483062137 15.44256062099939 23.331557619387812
11.33711338910765 15.60569774189522 24.223685919874672
10.330298351897099 16.18098264134027 26.534734172687347
11.104381384027054 17.946899645942654 28.022243521295284
25.304625621104215 33.900402470233686 31.690999817460614
26.59640020458468 33.858644866726266 29.442516740400816
27.858627710479094 36.26280803447551 29.27270396348998
27.778767066286736 38.15909467678262 30.57968594360299
38.518328756636365 19.15721483126989 35.12023136237595
37.954161585328926 17.600443605050792 36.91522613525515
36.12868153945499 15.733255251219292 36.902540214770404
34.61852647500796 14.944733574198775 35.35061216971555
24.63731369773136 34.05872504057984 18.82720023219538
6.825424497661131 41.8302379437948 61.33668945126262
4.412874459909776 42.02502872176196 61.95843266100037
2.2658327528817446 41.14036441470378 61.077190587744454
1.6360761143003912 40.596763129883946 59.430405464226126
14.634904014635147 42.40224461671876 19.71297003097921
12.17970965451798 42.047795969938974 20.055765207284093
10.947930105412679 39.565926130971896 20.564599211045174
12.210134772414468 37.67981611849741 20.976932754631815
35.91838005756492 55.09489290921762 41.39527767622174
38.09118966416312 55.75049981064804 40.19018923700828
38.45867241327925 57.00433422052187 38.093571948441166
37.17756271132012 56.998973680262864 35.728870730548046
48.31301534825236 21.40392767763796 59.720908218412475
46.978577199419114 21.831989960722048 61.83240389678395
52.36158313895853 19.810213804540748 29.10042724418191
54.503408240359924 21.974402452532257 29.624712648167442
53.811983260331694 23.943357063068888 30.991224694626617
51.79709192108394 24.59415102905691 32.06932158321779
36.22837178098894 33.801136059972144 42.815761710971245
37.49640190207326 35.625953418975314 42.86174808532122
38.805360093056365 37.158858975804016 44.4541024898643
38.673572717866726 37.194189466890265 47.02404962203944
1.1384851888350875 9.643928029309677 29.029144113780593
2.9070734303304757 9.214630742133435 27.269331003043074
1.364163094129237 35.09868685911967 42.557755009311535
40.43548078303286 53.85825646372471 37.18257907120233
40.55140398387543 55.33510117148862 38.85937674297028
41.3810513202527 58.17727548026859 38.411606718643604
41.69132776439025 58.94318895484521 36.12685535482286
59.481438624914595 74.60720126474969 43.16513968534555
59.96364979143417 73.03456579510761 41.43385052665122
19.47596884597643 29.26085516770672 53.35417742598866
19.969405131109212 28.603236438519666 51.779180424024595
18.642275823934348 26.988198249908386 49.715127224745494
16.067524803132155 26.101753910253414 50.16369695265985
60.09653543245513 34.05012927669847 38.31969470493312
59.001229887519614 36.06712518027677 38.21169606308388
36.02956844542023 59.33567771978685 45.525437790637056
37.93463267481315 59.99932823599596 43.791648606053776
37.84397689535081 60.587040993135034 41.25170975812832
35.62676358925297 60.47521516293986 39.588825228645376
28.614781212455245 30.633323619382708 58.19472749901017
26.45681179662162 30.070832655032735 58.74404611136158
25.05428519184874 27.94265380266594 57.72185567381962
26.1825116207073 26.220026762801567 55.77883314430563
2.3793939829737023 9.151102772800677 53.663875655458455
1.203480125130515 10.547601683563828 54.701007503230784
22.779858943453302 51.66218610560177 49.12883918648853
20.75195411604989 50.697046907659605 47.546656255621095
20.54874718105084 49.08031044231276 45.79948955608362
22.556745252306342 47.9518634543866 44.67188718126151
4.98291254004394 20.19294448709442 22.008622990653837
6.355027996565807 20.257417883096874 19.976377386671356
6.129885791008427 20.71720588939201 17.747230292187233
4.35251581393918 20.824761491865782 15.989561970946504
13.83221525592533 2.347444710670752 38.25173138644489
13.93032552751836 1.9864629945658872 40.39882094263041
57.55159488336273 57.142578016150914 36.557952262186696
56.39993097381566 55.863429411979126 38.495803935007515
57.27733266705619 54.05125836820789 40.01116677005515
60.151728870352244 53.35452451892575 40.49190399784867
46.771505387408645 68.64701728431446 59.965459714782526
46.307309509104506 70.06387467978549 61.45306034122174
43.91617619379899 70.8548767978229 61.481579561606196
42.25022829445317 71.53750071870844 59.58683808862258
16.946047798584125 58.0831582147453 59.721600552159636
16.54770413895412 56.9100615660389 61.08669234125947
0.8697950188150984 33.35864168836517 46.322603410302015
14.196749081370406 2.3302231496076105 43.6932838003454
10.143035801776781 22.682911904612112 14.570337382101352
9.259362796350164 21.39922704467962 16.75342340385587
8.429761633337547 21.8964022852544 18.852627453440228
8.483991582921893 23.788716351913884 20.25610212094821
6.4774659728016095 40.53153297006597 28.48533348132402
5.248456348037229 42.47520876195508 27.48057239965588
3.7373560321426775 42.891039343915374 25.3080247134978
3.4512647710051367 41.395057431070526 23.420980410771204
35.72445164371569 60.87588295134046 52.70703165579652
38.200755534725296 59.99741747703307 52.93624925202401
39.450673577843084 59.46751363400119 54.722202004322064
38.997417455020546 61.37130966459946 55.734900619267684
40.3480804087928 40.52691226493938 58.40994013270113
41.435273179545476 41.70265000154921 56.810564828998615
40.819166531329174 42.012559146598 54.19468185646333
38.36850539897317 41.56349886427742 53.41019567237473
11.324809638972962 44.005791767100625 18.45778885864931
10.546785144893892 42.02047418202069 17.941334325847624
8.937710237967861 41.100847287909765 19.28902978230094
7.378302132914562 41.94865617140437 20.90607446418753
24.428837047958588 28.786181152914796 23.113027937722123
25.82764721308018 29.20305207611433 21.20674246240802
26.04338014170463 32.17432859575513 21.002055471104914
24.31591090450716 33.81780294138633 21.448781920877302
2.349793288334544 45.145982008221225 60.54629937526324
0.6529330087991965 43.48022565864075 61.42626871592909
59.89373261993836 24.226834636661298 31.850029756703613
57.70317071832892 25.354517468347808 32.579780656203106
56.002570219918205 25.427581971379933 30.31396875722347
57.069687599242386 24.52163600763296 28.145740548577862
10.114697280409807 16.416564450610434 12.00246645568132
8.00608104076206 16.41149584019689 13.524559591051508
8.038691420060054 16.640452695039315 15.96565202258449
9.720556885622551 17.65110004922896 17.649161343805268
54.493405769611655 31.383987090958886 41.93191484634032
56.43885462938567 31.133365451497607 40.634493487331625
58.73739637138589 32.68003175077092 40.220068390356396
59.15413797719127 34.864861984135594 40.78146808305643
4.008480364946945 62.385003039686325 15.518526931876613
37.394437825255324 56.96697885624068 45.309529079676906
39.33793330384831 57.8402336273132 46.22905201449726
39.15125363080661 58.874276648713526 49.08746251524473
37.353955609858076 58.97423195784273 50.323690373200215
43.97367079315579 45.37442243515947 61.84925413103668
43.891186143129424 44.30165628636294 59.85774664081757
45.99323967620235 44.42968057583967 57.986248289092075
47.629771991685935 45.71896524122519 57.7455399829262
5.398088217892894 0.487783254912115 28.08083601433405
11.091262994861971 21.421465427791922 11.457129628159505
9.647347397457315 19.779402529508886 11.131171016383592
7.603787707157333 19.23757061767222 12.538480236046205
6.90496635264797 20.77392858403232 14.562058487679035
15.52835119710399 19.026258072880022 41.90065217232358
17.637941519639956 18.53053886591645 41.32946760316553
19.238788545029383 20.04990297935288 43.326132093898245
19.124782200944637 19.559328717399637 45.64403721849732
9.11368603798081 47.789208382992136 21.622294815341732
9.007582005599161 45.10570065771539 21.56262783652213
7.726747942508323 43.58195142813208 22.95069600440799
7.656202351067075 43.407078196920835 25.577771843153126
38.905516963406555 16.607877986545365 48.952021487720515
37.22938931797694 14.981881501683244 48.60394546890088
37.302053516171966 14.223678796697172 45.868111886815086
37.969417083287766 15.79251294010715 44.02571774460589
25.236647457273783 6.091862127489408 61.896089221909186
24.75235628149132 6.1305050514026584 59.20741747157546
25.995149004004492 5.300870077385845 57.40334347954032
51.218049076814744 20.16683744622489 58.44768759564044
49.22274049594673 20.652125515351727 56.740411427216685
47.191333044395755 18.815743351519213 56.68851196658607
47.33418396790543 16.530228379126 57.93557459954227
10.615299224401372 43.201299749271186 13.606562367737705
10.302372269253912 41.14687160859895 15.279363328198231
11.847565455156456 39.08265344592079 15.82982958933539
42.8912561534864 42.81667031575227 62.04451078780588
40.97058139836079 41.665945894226304 61.00962819500987
43.50140813453743 21.342125904540705 38.47397108149308
42.05975495615409 19.143248347413202 38.722923272831316
39.164858039280574 19.92276317102637 38.13436460475119
38.529275594008986 21.8616210734018 36.777745148559355
34.75565311294595 35.04043577660841 36.49839261739933
36.243306878076986 36.66123121894732 37.783475235520974
36.20596303082798 37.455129239648315 40.18318820199458
34.64252645912393 35.79216466283722 42.020385914945756
1.3306698073611682 38.01231750828932 16.257361479156067
3.2854022920389885 39.59938467105705 16.62465894235489
4.37749221907715 40.64143978525589 18.634261684329662
4.205732979964547 39.89098909208346 21.29808487704929
39.78674597091848 54.571432859322805 44.00762589190314
40.50181943514219 54.65972963642165 41.993110331417974
40.2714262163776 57.44415882612925 41.01827152831758
40.25969288035208 59.318146752029286 42.639613140250866
1.0764785761005808 10.608879067819814 40.453069029119035
15.483894635457103 66.27940734759385 40.90300693502795
16.14324045491677 68.30031579262484 39.939561345991166
35.49516943432821 12.149870099598925 34.98788561323969
33.141098487912885 12.733888171167758 34.79344187040338
21.113186747361905 22.80750179575111 39.844907391677545
20.325184048376094 22.628159715988133 42.07973000542041
20.364601736115006 24.6921388247005 43.85453148253252
22.044786601736508 26.584505082292203 44.09795821855754
11.551032315546799 15.281519422550353 21.583719384629905
9.25087306911267 15.874959173922498 20.784869012345705
8.312568074830589 15.400364791513907 18.24726412459636
8.778706059524762 13.847693454572843 16.5566784281452
59.06463529002084 53.58773018414479 45.57350788431947
22.935340487723845 25.18143153540755 46.091876148058894
22.98167477033192 25.008969958062025 48.525638616776796
21.861920210639255 27.461907486250006 49.615899687061514
20.419724710418897 28.92626664508874 48.36050449291523
40.599715556565705 19.634624535835353 41.29746851680018
40.08220327593701 17.541792198526572 40.809009301582186
37.846894093218374 16.031328804928044 40.64496877316059
35.70063144674597 16.655448363177253 40.039189413025476
43.171161892992906 13.11269852499307 54.46345145150181
43.27293371723614 15.376249792417509 54.98542617744686
44.67912087599198 16.711786710607313 56.84192630828957
43.42142135687337 16.029414901334547 59.202903205816845
18.708447422619173 50.16667968920586 40.51906129667155
17.967819538285507 49.71742619128915 42.6521314307853
18.25322861811718 50.51069662833229 44.92345091668523
19.56029015443642 52.32154754260274 45.852514591028275
34.59504053778901 56.74531911537928 26.86532920225591
35.65461644748544 56.509006867061274 29.154532261803297
38.55629172814778 57.25261435785016 29.60468637091719
58.80472739735975 28.222681605203118 29.946149185817283
57.10529199292733 28.12131172008573 31.908080800156608
57.28770605139958 29.233218223703208 34.18055307684332
12.89155778453094 47.53868536109056 44.7019858711653
14.891737876692472 48.09451058600342 46.20373367079084
15.23266663537801 49.00797319278806 48.336415084852376
13.630953305055819 50.31187836235701 50.270729548032804
9.275477785048665 20.948148472470205 32.59241324552257
7.573083695473378 21.188919228505778 31.679279048702654
6.3840543282288555 19.97063923108149 29.361508022367932
7.185996197118119 18.724927946033578 28.08483444123648
32.970505161455385 61.882933087651494 31.992959990718997
33.37103065027424 59.700919632516175 31.54927424804542
33.407299090701216 58.37798389314748 29.090219636414666
32.884650695368 59.383741972617365 26.917038830630478
48.64542610586837 72.93744911358948 36.12647566602944
50.405541611270536 74.12688945454437 36.23188591696429
30.56474887602888 13.346761611601236 35.659394911666666
31.559121900300962 15.095047690094905 35.396539229560375
33.273690631392 16.23986475101218 37.534699259755165
33.70504856259985 14.790488847874814 39.96907048327572
38.995391044315355 55.2381635768264 34.68255847633335
37.53040149996087 53.90416860028056 35.64615864288985
35.27610287370096 52.98600925771302 34.61397406598902
34.42482556253437 53.43473099007852 32.33271994710867
30.8833019496439 58.20735839846705 32.604495165622204
32.471675508054325 57.24775733749407 32.063924913359806
34.29069029814112 56.08317614967068 33.42858557057927
33.00529516741007 54.5207343955863 35.13803464985215
37.74061246007114 51.27368162816485 37.495733552959386
38.1309430573964 53.12691124829506 38.98960872547477
38.1616678951452 53.33685304806658 41.378656574745925
38.29445848610148 51.0999074679776 43.143711592243534
3.2209178944156296 62.157392908463905 18.658669707758957
3.6934000860865304 62.556611506859106 20.644242013126437
5.870554034002587 64.24754861011894 21.283888921561214
6.73782449479607 65.89781452861152 20.4245671109678
7.425360246739987 18.54164632953574 61.533568791888115
25.68746171471512 55.61721572975835 22.796314131213084
27.406133220591066 55.28201474891638 24.442099661568367
20.336742400817617 55.607258097943486 51.26195351624687
19.53484868287269 53.422661912906754 51.40117440240943
20.309957349724815 51.19308215473285 52.57082486102749
22.437183877564628 50.598583148230006 53.84721867025895
2.61616292191244 16.17799836578158 59.504931528891426
3.989136408676788 16.27182523196173 61.36431555488533
0.8462561999431089 19.904357780952527 61.92624092972508
59.920161188719995 78.96382320838218 45.862283631430365
58.489988204723716 77.13828266733005 44.72731795033108
57.45346797376967 76.9305495398341 42.64378795460145
56.58512611024022 78.20239415654189 40.95653113348989
24.818009088970935 29.102644584027754 61.02998932521673
23.694228504695364 30.016775109092773 59.829231259996824
21.941837300145618 32.06294497744788 60.66331226568305
1.7299703367215784 61.83734918213005 49.305996487630914
1.095208386115306 60.660542475481435 50.98883569075023
1.5085054153636452 60.75890564057913 53.742355645202736
2.9256774676107455 61.94326757622201 54.99548772927225
2.1761605071600187 36.34977131556414 11.19355787125336
2.6848308013732334 38.627281520032405 12.14744224394191
4.1216839177614855 39.267587351004046 14.251926827757806
5.983433496894333 37.74758264327418 14.981934338552515
2.094579831908344 15.104022213825361 6.276953004805235
3.941874731190917 14.672688160246432 8.425358119467376
24.352002439396216 8.759747128876823 61.87922310285904
16.38327735961491 41.957674665492895 35.90446802037663
14.322618676889851 43.03527529114771 35.946298436612295
12.665473331414413 44.04027594075421 34.01463629266569
12.090452637208234 43.26913418627699 31.951012458642897
13.563068089864503 54.047056540751306 44.56267156720814
14.228685856076616 51.57913160016503 45.38712929215972
15.339483829536794 49.801248411495756 44.10698491017016
13.9158967193086 49.03196739715482 42.602474913623354
18.254859441442363 8.574809054461987 47.48253077615193
19.15582027061786 6.970322092501317 48.84667507298159
20.108834489172594 7.042253224592668 51.21570271549967
19.7056824687407 8.51554702575022 53.31938900776875
59.63613611764989 76.09562535326023 40.298686853924906
57.45423379341119 75.4904104675401 39.49330655656474
0.31353875659850156 40.39310670773963 57.108632237888386
36.717265223862015 64.53593536921635 46.199074103362996
36.41162661994294 62.53722733104251 47.42241233903821
36.42875485395951 61.86688356359407 49.81647687923496
36.50343006349043 63.361682467627766 52.047146379421235
54.40790872784547 29.97501125674281 33.304477368173764
55.000445745903754 29.144949484523604 31.042482734403805
54.231337033391796 27.73816578268861 29.449785200995624
52.02651897481145 27.67752473039246 28.205729199406807
55.562409988824406 75.51852444795475 48.36183163345527
56.17754759852969 75.12970581949207 46.16973396384154
55.16222146612278 76.12354751477987 43.78667525550097
53.7415344158446 77.81934524034527 43.13631937556531
22.25830172771679 59.59972024657448 61.50064156983807
45.18938199274469 19.56639773109121 49.401964882973026
43.22165210124909 18.07112117338121 49.61348155673024
41.134553365560656 17.34321472106963 47.9072445610579
40.917068144763945 17.662647208665597 45.82769586516301
27.070818532692062 30.330629527152936 53.29893833314121
28.422403929840527 31.507379540026207 55.2049066767704
26.58984863172531 32.42664053984583 57.15549733613554
24.002078544898175 32.79607189804622 56.7383360093457
39.70488612536388 38.05251707064794 35.591505169535985
38.055387117038606 36.48219600909209 35.36042281842445
35.41576986463804 37.38099599206372 34.61383357743855
34.81820708147184 39.64711254941487 34.41198286055786
11.030429752127748 44.50316846020076 38.33010231034164
11.345528553883598 43.38305659285321 36.219000672659114
9.80747248799719 43.321467381383215 34.20964855124032
8.1054873183563 44.58541187529616 33.30709590696294
55.46582721054353 52.37019597854271 39.092328095116066
57.19130279682002 51.86397358253342 37.32183583671857
56.97000752915091 51.80282535552838 34.640759804173115
55.163321016962705 51.97019222013736 33.20591756509993
59.56033518012425 51.09909751051037 43.25206979774476
57.6008366944461 51.1269356685305 42.82737349289652
12.171822628034228 25.35405304631494 34.50006574048817
13.938515050960271 24.997511330047406 35.752032806009694
13.783687658114344 22.290716575909123 36.58786047932866
11.886369166401384 20.56273927572796 35.38761309191257
11.059913486046003 63.573639593622325 25.529774651974474
9.67279163673313 62.61086556830492 27.237661303886153
9.870735764303413 62.13950300566335 29.732317144552297
11.65869969650373 63.39174900863831 31.296009942732784
5.453412781011491 60.36434916223702 17.189956009114674
6.145669534452926 62.32749136296334 16.972579856983227
8.620466551431214 63.591462877779776 17.401879534516596
10.484551111161275 62.964677818310435 18.78711498227773
27.475478044239523 11.188897895049363 61.96470476667749
28.508839175206187 9.875914566430959 60.38705353389022
27.22837067257477 8.572357452997387 58.39432766750688
25.434599500962477 9.157939613819869 57.17644729968027
19.694403782206255 32.65440075525296 54.429176126107436
19.646894751791855 31.86209080173222 56.620854252880704
20.201058849320862 32.56494709556198 58.90078799563651
20.800202064412716 34.83828468564891 59.80859721367226
7.758202053615111 16.156343756178664 25.882067712675923
7.912548490005808 17.822351081244307 24.412704977963763
6.516637873986683 18.31456657389683 22.071963319358154
5.2879255674870365 17.387589305975567 20.772560286927156
10.18873458748823 15.026592564766776 9.214715640001762
8.723998308435569 17.293721635196935 9.55340133295791
9.014450794620027 19.32195188026135 8.655296276863893
42.7393518497376 37.439511388470066 47.7321213373995
41.45519684374152 37.07129389326841 45.40451878146678
41.60845669778694 35.589960919430325 43.79560086270367
43.697444798645506 34.01785601264654 43.192140687584754
54.3017925058773 27.609168405269067 44.52675616200179
56.140603104178865 28.77486517205094 43.51455325839182
57.1896673886404 28.634768644140962 41.89247426673665
58.50544556137316 26.84295335245929 40.49452279378501
21.951430383532784 27.179200944430672 53.26935238516999
23.99912572279219 27.614137515464087 54.31505088838917
23.528773434813488 29.89961038353358 56.140732212109484
21.87464044393515 30.458537229752572 57.48883122538141
58.31870827754888 30.658805420108244 43.153226745247814
26.60614272142226 10.389860119606094 27.54206286900573
28.967813313598825 11.530452049235965 27.56382672411563
29.837723714956205 12.913239633115147 29.293622571911456
28.563088995207092 12.83175702271789 32.014224709913435
6.879122545576324 35.89116141476777 11.713223057819945
8.040225917455098 37.032221890339265 13.000997442160292
8.431452209468818 39.295725346031624 12.756812049711638
56.501401567315746 48.936937864323546 34.964942808608555
54.32351776695433 47.84816583807046 34.23827416218517
57.771743951962804 45.492051373015705 37.68093767399842
57.90789778243973 47.77164354753111 36.762239510933824
57.96731187454942 49.56956900368629 38.35604930277264
56.80665409126275 50.02670246930044 40.5353665177817
29.245478340629486 33.75249168534129 30.887013912721873
30.56048347085865 35.355765235115314 29.490150810929457
32.19452927565655 37.012460805830166 29.799517775478257
33.82845751484987 37.68024207580569 31.553734996189466
11.193974543845261 43.04459564835322 40.67333735508464
13.439469905275335 43.86588294222714 40.44838970418566
15.229311164702796 44.849371270348826 42.46987025349668
15.044923211746175 45.40897745080792 44.6760643235588
10.251602739246566 51.58589819795451 52.14777514269624
11.810172452714388 53.46474412131201 53.28390178584246
14.270319886949073 53.37766724891379 53.92720089335744
15.987733219083932 51.6477221051575 53.9024623536558
42.72318641776484 59.77277199990238 56.92188636564386
44.082367831866314 61.79672208499265 57.84400382192089
43.30058683705494 63.74746527465864 59.60860396391744
40.609959197719824 64.3145713343085 59.724289994167925
49.158840412049365 0.48666874789226644 20.996617947462237
49.52904755531492 0.6411949012102762 23.679182431754846
31.924749508669063 9.737056055064691 15.860601401593406
30.123775208004098 8.486310543120037 15.53470721134653
28.76990618278811 2.0244346150854398 21.66713607091925
27.38633317399845 1.7125536136185011 20.127665171820766
27.652956336598862 3.390899564876254 17.892257746738313
29.516840933689025 4.544445155675097 17.1421118482474
55.44610374565428 5.605766162637762 32.517038428787274
55.430826343046384 3.4760394418736347 32.450217667954874
53.93447867639598 1.6949555459940626 31.06791114911637
52.05368483849607 2.187612708778477 29.469329167175
59.47056604590628 8.039575309661405 38.53480096186733
58.12169318148238 6.40076618323965 39.03890326442227
56.9369105544413 4.839973540182033 36.91590316711719
56.6846861196132 5.123956386539086 35.00370096889078
59.47280982470655 6.173889278649205 31.32166865150134
57.76574557170723 4.012075544523837 31.11825141262955
58.133979190211946 1.7285903370184403 32.215157467249774
59.091448365248134 1.0231248874318095 34.42202764269336
8.355055109827743 0.5242671482424346 28.138553149422165
53.86036945153117 7.246760577617115 27.763634582224295
