7.487285091720668 67.34926658568114 14.409461934334704
9.480226620399579 67.99921454976591 13.488384044075518
11.478809412845992 69.45722415846224 14.130693978871728
57.52279433461287 68.24542333314761 20.39185488889457
56.89739219583721 71.01861258772146 20.728095624962968
54.537120834660165 72.06150063129286 19.630520301514988
53.15250473431455 71.17229940094573 17.867254620011064
37.87171357039569 39.65445161697186 38.496492069333705
39.87749129446416 38.28835267739069 38.029819479243464
42.46523087878602 39.04527141762503 39.00854770105307
43.36471264348872 41.0493555917116 39.86247584459858
15.379642317980835 66.03044494585305 21.355781459776797
15.468460753961985 66.04684863913117 18.817861850384112
13.414786541799176 66.64845291134142 17.30885217935869
10.889930057757121 65.9827976427518 17.44697372222431
53.8401013463929 30.314079615323944 32.78009817507599
54.442823329151835 28.68335023577934 31.521872482483438
56.72876281953357 27.037772200539088 31.97191027727514
57.79952599977965 26.525505724292138 34.12744223593876
42.835367827671156 40.02600439934392 44.582095215115245
43.20420829296535 41.51610430925333 42.475713813341955
44.334026155425676 43.57144453438557 42.02176109720335
46.491034483442114 44.26346007452595 42.894792856243036
48.033519485648064 26.81564230549068 1.5297747969453785
52.29896674337378 26.128925615002995 0.7262281991273359
53.316355571409794 27.443847670854144 2.252329255612641
28.36788221292136 27.696480896488435 10.66676566633594
29.86187742021667 28.57312750393219 8.868911023267676
31.793513376157808 27.269465260970485 7.436273875863036
31.541535063456983 25.08706669370536 6.315232043927921
44.57866750339189 21.436807201135892 0.9150771961856881
47.01281307968572 21.79986260050564 1.9917139676252376
49.163472906366835 22.101047707793107 0.8989517633207753
7.454849977369205 36.26167022487353 38.566555428698635
5.6696028587326825 24.83579773210929 26.896998678886092
34.40436418590032 28.407054987623763 3.522594641650128
32.3237193156166 28.731446607127143 4.83857123410766
31.58421001613983 30.53902152325906 6.800577457221709
33.39905590048443 32.04209812453978 8.149994499983842
4.012215895585176 43.341205252673966 3.606147509858013
4.172279734873014 41.621039453091335 4.985500662013461
6.167827596428558 40.01124741488689 5.325635395588146
8.620897432617337 40.783853107195995 4.579466539366454
6.07576402465242 38.2686612438544 14.477247609849394
8.183822663238315 38.64539187467154 13.764192062755658
10.533257484119062 39.12973511803883 15.296036621482969
9.77632158623558 40.50696384687207 17.364437783514088
59.987041734506704 45.5886473445579 48.98996088349683
55.10017894141463 3.8848278959976406 7.372787400957853
46.840942060342535 46.16044095962448 46.683452821297514
48.85564877015169 46.301807687553826 44.85828306741984
50.89041017169637 47.2999931782964 44.93624286009659
59.356181897322514 25.36243463024604 1.5165039264970672
57.35768457558278 25.041558097577315 3.017430810934297
55.76153645995713 23.065102475491244 3.2131190820369664
55.72731485205246 20.954661451836103 1.9254630424783132
45.67061269309995 11.899219931533853 16.788028086695295
45.21430774298888 12.865287682089221 18.59470058575179
42.866809674580026 13.747512872281083 19.478702600652376
40.54726429182033 13.874172285102372 18.46936533171202
33.74206106162222 58.81501398498111 8.089455004813912
34.67347788747821 60.63299080831328 8.780674056917006
33.85882477078293 63.21201009360784 8.452587508153117
31.691848683771383 64.04718979764027 8.194867028935915
56.78319333606948 58.51719018381574 29.914321084939164
56.78375636324615 57.67044675990009 27.75956395751683
56.52504669055813 55.21645932719118 26.871341544969333
56.456714864994 53.148670635850515 28.025078072721755
10.987128843191062 37.62920318761285 37.950362570956706
12.279275605808294 36.975031853140635 35.503754782872505
54.74546852980587 17.449140865311815 26.81326737371334
52.75588699829981 16.84909452311042 25.719854941023648
51.20009614743819 18.87598427202465 25.074046160519593
51.73263822937772 21.2214009809575 24.931671200678345
59.87751007726988 52.93503402350673 1.2086533023801742
8.36725501291223 36.21202768772154 8.899894590382543
8.510105570368351 36.908534828638125 11.253335871098422
10.144660703588764 36.606199262558654 13.283291984421188
12.606274241481355 35.66976344659215 13.192159033698127
42.66681593136586 34.54413560950757 8.043711600176087
42.312983975750996 33.6729190732576 9.720876740366846
39.73096569926908 32.836489879975375 10.54136118229746
37.780196824959404 32.70583866735077 8.839582608998489
53.443673961691616 46.67470143099656 37.286304444046216
52.87467404032094 43.82563601410192 36.851128333621226
50.45125974489023 42.86272882082166 36.56934004523473
48.458857995182264 44.58699310778485 35.19436160372739
57.737781527387476 51.3447860802771 18.359379946336247
59.53980695761614 50.21283508229618 20.31486870979415
28.007505790542666 23.451874548081843 29.185861325269833
27.528216891814406 24.455798496376683 27.26763476267655
54.56598294000532 40.85234203617651 18.383757769129428
51.9232115628471 40.94744625472064 18.473482956905364
50.16895513108242 40.02161999591905 17.229708629784856
49.93390027342576 37.89415704152567 15.96844622935507
45.642866811542476 34.79487795844529 10.788536232144372
45.07850368504504 35.766727274095295 12.812252906477612
42.65565219102177 35.96133962974118 13.299107631790909
40.94584462648491 35.47056154200642 11.367242144964118
9.471536086179842 41.57393632396228 35.77999774306201
9.268321753564074 39.09695320546123 36.58888685094103
7.871689847277576 37.24590111746732 35.89948770623808
5.5747753108022104 37.42643643687126 34.65732134723949
36.29177938380898 43.0793252148014 41.418818273849205
38.97560588952056 42.11543973917505 41.44367886145992
40.950532355365425 42.79433750986335 43.09365231856691
40.986493144768126 44.13473507737362 45.085331249408696
35.30046497973454 53.866497079738984 7.194960262405272
34.51763066258193 55.873485804938134 8.04792096276691
35.50310468159186 57.55092724307064 10.061440605280486
37.6881770671661 58.577589577794825 9.38560082239419
35.58681487111132 30.206300647536548 39.549472702038145
35.397975643279956 32.79610965922044 39.93392364218684
35.08732915123144 33.90579631803398 42.1067455741745
16.206548288781914 46.38073793080113 18.300123420076943
15.23429941055285 44.79253033902494 16.944060595070088
16.29247952034642 42.725106690766104 15.65220761945941
18.12862482637905 42.347381753700596 14.756881877109954
52.13293257491078 48.40208303505031 20.964656825905266
54.253081496466706 48.32616149047452 20.370849132120625
56.09685694961723 50.07461451427553 20.560860638661413
56.286516622996466 52.346337693184246 20.478613135947736
22.16004638172742 52.788698366957284 25.420110378404402
22.17234070091364 50.39143466509455 24.297938800250698
20.53715283888677 48.607132360175214 24.177608462505297
18.317160003843117 49.04952481491128 24.1436482209553
24.33812507794849 21.69198512106732 26.34592904343708
22.506450970121406 20.702207898178916 26.447887180533506
22.10815884941465 18.49102536890069 25.35543489111766
23.219281607222296 17.588472364587467 23.41252980263251
32.74543370015042 50.05736217712578 28.349342157244422
30.667038474136586 51.09986700398158 29.236502959128966
30.646240894475763 53.25400976915356 30.867691271067947
31.866912084135233 54.131029847451615 32.339888739057
58.64647473209045 59.95612110987935 27.854339355194426
60.06173334125113 58.3781652528375 27.651657921562606
18.763456353189824 34.5693011057528 17.72944390437901
18.625288444494565 36.47593396212137 17.012630946389397
19.4064005725494 38.856870662407644 17.921553749011462
20.955850651882603 39.615764938870505 19.48756104605878
55.99721335027165 45.74118031112322 43.7227676917168
53.635524691615174 45.013384256893026 44.330060177157456
51.6650364494947 44.97460392202542 42.8144347467973
51.47794927373706 43.98749116478196 40.53885949428934
54.44334002577562 52.84084736647706 23.376971429640395
56.784503123669765 53.1144029129554 22.944195135340884
58.58308061502178 55.197073710174145 23.081349223452808
58.534451701035366 56.94617042614022 23.582984948329422
10.874847020518036 42.44721597595305 38.305766411346475
13.123594568738444 41.46339348879882 39.162999114799746
14.803464586048616 42.01328474338438 40.45284360019055
15.109311870046765 44.11885672670129 42.33811277705544
55.32713201179061 53.82944270076745 2.975079627186061
57.33683092341513 54.62667415138858 4.490537149678185
59.34976189946921 55.24924070380674 3.873108515500161
43.328013007066374 66.423231708119 9.53962682613667
43.4432296496274 64.96643109567913 10.884787980594734
41.60754492483056 62.82154737553916 11.056426360377626
40.096531721425706 62.1566909863196 9.556976048224609
12.324266293083264 39.00432651296949 32.03923410927904
11.39739017115074 39.825754821772506 34.28117796317094
12.329772834858945 41.49217554471938 35.953426708290664
14.330851860505703 41.94982871365335 36.72960525473002
12.81156493356457 43.35644977831683 17.223736224069327
13.241623623550842 41.45407755917273 15.577743621982359
11.37083764728728 40.89144643393391 13.373958831629974
9.907853868291546 41.83460763952891 12.401812364499307
4.5516552496633595 29.663286398817753 30.37273162624006
50.110919918900755 43.50226251038137 14.85482526409378
50.305054804266454 42.952472479402616 16.823650634415998
51.40858543914508 44.28287773309893 19.335781628357083
52.29900482592973 46.130179412976894 19.58170887947368
58.91914262894436 29.40559625321471 7.2078528748532396
57.85165099663762 29.616619894892082 5.160500168315059
56.08942865837168 28.009806802412328 3.8112772680078257
54.98854590396926 26.061836455188164 4.368573512248735
48.20993796711478 19.043660776321424 18.511839739225493
47.7575704203866 17.148919773072343 18.541389934249054
45.460856709309525 15.566480961786429 19.089692350718543
43.30380796988736 16.38481264077411 19.198560217880853
49.18790283301946 31.497526853952483 15.467367009468306
47.765201287957225 33.92028404414009 15.46145604865217
47.974921645652074 36.069577048483254 14.319380726889914
49.79650161216557 36.33155519389986 12.153710693388973
23.14682058059961 50.38249072601961 22.047643805146233
23.032644625897387 47.85198096570842 22.469925172675264
22.137468043936494 46.060808346231866 21.038577942872084
21.320028918518346 45.889901219685505 18.674799611949375
26.6860532668986 1.5009828874321387 3.6285387130085285
17.814496425677333 42.29684254814463 45.30511491507071
17.52740477922197 40.24257999946459 43.56668738956966
17.427055349348375 40.228519592769715 41.17787014031597
42.040162421496646 6.851049993396539 15.870509632460857
40.41675984891483 8.61506275636728 16.640066898101416
40.52871158920402 10.273913709126427 18.389357836408124
40.773288692901964 9.269939151139932 21.091530967442296
52.545918642305395 49.64804675934803 4.677638313925547
54.51688483836116 48.85565050269184 3.7801409822362153
57.157096423905216 49.90473682531297 3.8861088820243523
57.869594041828776 52.16798601199784 5.260807025476481
26.9091741333272 26.15881046931254 3.7302822335897776
26.75478012758839 25.727866746403283 0.7764189973510532
22.603140503242706 26.89220076526196 0.5324141453766099
15.228096792352737 42.87521266207491 45.265339012065525
13.209047865813744 42.115397477500295 43.959868379269366
4.9063325783957445 54.54680116583982 28.361910595463527
28.71309858809501 1.8261042403778573 5.127060035429904
27.752416669278713 1.1159251539687103 7.3158617228362015
28.543525669973185 1.951456845853916 9.839428383943659
29.061584659711276 3.7516744427014297 10.625467864955327
52.11315724760617 51.50545829081999 1.1825407859805617
52.1284321112232 49.53739286025256 1.1220711288221428
46.76597749563955 9.381528818619804 19.284102194529268
44.364164296768 10.33634983565157 19.41695149044148
42.87180459803158 11.154767806022894 21.508219362468957
43.29926424131715 10.39124955423338 23.430943509826815
33.235461793617226 48.197863293180916 23.64666748240692
32.55475323175425 49.701559345726 25.438457930246013
32.58300653608778 52.18556375574123 25.674127064880697
33.534676602821044 53.798142912833015 24.579882410832838
40.11526093270792 27.001301324781704 32.70929777611833
37.94331612704309 27.669743626169627 33.89944612981585
35.57928365560385 28.000984172531112 33.23822817513746
34.631190993786994 27.261285234954077 30.90128512655194
21.62921548747261 47.19152182046889 0.8778357232697417
41.69831327745577 68.75845598580416 16.484169262630083
44.277961641867726 68.186898102405 16.904941027291905
46.405871026753246 69.16887283926634 16.916847663024008
47.14889526287339 71.77512600613998 16.763583070104236
25.69452563395428 26.618900188080737 25.21933704820683
28.140260223158794 27.92604430879868 24.34221090308683
29.87777317667439 29.074662544504722 26.30389727934759
29.79150261363532 28.188184720807556 28.42834371247687
2.470426932528118 34.12330764114901 10.743050455551653
3.141653731415775 35.94553938870796 11.656165842201334
5.620461730868123 36.60342772616946 12.621438598753375
7.346625594547079 35.30664911881321 13.871347145275205
3.58738940173541 56.24874056717386 0.14867937023080519
3.4592348598679266 56.06393248955942 2.2410644422311354
45.687420633943056 63.19089805701164 11.465571491844369
45.32021898448294 64.71620057830357 13.235849072164383
47.25706013014581 65.3138341432691 15.325173562963535
49.14042893286366 63.92754728822908 15.974995784657366
4.956828944104928 60.88088326980922 13.6350034068196
5.980287958765802 62.71373232772402 12.697630212377064
7.896378294623691 64.73210459916962 13.968432607284763
8.528197990954443 64.86804282329226 15.986467145906866
35.383204253536626 9.480299525414543 10.961524947680829
36.133246434253955 8.608896333097332 12.541787126709034
36.53051806629581 9.69958518284968 14.544831237477997
39.093689802915826 10.655600364734047 15.430533218097374
53.87107836729503 40.723484927826675 21.287440370676876
52.06197235563742 42.32213505794868 21.086152787661845
52.122511615857306 44.9360287663428 21.987098637388737
54.41203367079746 46.17895374930441 22.169790971639923
32.043978440139654 26.97291600241607 26.153300234161666
33.508695563668105 27.052646455169576 28.255148043900466
35.56488304183361 28.333641515511413 28.717002346593432
35.95833046306857 30.665266581473777 26.962810683435034
20.484515611694217 43.3057560725994 21.721751656446436
20.600762590640397 45.51331270431669 23.194779890342218
21.382762644510713 45.74938651071234 25.59169300871423
23.75148348673463 44.419784645118845 26.41136448846844
32.112620228444776 29.541885820332322 28.99571080853528
32.19434622618132 27.736466949042274 30.58782187037959
31.68977126333646 27.552279937215083 33.28055393550768
31.462913067635995 29.219353532210132 34.94976395441433
26.34378143314413 19.543930072385315 26.649345568415725
27.575384264445116 20.82755909262985 27.572026358378665
25.945549715427774 55.489174660913584 3.2228323782675696
27.515794320415548 53.884302861536185 3.7105814126658747
30.118830444452456 54.28183201464432 4.293190653776123
31.16974053018373 56.147923788697746 5.120140174858028
34.903264347195595 6.694188691899959 6.07163089247859
33.002468940262354 6.22929907108409 7.212097586898589
30.684956714424423 7.711790622325919 7.557916429286109
30.30759882229763 10.057821280943621 7.443750007209016
36.07277031026465 9.172671157742473 18.212575940292755
37.22632877118691 11.151509447332156 17.843029771840424
38.33342610044643 12.898850897558363 19.51344092439888
24.205352039031432 1.4636440984554526 9.045682359439226
28.089404309422886 44.89894555089509 25.46984742073625
25.979567490639976 45.26245463672701 24.992266061653766
24.257862472509505 45.51121788623284 23.000299314207165
24.49887995601138 44.41776525378935 21.103589994035286
37.92246980753112 33.265132820253854 35.261316266670015
38.16634671844202 35.40960551558989 34.72869225013769
40.499667953742936 36.95103214354995 35.57919017244459
42.37588912681125 36.51075361284342 35.26431987043149
50.47244444520118 15.507745255868478 0.0709673221164781
51.33587259404643 17.754744078615833 0.047423930104412336
52.684068603373184 19.156088123998984 1.1871674399636054
55.16618836591436 18.20293184108415 2.027430974791488
53.0007473494751 66.178477380463 13.836113482054161
51.314947728311324 66.29508309285939 15.3272745817344
49.9308428740531 68.54420188211738 16.328208057749787
50.13359138598583 70.68829781958539 15.761936526027442
18.92680215091518 72.55993011279043 0.8453724558858244
39.110134341558044 65.41162031262024 6.6804705368845845
36.96172420516394 64.55347581084486 7.328692998070606
34.44387276096296 65.41457691731515 6.694493116372421
33.76162146906061 67.8298539298153 6.552312840929565
17.339399865685174 35.98620916921189 39.49779626729798
15.244683022225724 37.290228861159 38.89239969208531
14.839384836959969 39.38357253445971 38.25516909182041
16.486683602137266 41.543997792744285 38.244533344959436
59.08408491027233 45.81736897782461 46.06422098384089
57.3344167208416 46.25725609364125 47.41414740388347
54.954219783233086 45.199721360569924 47.602531521470965
54.046283853451484 42.89505526977428 46.31720100447545
40.13047256758084 67.34715971472211 18.374379527392904
40.075693026773145 65.232995211391 17.110050109552365
38.473874092701976 64.33840025945341 15.6335697917947
37.614233072057516 66.15138965738706 13.846772268521022
13.295277264176477 67.21205028029698 13.817175904381976
15.13457969840132 66.14438167922138 14.971719278026825
16.509078542926677 68.14986341952866 16.650672642284203
15.844447715335187 70.49680322120976 16.676547483589616
59.52386663107579 26.33285674080757 31.928189774353818
32.33201162352737 31.226455403869753 11.334466508841121
30.678487110980395 31.25934706310759 9.516728514757911
28.146547226105856 32.68946914663361 9.53680821557944
28.252289947738706 34.72337404285421 10.821705633964394
23.80572573684653 31.025110643001337 0.3197856035144857
23.96053677703098 30.376430048431367 2.8598924932979592
27.79044755449266 28.076529752453993 1.2495544799144225
29.20686842592705 27.53508083639889 3.432518187761128
31.27746693669353 26.527866823748 3.7408263983328913
26.517265085374287 30.419591721204608 9.589349076012276
27.41685370217624 28.933292749146073 8.10963266426245
26.664885539531074 27.644939593676646 6.069380648857251
24.660001982688005 28.1444549709566 4.584371392803972
55.19451375283895 48.076171494867246 47.249702811034986
29.719143173734164 51.82384553333319 36.36417990182929
30.41697534728746 52.89974245304386 34.73965776752785
28.681101100109828 52.56915993628891 32.38760219519239
27.41412519408503 50.312968381302106 31.895096680431696
32.56005829433524 67.10010920710913 8.946337268276258
34.241068695497546 65.34130856341892 9.888578328654619
34.94954302835322 64.8209670657821 12.045149974744897
33.481707622413076 64.14680450822549 14.230033476207993
6.812399855833413 58.658139786535735 5.730517871075694
5.539048808153969 59.48713559027597 3.6301629127330344
5.734592877065676 59.3101859024663 1.5288178445622502
55.244555022298705 25.832898266305772 0.2110066706443266
56.8720704870758 27.30395235451805 1.3410768808398121
58.71377491720326 28.70392317217684 0.5792210167675199
20.02755404302812 40.79516480334452 15.973821543094932
19.838065375408704 42.35590387157609 17.99014981616231
21.83209594171353 43.300691607207405 19.393723001871177
24.479310751684103 42.666235429975934 19.14192323372686
26.275423050412673 55.58388774455475 29.695770448529228
25.874992817274258 53.673883318596026 28.52751074356041
25.42473501260337 51.14723887778777 29.51792047861946
24.6387472136362 50.37058054371352 31.05089351648026
0.20423210483587487 31.130293120322982 28.226654917324186
1.4106537230510736 29.47851218074632 29.06489703498453
57.31842534517541 50.85657268803768 43.36684718477672
56.33187845858712 49.02645226118422 44.096890050043875
53.870462089744606 48.419401210708195 44.87856282135055
51.82540947743501 49.96065831408947 45.04252904080098
11.298268574960705 12.663120176296585 15.393885571619135
12.217579022431464 13.704828093069684 17.05990325699525
16.556906810664636 13.291423481913947 16.778243108960027
34.34736467519752 38.58624527105311 40.81266581050085
36.53058677791347 37.751405707162924 39.985138784897465
36.847811333235086 35.275069306829586 39.892954081710634
36.69220135539047 34.272597085811704 37.505209441232275
56.53976202511431 52.168520128291746 0.9699544132289765
55.01141269000749 50.45151913433031 1.1262451806096236
43.063709386685474 38.78098395715207 20.163153140677995
43.3868656522626 40.49700409195835 18.570508368168877
45.10333070140793 42.677409253948554 18.970662720412772
46.141523772806494 43.104989621219566 21.261300174615737
30.623246588161976 4.300944501539512 13.003397382214251
32.96021225224763 3.4250808918855453 12.740788593732203
16.728567429573378 34.44612666862613 19.368446961300936
15.8904930280678 36.490939278934846 18.18655121601584
13.767009807859914 37.126482739364796 16.786373478787404
12.15780886440078 36.19058875281548 15.86644603994224
43.435514475771605 42.12837744789288 11.909860321309582
42.709301056485806 39.67692654755327 11.688773919613645
42.97047710355639 38.60819540597363 14.260477550051704
42.32008114700669 39.34931338305291 16.386388985681073
6.320186730968093 36.45079212768318 32.119148830241585
7.133357626422394 35.44952894399224 33.76242938172764
9.772738076342797 36.21041273894723 34.45511412497421
11.634570071441933 36.50757573773123 32.81451098726189
24.421802875212606 60.795116653978425 0.40352665042426866
26.707909880598933 59.07376309249177 1.1587959683088622
28.239219265696324 59.93294475227015 3.013303105335349
28.625031760094338 62.708002637866194 3.8381690169310314
45.51960937849977 18.986125823448127 22.34549072916827
47.62057748755233 19.493597943607334 21.347233509458714
49.44851906994418 21.353510489584966 21.585541209035213
50.17221694358004 22.399841850508214 23.286956156844784
54.36023213984262 44.277349783678794 15.893153250644936
54.26587431286399 43.79515711373785 18.285068043165797
55.90963281420809 44.418092271373965 20.108669790312995
57.18595428241685 46.5214113096618 20.46219262346799
35.886424418248176 59.58118666055663 13.572844215985961
35.74521069990117 60.61372780846104 11.278983067683194
36.77260812860991 63.020143533031884 10.568709806723843
38.70926814539043 63.86558435714661 11.27035370414801
14.566611908181608 15.741271798521026 18.949516352357875
11.84531817270974 16.045017936546987 18.34265863628174
26.94015757147682 44.12708309691336 5.3679774742591855
26.21840189574063 46.32933692433818 4.819539842901786
24.996020746513462 47.102164093445175 2.835638129619706
24.337049904463807 45.959140827369815 0.9076748674386653
12.383194291288156 41.26141441265788 19.27108737634251
13.739165837149171 40.037522896697844 17.743758639568483
16.462471266470676 40.25282596651955 17.695078553466576
17.81598430490012 40.61827260580306 19.420540668164964
56.02835634312056 20.317966292664906 21.31216868325237
56.1460591167559 23.26414641079126 21.523936469951586
57.3925976479837 24.597252964808042 23.243639469638723
59.159415170737915 23.68342833234646 24.82898677804594
56.73365840823432 74.07565432958901 18.955024827608366
53.438812040984985 20.992112237172705 20.811534800158974
51.912040126712434 19.085278480360422 22.08082535828991
51.319829120733 16.699412148610413 21.138468609856886
50.527223566802206 16.024069037073172 18.7039742551271
3.4595445063672794 36.04138164202965 35.03238166335771
4.646010053922658 34.0889125035047 34.63210431091192
4.223807038988112 31.945693855171008 33.019313011117276
2.529351016356636 31.427121845033124 31.53649232102047
31.093652631166787 57.554635720716256 0.815827434285463
28.98428231454288 57.81115274975289 0.30279196759534927
27.25268396815631 55.65722699403516 0.6946488593044227
27.910791243266548 53.38014460065812 1.1458462325292722
53.96145104623424 76.01527835495355 18.680321151025616
52.64701789020229 48.07121686303799 23.56463483258534
53.677193088761825 50.27286196136781 24.012366022670932
55.2122247431304 50.947681412433056 26.271612526459336
54.935199991889014 50.38500428362948 28.307544903096026
31.76118050437203 30.492639670970128 39.96784987112433
33.28331202815024 30.290875195980195 38.14669383696929
34.0200258371538 32.33927037965374 37.57447072429374
33.20858717997242 34.255793708414295 37.4781286944317
3.370444747718159 62.115861427745166 1.7670859880727647
3.715478686455734 63.22765397267616 6.598116978238852
3.4841293182568567 60.9527360825159 6.4555819423700544
0.6468846459585671 51.2332368171412 31.83261808116023
34.14462260450491 55.883946288058 32.19036509034442
33.29339389388105 56.13983260779787 34.58817385957269
44.69612812708363 36.88637354432569 37.22649576456774
43.4559885591606 36.78937537166334 39.49336168750953
44.259825184256165 38.149738409414205 41.787618280438416
46.44585550548581 39.97611921923503 41.36751775995155
33.318494277429885 27.774637401341835 36.8439522991329
33.63841630886179 26.437705232064843 34.57627174540559
33.58565737422202 23.974288075877453 34.31153457219373
56.772597443495826 20.836123018862054 31.27682067310563
54.721769950978846 20.149061745218663 30.12705490345603
54.683753550135066 20.552039785181403 27.65133676073306
56.64289577117596 21.17986421230489 26.076099802495555
7.697541482663712 61.702450470983386 1.1404008317528147
6.099512422081857 61.96966978161844 2.9298447039443007
6.351555849577125 62.7800766785941 5.393555969839243
7.87862328356741 64.62194924098749 6.518321197829069
40.999897412559996 3.8558750835310276 14.954661005861801
39.20320324973021 5.397796972137566 14.489756406748175
38.29104348791615 6.552297463434483 12.55828347448284
39.24602460301663 6.920666990984892 10.306865002638432
2.9999168976147947 36.58268061498307 0.32475957732856225
3.620895170035433 36.86805523141256 2.6877945978463362
5.729955579506949 38.518509253213665 3.3308706375866537
7.387820276117263 39.466123235769516 1.7276588509415678
30.924382173304988 24.643485954720486 26.087530419883624
29.90644860752193 25.18348144945552 28.45596477834122
30.65584906167685 24.88102837890901 30.932308415126283
32.626862232570865 23.235920350232167 31.836998786710623
27.174843978018753 47.73466510264985 24.67677321112959
25.09768024200765 47.91633371740461 24.612624407485463
23.889253652017814 50.13019608194491 26.125569688336167
24.92275691382868 52.02919265526399 26.82442978220336
21.516348504356195 47.41622085754069 28.089277758526823
22.943442738756058 49.24274037640892 28.295262823312218
25.835713308515604 48.57524903368732 28.522547493675663
26.667396556068365 46.58449515399374 28.00023473947437
3.3358648306835246 57.29777501924377 5.048894418653898
4.31877744354895 58.32437624650853 7.0533842099322275
4.259582534720125 57.85779999753858 9.580027558161596
59.49239873643254 31.483088194822027 1.2481774406712438
59.81319448719522 33.84060856072609 2.60914822110254
46.19248563304882 47.06652085779655 41.68668347541721
48.68210780330701 46.938819421665706 41.89367468026805
50.31416471890691 48.68158249822563 42.6766254775914
50.47365156211463 50.68521423967612 42.50700916037922
44.57274509041443 60.00488696933615 12.849639314713789
43.7691625906272 60.409818540337916 10.993939659313217
41.44125404437282 59.61608399169212 9.860804766300378
39.42666953236618 58.71744328313284 11.505698381318256
25.195456596025984 51.67452423806681 7.24166404833526
27.166757498833395 52.48443688032799 6.2558618985635395
29.23237986879691 51.48018880587281 4.821712940170287
29.742256723741903 49.16655600133731 4.409417281544676
1.6486034381520134 58.47030014964415 10.277279450118538
15.012538054092072 19.591183824245817 0.7597261736482002
37.021191305780164 4.539862376544936 11.081422808455503
36.566156031340476 6.566754011578848 10.330629652773812
33.63228344190825 7.4025235574653525 10.406802537473807
31.87470847152456 6.306279266917706 10.213988870903325
7.953510934886869 61.010465531870175 6.753589355785107
6.856777497416098 62.12246727346497 7.9306254722204494
5.2653884827948625 61.27931976391258 10.213184377720685
5.955866749007522 59.11937751316654 11.424658713150736
57.952674406695415 22.57772983529264 55.64373968146628
57.72747247783098 22.70996562898171 53.12512059902918
56.13785043827232 21.44556308634567 51.45094638791961
53.87963637053532 20.99774191597144 51.84521111127157
6.605185119809576 3.8888246048576867 15.283783547030868
5.609487244350389 6.008366831191242 15.44215651577228
6.6946576539880285 8.627494999708095 15.860921426297796
8.87229978085544 9.080770864132683 14.713581881644139
39.258953349498306 4.439317216932773 33.982337590877904
39.78989110979916 3.316131045257195 35.925541775964035
40.41110049922698 4.160403623305535 38.34653831750839
41.75350038586375 6.621004700447744 38.36272489125881
59.01141375755882 18.815250200148615 48.18297425228765
58.26212361919939 20.658682301645147 48.572892869590596
58.95701019434192 22.95270465145721 49.63938927538187
0.8515877113274701 3.6734741363906434 7.565485850306479
2.977197663750751 4.996392749336557 8.389015759277738
57.62513815606321 27.714655638223572 56.170687087985044
57.511120644476144 26.02831969028099 54.59117856399223
55.668686650750104 24.776272278599855 53.591226679719306
53.31822150961387 24.268933790182693 55.39523793330827
59.73968748561 2.9452758543548665 56.04650257549169
7.762127713338784 13.972633999189581 22.134148210162103
10.008115105280599 14.149169458206774 21.732170604706365
11.69083093137391 13.451898702853871 20.34088952036674
11.74432282324475 11.594703479838062 18.429060076192336
18.886037540757947 8.23794708112372 45.085771195108975
17.997730180008638 10.251121074463637 44.60410090869958
19.043920784367817 12.863401347991358 45.352233839419846
21.042733884569405 12.141859543729987 47.26780172989324
54.06314471493455 16.103383715470578 45.88798452660472
53.296851631174036 13.838566705136758 46.26794009856265
50.95551213159603 13.147837900787854 47.1845591148019
48.80772147137488 14.054797587962216 46.506947990462876
18.292915030585128 13.09297540009467 27.896630801970115
17.089287991327712 11.24316985177882 27.696059127760336
14.603725579908033 12.068284899580204 26.51928226311802
13.995133966932297 14.495419869598175 26.161374043274467
37.90471848204453 27.227743180128215 61.83446856436681
35.26520389114032 26.556100067712148 60.94207835112624
45.93214383942853 4.473780844513893 44.128919639925094
45.87906320696468 6.823130738189223 44.602126483180776
47.04437819698901 8.32402645237163 46.360150389134105
49.13802131339985 8.068380310044201 46.124053575818195
17.397163193414706 17.066062773861287 43.431588512840754
17.492868305320783 18.60264763057464 45.34343630256545
18.766134463850676 17.435068492712546 47.57284081318224
19.88144165633843 15.104347040251122 47.28727724488336
11.246126899327505 37.18485293691633 42.35167110368057
52.98616218532915 1.3696003296241495 27.428392688702367
52.848543580741115 18.439845589067467 51.435439460608755
52.121263477666204 17.18615763770687 49.56783205184271
50.37825858250734 15.319736597201581 49.25324421682657
52.372621002592005 14.26392156436436 49.172019041195874
3.252408857318762 22.301918807315037 32.543549813383635
5.1970275810015325 23.152354917275204 31.18951405282616
7.207335942910241 21.892188112089013 30.147829252888958
8.194752956132662 19.496950337527604 30.744006196952697
9.072169241780056 26.16700489467025 61.58602240693783
11.745537676719222 9.3440371671477 47.07222356883368
12.456104050890271 7.293904567265885 46.15146171963419
11.667480512899537 5.900035378793095 43.72736991182309
9.874782078495823 6.602925676433672 42.42015480424857
35.939425901744954 3.655973141688541 39.5341108289592
37.63669805542042 2.651085566893829 37.97103887952827
37.44381431320305 1.234353620928095 35.8747642388764
35.126881402839054 0.9237452327777045 34.386367619341435
50.32568680197164 8.846194287312702 48.76555159344363
51.04465214194269 10.139719350553447 47.174395478128254
53.52931798002717 10.709251922229221 46.39402715740054
55.30373581973185 11.533971866035541 47.43950638999993
40.58963403295179 1.370393131967425 41.69857832329831
40.468449081473274 2.867495296976165 43.24012242026432
40.65827226539674 2.9994855834033594 45.98648277396936
42.99549451111922 1.9969488323599238 47.189213876756085
8.865404210961506 16.383603918860434 20.225940782143965
7.124346475997691 16.579380207965944 22.41438351423319
5.038221814690683 25.943499090822964 37.19713944233811
3.4925705168836654 26.800146858734635 35.39693908702816
1.2945251225312957 25.959005486739116 34.60627165495847
1.094335060211545 23.124722320586798 34.32616824393238
5.644981556097006 2.4740821588524833 13.142124670864249
3.3402455744909023 2.700512370845717 12.802879382294071
1.6853652843140707 0.9499057445909556 12.047123893881269
8.322284355842333 0.6823556483806519 41.325881239922516
6.445696896469567 0.03797008773417606 39.90058206673644
27.819580228046565 22.89822166080583 33.19080191543994
30.05131106689296 23.60398254367049 61.624500583566316
32.47894249918049 24.02538697017431 61.39201808303212
34.53528185736817 22.489806423466995 60.963211694155596
34.99576350416731 19.90792946112931 61.61803317991907
56.52861006416291 0.5647830333443449 28.11336071367597
28.754566441585283 17.164445504040977 30.79184070170752
30.596680794826838 18.262590855146733 29.686126817078154
30.192198241946063 22.062665785046025 32.29198394540659
36.084231715344195 26.787835165801322 55.90977997842298
34.35497702422645 24.74789183168516 57.09014600032799
32.1910704560757 24.190875343420917 56.15355229540933
30.549446430514834 24.915157380071054 54.60031507045686
7.816494970929973 30.30172753475507 38.32382688075445
8.779460999344193 32.2168597190244 37.728027039807216
56.46020153312054 26.62642731462781 51.39740770656436
54.7863054850615 25.130608163206457 51.15070426337599
54.70808322471745 22.94698486116984 49.67592684281604
56.08620973891109 22.455601256981982 47.68519681090449
37.15259562417147 29.612351822624863 60.31830679904559
3.804940015561697 11.059973043958045 14.373912068850256
1.929100377989834 10.519109693516695 14.42153516614207
37.98464007747082 2.9268553842228644 43.08812569423348
37.67564362484314 2.0872757053957463 40.7082622786786
37.022762610520616 0.07124913209651405 39.553323995501884
13.75471475773438 4.62939740625034 40.5206815008845
13.596324216538415 4.549841758444207 42.860541394543084
15.21437807812531 5.673716571091996 44.67959398055139
16.12537670790398 7.9214002836271415 44.55350739539627
31.094553172879525 19.30507746212657 57.23831393196036
28.974950448988814 19.161955277502283 56.560327639867694
27.566639611360337 21.30967455228617 56.13273167267712
27.773987023279595 23.266633556823464 57.11910309833658
1.134440873278546 20.639660994587665 58.46276805634894
8.167190070493609 0.3844294694804977 36.29909931073392
6.990659190661833 13.752013254808002 17.58361067885174
7.9020411189415265 11.525490585565375 16.35282744151727
0.6226240920370244 0.559764837205891 30.333069733325566
11.897161216132464 0.9685350055903517 41.218689278608956
13.845975084735938 1.7473763290826876 42.00386726876611
33.55005758026216 2.510443121319845 62.008076407411124
19.204703385844013 6.759166048595717 47.606651666860415
18.714280567867185 8.800978255754211 47.43443057184297
18.86190572956487 10.94504349800421 49.087637977549655
18.919871625933638 10.847617096582784 51.74529719015517
12.704070896287122 11.66443783843224 22.22929309194273
14.275477208065062 12.52161132272285 20.796042319842098
16.919228208300673 13.273724625835667 21.37913735044015
17.680919846946825 13.11078014957949 23.700423498913807
15.307368558181446 22.9287263763542 48.75121682625701
16.55637502321151 20.587862501524434 48.27699926510101
18.788248180813138 20.247357259315123 47.15235234376491
20.425884627067706 21.94713287461825 46.3901410250746
14.748361896525097 38.67085750794565 47.0239944127887
15.809643754867485 39.3651797903656 45.674394674181606
34.09524389405779 4.374628312799528 15.328562826216599
39.571912034399304 23.80561712064285 60.83776077784377
37.2248508897876 22.642635749699622 60.562128699099475
2.001429280088091 31.954998438739153 35.934073895489206
2.9684915158029663 30.21607707880222 35.02851894446251
4.879658346649798 28.93939177969503 36.225414194449925
5.638013165630091 28.68308476873299 38.00480256884314
23.33521272311162 23.760576634499106 52.177346282837384
25.6214945772251 22.79640043677493 52.28760775024675
27.56498583522699 23.397778515003772 53.27318100103803
28.031532690449772 25.127533480493778 55.37437053264915
43.588732424424116 30.771845585964307 56.819276186180396
42.141465963648564 30.42229391707362 58.97087225325033
39.65800034607667 30.576594000769187 59.1762526775847
37.936452362913485 30.377722463414507 57.92605448851879
20.053199060916757 19.521555030715405 26.79040596506158
19.567746354920555 16.74690991377398 27.21795156964527
17.779747622883967 15.2075358977054 26.069039388603688
16.29002952539267 15.356724518978913 24.305245191277812
16.879299255373514 40.502074967471316 47.8732550173741
32.960023992385445 6.37309283565483 17.627273786325198
25.279307427239996 19.247860239248016 49.73255716956173
23.78573777935105 17.555002169314736 50.10502180056169
21.480198417880114 17.983235624235004 48.39831922383429
21.40122511311683 18.968153603827208 46.403706321114335
45.37181476829488 14.276153065157038 48.286275569923
48.0074592948392 14.563377581553045 49.127366128336256
49.09610400945211 11.931096226167803 49.11382277738212
47.99354013603847 9.816040564484886 49.593021206972516
39.84903708721845 28.017973991240037 60.42221146777573
2.164993106865887 22.892523229425475 61.37281869814878
0.11131889470307806 23.494127501635727 59.86380902712336
3.6524513121846587 1.5388811088607564 9.176617226385352
1.3298146441931602 1.0169588317005798 9.235007236307208
21.100956907911325 10.564643562432043 27.831956978998146
21.171039705952083 12.924262908185655 27.57691024383865
20.533736124678438 14.414360264261942 25.486980713924858
20.086628612989653 14.054832313816013 23.199347038568185
2.5162235777933732 34.203892959194775 37.61444254566252
4.448835965875539 33.43366862315362 37.21882651481153
6.84517744665322 34.02421938462606 37.929639229098264
8.562636026777176 19.806126217428282 27.291039237072138
6.312948012778267 20.556373833130586 27.8661951736654
4.668132381799722 22.556738469752673 27.448525895786727
60.00492832825737 0.5160121434186544 34.127212072831625
20.438593414526128 15.660688575275415 50.64441185257858
21.37001024038211 17.47866539860759 51.33563090468167
20.555357123686832 20.057684683902146 51.00754435591779
18.388381036675288 20.892864387934587 50.74982387670058
10.793236597046066 33.35885524066035 39.60022487784707
10.090301654606781 35.55508554063977 39.693128182429774
50.72017358364317 11.254619768808556 43.36846150424467
48.656880642964644 11.155743026234381 44.265004653966024
46.57404243017378 9.780708613801039 43.76361015014484
46.17076240334419 8.109549327435658 42.12219017130503
26.2312087511075 15.207141993323882 28.866744753080695
24.128567907122555 15.21894350298512 29.109370303674208
22.702792710590934 15.598760383903299 27.220340644582585
23.191776262467766 15.40563644933947 24.864800071312278
44.43431388029138 8.190460670571413 60.91433679410091
24.17738011965823 22.375757548772757 31.496111578179786
26.446126430814918 22.188228727264583 30.876403208885495
21.996997332638443 10.712171670033296 49.74991711016994
21.214163015485834 12.719160395232441 50.602877810531574
22.19963703449576 14.396601833364949 52.61639745304515
24.384709420070003 15.423264168089133 51.94055767015886
34.20575582412181 28.83477452260051 40.7816306520069
2.9030806416858184 3.226412521095442 60.855080267841615
1.930831763456753 1.6382049293192538 59.499017442834756
2.5467208473134035 4.4568896925321395 38.19650722358543
4.953817354010398 4.881001126147451 38.5873399352022
6.309033770751781 2.8878823324204523 37.249361083926864
5.719440578605298 1.3071713908453824 35.21273463907719
42.02366436469451 10.67511729106176 45.53003647495073
44.03336327631903 11.472348741682884 47.045493997442854
46.04629425237311 12.094915294101051 46.42806536326483
47.09776854369464 13.252343732300702 44.5549674223754
30.024545359970276 23.268906298413317 52.09458367390134
30.1397620025313 21.81210568597343 53.4397448283594
28.304077277734468 19.66722196583347 53.61138320814229
26.793064074329607 19.00236557661391 52.11193289598928
11.404231897337295 6.48622937776442 38.41727260609598
10.885631040429216 5.325977096996882 40.47887849088686
9.914632437581743 2.6731288907051183 40.33281020365211
9.559297935657149 1.4389914816164309 38.59255633837618
6.305583745560079 26.84853987668557 34.919784778787935
4.877028656153385 26.03706326774847 33.275556269354624
3.8838352808232375 27.18222536278434 31.138680564211466
36.80745227180466 0.3479371006756792 57.40978211185845
38.105117792048986 1.1285523233932404 61.89073847612175
8.016561271422251 2.7355758099798115 61.22975645971405
39.242450995209296 6.493721349642337 47.23259516169021
41.21341719126506 5.701325092986149 46.33509783000088
43.85362877680912 6.750411415607282 46.44106572978902
44.56612639473268 9.013660602292147 47.815763873241146
38.80968960051007 8.351132881114294 43.73749763374523
38.8249644641271 6.383067450546869 43.67702797658681
39.111256873530685 5.004217498154314 41.2950854611962
38.12382451151658 5.338662712286464 39.24628776235507
51.27154643966946 20.834960653596386 50.98581257352866
50.95567041717105 22.328146928541912 52.68415561779417
52.60065332695024 23.873794404252642 52.237463914104914
52.24599185843191 26.14684715594668 51.30253878239231
2.9509942166699434 3.248574963783391 41.085504039268194
5.168918323236464 2.535658436677409 40.65347229487735
7.272967283235539 3.231492484616477 40.94223909485993
8.325747840376511 4.0371964107632 43.43279257103441
28.394845630359672 25.604130576098477 59.03912611039475
30.974493994771628 25.032572692699304 59.459897875056576
33.102403379657154 26.014547429560658 59.47180451078867
33.8454276157773 28.620800596434293 59.318539917868904
32.383952986846964 20.03657264730595 54.02052833960904
32.01675133738685 21.561875168597883 55.79080591992905
33.95359248304972 22.15950873356341 57.8801304107282
35.83696128576756 20.77322187852339 58.52995263242203
28.691220600578564 16.150778244172493 28.297637301631926
26.88007916636044 16.781027534257877 26.25922565823465
12.642082068331677 12.334849251207896 45.77778922603223
14.212326673319453 10.729977451830493 46.26553826043054
16.81536279735636 11.127506604938635 46.84814750154079
17.866272883087635 12.993598378992054 47.675097022622694
8.085579431827943 17.38426397327415 25.731401633795226
9.553167039413141 17.140471171580167 24.346333032736062
11.428879523024097 15.13964380749012 23.613808368252624
12.117486865628145 13.068352895762835 24.75128410066205
36.007584429400566 7.981013473135174 20.021008699187473
25.91860629698629 1.0063124928485425 9.931135933165011
27.186918919151125 2.5499680323656877 12.13507320041419
26.44312659569516 4.393832536959489 13.126444186601532
38.04210000061003 1.9022329986984445 31.317823667203076
37.42008066794551 0.4640646226660629 32.84654919670517
39.697279702379 23.024151970757305 56.39107032981883
38.01148008121523 23.1407576831537 57.882231429499065
36.627375226957 25.389876472411693 58.883164905514455
36.83012373888973 27.53397240987969 58.31689337379211
5.623334503819084 29.405604703084737 43.400329303650494
5.594197189563111 30.795545164985327 41.19336379837888
7.1622624970627005 32.692138809134946 40.17593764877211
8.711803202017828 34.12961111728139 41.38609939624636
25.806666694461946 22.25729490291455 49.23542738464925
23.658256558067844 21.399150401139163 49.88364984583527
21.140405113866862 22.26025150760946 49.249449964137085
20.45815382196451 24.675528520109612 49.10726968869423
26.827004920484743 24.19283430501641 60.929336375157575
26.77222537967705 22.07866980168531 59.66500695731703
25.17040644560588 21.184074849747724 58.18852663955937
24.310765424961417 22.997064247681358 56.401729116285686
1.8311120513052217 22.99005626951569 57.52667612579149
3.205610895830579 24.995538009822965 59.20562949004887
2.5409800682390897 27.34247781150407 59.23150433135428
19.256590647239147 23.945783797403436 51.501294116040924
20.937601048401447 22.186983153713225 52.44353517641929
21.646075381257123 21.666641656076404 54.60010682250957
20.17823997531698 20.9924790985198 56.78499032397266
5.459734592242635 4.200075816904703 19.895621839710948
5.668240269409398 3.1722906399594524 17.696647274222773
3.7789599381535575 2.3699483396605694 15.792243648030665
1.763293854546041 3.283181609473234 15.325618292277136
52.68776048280435 21.99599693210182 48.40802788028384
52.53503146420636 19.644873397873695 48.800417577546064
54.47565112781547 18.060915406060772 47.851852077996725
56.269788915986325 18.680920570848016 46.486855467973704
8.528628294617432 0.14636619750171487 61.948679849635845
5.352068216588809 3.871747097015837 8.11781149107849
5.627231380432524 3.9547337215768152 11.026324659204953
6.4666618505409375 6.010619309316729 12.364570851584325
7.312509786060499 8.158036557847991 11.944391848171058
60.16864396812849 21.89935284190821 52.230738213354
0.44076882088562014 27.191740095514348 28.037892583244894
60.107084681943896 26.325631855412187 47.212169535838676
58.73821648540339 26.17826368370683 49.625377540549565
59.08512010847343 27.126060471134693 51.86001087105352
60.153644382905846 25.276580199542007 54.59662708734716
14.546294996141874 13.305628080716607 18.30023123447368
1.0490312345363124 1.2574405644563806 37.17401549409254
2.737341948863386 1.6913999842160048 38.9030190759841
3.8849986532020817 0.15585892603515317 40.69084827931018
43.23629437801821 9.014194718586053 43.52491126099364
41.70794504291139 7.297193724624624 43.681202028374294
42.45188687054891 5.002043833505533 42.25411261937566
44.55470935716904 4.830723424379361 40.69786641525133
28.456667649962675 1.189371557703638 16.034032524283536
28.57089131191532 3.3677281811623816 14.601409437587689
56.654547591793715 13.38929396810077 49.27519519083418
54.971826478832874 15.486166597641924 49.13747716851146
55.01254495073088 17.615337490988995 50.35867461046009
57.032442228240185 18.68879203533186 50.460197631407006
26.28611614617531 16.915561197593362 31.727465018037336
26.609159551242243 18.934170582549896 31.277138372594155
25.53149403681489 20.235997659072233 29.373342471891647
23.114312034661722 20.583927701950643 29.214021954050228
2.197563723478191 4.235041537329048 10.949961222024141
3.701318906064877 5.573306752226468 12.78156012163272
3.9010399782557563 7.207696888888894 13.639655810058626
33.77744691033965 0.8335354600184969 31.86957895423772
11.118335228116509 17.640791244272737 42.95848349818893
13.404442233502838 15.919437682786075 43.71375281607353
14.935751618600225 16.778619342564465 45.56825995310002
15.321564112998239 19.553677228160506 46.3931258646957
41.056764492746524 1.1230243739731056 58.4481100984096
40.962406665767894 0.6408317040321612 60.840024890930465
22.58295677115208 16.426861250850944 56.12780106375063
22.44174305280508 17.45940239875535 53.833939915447864
23.46914048151381 19.865818123326196 53.12366665448851
25.405800498294337 20.711258947440918 53.82531055191268
13.963372248324543 15.842225025863282 23.07725756184172
15.290598097453252 15.635844181036157 21.413585915971783
13.636689924380725 0.9727576872076682 47.92293432202385
12.914934248644535 3.1750115146324887 47.374496690666454
11.692553099417367 3.9478386837394828 45.390594977384374
11.03358225736771 2.8048154176641233 43.46263171520333
43.43019076113822 30.921328919883322 61.509981675373034
1.9506624524480818 23.396140695206586 30.577881130380774
3.7576899347954567 24.611895394932958 29.930408629554826
43.858346117340446 4.0487088275287695 34.83453213059988
42.126334745958964 2.4536696890707685 34.76213018885845
41.435059469416444 1.2315247759944528 37.14588659880862
42.573267058842106 0.011704285038487118 38.14421081498966
17.79018498407069 14.400310311010562 43.37078428205013
15.680814667446784 14.656827340047203 42.85774881536002
