34.42898581011205 59.87046410371931 24.13414455163914
33.031330426197535 57.52396040712649 24.897812785713946
58.308519716493095 47.94003667408891 25.063639138084824
58.33356514531901 49.69914533395045 23.480618234609096
46.32012585451736 74.43203758000487 13.281083144479672
44.12537654084123 74.85781129001721 12.641487621765021
43.40509355619479 77.48011686210384 12.093491463475543
44.79850949496015 79.46648399327829 12.51350747901931
29.69219253948185 77.68996678413822 37.786427388286924
28.497698409197067 76.75549675270487 39.85424888991002
30.082408664003747 74.91872265020044 41.11974644829823
32.21521511132129 73.94108109373347 40.551332973229904
46.75100632081057 55.112318628715855 48.67210921366458
45.95049139956091 53.00382267284411 47.96942070919085
52.3849077545427 58.51214964375154 44.98167287391725
50.61664789624762 57.12497821210973 43.93944835327744
48.23416170735633 58.89444951639143 43.906703528614365
48.05678695754275 60.83834964323956 44.474005602785326
46.29097172309741 47.49661924211184 24.2972914545261
46.33208006616495 47.10817870576031 26.494712981795097
48.33484051365258 48.26991992022084 28.436616705029255
50.222875041051246 49.27303085639817 28.076089765545504
47.8639961144956 70.448659361831 7.689723546459965
47.447918734803245 72.02789113795393 6.383348431755413
46.626221901807476 74.61971054949962 7.586328322574863
45.9138704143771 74.70324300258078 10.026084889958716
54.22664092505786 53.566614700688255 28.064571774652418
52.54360071309617 51.81832222243673 27.904160624598077
53.02075760479055 49.50213540450769 29.356831069828566
54.163965339044815 49.319570360044644 31.521660483444393
25.141885002562002 44.518205038523924 36.249892506218906
24.330809193181548 45.95116246016362 38.368412663745865
22.505914111288188 45.662578056909666 40.15105505110858
22.22264875635182 56.384828107158114 31.550315449185337
23.197980634939853 56.26123823164838 29.46413476111139
24.709433916300405 53.936776990723665 29.094428816845245
24.567778435582788 51.916154615364064 29.924414444538506
26.894146027796204 84.33132205920532 17.9100625816163
25.268236312120035 82.76449019724285 16.874540475207947
54.333030898767845 66.00390157225964 38.071050045880476
55.7396329916188 67.64610051829649 39.5275477835016
56.34952220164226 70.0621190150247 39.16735917831282
57.06692867477867 71.06679709488951 36.85694988093718
42.384932299168504 45.24652655523894 31.851064647204215
42.49287312072346 44.341331493987155 34.101510100457595
42.99051220924831 41.528750070799624 33.77053971827694
42.44081923516068 40.439995111736295 31.75080710307567
47.88559903348642 66.39954084085518 12.031077939528233
47.293820379098925 67.32493403017078 14.18598634846018
48.75126070977069 67.58911548314437 16.49264080642385
50.446836204259 66.2740559799455 17.45624903049892
47.89739107587429 71.60001605860923 0.3660112927257106
49.049172049843875 73.54931658257473 1.0327122337893946
56.93485721575593 92.02350338613964 22.16104587177729
55.92630273115699 92.8393401142336 19.812918381630535
56.31967701489812 92.62541764203512 17.551769799723008
57.80557369337902 91.09988552895713 16.080415692272815
42.84880086910907 38.83600870346169 33.94145583933802
25.000032190390282 57.5535798937052 34.04469091628838
24.046592133039226 55.05224037788086 33.62793251061518
25.723098191710545 53.07879647754908 34.52845765718909
27.555242227697516 53.32491675163713 36.46265339964544
50.75118378857935 93.47955734871269 25.598927401417015
51.06290407067751 91.01674437971211 25.38686655400577
53.276090279196694 89.66460679982055 25.3367821389236
55.280185984734445 90.11947141643147 25.45303409424919
38.769751872161535 58.67555059613187 21.053663812422855
38.02035809648197 60.63505845099287 21.70198209622538
39.15893420324571 62.9569201927033 22.843196680564343
40.847366097629646 63.59487950820553 22.965311702256585
51.978347784058315 56.135430966702664 46.75497978768405
49.874429274477826 56.78125996933915 46.69946938051451
47.44142368289617 55.28807930592201 46.175574056816515
47.17388255304402 53.204741130290365 45.73827009744842
46.03510798628596 83.21316582717749 54.05592066189504
47.46818603244869 81.92921916607925 54.74973119661845
49.862522632396804 81.23302451803897 54.05189277359972
51.4375038059292 82.5777135651582 53.072252800541314
43.46373939357373 87.61753820292887 28.47408397807052
43.05174340275473 87.33189666483972 30.65946725202324
42.941612920020226 85.31869085410437 32.54221447163035
43.865870562137914 83.50752814781505 32.681123009633666
27.79741100134098 93.04595765501993 0.1967472870849476
28.99917062784138 92.42673027395794 2.029400834459987
30.747202382399195 92.72862094177647 3.130247544765993
31.978092506399292 95.02711550174566 3.9810723668077936
39.66738151912691 71.55933915182773 24.39489184459936
39.054564068287554 69.43862844923984 22.66793854035504
37.11098910091649 68.14622726747889 22.617629861947535
35.09978533348929 67.86956673996016 24.51767904113316
37.5139793237679 59.312366807569745 17.180213994982637
36.62794377389819 60.69237479290763 19.166224198664224
35.00583428909158 60.39300106425109 21.02338987316483
33.92088026290155 58.759075390101806 21.882393307377686
46.815897374746484 46.92162823671179 31.295193084797397
46.87572424673256 44.77685031342763 32.74955107149631
45.941453654852324 44.35610868100119 35.04493206997422
44.40389629011735 45.37283168727789 36.57321184756032
57.28408057086341 79.48131084733481 52.96152703517653
57.927146827530386 81.35915882412782 51.777507418242585
56.69830653466854 83.4881888250961 52.47445526876283
54.48445909227374 84.11091195284305 52.398667068267464
59.078757451420834 69.71304216971583 35.974961705800084
51.88809615359401 71.16775477540641 4.607690680287005
51.308229017137194 72.37871252865419 3.0173171388127153
48.4900171586212 72.79752153616765 3.5046176846020938
46.869567464165286 71.10709758319946 3.935818684002545
26.217640363848165 83.75610016708318 11.391203901577228
27.705979456986316 81.88595937104574 12.556437676085508
26.621058519667272 79.4604730233088 13.481134093805604
24.078038769533325 79.08092763719033 13.867843689538114
59.30940741833215 81.14725253931016 49.07884824278302
59.519034377586124 83.1157893447961 50.23218407002783
58.50221298582481 80.56971149283838 59.06455724102577
57.74514173502614 80.48244950343282 56.70880042013564
58.68915002639574 82.32896571132082 55.009503004985845
58.67594632388492 84.45111603827823 56.39985877758115
60.19778810879895 67.32899558481466 40.50407582322669
58.27088430288652 66.7358707157784 39.40514059809651
56.16584150079325 64.7359806804141 40.19309109748293
56.248915979571144 73.20669630731717 39.17117524265132
58.76371096229227 72.8587539264886 39.3026746766776
44.772323539302235 86.77766289588564 34.17990818405581
43.33532449189123 84.46925614355155 35.39542425065451
45.38460355208765 82.53244427675467 36.234077451676846
47.74784054938575 82.92294037246836 35.83978728692541
43.63640902959333 64.47578065455804 23.66801722890337
45.327995574152794 64.8320376898444 21.51831732672399
47.8009785789741 64.53598442652701 21.39136523339885
49.64240962608081 64.3488460399376 23.141262911896394
31.979312827518974 55.496237551842626 21.378632112331665
31.674408455592733 55.786629895475855 23.440602976028803
30.592811796228247 58.328708241348096 24.588942055014627
29.548990373033075 60.08034594731769 23.082903939190356
32.58892384111297 84.37970193319467 11.034613416924136
30.75483560882517 84.77374830255175 12.496793158057601
29.362598643803405 87.13837619075728 11.99767231388612
29.95467731062547 88.85921599171985 10.0592788713093
48.94731394096148 80.11519679516381 33.14959277096985
47.28401815862631 81.03252255441058 31.54204771177324
44.81299016874792 80.94928503682719 32.592019927071085
44.445079126564416 80.19215841165915 35.02692611222258
38.45208215806414 40.06828769039036 34.16019535162994
56.053019162323075 95.32169557708961 20.291510542325923
55.42058020611859 94.12751681438752 22.104347729892012
26.950484710563252 50.48129767287204 36.44378622842564
24.552379736752098 50.98751115772217 36.2610758086039
22.643833474869968 50.3475563540045 37.665617591040764
59.85035466590464 48.9784106390932 27.23545241269349
58.2119560415533 49.55764724111294 28.22406627236029
56.49858048666489 48.42290932614061 30.323646147177758
58.3844139205655 95.43379583817774 44.735304470927026
60.14547596477416 94.24564046320037 43.02123432988108
59.96356932807394 93.78862768766065 40.60312580122765
41.874665823240996 91.51080248863835 21.367820576261945
44.104940790203266 91.31006151899523 22.761045181451838
44.922167033434526 89.80280047926995 24.353494237611603
43.960362596099834 87.27371440956674 25.139419592206615
33.1047756408029 58.8905899063875 33.371009671915495
31.139372424417353 59.51903148833998 34.54666652898181
29.52532859202973 57.21462432895741 35.361677434137256
30.32622377738047 54.95202738102957 35.172277049529264
52.04807802838279 41.08132943694611 34.19965193085111
54.728182361364055 42.03296659033712 34.11106953414594
56.81525126041857 41.12389121711943 35.28778517877948
38.79012185501991 63.732800868508455 46.194326548119705
40.700550132878284 62.519375091898475 47.10172025104136
43.18661565176948 62.22738919034409 46.334986029262495
44.30882420089887 63.08410804329219 44.88606122886925
47.97975949578171 79.4178841454504 55.1521618057737
47.44236932702042 79.70170722980689 57.80845813436686
45.84573426967623 78.8441050157821 59.20865624401017
43.51861909591742 77.53741610994079 58.576546026321786
45.411679380201036 69.7094250517806 11.963382006625526
45.732588972097815 71.56058933852528 13.001919888525915
46.056961653937364 71.6336632595716 15.413030327325973
44.684524608309765 70.31597608773968 17.49491355464867
24.692643219302347 75.25727560860132 17.422660595845358
24.329782867503592 77.21423606616376 18.20662443979184
26.04106456180947 79.47989852033301 17.979550940466687
27.256152077197402 80.13080178564309 16.39241036076593
48.06448534323555 45.12992962346943 28.240272734036544
46.061213833372065 45.327275941761435 29.084834442965445
44.49376975238646 43.403950346227575 30.408478805469382
45.02739713496707 41.39337901483628 31.290250354651103
59.32369826010503 67.08623523896861 36.967479116892534
51.73399251012773 44.81470808517778 34.066630055915375
49.51169805784291 44.854317773477376 33.15596754300715
49.436572829996635 45.55084291629098 30.598460420444518
50.366874370039746 46.617352555152216 29.201867176607095
59.07414853595473 94.20315060053387 47.04346963360115
49.38434193616159 78.61512836484852 60.08215855432567
49.46937601538623 81.41340658983438 59.24643461974264
50.25310305325632 83.33612770572728 60.85583469506576
54.0704619770326 80.67019137861415 0.3447237248312129
51.841154571158576 81.74575432456295 0.34247490449949214
54.754427927477465 89.50694108267565 22.77993302546561
54.127395432947694 91.66088843098846 21.9681386651952
52.099717425692 92.01777385858402 20.257499497909606
50.00219475476742 91.34908638419469 20.22859781034954
51.024639330100364 86.23881141122902 29.19966094933461
48.69616910438138 85.57849551046604 29.489157539552078
47.92174433558375 83.54714648065891 31.229862684563958
48.66560180266165 82.9163867021264 33.376574308706736
41.46449387271738 74.9128675196086 9.218452581563541
43.26513842477919 75.94370227242833 9.695195750601975
45.02389702932838 76.69776400857698 7.949491490026919
44.94556392239788 77.26045464587115 5.651106213508815
45.86145328334994 71.64518806905116 59.3981884337368
45.68146535963712 72.85275081289508 61.38770188639678
46.13575210175857 75.27126880574687 60.39077813309549
47.79113946913279 76.17153962524732 59.05405787799369
48.99615301154506 70.05441457786154 15.772774405770454
47.9542102637029 69.79951626488116 13.65160445644657
48.248198006106136 70.81872792612074 11.299010575355322
49.46458974131871 72.17649549391693 10.173401161471324
49.65671945165892 66.19927525756586 47.55125662822501
50.165740062755596 64.30390077927476 46.046242351731
52.61084462317993 63.71884783611484 44.675705261945176
54.54745629075451 64.77364808733874 44.34488615728101
35.23693381787215 87.8471275554156 3.4027337076078448
33.45491716978578 88.00299188189321 5.383213071891279
31.91970226834232 86.3930436443334 6.253684742979745
30.593808249844756 85.22726719189822 4.771976715464499
43.44819447770853 71.6918559087606 61.07575385581442
43.84719583708761 83.6688147560837 58.816392832445544
45.69777143324789 82.19340960075425 58.269479915737385
48.027318618946666 82.84450856440193 57.154206174253986
49.213468610648576 84.78426282116996 56.83060089945412
51.03338219921899 86.05786499037664 54.71356783864666
52.96330586694786 84.61816180786172 54.62565786940053
55.58054883029419 84.92738947922659 55.11780993883295
56.81081403066723 86.93431174155863 56.318405669951126
51.73844641052415 76.37085756840203 0.4884091893462527
52.78951221087148 73.98722377638525 1.1832599869830467
48.34908057191642 95.50935082863603 22.381148278717834
48.88967871970578 93.21124927185936 21.956065972444016
48.6681226273352 91.23618445026354 23.45916367477002
47.31857390510879 90.57578681609475 25.524142101095567
42.65434854381206 51.73240408843686 46.40230898152855
43.075127542805845 53.73849666811984 46.362093974219654
41.63999435987921 55.736703558816885 47.42125748515957
39.748973102924694 55.415830554233146 48.282662841043226
56.55402190114966 82.23843965486958 59.638194891641625
55.34108441745988 82.48243588803393 57.67568140305085
53.050131263706795 83.30141806034871 57.052449923453025
51.324142546099935 84.3734517713191 58.5009242853825
41.620054859947345 91.5227498004904 0.7227491828959138
41.45000870151537 93.77852964393044 0.004056296998157833
32.60456339700439 94.34463397572681 6.506642449529432
35.038538018404935 94.33952306423238 5.0673061471114975
36.91254727593851 95.9174000869914 5.442792081292098
33.21701401067312 86.39276262733183 33.99551547492807
33.70937437653477 85.55583294608273 36.287092208438665
32.67595336434531 83.99928889514668 37.9275847656032
31.055253230377353 82.17930433379301 37.59051926978016
31.030137925066064 80.01649724190008 9.762890606324397
29.28784228808271 79.5236498680116 9.306384279222717
27.38418190128161 77.36741624565687 10.43176500439658
27.823154389452192 76.83013773148375 13.049780563406694
29.295931805500807 69.53325604922986 47.66168126677479
30.52009289940271 71.45405673894705 46.71287817566862
31.82276612872048 78.67043508959235 33.809100947098614
33.16077246840148 80.56670806278744 34.11042254924841
35.454176386731255 81.31806781933675 33.315456279980715
37.36242399724799 80.31026016396794 32.36901491758193
50.433511602320316 42.80639118050859 35.31780177278629
46.19173836582328 43.597760447955416 37.584380438111374
36.35992092063881 92.08839351896985 6.336252933506001
36.68107671449518 91.30589366003419 4.037285604306687
38.21490012283736 92.42595585469694 2.4648443952290573
40.167716004164014 94.22309696145045 2.8184817839523593
33.95065751547919 88.75031954045814 0.16633683183989234
33.43999270955724 89.56738282317058 2.209493735149429
33.56789890591891 91.70000975312614 3.446532692826188
33.96751383231484 94.12289430261924 2.4487396596971287
48.93215909392043 91.80509977895693 29.148321820209688
49.137461777077775 89.39574287825458 29.603973573054656
47.04074191209268 87.45675842409506 30.372349483754395
45.54674175032883 87.73184781704678 31.73513432354123
58.82899282619996 54.30196318713284 21.857881339714137
59.323508705300185 53.13495302296804 23.657199325990092
58.09507261560181 52.0070520948016 25.55928764292431
55.913458174235444 52.201718405650865 26.403826102766995
56.821211156332375 77.02309190789212 0.5057151185958453
29.532324575554558 58.52286937750459 32.23519174748293
27.54825415025056 57.23137950248883 33.06341401003951
26.42924745156218 55.72786386759121 30.825919458496255
25.98008905777281 56.5085515609325 28.9736417133703
30.88324006091985 56.65281144747271 30.697108742138525
30.565400299231676 57.67295956547124 28.88882456429038
30.003718277160715 56.32149362005923 26.748607694782617
30.747180748913344 54.320146327649205 25.652847024950052
60.1146961326783 81.50255893919373 53.169471226282496
59.767072241229066 78.60772734016224 53.751943034670546
47.28507646019774 93.95345337657709 17.009029469530102
47.186279394209066 93.63694210721604 19.761804519022014
46.63858137851033 91.88662189753376 20.916800865604642
46.22280624938665 89.17866030688506 20.30060690910008
53.57302971764229 80.29140557384343 6.849227192193835
53.39616739590882 79.15533171228293 4.529537287078221
54.91868668101868 78.83029844825302 2.4165648363125296
57.188721237590784 79.66008411056896 2.019016502306892
49.768929314300124 91.89235569282013 17.481005247805435
50.46761294313672 94.0124148775709 18.064809580344438
52.75163374095042 95.12384448346117 17.521298060351093
54.64530554343551 94.5835969794588 16.467719984866772
59.41852901465198 91.50364420611741 43.95295723847802
59.91707171257767 89.84898869404707 46.375237356661856
27.37176610114477 50.04762860291611 33.71921954394197
27.083622535731347 52.33054930831894 32.42965964168226
28.59349469178849 53.49680386819204 30.789500236864605
31.200518357614314 53.29813344305372 30.296173543102853
48.341351452385425 76.73601450773589 7.873348092938572
49.202314363960234 77.9089719260388 6.290995272420144
48.08278688226478 78.95272648413626 4.616447046611363
45.73538693793983 79.84241462854276 4.597769608427095
58.108009557103955 87.13483711061203 49.01090616959932
58.038257389133534 85.28338495118635 50.76537488258008
55.985376720416134 86.39450175633496 52.430234950371144
54.278558387821725 88.35348265578516 51.80156262689789
44.74800927115172 72.9559373438828 4.3865887364820635
46.37160896395911 74.80133110047909 4.88442542288335
47.559381937500795 76.53217787836186 3.1140206519911398
46.85553717081423 76.81559018050083 0.6878214447737533
29.333978175184857 91.2503453131593 4.675077052474552
29.125719845051126 89.28173911887048 6.6113397997228445
31.16036260629539 88.8405904567233 7.47683891426728
33.69176548487124 90.00470736106107 7.289390999445075
47.210292381035465 65.57621051102498 46.49540740745717
48.46357711470767 66.09628712425486 44.86933645151556
48.921302990955006 64.10729282325278 43.13237811016394
47.62905550240968 62.72289483156815 41.84734655447187
41.72505217719027 83.1262044877983 37.24544812180522
39.536675194395904 82.35073221366578 37.537735053031035
37.46885468350586 84.32813645213075 37.19791078449712
37.759827090299645 86.83530775203243 37.731712936286435
30.699878559604176 90.41206420394448 1.329914059483387
30.631376116035153 89.08516506053206 3.522884198896609
29.292305298140803 87.55676292473484 4.439728454556601
37.72023748547208 73.80996096211543 60.63937716385725
42.96249480751269 75.17652317520907 60.0806805540637
59.55885457993596 53.42792470080647 16.46091184897545
59.833055225039864 52.81201717959068 19.028543851281682
59.46479623923648 50.84516122147355 20.338937048520993
57.65380638533311 50.37239712084983 20.91827888138232
56.686756043722234 44.29763720037015 35.33100144251289
54.692937846732 44.857550872337356 34.272586940134936
53.959766291618074 44.36721441298186 32.315119831137046
55.405214274984615 44.11937393505031 29.83120089751476
24.299933402660642 54.81195265918572 26.450218240988644
26.065100363171315 56.23622389522999 26.096443858854933
52.182357608518956 57.95400866303482 48.92778194344211
51.30314683800278 59.64905295845283 47.33534452971326
52.41133082797042 62.10364747678124 46.6701259362532
54.52008809039425 62.76104545634852 46.691204411441205
43.860823363051544 78.7455355990707 30.648464681495984
42.864670317869916 78.89493019362169 32.295874550029964
40.9710839452818 80.61613795408097 33.02715202257677
40.00319257328616 82.26136706792083 30.871459901545087
27.079188891186718 51.982752907976256 28.832226399340733
27.256605046260155 54.192824812657655 27.553527454845444
28.267552652706453 54.6538068945204 25.052518871156753
30.607585126215913 82.34804399895202 16.870145267735996
29.505795251057354 81.07495881333048 15.129357255195323
30.36395133110136 80.60588640927054 12.60496414023054
32.27781585502406 81.76482846504128 11.454917089161945
44.73775521315631 70.87061460090375 22.145541847741157
44.64710506862865 69.01822118681925 20.82792363537119
43.68094828990926 66.91904474984027 22.145244991105713
41.87457841527957 66.77018063489066 23.572207469969353
50.953360037598024 79.26101588461175 1.3900772970805109
49.77894560535249 80.33239887573755 3.1387714234807382
25.686263690735622 79.72617811390036 20.949672678340047
23.515437416825495 79.01843527622985 20.535116720851004
23.77003044134015 74.78760556495776 19.98757159474774
53.01022647632342 71.3654473559191 43.57774690664212
54.265568517668044 70.27386878711025 42.975389439151414
56.909486302514885 70.70951216143065 41.86612562297675
58.313144453833154 72.50683578380159 42.24160650126818
31.55356110180605 81.5307908162044 43.97137292205527
31.681971650146664 83.88147477626305 44.143903407573056
50.9273427793974 63.02583448980276 49.453779318703624
49.970075673160835 61.989910016406164 47.515054314838174
47.40379700061528 61.16513209415915 47.00690826205816
45.59669014175573 61.593979485987504 47.87931348166515
25.20021765736876 86.20329883676294 13.085081050651242
25.703646008499323 84.38630959668018 14.066659504997677
27.948389379034698 83.41001984103688 14.679902382366036
30.05623331138276 84.69657461149184 15.319417214703734
41.766206244190116 45.25242821082751 37.6444737996505
41.91484767612496 43.03492488921622 36.52228478965317
40.65623112254651 41.09301559293998 36.187670947851956
24.515067340630274 48.00088772044409 41.56094971444232
31.540636339446703 91.57813236772955 39.330199913728315
31.353449224817933 89.4408799395818 40.216700075468225
33.12759622580593 87.11575962431624 40.14943234391636
34.715714640199224 86.69132113483954 38.773881589946015
30.475814042338786 80.97862785762484 7.300519577836802
31.329463526718687 83.21081862895323 6.716787470951025
30.856265650888616 84.8943366603053 8.62277176994802
28.951118008952207 84.15289274562195 10.836755764789721
57.0941912927747 51.88237196987219 29.897621708569545
59.24601809306173 51.36972482034437 29.773743428246743
59.86100312049697 51.90629239143287 27.452249703337525
41.780850517580284 58.79662972991685 51.745623579431815
42.43105316572304 56.98309900296834 49.88084664255871
44.52649965788749 56.71721847029936 48.59076736564935
46.627738553879226 57.99444700514242 48.37138586852769
29.35737060595856 69.97556828280271 39.27825046449388
28.211897204833512 72.04540582853245 40.50216545458315
28.694684671950256 70.95559204983587 44.7537555966419
59.818211421635226 69.99681899035981 40.997317571592625
49.43026620902515 83.81366845704832 6.401314883449872
51.62680794233512 82.24045919139714 5.900125432515384
52.371228985514485 81.85585303822903 3.5889484623347534
53.63458464062997 83.20054953545583 2.022753764464311
57.14854654297789 93.28146085308674 50.8757093344089
58.46707479724265 91.99512409398132 48.96706275577971
55.95101380920766 45.873059938924364 27.917740732455492
54.93234611113514 47.8742208380666 28.45310072094952
55.58253281774221 49.660923109085395 26.8114621488959
55.54640114077659 49.51532038735404 24.286382440815505
30.449336464792317 82.21657778248893 41.02961229398142
31.55704107102358 80.13965506764873 41.571378093295216
39.58736269555715 58.518869688286735 49.97685345263233
40.9686281591598 58.722520650996735 48.029558802069516
40.85775164907539 59.88063469231909 45.830924553900715
39.651771216804654 58.28361051061692 44.44788564346809
21.28822532903633 75.45888208895153 16.27370918614363
53.15379111952168 94.66021665922847 20.94153723547655
51.66679839479644 93.76272030585199 23.073410434928668
33.467152445052335 78.36908971012691 43.81130607041751
31.006422937438277 78.07676025711226 43.065573937283084
29.227317619217857 76.30734951145037 43.4637491922377
35.30408148485531 85.74967918410816 32.7810927547502
35.45372104643183 84.08047667154536 34.05427147825332
37.60641356653137 82.49372825292959 35.07581927041328
39.74118713821768 82.2722806175101 34.87413349502868
44.573255826315034 81.63418697123929 61.01219978984562
45.6621319141009 79.63251287519813 61.56901755002899
37.37676819800684 94.26582215905682 0.7695641165107188
52.716529470535185 61.096621124854636 22.76661923383172
50.81775376972322 61.8269592771873 22.883099036449106
49.05389179227333 62.19064753912332 20.460604170558625
50.215576887540045 62.767918938453214 18.014450562814964
49.88187578593017 39.6343085120564 32.57428227699894
50.88086616873723 41.92236237826882 32.01327347740533
52.89643592497952 42.38417648294857 30.401039572570543
54.23672281810863 41.39324501272889 29.2853533256314
24.86468964378821 50.110944376295286 32.342566573042404
23.558169900812857 49.463513901511874 34.50779400814485
23.618033387178222 46.96145587905448 35.59776257564991
41.7932775611791 31.673990739530996 0.10408882175677608
41.02141697016221 41.911795897781936 15.074103985188415
41.93121434051403 43.210755721607576 12.81974478691848
39.93455735202363 44.724118473219406 11.921978722943846
37.7624404944207 45.07650775252263 12.958256311432717
34.821882641360965 36.7199091915522 15.258091805659015
33.27786453037239 38.47767228404895 15.495827272347602
30.865827891941436 38.70675868744797 16.238052795424483
29.59836141662953 37.004525113365666 17.476449610964526
15.468522747556293 43.04894891116996 0.5605080709019915
14.692277313369482 40.89854644644044 0.26226431735951156
13.926251073282018 39.053342416378015 1.6838516605666174
13.287196360639484 38.82150722035448 4.304822307982352
52.31620994175748 24.71768560639123 17.99994267885341
55.05492745479013 25.583154161881815 18.186671888655265
33.5207249676075 48.563734260088076 10.128514803387871
35.54988831060725 47.290907227312296 8.850124985652705
36.07351662898974 47.05177312493148 6.37071669970034
35.85920606158948 48.48070790564284 4.44368362630547
23.887656616811675 12.099636514069124 4.49138332249873
23.724179648704634 13.743309884372056 5.993662683643826
23.461439038806557 16.251510593185127 6.021523101507115
24.475864513338163 17.996842991015335 4.151042877862696
12.944823871581642 34.55223397941836 0.4198075207670755
32.76679520131953 21.76346089007706 1.4169413610246386
32.17097944250267 19.525528705725904 2.8093007388063627
21.71436410729433 62.163707719678534 1.6284068237467786
21.316142434244554 61.64875076553403 3.9329281371403764
19.449864347514147 60.452427745375736 5.263961288659177
26.06149178706138 42.90234317971003 21.754786653005837
26.555796826100416 40.821703060088794 21.584784712523255
26.614152949722712 38.61673805532054 22.998490363661656
26.831712786364445 38.35698216360336 24.640510420958925
40.804571450511126 20.819357559420247 15.886170782079382
44.07027490435432 24.7676137756768 18.2679129180735
50.09844545283182 9.857080717123395 3.3223246002701767
51.338274615762444 10.225404952650571 1.5949050610698963
27.921510005046212 23.90678780533797 1.4027505416421975
28.596672858571605 25.45538742144227 3.593279691861275
30.979107503335857 25.962867896082084 3.716192078833169
32.626521084825164 24.646451742847802 1.5913827666841385
57.727422149284074 13.30854737286355 1.736105670318148
56.60318362776379 11.005418149731147 1.1199828343000433
55.084699215933924 9.600972005593148 2.287366554154506
53.12521072464387 9.97250592806008 3.517889553394297
22.66483870899718 68.17418202505202 1.1422823591328604
24.21287931811274 66.10750522164923 1.4628252721020296
24.224718830378993 64.47568122926633 3.55056998830719
22.55350699925737 63.64179110535658 5.012657901233834
9.156200804988568 32.32694181708368 1.1417970833763955
11.289007252306114 31.349300260616722 0.5733836083080743
25.824798461795393 12.520537795599102 8.694159848742745
25.024283540545735 10.412041839727353 7.991471344269019
31.458699895527527 15.920368810634786 5.003723508995414
29.690440037232438 14.533197378992979 3.961498988355612
27.30795384834115 16.30266868327468 3.928754163692532
27.130579098527573 18.246568810122806 4.496056237863492
23.726529662270533 43.51314199475913 35.27859719029395
1.5797062522730085 3.070797223792913 0.17310568618674363
46.915914349315045 29.77085774339778 17.057325664651
48.82505109691735 28.866030508902128 17.25014646390981
49.38975936596804 26.247219675439098 17.98605069560165
47.59753693235821 24.696993114710086 19.042282816034636
15.99245042697357 58.04408715242708 4.508264567179701
14.61792146164806 58.879259937968605 6.644404279375781
31.052139925043132 13.54365013358591 6.777030422762219
28.948221415462648 14.189479136222399 6.721520015592677
26.515215823880993 12.696298472805257 6.197624691894684
26.24767469402884 10.61296029717361 5.760320732526591
23.687518294914195 63.04260790240139 9.156534769135574
22.11864534677302 60.93687588806481 8.621826865049423
20.173505510482517 59.68422473057434 9.838416977766919
19.766469928961513 59.27758443882385 12.005761248586953
25.10890012727078 40.62138499406073 14.077971296973207
26.541978173433517 39.33743833296249 14.771781831696616
28.93631477338163 38.64124368492222 14.073943408677888
30.511295946914018 39.98593273204145 13.094303435619478
39.909691570659696 59.62657703636978 1.714054455628186
41.55473186208015 57.819365176907894 2.0379887689955907
41.72344532957817 55.78960769583536 3.0892993674684313
39.982051244510245 54.43460767591588 4.547303878695589
26.134115378772023 29.407791010223317 26.545073068889973
25.70664869388701 30.257388051731684 24.114459793902057
25.5926008437171 32.55528192184591 23.115155318826393
27.169722105688027 33.61800827518288 22.822822421741805
27.060908100685143 72.60377908168975 0.8503632946052829
36.35787271184823 36.88953001421806 12.983577670254697
37.00093896851521 38.76737799101106 11.79955805332075
35.77209867565336 40.896407991979345 12.496505903841003
33.55825123325856 41.519131119726296 12.420717703345634
42.72998626971475 48.52556106740309 9.253750908882358
43.15959000114924 46.68022740457184 7.9589419226391795
43.95394707414193 44.0175808480784 8.588744149503434
44.302249809899486 43.20800342055911 10.852081805047701
38.38319955931697 38.5554717061934 9.100898877861187
38.592826518570945 40.52400851167934 10.254234705105993
39.748363351864114 42.75879793678048 9.919468777430243
41.11989416166226 43.562392262472436 8.387320784149164
37.57600512680963 37.97793065972162 19.086607876103933
36.81893387601096 37.89066867031606 16.730851055213808
37.76294216738056 39.73718487820406 15.03155364006401
37.74973846486974 41.85933520516147 16.421909412659318
57.30035146601341 26.927338144695284 12.038896430654459
56.69074571979266 26.44937660084637 14.253233534073196
57.08546041991014 29.057371589752417 15.508463691519692
58.64105442444271 30.742613974135967 14.710079548435326
40.922015386517515 23.37623389853333 1.5467714020266135
39.271580249783774 24.73721475169791 0.5261264583048578
35.23963364177807 22.144199847297347 0.21514173256109717
54.70380103487752 34.05127255522982 9.552013992924227
57.02058477102495 34.178234397362836 9.14462109218269
58.455140386285464 35.11159338501752 6.956978350749598
57.65155839426693 35.82391617464492 4.700309946819369
18.480768734567654 57.02304849477065 12.598879791190742
16.617427280424156 57.598276136150254 11.646763522548012
15.95315056247765 57.90311537928431 8.820044175829578
17.574762997868778 57.73059527464542 7.155463489256195
24.457458254490476 62.48498848995477 0.3143379564210987
24.0546190516902 61.43363333944605 2.5703522762492423
17.769668842810304 60.67633874432511 8.61021261392275
19.628405515283628 61.75609735460874 7.680490003556566
35.78071845530645 54.521269386577885 3.21622332106639
37.45820606155032 52.84201500506098 4.757355106005191
39.21926810575898 51.653859630083616 3.0432849649592506
39.03736146905876 51.19684685454389 0.6251764363058159
17.863913996004733 21.141020035391698 6.216377183197873
19.77434227386311 19.927594258781724 7.123770886119525
22.260407792754304 19.635608357227333 6.35703666434066
23.38261634188369 20.492327210175436 4.908111863947422
27.053551636766528 36.82610331233365 15.174212440851868
26.516161468005244 37.109926396690135 17.83050876944503
24.919526410661046 36.252324182665355 19.230706879088338
22.592411236902247 34.945635276824035 18.598596661399952
43.159949526628694 50.52518295376218 5.054421552605162
42.20532232157375 49.20486987007144 6.563418849281012
39.720056258217085 49.654361432747464 7.189871248215544
38.14794067693955 51.611369767417116 7.0655202686793155
28.185118558106637 36.07862793085002 22.35806599161144
28.458134077146415 36.02334753173176 20.10420918940384
28.543168156371053 38.82162575671762 19.268485254820806
29.32689519424114 40.74434687261052 20.877885330143926
24.93524542433476 29.05340723593441 19.42023906881497
24.755257500621948 30.260969979778324 21.40975252147495
25.209544242743394 32.67948797263012 20.412828768173654
26.86493161011761 33.57975879213056 19.07610851307186
28.730511592643744 23.607494424449108 7.57330726330318
29.239532203740417 21.712119946158 6.068292986809173
31.68463676416475 21.127067002998086 4.697755897023339
33.62124843173933 22.181867254221988 4.366936792359178
21.534472756795054 29.14626111960122 23.30696876587922
22.521986618693354 29.100075075643844 21.09780449089259
22.920987978072436 41.07703392296695 18.838443467523707
24.77156357423271 39.60162876763749 18.29153055081555
27.10111075993149 40.25272773128518 17.176256809332152
28.2872607516334 42.1924819880532 16.852651534532285
30.107174340203812 43.466084157259886 14.735618473724829
32.037098007932684 42.026380974744974 14.647708504478695
34.65434097127901 42.33560864610984 15.139860573911117
35.88460617165205 44.34253090844187 16.340456305029292
21.728140684796884 9.1406232553201 6.424359616606714
22.148919683790666 11.146715835003091 6.384144609297821
20.713786500864032 13.144922725700127 7.443308120237742
18.822765243909515 12.82404972111639 8.304713476121393
35.62781404213448 39.64665882175283 19.660245526719795
34.4148765584447 39.89065505491718 17.697732038129022
32.12392340469162 40.70963722723196 17.074500558531195
30.397934687084756 41.781670938202346 18.52297492046067
24.35095164125672 72.58566524030685 1.3181052297219151
24.991981416893182 70.2661321690892 0.4845694387968828
8.369723946485628 26.941475216113105 7.68373190185296
9.59388504038753 28.862275905830295 6.734928810746786
48.37226913823558 6.947060508144303 0.10265910428780618
56.80029444421022 26.689444552127355 20.421719350319
56.310013100331204 28.474766804558893 19.349031812329137
57.4464474817338 30.421765637077385 17.918454468983715
59.68315936491751 30.90032868086464 17.349117711761323
16.62952221063375 60.857983339828785 11.454965319664955
17.398695558569425 59.651783849686396 13.102591544334825
56.78261492867459 30.557192855006907 5.622546129105169
56.999487545338006 31.573468997474045 8.002354533943034
56.23999362567625 31.26134215967772 9.870134242920217
55.79898610444407 29.50493288114559 11.084419698767405
45.00511596004317 43.84856050914696 6.064268665271491
43.45991809911387 45.544532837457226 5.542731400122418
43.08589971266889 47.53247356966848 4.277132765126826
45.36077345594228 49.3345366073656 3.677786013348325
40.624076529506404 39.858258085267096 11.952150892597194
39.18848827366312 38.910778106076975 13.191521861360663
38.84086438221389 36.015946507045484 13.77399366974871
39.870248293847474 34.231972980016934 11.744432156216353
54.350645152285374 29.82101794973133 13.725303440845295
54.52101886226182 28.116019839753502 15.52709798233147
53.00824570006328 26.094760567622135 15.906733651829818
50.79465978072972 25.73259430208584 15.666342919252532
19.29774352371142 27.702845276673205 25.490949046171018
40.250743961946604 48.87392889435918 2.18235006779859
38.4923211556368 48.911863373000664 3.975007873556186
38.990863853562495 47.257207860930315 6.3972879917400265
40.63753463659331 45.62595139828343 6.300089462798454
37.181801698088776 44.543056277495275 9.032956804677488
37.112049530118355 42.69160411806959 10.78742551765825
35.059168861400956 43.8027209232182 12.452285585449314
33.35235052880655 45.76170182266841 11.823613261976059
46.94205043846334 8.684263767401251 2.6650347870748576
28.748184127547308 65.12053007708353 0.33902064560790474
26.558003724483154 65.67232586937102 0.0920452345445205
26.284084522020287 22.98442967790823 6.517458042535342
27.537369255692493 23.504506291138096 4.891387086593726
27.99509513193983 21.51551199013602 3.1544287452421105
26.702847643394502 20.13111399845139 1.8693971895500345
58.27742528188881 8.491384479959343 2.4082683453978087
43.933147870187405 56.50449801313682 1.3634751696003733
16.794029626456904 31.218180128998675 20.661427798935417
18.34091196073173 31.068043212789863 22.52608742736375
20.7748239747813 31.963789174120482 22.386892141200978
22.036286948497512 32.58474234209232 20.102731189141863
25.231996435913388 57.630008247857454 4.25715614822763
23.24786644614959 59.5210529435991 4.421849025153599
21.501515472064867 59.516691424121184 6.430191309982662
20.824273372339064 57.79170330593854 7.852615624173936
20.09162895727134 55.709796788949276 25.17431048660203
22.18645235846408 54.22372426190747 25.82244205577223
60.15039150635865 12.469798255986845 1.49799280004092
31.25614974950378 15.362227829918062 8.94983257852028
30.376938978987603 17.057272125336073 7.357395164791431
31.485122968955235 19.511866643664483 6.692176571331371
33.593880231379075 20.16926462323176 6.713255046519372
55.46715794159535 28.07842066575331 22.332649660762886
53.738057129593294 28.380180557192723 20.375451650728355
51.4760005961684 27.157111527094308 19.75523874052826
26.785789327049542 49.91688398619619 27.883865612651636
60.20016258879792 39.24043016243816 3.1223737139598478
59.60295356730517 37.53153908873654 4.097729313660084
32.084018617308246 28.773666522802348 3.5997975417202857
33.339360658652865 27.682087953993484 2.997440074229584
35.98327844349971 28.11773132831389 1.8881762580549213
37.38693659481798 29.915054950684837 2.263657136346347
10.627353242790871 38.939009983087644 3.9934235571334313
10.755763791131486 41.2896939431463 4.165954042651221
30.00113492038222 20.434053656686007 9.47582995378179
29.043867814145656 19.39812918328941 7.537104949916344
26.4775891416001 18.57335126104239 7.02895889713633
24.670482282740547 19.002198652870746 7.901364116743318
60.138227380231214 31.817501532067148 10.977678834205754
3.588859481615096 5.409106887327333 1.58300034952049
10.427241365802754 46.84909910646504 0.23875071054639138
12.20138836679075 44.52397879119949 0.17148297899452722
20.85464265856511 16.204848896800094 11.767674214509984
21.504845306707864 14.391318169851584 9.902897277636873
23.60029179887231 14.125437637182603 8.612818000727517
25.701530694864047 15.402666172025663 8.393436503605855
52.075874675811086 7.775154982721449 0.4046312004624712
15.617733085777587 30.16703463299556 26.522522349807215
17.111860318257595 28.98493637023364 24.437288925774627
16.118573005190772 27.31064115507339 22.90417742228028
19.45171829187666 30.855224859083144 28.524142994908775
23.233817494129344 30.528428146004465 27.698132964978676
23.118278692155165 30.87594278024677 24.824296131739086
7.2856893458183345 29.453624995415694 0.5242160896613138
7.768476812935079 28.363811216719125 4.7758062317200665
45.33143780524711 23.55276540926388 15.864573608042258
47.031528082476925 22.58524463869984 16.998797660317965
49.51807093266942 22.260065710439054 16.863183629261712
51.20383149803308 23.134521005449542 15.067780887719968
59.612866363994584 32.977595349135264 5.3309289628069605
57.44884673674118 33.152498879874344 4.032987617825065
59.23612506248295 40.61302397742434 5.242483209801674
59.373120307748074 36.79883617600967 9.544759626806334
38.89200356262005 27.40503815724305 1.0193682066707945
36.22233868396271 50.68968001996999 10.89775996948707
37.540866938227474 49.40334326086457 8.989113390857877
39.950150129483596 48.04657386519679 9.462153616133996
40.64181586338542 47.00819256888 10.920345230361024
58.390418938523595 35.67319411583946 11.769033555375541
57.92299525057564 33.308387002948855 11.432014431239152
56.72248454450722 31.61128740851588 13.030334884608978
55.178192858388556 32.113065551695584 14.818957173768153
9.523128605777137 39.62479694937217 1.0516629290595916
10.630833212008401 37.54787423453198 1.593428728373381
18.661154836541968 15.927088855169982 9.998904087710493
20.042420300144624 16.13073981787998 8.051609437147686
19.931543790060214 17.28885385920234 5.8529751889788795
18.725563357789476 15.691829677500165 4.46993627854626
52.46312690016184 20.203732212217506 13.29997712663742
53.540900277754375 22.285775515659978 14.48483678589374
54.33609559434202 24.423559607252418 14.106779938763225
54.831901047882475 25.624844005697934 11.754123504291682
54.39746950340796 33.73653917487492 17.190455498711117
55.262736810041666 31.741401845311373 17.385521697514427
53.39073892235817 29.715104471957172 17.658996753375526
50.99940574705756 30.01318235812341 18.507798040948565
12.540944586037154 35.77730887701016 3.8333567054956763
10.080215078423098 35.4849794239955 3.0876245723612534
8.30110976020268 33.71556867833361 3.485799827315868
59.88871950903844 29.175108521979396 10.080427935779198
59.709954922927324 30.28743309494122 7.674318597483509
59.148822900666616 29.121671256552045 6.183414017807933
43.141241872084876 49.22924947547151 1.1444432805945188
42.31240725308526 50.76875848656326 2.2787010081177397
41.598272888589904 53.45901590054072 1.932921444932282
42.042744664939114 54.83050362281557 0.14442913096378696
23.647047967299855 39.04240613812253 21.034250424923787
24.73592405508572 37.04073204208138 21.591068185107154
24.016086706814832 34.8073374413996 22.866572573977518
21.7936395884231 34.038589078867545 23.669310037777578
25.883444467417544 48.613035411310946 30.59584336459381
12.83936825772059 36.55725441312655 51.020465753015344
12.579912873146588 35.14544578568857 52.76903823026332
6.952592184127001 39.53400144654756 52.0837042255831
0.06531749198710983 36.79099949677027 59.188529496543005
15.825102852311439 43.484770350354594 44.287350076188716
15.605499852918408 45.89368092893842 45.32967919665747
17.092182788564124 47.2271749604888 46.10619014839612
19.766464313651674 47.52048410496305 46.330897455684784
12.546741996584586 42.301643780419084 46.028390849449686
12.082577660989482 40.72441435320205 48.512016561725616
12.738068617285178 39.0947512283311 49.267203083083
13.822455610717238 62.39166791798432 61.27280249937143
15.991789058047077 62.38929781367602 60.64734153532605
14.825044834137262 48.18230152641587 47.83985640864253
13.462994571585677 46.31364950948572 47.38665760065036
13.1720936343302 43.92395579996385 48.22389340029956
15.008535717527261 42.69669250246077 49.824222524692956
10.447558758032509 47.35225307624897 47.0561233276039
11.941854105366431 46.437468807806155 45.2245912665677
12.076124094541099 44.13746914732237 44.1279671679471
0.1205495862729367 39.1935537212717 55.62681247832176
5.612331987166055 38.42048963197383 53.97157030743878
13.724341437640218 37.418567269699466 55.666430162916484
12.467280269663231 37.983516745155214 54.04626717882875
12.039340759933046 39.37514226143126 52.298745769749914
13.52934258844785 41.1399126465061 51.29630933533712
11.93755671285926 57.768926307835 59.09950844489245
12.362306104365635 60.22163486009717 58.749022755405285
7.384903449471257 57.046978189531885 61.18697103986751
2.803858520819843 53.76288437238567 61.75222531010062
4.620485841082548 36.34427716286996 56.65924624797281
11.046631020021035 62.86597132150269 61.84176335136553
9.95587839620828 58.62666505749736 60.78905910383472
11.43341903971579 45.18854397041139 50.538603885268266
11.453831833527435 43.03443239388469 50.5040253013378
9.754593470924165 41.25542846856694 51.61562507590181
8.172366679345064 41.47648234696198 53.22340696427519
18.73569432081005 60.648359862629285 60.46670989945622
20.378707734159672 61.802319141507866 58.95466338661412
10.345650212974954 38.89621176396441 55.405963578578955
8.476116987040953 38.838153961866055 54.819805600628285
6.8359461330468205 36.3698472244644 54.47588045286218
6.896835397121818 34.59863848934926 55.86849395959056
15.097799673241179 58.34673674295254 58.97937392645455
14.966878431388375 60.67147003994687 58.6603104044165
15.088856083726087 57.159423686695526 61.57915515611695
0.7753416319470456 15.64226740828719 46.14038313952302
0.8566946557905708 13.867516907333595 47.002998929310834
1.308829458099783 30.479674384886305 54.17024551749134
0.9101701126899888 30.495439923716198 56.62199269138335
2.227802507432613 29.08437899851468 58.60278662424547
4.236843498773006 27.686886889364878 58.38814785582217
13.390432066337562 36.20466207060615 48.78105316707051
12.203960967487095 32.399540566353316 52.72962233921885
2.5471402944616393 1.4849364989045613 43.49436791781232
1.0477894867541877 2.53643019240985 44.770034279128424
0.9655664596008398 3.7319725608990404 46.969519217072225
2.9706767756945407 4.6489531659189005 48.42284393680161
12.618996759297216 20.992587229190104 34.378900817678115
10.841359006511 21.72184730102322 36.54243064056851
10.931884044111191 21.65425952680292 38.84399011407013
5.265154418393179 19.48051012474141 37.231625236537056
4.581894280650525 20.66502345272802 39.45480635530196
2.5767063452691588 21.625609559939438 40.47126260278637
0.19006067264020043 21.91353189821859 39.422437185599826
12.670822267212273 28.137369945282575 29.271333482618324
11.250887778138052 26.629103580229152 30.137656913948437
10.666891907696515 37.70664898262412 48.63441808114938
9.901970610446325 36.450324294625595 50.159091439993325
8.177152415161148 37.38288338468646 52.033369134642015
11.242707638400114 18.404256074239406 40.990571558425756
9.318056743067315 18.78890523600717 40.41948389665705
7.145669650330453 18.719456811198793 41.78580659212095
6.641958458115442 18.585503303243858 44.275109914772045
0.8427350834025935 35.63862982470397 57.42660874670831
6.869411102813646 9.774254541489215 25.454937312997274
8.206646286969836 7.688198875524109 25.33529006647067
6.615605886124886 5.794059402928185 26.233544052312133
4.825374675699942 6.141556268648946 27.953627060550772
13.925611285165072 41.54184536805107 44.00368993504479
1.30538495627784 16.002937525950685 43.59753205670413
3.1063963152234364 15.946096401101588 41.68165851256636
2.680147605243987 16.594338275326198 39.25694595416837
4.516469192737262 17.461059521018303 47.71092016140082
3.081991216634706 15.356915816232409 47.576013322422966
2.3687350497861184 13.630689591024161 49.51528135134902
2.531961394109102 13.691966675487942 51.56234015206703
2.137961661058534 22.174751042845514 44.42607333410381
3.7888724589401845 21.367421398927 42.8450882690418
3.6215678231834043 18.512370432385747 43.33890701331045
3.227038347651401 17.25175602552408 45.14765803739262
5.480761492310146 36.79575512780022 51.26564030122366
6.2996982613674986 34.89660717998824 52.0919941434599
5.072750685273999 33.025867541205734 53.29779863995778
2.7005404303484752 32.97953327355289 54.01770013553645
15.472121432330695 24.390291826887427 36.209716745889466
14.021880884114486 24.821524382086462 32.28457712987339
12.9226151383567 26.959516412720582 32.98486305223267
6.952795651418874 23.950775232863958 33.39855896482948
8.294163232500939 25.891210423100507 33.40894579564673
11.026099690873508 25.058741228905212 33.33301298597538
11.940975905119563 23.118405708711077 32.279641736413076
3.0164932416981163 1.8621543048122604 27.515104536194155
5.1760909339957815 3.0638410724089247 28.0922293918465
6.8833065097204775 3.2133793499042054 26.044378886878867
6.459436901733745 2.74135346001713 23.967587502966005
20.00473949510313 13.136995252161654 61.81288740231496
17.609200339322726 12.761911043594285 61.67219397846137
15.82858002869548 10.766780860308245 61.90809478230589
13.284137615969541 22.58582636594618 30.048629326739135
7.1852432839616505 31.473301361808524 55.185568907781864
8.94410276746025 32.71928346676106 55.040560586626675
9.392613240198546 33.9226951745491 52.84697829244551
