6.720841155128441 12.097344124940141 52.733985964833764
53.22537303973945 67.94762541124116 55.216005018503715
55.60485582593755 67.9871743981175 56.25919946827771
57.46315249905759 66.04180011711257 56.32147390700997
57.95539596875971 64.1154831219079 55.09223869079818
27.452898348498774 38.78359430193817 53.64311974788197
25.952288838560847 37.216273899561415 53.15979939604112
24.106895026503384 38.319919163946395 51.308147050804564
23.874513170934843 40.89961474669644 50.88269249719624
24.5139099483427 20.678232947450713 47.200279822750105
25.364681968964877 21.815379240528745 49.16627818778618
23.99710081720613 24.265473019581655 48.918613719417316
22.06748964441942 24.874927341454278 50.19751598457994
51.892527464866426 56.62113429559898 37.875088322638994
52.70593832666814 54.342550345104186 38.268796844027946
52.659357116111636 52.140457182312396 37.104079776741585
51.50467632498193 51.31343851843242 35.15742452652578
37.42382228445103 8.481343863379967 37.20403153217933
39.445588155535766 10.010614018303988 36.36973926940996
39.42456838943201 12.248045751252853 35.17753932551781
37.93186813394369 13.90073343894095 34.846485739508225
14.276253559721413 17.568597075726604 34.40497338906177
15.380504255598462 15.469109450831638 34.59542447775105
14.951178572499723 13.232481372290222 34.84290602938501
12.584183072750536 12.688421461637216 33.740954371408804
35.19232389796662 45.13019014275447 30.703757072995973
33.70250584605103 44.04392802279683 32.4563332550302
33.88224680841455 41.70606303848142 33.62505527444666
34.53977963554447 39.6164498231853 32.40912070230005
13.558925122408047 6.361907335450599 5.051276354387853
11.929087855399684 4.945221579972344 6.679389224218549
11.952733796138533 3.207230551109957 7.426366635684032
25.339043229081106 43.118772458660935 49.82588592465195
24.115603303075765 45.08600904870332 48.73312290108946
22.175365692646228 46.24874069624008 50.082950683706784
22.782514162742125 47.78271571949912 52.03355973975148
53.284414585409664 67.13122595188676 39.14732511062727
51.334848217628114 67.24541717493683 37.88736171525351
48.856671045590886 66.98735076316481 38.28238142716325
47.625793814872104 65.9685566786362 40.14807676067655
0.150588148542753 9.59547298155863 23.213328971285247
0.4393867672314952 7.365346107216168 22.765895357046592
2.380226345760754 5.702528080515659 21.687387665978452
29.29913836408513 40.906394824080415 30.608069765521773
31.305376889689608 42.04982193840845 31.065735471791076
31.615042529094882 44.7185980087791 30.90644012646158
30.351441122924456 46.66073774729066 31.405022593918936
40.24740899164917 72.94538868388723 32.31015782409801
41.39195607805399 73.81407063483304 33.71491107710849
43.059411352256326 73.19846667076314 35.75596557808826
43.497357844460616 70.57739123466924 36.62687380422795
29.672043900886937 16.795583690837617 51.03342453561663
30.224197974557597 15.95632233748809 52.83817560888785
29.90233828463888 13.143783893650848 52.88670369737593
30.529493059030646 11.900203737626919 51.16821569047492
58.905939112256675 16.080229937399803 58.991161575798344
56.74084921924202 14.312498614459521 60.109573291233716
56.84623930277044 11.870715102441869 59.148562516757536
29.413540019109764 52.91656890780791 39.550901901592056
28.850431652976336 51.19331403862188 37.80065182499114
28.11966452527312 53.458193096819755 36.219746833448085
25.79755554771492 54.3664748665558 36.26076991103401
55.85775583843769 20.8164024381981 58.198960508985095
56.732461929338115 19.073864093556743 59.6508106046379
56.302385508210236 16.731422686063674 58.80719652021642
56.00397296450413 15.99558676540558 56.42345558484695
36.01146380967209 15.482121560876664 58.41649379970814
34.624198698172606 16.860910691941132 57.13670709376806
32.036861091478215 15.874325289045087 57.12048644967547
31.084805568171774 14.373504231196568 59.31849981628099
58.861862407358906 29.181600436350436 36.79296653466539
41.158878960884785 16.47308077401341 36.253379122832605
40.87345774273291 14.348547409230862 35.90259947054202
41.67011671938415 12.162658471198428 37.11523622527322
42.560591990286824 12.034174589243591 39.40400514955423
36.95349648791151 41.91059021673701 50.772387539874636
37.8574873195897 43.38586040954337 52.06004911917118
40.793480990454505 43.977803992016284 52.62424377998801
42.34807550148779 43.23230498429123 52.15967773332912
32.88665771600777 75.4805871601086 54.57230755217342
32.72964852182589 76.32141801515668 52.38025525105142
6.813817829058888 6.2735822258579965 7.356835914053158
8.639044734093241 7.4260783922234195 6.57488815916264
10.368695891587205 7.464371121488877 4.499222846064255
22.862639588769195 61.27276229987679 29.168127205543627
25.098836221207012 61.583191260699884 30.538514398956202
26.684523988096863 63.546977445598095 29.654637874876702
26.150907782873333 65.20672503600406 27.78995419289202
37.15552364589597 38.16547048335366 52.489782985691576
35.30903640583254 39.94041882664373 52.53861571473898
36.329099572209394 42.082932936562806 53.924426986514376
38.23866957941195 41.67255413753953 55.94314664139056
59.47067053128806 41.435095180696116 35.65080897395094
58.959953096974886 43.682195068825095 36.68026280949935
60.195695559514284 45.60396802669985 36.846435347893326
11.87733455454955 13.74621590490715 6.782889783261959
11.957684191285857 9.22152907598061 5.755718535674134
12.718601673009546 7.879257200890119 7.57615864067865
41.08017655602743 9.29037898761277 38.22464246766241
41.77478418268594 7.43622788041579 37.28901129633218
40.68311245690501 4.964429290373491 37.5447708031592
38.63239059630774 4.168899474086142 38.6028357521821
56.68403183838545 30.405634915157204 37.9734921521925
58.60503889840246 32.31371103149714 38.513120435910714
58.551100007518684 34.623071633050934 38.35428817787152
56.64072381066383 35.64874085822047 39.15106096132317
7.466525722525686 17.77811018657685 44.47749953334252
6.38234040622138 16.75026948315027 46.35011070025425
6.401198096197347 14.376952693497485 47.764049634782644
8.147102548700085 12.792152395209541 47.760140971771904
57.97631348551182 11.103223056607579 18.113460686336357
55.34705357605876 12.63519259955886 18.334295372250832
55.61443258078543 15.113801161059227 19.0366406462962
14.8742472030856 0.04789345983087844 48.37326168518849
12.833796923072132 0.5957999170889529 49.84488404468622
10.878130633344876 1.4331171636350561 48.30983553851835
10.67550457827687 2.1585946224427612 45.90999111336853
39.044576239595855 7.828121941757051 15.737381224054275
38.49197026984773 5.52277416980349 17.05109938158264
38.11440192249879 3.5060325235842096 15.38654774233552
38.23628108962037 4.198861079150288 12.631104353572683
49.4301114320278 63.92669249624166 42.549732900190605
48.83449933116176 63.39277542383598 40.37950772324534
49.574232923988674 61.01123517135345 39.012180123805244
50.853131534123875 59.22484456749607 39.2892829468485
45.359706950472635 21.593568877256097 31.594855911959073
43.82634815546276 19.703613936497565 32.353338203593474
43.80231683822432 17.48893917452225 32.56253012863015
44.91301799952691 15.475093904151105 31.240861982363203
15.061035244992057 22.328227815342576 23.061955967302026
14.126546977213128 22.61811345480207 25.054163836305165
13.016229296454027 24.66420137959933 26.203039797364625
12.589347130370584 27.01724877200728 25.556215010724866
25.550005393482675 1.9035047550792057 13.155348281263239
26.34637473889847 1.056031730129334 11.256460271977211
28.422770399986337 1.5846949050688313 10.022382857203564
29.24642831047566 3.742926636092992 9.184772682739094
0.8872732740372405 0.07984089542632762 21.298677974719652
22.38110476981809 66.9828013566791 33.710474835087204
40.004073767356466 56.04752468342256 52.05763186066083
39.14368559271434 54.38906109868199 53.59095590633584
39.82558326766321 52.56509941247041 54.605828723840744
42.01176753931708 50.959759144882696 54.21139813921745
17.561003188503783 16.514946394951433 36.306562295982374
16.199733879100677 14.339380567701783 37.306517981532586
17.813171714116702 12.417004288442904 36.92143831389209
20.25695533186338 12.549277275303035 36.138399721127534
27.313359518689005 76.78202870219627 50.852003513688764
29.269324034215025 75.56239352843978 50.05073554336234
31.111496507263503 74.16336241385031 51.48800368394984
31.081398251573884 73.0622917694546 53.58460687021203
17.59251063204379 61.52698725711574 46.631806155987626
7.836304803638874 20.746692206943013 8.390315373521124
43.619719887168905 39.22387256641373 53.472294885516675
45.54090779902369 37.80464285719321 54.67142453870478
46.559186054664686 35.66340420917549 54.01784388438515
45.587709297919545 33.68026052612861 52.40887115405965
30.78920159230574 22.60226558208442 50.12779635229361
28.921863580230305 24.362654926025257 49.111605515940575
27.190242850764776 23.62265976402651 47.79447634180865
26.78468953581329 22.199140241851683 46.0101220896039
58.56970866484453 47.50211451429301 34.43728135237996
57.63751857139059 47.859327112145266 36.60033628356529
57.45369929245944 49.75525946219982 38.14958607572335
58.82697284780921 52.15340874076051 38.31150496570778
4.3053427572569865 2.279305099133135 43.30432063576979
5.287225511776798 1.0596279311185026 45.17399661533943
32.618450752628334 1.6836137180668567 14.168847958790149
30.876141768631452 3.127303682457738 13.276244346448212
28.214368420117143 58.66811401265153 35.95833878777475
27.754464176897955 56.76490897069277 36.134635489561305
29.338841722855808 55.163782018271114 37.63407363647904
30.404902414592563 55.358702887503526 39.72623837504877
35.19947323778869 1.0068808279374912 13.4193607338535
37.09880567445774 1.151396407056903 12.43177748284509
20.505085947376845 0.5441808657368304 28.788875991783677
10.352714316376945 21.267999406066405 7.532641693973455
57.77173267197701 18.945419243158607 23.090636133157492
57.69722720802321 17.078686372758444 21.634676805587382
55.06982130383936 17.530980518641826 20.11510848498764
53.214080682709486 19.158072519019388 21.310397164248347
3.6800894722856548 26.61345006342128 47.02266987723661
56.169564477028636 3.146731166413017 57.32962437163542
54.78129942739434 4.000237042254016 59.386582813466234
55.17168912606948 5.590884394766138 60.99682460357695
45.50441965079043 0.7379978149930867 35.34793310907159
43.09196826921901 27.36461958181005 36.38932961188079
41.687718990163 26.487045877034838 34.36010777759167
41.56973534826293 23.977151288802784 33.48594497394653
42.76441840665715 22.015317305100243 33.69157646164831
10.186456835712573 0.5213708298616594 7.549875055647457
10.868751438624319 1.3066160755141656 5.570044798325299
21.10981266407293 15.064482021627889 34.42533853318672
21.308031261541803 13.399145035401183 33.67944910488399
21.942215865161632 13.25064569123408 30.707742288675686
22.414133447432352 14.626376050582275 29.625120330191702
59.69877714335265 55.467050400297374 55.64234885085017
58.69157892426422 55.99579433829442 57.34198840150825
59.266653239009514 54.51027504127452 59.44731520604472
59.55261903018066 52.043024050271896 59.405790397357706
13.137149589095722 7.448524508480079 10.565108215801802
11.045959631209184 7.591100748816233 9.895427332005502
10.19386489074216 5.132170826911841 9.225883733091019
10.64877029959139 3.1473597741178563 10.424993066568325
18.539375217345132 50.252625000873216 46.23173735435384
20.916065399846346 51.48582355432749 46.32203560611624
23.22481536285136 50.52608882337756 47.32033322485639
23.905429932776944 48.26001549297487 47.55710715497262
22.828139797674687 13.39000075556469 25.929794213516196
21.91592054349123 11.33647439356248 27.23408166211728
21.565593354905875 9.12927707640492 26.7313815553708
22.095369557036832 7.741935114813227 24.522486864330734
30.344548993077876 77.7909541666475 49.54712013768444
29.554947008418036 76.90159557091089 47.65047386005107
35.01268033078657 52.66563902829068 33.24916591911478
32.97246566490345 53.65566284875963 34.30160849986133
32.361427144374616 56.380187826117684 34.9548793494093
33.44894876242605 58.232171291689305 34.45521022712993
50.7997719890545 45.57654198328233 31.792007136356872
51.774942397260645 44.932582532196676 34.226444382801766
51.268452290997175 42.83652436018401 35.84366389794054
50.14320623677617 40.892451738834936 35.50454276926987
6.704709042640363 20.95413366018524 44.174406171678754
4.460108807229744 19.97858983425751 45.08068477298828
3.9124197398052294 19.87596522371217 47.714171224443746
2.938264437820555 21.57683445134619 47.99916340871358
9.356215222013706 7.164910575268842 52.52226604734528
10.833238815392207 6.548775807989995 50.77478662862936
10.28108237417823 3.96094387401793 49.351660514626495
10.212294882471433 2.1178788587303123 50.973726900226566
23.217219598216833 2.1618863211348143 27.257294609734963
24.357169755700237 3.1975484875222184 24.726209171086737
35.714251524310995 61.57927303994602 50.79554221624665
34.51696299422829 59.675959857589824 52.079935999724746
35.39738232699652 57.25786807407903 52.489946129621174
36.95310482271438 55.95983253045234 51.50967139399261
44.126130273067396 7.531637372133947 57.798783309719404
46.4118871544089 8.106670277233574 58.89296825175767
48.530558446187726 8.479110010406137 58.231101140879176
50.00068373290893 6.930882586501324 57.09074900263531
47.95507350240595 38.77892639470178 56.69779962879262
47.99047897212355 38.92055198691391 53.97692593417576
48.22477373393678 40.63156838521385 52.58880502428907
48.08067896936596 43.199387151912944 52.886274056402975
37.239198310824285 27.151751820057513 37.59511713120622
36.7157135247114 28.536661571026556 35.70302104311519
38.677994872621504 29.643668988310285 34.16178623467116
40.74820314337592 29.772004486893866 34.26878711844215
11.641227299814968 38.454601371400855 28.063642593662635
12.457676195888752 40.61471453273299 28.535791767963428
6.685150249372505 7.357285827439703 52.76850084582102
6.7650157706105425 6.7229547710254645 50.519480505941026
4.7611279262039785 5.995821429984616 48.8046632544973
2.772358548579462 5.065997093403522 49.25332304905609
33.118772037571226 39.9654503689923 35.90750500892778
32.277745013419825 39.219655367045014 34.08325177198388
31.53546339081928 36.392292654603665 33.01922545360896
33.361458537369764 34.443183039055526 33.43286601438891
46.85289762983283 74.92326799835782 36.06026056104791
45.763295931275415 72.73482499877738 35.838465846742
46.326938695722106 70.48242633114982 37.18967606579423
48.619247310797405 70.02134386392417 38.4772220795268
5.780790595202537 21.20606441433836 59.598033798803634
6.48388186286801 22.381202634543012 61.600188356731415
32.889130438982214 28.42380209217175 30.31005199914309
34.47070654533763 29.607912951060435 31.519261959004517
35.10462272160529 32.60025295691639 31.205620208182665
34.16653663993243 34.03922683880278 30.299292760332982
29.467788010527652 43.57299663705614 34.90613276887084
30.48234649140219 42.10856392363429 33.70661233961412
29.885610404392622 39.621393616409854 33.197188637653575
28.573304934404657 37.9847506678888 34.07252813505044
29.177625410816503 34.847981955299645 34.000887331638765
30.321410262534748 34.06138880728027 32.32010083116563
30.89392957984208 31.557699898516102 31.374276458853707
31.38698487484123 29.4977419526682 32.82344827459051
51.76814891104558 55.83738805525408 56.99652452338065
53.87538640523512 54.93172382374059 56.94572762909588
55.83367796724548 56.63113733498945 57.57914335430526
55.18109881128911 59.17257451838314 58.60683015736421
39.9069788469173 9.51264434211276 33.83208597564139
39.64664757046611 7.2474955807183505 34.37189952472255
42.0861069872274 6.324022249592567 34.981546726938305
44.298839822996925 7.220536726886322 34.49927722917652
24.381537474558066 8.618818935211909 51.05111225507368
26.480904853118002 8.090673022893306 51.930171585882185
28.481307612382686 10.1913901816588 51.3255492194798
27.867766915265257 11.870093121151394 49.75670399622649
54.138490670429064 2.3850989736803054 20.571735730215234
55.578354388747215 0.905236750186386 19.861441462240414
56.41015020416335 0.6769918267653199 17.56070840251331
55.517145117241036 0.6604774835710655 15.603784959575496
37.38755660640365 30.87817789240003 31.14633789588217
39.879826674888086 31.578240308414365 32.20383495533592
42.21362165713067 31.417123044708767 31.295552550037772
43.01980970119443 31.20006432359063 29.090897006473504
59.53703178052306 42.46605959265866 40.60159354083936
57.51197248749182 43.284871330548896 38.98029974403887
56.462183596198585 45.98457314224325 38.840912597010686
56.99985076594621 47.70300648382321 39.982106069991566
55.867142952929434 62.68272823402825 59.68673793089788
56.048145541990955 64.75379093515375 58.20804599033065
55.35972058617535 67.06982496861328 58.700771900682554
55.36781670050186 55.039208161281245 39.69305059146207
56.318935599674894 53.3702796614677 38.841520587292045
55.13086465918851 51.165653317898894 38.3874847931636
53.66079850282038 49.72204465568575 39.839054228186676
0.5301779174490521 1.9880123210775456 17.814788679635864
0.8910247401990302 4.267280774185892 18.959362232158597
28.828404422101464 1.2658475315931108 53.601948772675875
29.19594180970088 3.5454239499337117 53.346082763950065
27.629360509280392 5.729698035395183 53.266309896976004
25.079867233894674 5.982878751803388 53.288689784811694
34.06346112052289 49.41913013131049 51.094791891352756
35.97394261257011 49.26409375217566 52.38506481705525
37.33451024860663 50.92638706205034 53.90326628218035
36.84339843939792 53.406615951572505 54.484942816188344
43.514303187310375 77.61367729733276 38.19173368235248
45.413755945244276 76.19753655363624 39.884153397757075
45.09411057673481 73.48749546943354 39.99579937354394
43.63401606862792 72.21059320842681 38.97168296837626
48.90462865735073 20.007065582632354 54.989216801970606
49.80793135071764 20.31743100092809 56.903831140393955
52.677944559082775 20.507721531789326 57.49408279130151
54.238199094500466 20.933908459093768 55.995801663703816
51.580160237622756 10.573683994633367 17.98614960893502
53.13834298521048 15.099131207786757 17.878593211621382
51.621453497917415 16.41221130565966 19.318188499072278
24.751304980807888 24.622689443112254 45.99299294743264
23.217792758639444 26.301794970463412 47.52677577434549
23.806819762740524 28.66298662541436 48.454397367420675
25.087168502626135 30.565788561190313 47.40608323171382
16.086992198493622 16.26668389337711 25.962486984966553
14.897750673101775 18.206453203411055 26.618197669593094
15.32573460338586 19.05215767269637 29.10206467941899
15.518020566016352 17.94299107620081 31.048413029447165
50.077285006395634 39.44924411932253 50.66070699232193
48.24487683702708 37.549131135201755 51.66650624394795
48.419208000774844 35.35871124403757 52.374764039287925
50.45346602871621 34.04730784030988 53.52731599043831
13.767747173229004 36.702256063473186 27.97145184231298
11.68669044120463 35.17638839133393 27.998849008987733
11.267246345740807 32.83750342301204 29.177145491795446
12.714933618566599 31.765427675885537 31.08923587535286
13.86371242884764 43.50518154818908 25.783589782915026
12.477216321364141 39.023707050295144 25.395625656538368
14.576420825556722 37.576441044042475 25.381479677341304
46.97263846735668 73.84150550504727 42.748164842856355
47.809924238596224 71.98631732614598 41.373488091957846
49.14198842695814 69.93913090547369 41.68016199290357
49.855496294151415 68.56774208250435 43.60530936849199
38.90426617752464 4.449624262869578 33.64341377331513
38.60630102499715 4.023572618805444 35.919363958769864
38.86677799719468 1.7633968676379916 37.3183288795819
40.90887553578994 0.5641652333630435 37.34061748549779
32.638101900304406 55.41276877423935 37.39192283736184
31.189896870153092 53.23272185646794 36.72805856247146
31.674647004358118 50.77348105180565 37.24357061088312
33.52020342969938 49.67971591754657 38.46981568668249
49.69268736934869 4.089579091442255 37.027040965474875
47.747869486582175 2.5071869328896175 37.72978061752696
47.86312484563163 0.1694762567287526 38.958396499296036
45.513190997424374 78.01449573233266 34.64723403991462
45.72048723251721 77.19218214658214 37.03891647921024
54.11379474497253 47.038546749291854 40.21889996219976
52.69842601420571 46.13879695417065 38.23054383221071
51.205401144270155 44.275931372985454 38.055398767689056
50.30513654141816 42.48967021049122 39.424224856357654
58.460949069330375 30.870163541684622 40.81668450854297
56.09243887599933 30.370299876968648 40.44466709656513
52.50729879463426 18.293441872895865 59.27356178707515
52.47689235089929 17.291645889958573 57.17626475802797
53.53785392756516 14.615859450015217 56.81585667992319
53.91001158370722 12.97161457177004 58.08683344951584
19.865077106563422 56.53229451129644 52.47990329359415
18.175637228654058 55.96509558781635 51.291120620843806
17.951738237566165 54.68370108452865 49.20568655257902
19.194150455181937 54.03491382181558 47.66721594020721
17.984269719104283 27.35510737247042 25.85749005233135
15.503299288023685 27.462471973674095 27.063631225275778
13.957644042034758 28.846753563325212 26.950942852513197
13.727189021943127 30.89594437479237 25.341675075256223
28.43128572365666 21.772786471324505 51.243772241858544
27.18156438091289 20.257907268435886 50.241578917477305
26.33450539085984 17.669383866178144 50.84803526989733
27.538188407431015 16.759523930474458 52.76028046150435
27.999141624819163 17.64614117983251 12.55114270415675
38.22936502225999 56.8881508724394 57.536068906329405
37.601539744096904 56.35773711128137 55.160003310657395
37.14379829530178 58.71788880642321 53.826937186207786
36.26620398698676 60.78519100993175 54.8368291730887
44.89029772324812 43.86258767202045 54.259011440766564
42.29877375780092 43.23844253211402 55.005259954349185
40.749565266869034 44.185699507436176 56.459212009373424
40.39856487904014 46.534113336787435 57.331537927857596
57.665547338743586 60.03173607729541 60.188966414190894
57.88037213426045 58.0404403117038 59.671922003955665
56.70108612129682 56.12399927739811 60.2566361666399
32.691439147148934 64.59574590280789 54.28224233234839
33.90739780683312 62.297174062550916 54.23938313260701
32.849736890633885 60.146812980139856 55.14998638077483
31.57686878456635 59.38321679499501 53.0476559908203
3.8790377605506228 14.791434500495285 53.74613543344565
3.083914491209109 14.813734794743397 51.43035442545581
3.6464040729749696 16.909420026786677 49.60908220939599
5.5669740196792885 18.026355134800625 49.12134387883426
36.01366907091652 6.741496823079421 18.307103485373876
35.73408272609224 6.113142070287013 16.151846127385948
34.566216858939434 7.2246249724161915 14.027482947376773
32.00570256207979 7.944061663004459 14.312364707441477
54.61328956939549 21.815927619877158 23.217524830189955
53.973428937480016 21.599977747476366 20.714000894224657
33.07897181313027 67.40096388545432 47.86904314037852
33.48990805244326 67.17324517256992 50.31906391430521
33.500223673517354 65.34494744930211 51.90853171983339
33.91456712486332 63.237125257296015 51.705722816887295
34.479111519007716 1.118598703144489 17.127119628172977
35.26248772474001 3.0084694145585638 16.71450830822317
33.68636156852843 4.336480906791275 15.38119393240739
31.488113288573736 4.968005327145418 15.30122971996894
58.23342864862988 8.880282989721492 54.96166900036042
56.52264083131062 10.532219396941672 55.68605203263508
56.63760824278727 13.215349519778563 56.110245895860196
58.46569602533448 14.576922692289196 55.83704755686856
48.212519645941704 27.030061770177735 49.956869933838746
48.25928391135627 26.767499400150857 52.12220690056837
47.54854346869665 24.730299753180105 53.802962153008515
47.85709257083697 21.96536244919979 53.59164979754163
13.700464624109522 0.26982001723165344 44.03868735687578
7.8021720584720065 1.7874020811198617 45.811839733464595
7.114908201862085 4.021078901591915 46.381157089484645
14.707509412073641 52.867155652754775 47.953268205286356
17.032864953083685 52.084095028163354 49.195566180817075
17.996526158964336 50.20624525838958 49.156055947693375
40.15069801906649 42.438012805693354 58.233130847109315
40.831341490804526 40.83252300355852 56.241850823386976
42.544455029991845 38.924717021418516 56.15247923079591
44.083040262328836 37.816742538372175 57.72885219599202
40.77794924799977 61.727550706119715 51.79808386414051
38.18572348507868 62.22152704995227 51.33955022458262
37.2390145584648 64.05132319092982 49.88090601708428
37.912630935924895 65.81111125473888 48.55523930111176
54.22881807990728 12.176035784952813 55.1094156136752
54.1657596726511 10.101576251436219 54.455920521901824
52.2726204694777 8.966170489763048 55.65931163668408
50.62915138355435 10.165630796009358 57.18291669091607
46.997112082510924 30.995109728724227 51.039742366686504
47.85979669514853 29.445107429831605 52.106895123226515
49.67741659214735 29.505943869737642 53.82971639838858
51.81895171589631 30.191565292285667 53.693002349250094
50.64804159341914 70.59149336063105 30.88286791018137
49.50902438671156 72.06638666644747 32.76229140956062
47.30003831676657 72.20550624651403 33.6031546013661
45.56671225277145 70.46216979592998 33.411411237955086
13.510473200926027 23.36949609557654 59.82881779304954
14.162045557909853 25.607129260855682 61.384620808681625
20.266578323505158 2.741708330084329 27.00755749258642
22.10366032285978 4.901292649423141 26.946363148085457
22.010322505250898 6.998080061351898 28.2896093206778
19.804738035461845 8.092359254303233 29.473582432473254
58.75734333213737 57.607999880231105 53.84640569741836
59.76670856240898 58.762161701785956 55.912866139138146
58.89530133098589 60.579694275214756 57.61834586455587
57.58942958761347 62.135073010321555 57.37261347928088
42.00153026318613 62.44756756303504 56.59759438321721
40.79334108131272 62.016886293583156 54.530100512675055
39.66514123738175 59.57594934596503 53.848195705219794
40.111766608262116 57.200371116295585 54.57164740432138
35.45687843237777 48.25017249360786 55.340815411808414
37.69608902181529 48.76874318148333 55.483045514578905
39.29533380511664 46.59774142225191 54.91728359419377
38.31625335958838 44.05716567997164 54.88470755002635
22.174814825308754 44.62239798981057 46.79314459452673
21.245176094774514 42.46290309440857 48.30886752423849
22.041034719667547 40.50560395894862 48.64072512284631
24.342293462240832 39.24694928728976 47.77172258592302
4.90326005400394 13.090534183446609 5.170452520845078
4.191752127609462 10.734276392711235 4.565411299603334
39.868731320507685 69.14341842353336 52.20079965424559
37.956851727149676 67.6119538392892 51.93817987934559
36.13526099274777 67.18284118387896 50.12041444580551
35.201580909809664 69.14070346415934 48.45924814953194
52.7694750591236 68.73350703642532 30.24878413022295
51.82426980258548 67.88467139559877 31.99886064514248
52.520661617380185 66.07050052357881 33.76379330059945
54.63006509410558 65.04000628606529 34.31297026087731
32.63189304951702 60.31271552517189 39.7780415549114
32.284980299030174 58.17648764739712 38.54769355364475
31.11165920912611 58.87554502185092 36.04108454868005
30.738987480536537 60.88856025350278 35.18145793693823
42.87376023052543 21.103140931547554 27.75780759144928
42.294520943828594 20.78273262164788 30.34387238553372
43.08050616778739 23.19172204002286 30.94555501693595
42.29877901382905 25.34972206931457 30.471722090120632
12.820651192554907 82.31634090762685 4.006432567419605
12.438654673957389 83.44606334971247 5.999126715828805
11.423312967800872 85.70930505147801 6.1963747522125345
9.763827041407092 86.86429875450321 5.0886845041596525
14.659159128091527 68.23695666568578 10.239828679071254
14.211852549748727 70.06294603749627 9.091831989872201
13.982745328911937 72.77159749435678 9.575862228299323
13.302029652934758 73.95602864160863 11.300902002338194
13.047924561273916 86.35982350157241 14.516963405024493
12.25373799288224 85.04867877667326 12.291310253430828
12.895739708498434 82.92012759227899 11.409853283719798
14.623672115315465 80.84867891574982 12.411788235467531
10.981308910658434 87.82072800060426 15.342981995089405
10.2356084270333 86.42419210909196 13.531998483277228
9.69146871628574 87.06899191778882 10.69225863697657
9.18463121171769 89.11379189444807 9.679522827247169
0.24560565580010033 38.3970558127515 6.202673911597251
1.4573404356757182 39.98930446740257 5.2746699240805555
1.297572435465662 42.312113957568364 6.987834392504751
20.0648286640713 52.701876732092316 7.343995283831062
20.819571186588394 54.35638710613783 8.02924328436886
18.676356788640376 55.83612242013632 9.323417944935832
16.074777077629193 55.227807238647635 8.892451824305601
15.718111392331409 75.41846494907801 10.79234357587871
14.17795636384814 75.93454613193222 9.140758704333072
12.192260117328836 77.7213450328063 8.96834452437095
11.753927137443478 79.42602642779919 10.43273278559826
17.5006614127213 49.7983839724187 11.572714154063311
17.943979409463456 51.94996269598907 12.421773635898958
20.04097998698019 53.390893239397194 11.351487825090075
6.321692235408003 95.5614749250393 9.719194062339279
15.396608905725115 63.31990714584886 5.1166847958902135
14.341742831652045 64.48458066153225 6.759769436118142
13.527394028943053 66.95817044497151 6.955398500195132
13.696868801923623 68.73444420261201 5.702632562376456
8.44644655912002 91.64750262913515 5.221341822346471
9.146554090125552 90.62999433705043 7.138355469390757
11.049795075464017 88.84290807781332 7.649363185917441
13.173981004653218 88.53524595458003 6.367955009903093
18.282367101835625 71.54317789938125 9.182712089787657
16.60496456894558 71.77870915488877 7.860646881530952
15.745325560146014 73.85299171277941 6.367551392013419
15.895797028515453 76.26110373137405 6.8621473341435
31.216710255435924 90.0916428112778 10.511600501018084
17.180461437145578 62.22080923523683 12.303744791647185
17.261735145273878 63.27373813575364 10.49728831615498
15.416229424407813 65.58700656800491 9.399819432972821
13.240982619650966 65.78706899569542 9.868276304995888
12.132992573260143 72.95775664092245 3.9769151577656863
13.158963496889534 73.43733844011695 5.794213986420118
12.080620372463354 75.33057706719687 7.4391709461287565
10.413205974754286 77.27144264020367 6.770174695906229
2.816722633686826 31.513955393876284 5.112178646228852
2.1854530825395972 29.49794220612636 6.91529431588359
2.175221661976243 25.58662776986383 4.704870000781963
8.86052389599131 79.89588023786798 9.38603716158023
10.525172739847127 81.71132254672885 8.202264317826867
10.673416481225283 84.06060026923556 8.249536936470072
8.941372181694087 84.85140819052644 7.27482823981654
4.721473079955121 24.65746916397732 2.924813654817033
4.95090591063183 26.358737295457647 4.743241428127801
7.139202774304033 27.990259657991853 5.27682957339135
8.59531061321374 28.893476718435483 3.9844013845846824
10.657127579829224 93.94923395308362 6.953475606946726
8.361780657109112 93.16298980810706 7.382408667070869
7.072961253593448 92.82083613585749 9.54899852161898
7.508225241300623 93.02957629372325 11.671897856600246
6.433932325810331 88.24990503443018 13.171285080558658
6.1773906283134155 90.71000310118237 13.647822818174756
4.429935207715336 91.976646240322 15.043684999999869
2.1462396275781295 90.88728633978803 15.81411240786206
4.871652469123102 46.1769373406534 7.094158103541745
2.5757478228716546 45.086341924859184 7.61548718188897
1.6517181015484148 44.097188969673624 9.78525364705693
19.823866178514212 57.79429099984152 7.170733998364928
17.984849602276057 58.42044652308868 8.394098225673096
16.72294179651837 60.50235113928361 9.28126152796378
16.296970613199342 62.267722818187266 8.036933120106525
8.446243029807711 23.98791455845398 4.831816545696298
6.054184713286372 22.46623972661653 4.393095753402415
5.915046607907572 20.33073802230334 3.2263645828765197
6.21325387050697 90.2557146412504 5.228392096487351
5.993874542912266 91.54472017550917 7.196951810967626
5.3463827542335665 94.26349353239344 6.73315421115353
4.226675118078707 95.36640029212597 4.935302620836756
4.612239645201401 15.59146264303327 0.5072201756402253
11.528418009098477 61.262251409638544 9.979828073341379
13.76459901194827 61.28704713991044 9.558735210785441
14.983070768191764 58.79077123053399 10.571056464959366
14.286408953739906 56.63550429779284 10.314311514995577
17.85938178686694 91.20863401930565 24.152327613086165
2.221577747845471 95.64585242015777 8.930914352961912
2.5483183725935117 93.67033951949473 8.224184026885588
3.6863458572531766 91.52592526555028 9.217261424000705
5.167346735266957 91.31376748292193 11.036479069890241
1.73257841754152 95.73032661538865 6.346117844662353
7.149581525490119 38.162124395620914 5.981063055538368
5.132374937725702 37.447436468170764 6.881607272096992
2.9811844602096023 39.11327729951352 8.024669299786037
2.973276967882842 41.22588386558858 8.611223183281066
30.845231118493107 82.87287966219297 9.283420714510907
32.97340796177738 82.91463335486287 10.180984932621726
33.64232157922952 86.37814079500494 13.048496324045164
9.688464481518606 72.75802432154694 5.055171970525127
10.931381986755204 71.99944426652627 6.907193126764278
11.889888301448204 69.6486296922057 7.815404838412399
10.697580670703555 67.32733044283125 7.25758780077547
20.596005831770867 66.76611614842106 9.866278225575808
17.877392618881697 66.73407396423595 9.75664467250534
16.382571759035557 67.76979466303875 8.467400792683886
16.55763463833961 69.46286739895741 6.382054753930837
2.6191463722064645 37.68293443981477 4.795338132773709
3.088154255646321 35.87014408081181 5.858928628619397
1.4664543425160081 33.415580759345275 6.056932432396895
7.5203269482842625 29.530493790056124 7.412304266873588
5.433109742252013 31.036884750524177 6.635023950327894
5.132229346266412 33.26614223157455 6.364627017719799
6.818931511172715 35.03666154711669 5.364357522152677
4.884366017780048 35.47425772278935 8.486285209264071
6.636056612261902 25.657691237233788 7.1186749030248935
35.03531519390318 88.5242709062377 11.005048547940518
33.87454970032384 90.57137257153711 9.87883015979391
34.85618363825289 91.44663265586402 7.591875459481533
3.908252267900327 22.438729909400266 1.2533106755066403
3.968110264458848 19.7363751316493 1.672213746738403
3.174679555303922 19.335442991366108 4.184037786843655
14.56506055684868 55.313727527644446 12.840964966526704
16.024589111544877 54.076996491157395 11.268093941942364
15.830652809711044 51.83498626534909 10.18194020169855
14.037551450917077 50.15830395219338 9.767375195007268
15.629766305771826 51.69660321503383 5.355171739131249
17.218316307702263 51.33915338161897 7.239531661390284
17.83076206078129 49.48039874526743 8.722347449103793
16.200329197564162 48.412180886077664 9.708541074700443
21.395501049196934 60.18328760119295 14.65715704892907
20.869457518172275 59.99216840283354 11.894461692545836
19.538249696377893 61.51541381567767 10.795632415979915
19.94122579636246 64.26779450694652 10.415110254417263
6.094163683533282 74.05127549514563 4.432432054618461
7.274944659612696 73.96257811800879 5.85248954295222
8.290445753856666 75.6615391116296 7.684568899305353
7.27905661656929 77.88986262960262 8.258409742102781
10.21135361268805 71.98958124685872 10.2086444128536
10.889042056301781 74.06265896349814 9.791503900300484
9.861900510889575 76.47022447293668 9.889963362631018
8.076987528560442 77.30668217595338 11.689088810549098
1.0374678159182409 47.2285374976658 5.987942939401469
2.3681608907965663 48.25442861473479 7.885643559013579
2.517127691274867 43.22256323892524 4.979100330027318
0.28598557091116433 43.763069490237115 3.9740427960880598
0.7346622898906325 46.805342077506545 0.7393996702468398
20.599781926405374 55.257149781192346 13.599468684945087
20.377659706477793 56.60523022984894 11.440930202119361
18.671231803256237 58.675800453473364 11.031986720820411
16.874240728786653 59.589669375321236 12.17476210759729
4.949466234566716 88.2912702155308 10.937211034271245
6.52789231565222 87.23983744499631 10.615727158945926
8.021024129388733 87.2678653101025 8.121592522605665
7.339402508361124 87.25719973448169 6.232493447353456
13.743617843557882 83.84276223455205 8.726697849778237
12.185617210688944 85.73832507500943 9.810943867821734
12.376291950081294 88.00142269991949 10.08904769747548
14.449721563564113 89.71508733042072 10.221100037902106
14.749916964878501 77.93790942754262 5.098471040050568
13.058068995926604 78.86073048528321 5.413236515046934
12.714476214142522 79.86877905292165 7.809987395509005
13.625541281946264 81.17514673563636 9.072342902759981
2.60232438422775 16.44084927972645 3.1120681283689713
4.286769998337975 15.419773047135848 4.420729055631381
1.0825124733787799 63.80999007179926 24.14468606909441
2.7195170938771764 65.69620614400421 23.97428522150913
1.9166129205356275 67.5875283508856 25.827535888854
0.08935723449787836 67.39686670145989 27.38757411340395
25.176702320197613 78.19448663502344 31.496529203410656
22.612806413981126 78.46483602364695 31.344133492141786
21.047362893096242 80.26783037787236 32.424224588233855
21.36324822144808 82.3675372701455 33.28583424863008
14.462566170739732 57.98184849176795 47.75626123761324
13.563109191566083 59.57725628787762 45.56510044422488
9.13511496907273 64.25272082545165 46.954998517206135
11.38123715467648 65.34891913922306 47.88621805651922
11.892569527756088 67.62335838833383 48.39088041629285
11.072620852622903 69.67869277330178 47.61134840142541
18.391038462058397 74.90588170794135 27.074014276213553
20.224370574986605 75.83719195031364 26.7297960108427
22.501075940604686 73.75492935017282 27.076253669276998
22.091494845359694 71.3916232328211 26.679197264459265
10.78416314025326 81.41901538911495 49.68108331656365
9.444693298063195 80.98225449306406 51.7171143060639
6.755711935986224 80.72518674766546 51.174934868065804
5.706842163181032 80.64204475866306 49.25036855813187
17.081843282797262 86.5689672537239 31.88797146326482
18.214125263276355 85.73642470603382 30.37294588055792
19.13931854151546 83.34023865641345 29.843048219344944
19.17599535300931 81.29030316621872 31.063327237448856
11.519752233097707 42.981018839834285 29.726751732777718
9.906414319818463 41.77075026269897 29.016575341209258
9.14470673993439 42.677354944136006 26.695804517693816
8.968835472623516 44.65634032770446 25.607745178459645
0.6299437886132605 25.035139647706192 51.4942793803358
6.241834334101178 29.420415243504912 30.492258259641943
9.507817275428566 40.403839837904215 23.519955298303618
8.710128722071472 42.16295795279926 23.982711939842133
10.839063977321763 44.4511644136229 23.778464475650825
12.130305893928055 44.9647426042788 22.219206186470405
3.285483729282448 89.50068463984653 25.593695968639864
0.9046254483880778 89.52013597877038 26.301833162362854
0.7895932819816169 28.732373322501314 10.01501336071333
1.8232981802600035 31.134218682424084 9.098681863896525
0.6525462157508956 32.98827672052502 8.633698910420344
14.357518433825202 68.28585593049897 48.34062335126411
13.460143665981777 70.33789463988762 49.35138446921637
13.861890180173342 72.69454857747677 48.980758798619306
14.931728498544071 74.10769519275766 47.32144704881208
20.426146419302217 88.41661832739032 28.259170831438794
20.326533334692357 86.65197194498957 27.018676927912647
15.370651989115549 74.61590576139633 29.109716826869583
17.516073787871928 74.56337605815968 29.582894198090315
18.628624726500163 71.68303372389585 28.622510762106323
17.414710459612035 69.87932702907902 28.865744579976692
3.700130766486 87.73124379285977 50.825836833279325
4.771593556753061 85.07938467632981 50.39514554369467
7.377821853344679 84.75461611338284 51.03291036077969
8.236665145177634 53.26023595495603 24.76936746722643
5.893219123532416 53.55149735064558 25.835651217655876
4.179903768706751 54.84567559444624 25.4390504421147
3.739951331263813 57.0546725655457 23.969954752287958
9.103624844274089 46.43479714443205 22.16695829767294
9.172114528667343 47.32617819571664 24.573303524746656
9.861974192072047 49.79291726158696 25.314015169561078
10.43004277668063 51.53153541185065 24.191287849517
0.8979148621923035 31.196451539002172 47.14628886402829
5.692099910787688 57.976178919832385 26.341747037802058
3.8357252854132278 59.17110166858609 25.890256172714487
3.639142353478683 62.07158178945193 26.681974174451778
4.899155181898754 63.17926127213382 28.31803768812199
0.22862505910756523 71.9092486349804 26.196924066123405
0.6378347840814332 70.09037406321309 25.366599643789417
21.071313615925437 78.77485079961804 25.54202018830576
22.2662751236699 79.90308606010767 27.233800867290405
22.262046951667497 82.06063627817667 28.436503500570918
21.32468144731812 84.35876992195811 27.74796927502977
0.3423378559657991 65.05103703646692 29.68135488520662
1.8773104758392627 62.90741487966735 28.62160410584873
2.8003727041836974 61.13277430516741 29.806454563119292
24.523447212508977 71.15407911773525 28.00119006414448
11.230416725657301 52.626740129237284 49.74424971530934
14.307517240808167 55.856183626550376 50.37944448776208
12.836602686024655 58.11714137373499 50.733755325746955
1.5098321209893049 27.019648963179247 6.591840065381534
8.000020752811633 64.76735546561234 52.89915317318627
8.450528264799614 66.23846437067864 51.15627920534375
8.073041455834677 68.70129461073033 50.74457429493502
8.08516085350038 70.55954376881438 52.22207270061919
1.3514244893252978 80.35306964362951 28.626666628788932
0.802871018980323 82.66765273984082 27.96087864215104
0.010729646713316365 30.49333499089322 43.577871385098014
0.4557540630297952 28.76804369289035 45.766351103648866
22.123358896527144 88.3811144344393 30.7879274767001
21.388201133773006 85.80987100879096 30.23345641868049
22.24315893663213 83.77898345378638 30.547261725529417
6.721060767324716 40.76484253570049 25.41845459057013
9.152196035155663 39.559325488342196 26.013182654638126
9.819749491476086 37.09186993674592 26.044934342193514
8.679401630131832 34.98182520159878 26.108015630682406
9.335446909841886 86.25277887637706 44.259421517609084
8.213590363427988 85.09783716440283 45.63594779822526
6.908775818371649 85.7526216091543 48.007689232252424
5.035168874333064 87.06611530585536 48.37110604279595
8.868763237685286 70.38274920616003 48.90034508785206
10.79704388972723 72.23887764803493 48.92474478313779
10.86924518078728 74.71548120983621 48.37911812723104
8.87245064086247 76.35720864503314 48.8579593760472
19.325874115065726 87.9843978033615 31.937669913215284
19.02402969447908 89.32410654172213 30.280742701061886
8.041505174503783 58.388563469543655 44.85934183435562
9.834292275740454 58.19737636893077 46.28039622512807
11.342082765226708 60.30582395214325 47.19346524332353
11.033884106596254 62.5100960708308 46.652132814358126
7.91929084565184 79.97508604213837 41.19513976009556
6.2835266141941135 80.2341655149861 43.008392889028336
7.3687312035842725 82.62579393056183 44.39505906346632
7.251526999858254 84.54850614312626 43.023776772498884
2.2538569462497837 43.99082386219961 11.862400894658562
3.353765749587497 24.630878553097162 9.722486100125666
3.521107691551736 26.120877326044575 7.867108108259375
4.572190863932282 28.608973079914147 7.754231701847584
4.494456504886086 30.430717848309715 9.335019043655471
20.755846078386124 62.94367229641698 30.166577172888356
4.337822880508124 63.9114692181262 22.17792345898894
3.6296951674963402 62.77509581648524 24.0161912484021
2.28260174808242 60.41487473915793 24.136297474760934
1.4843983076897138 58.6888548563532 22.532638022274632
7.94048547968062 33.7838314035606 28.380721361495077
7.337015105075801 35.90274881600984 29.325510073965418
14.358413253611317 77.44780114418418 51.82726169720949
12.264877289016747 78.92759456181872 51.10281990993661
11.163040253882885 78.13147203855848 48.56859369781562
12.697767249944494 76.09857342044725 47.00050637253924
13.734227630555388 76.18016927326731 54.426928935099994
11.90050129228614 76.67419428130482 52.87126461341042
9.962972804458953 78.26165831955241 52.624030046969374
8.904024987790779 79.78758709784574 54.19325417405972
27.68406755810222 78.88446272109 26.411128197004967
25.958249456953254 78.64494175638778 28.384785580556958
24.228794411595572 76.360266445865 28.903944962117514
22.93467135084753 77.10762634468753 27.269568787402683
10.859014086626793 53.815646411296164 30.77722606650948
9.14067393321551 53.267517952528685 29.912885269969422
7.298732680149814 54.455969679907156 28.519825451334004
6.468368422254367 56.7900864647859 28.52521632049882
0.9570331788571405 22.776303455634046 46.883141529685574
17.79312782303502 91.58652935399321 26.360879353291754
8.115336504254945 51.30161092548799 31.485120152812033
10.719841201614429 51.122737773330336 31.761503154284025
11.17191030918566 49.02877493155017 30.343138428166952
9.22189097206328 47.14267173700873 29.90100761528025
2.5059686880696854 27.273981008387278 44.51593845903123
1.8184460065663137 24.784007141188034 45.083155581758284
0.014337349660009402 59.14657725166114 25.50803305277483
0.6612116021097707 61.73237920981167 25.907444183105813
13.650918085341278 69.58698036546403 51.73297610194012
11.7021881669239 67.97261533708188 51.364061378272076
11.417102563090193 65.74168251283167 51.06854172995213
11.689407681871266 64.27036314701674 52.08666962358034
1.2009396728673853 43.17339235800007 52.465589525457354
15.02897239686271 60.60487811158637 48.861740570206564
14.329307895339724 62.672454582983924 49.95356179625694
1.5329160124904224 75.64237709675483 25.031462438093936
0.3054226557618998 77.19570760761214 26.673360529507573
1.046137013791632 81.70622234108956 25.62022068160952
0.8164921686043 91.0524642385051 46.49568339099098
2.674788841724343 89.10708995750016 46.55795782972324
3.1670323114264582 87.18077296229549 45.32872261351146
0.9085537012321324 11.694663992490437 22.111256192876763
5.6986900316653095 37.90576895214446 48.27959753435222
4.117575454923431 39.14551977778739 49.22764549851162
1.9524855619087687 37.37778845484711 50.34605721394699
2.057875645437194 34.93600494282946 49.38504643947081
1.0693921811044387 43.88169227858569 48.43544443169837
1.9440982720048674 42.139153933944336 49.88729452735117
1.5140218508769812 39.796712526451266 49.0436804429297
1.2156093071708878 39.060876605793176 46.659939507560225
4.073498750025655 52.24689027673803 27.02945045737866
5.88480672475627 51.47845284545774 28.260074875256773
7.523377053224082 49.33413392178575 28.246244882320845
7.7824111821500495 47.62210610763405 27.135118567737926
6.433353585041557 63.550045415054505 24.45960501718421
4.68230687395481 64.5003850210837 25.887292896664217
4.171589439641638 66.74748490921269 26.916746732212616
5.407331902181034 68.66925786708745 27.082919270606602
1.8956681810521965 53.47092475554479 28.209976074905775
3.816675241069214 55.379000871884735 28.749604358623987
3.762736350185433 57.688361473438526 28.590772100584793
1.8523601533305805 58.71403069860806 29.38754488403644
3.187949828178564 34.16851289699517 8.34994460904963
0.5586899187255125 35.70048243994645 8.570779294964106
0.8260689234521876 38.17909100144682 9.273124569009472
18.08869740382566 69.31409393708776 31.47947721018283
18.86811678173815 67.30718931794607 30.873227089079556
21.353595324046367 66.50066463980279 31.69217771888306
6.120739304243965 63.22177576601812 48.619465335203586
8.250445206412477 64.21802797559124 49.4742504495464
10.794188859744049 62.90778201504425 50.059639696401455
11.22858606920194 60.50405076844586 49.983080323731436
15.243484955454548 61.452081310157155 46.13629459515194
13.623895605319639 63.1399960872258 45.4220012852597
13.685448340196539 65.49100561156784 45.49707197323103
6.208644857193941 21.403940563562525 7.285593279583308
5.767452179926638 23.99798222271547 6.8132761665028525
3.7813450075112907 70.5674043546806 24.673765275093235
2.8491549140573422 70.92461695253286 26.836820206278567
2.6653356351261888 72.82054930258741 28.386069998436625
4.038609190475961 75.2186985811481 28.547988888421056
7.586282411233462 77.77982212022224 43.850431629154684
8.062196345417721 77.61672148581998 46.119314551737645
8.552241853746022 79.67306764690497 47.36349598085842
9.583507207286267 81.98809652486318 46.74935601722193
