6.560058393656712 94.59460266939068 1.6874844489240557
35.13454923059669 86.59568402924988 5.747771922359723
36.116174631667334 88.30759186526053 7.1641477760893295
34.33130924592483 89.96324808058445 8.688556029728524
32.40495518835374 90.48920602152957 8.325836175373997
21.93437415350046 84.02847744143457 2.468104778606609
20.2876414327039 84.91227739692074 1.1468675856278647
17.760743593776084 84.77820840317135 0.6553264681974816
25.988212095773232 61.10029408215884 24.563758196455872
28.255524491489687 61.21669035490345 24.08600295751864
29.578151584003397 63.39986990021411 23.95356266071565
28.788678735258575 65.80389166334058 25.366437411373077
25.930253527552058 73.68261280423287 0.43772092267087126
23.51231789366105 79.00958302577304 0.39557147248370456
0.963567186049507 95.26573410466133 25.807310702958027
23.569866401766976 64.70192174612338 14.299049007293513
22.71925919605546 65.23525644708339 16.10829545769833
23.905038270018643 65.45178195292432 18.434641456684695
25.92079992913578 64.59595356475842 19.298113430829652
24.352949999612377 83.46524156326957 1.7253102830793834
23.916382971781022 81.69213415641508 1.16541253608528
1.728293658794839 87.81184937359299 25.160572755119183
2.9394642581238726 89.46873272003901 24.436988685867988
3.1924223900456328 92.13784238933934 25.648223991069916
2.0220712670083603 93.09972916624787 27.2186331133242
13.930370096978807 94.27089635423357 60.566062297981055
36.49727829725759 85.84575425945692 32.244844035146045
34.6243510871389 85.84132444213817 34.124050255909026
34.067423367821334 84.19984623038435 35.72581409568905
32.99321465659324 82.64493285416621 34.35523906635455
7.642775208293796 91.22465107862133 17.334196718168158
8.06179219470032 90.6610858446348 19.684755744218304
9.265491825742755 88.61564319412444 20.784924675045716
9.874781939350374 86.50778185395971 20.305346515092584
50.303711862578034 94.96958589553755 54.77354720210149
9.569883411450261 91.23780182639887 25.980324107664384
11.708384359411918 90.30741567686304 24.941312023140373
13.58530768612674 88.77036011325266 25.636935178322084
14.304066903646548 87.89251698311841 27.929401902069454
16.094481003735275 62.43238361363869 43.97250177979644
16.81423117048803 64.66585397191245 43.804462510871744
19.392366907679648 65.08554085337462 44.15781825002604
33.520093304483396 93.19934882367052 38.610846623566644
31.782644427004286 93.96936565509392 40.107539143536854
32.84395542279146 80.38253108515127 35.895801273971884
32.05384276876311 81.71466707320243 37.3632090561003
29.98267139404371 81.57648932563666 39.24395711696277
28.898828383189343 80.04635644698926 40.001331966544996
30.59227542884536 93.3048763817573 10.373705557608593
30.88101199701899 95.04116532421963 11.537529353035104
30.98499823916288 95.25503557624778 14.317938361190851
30.45899916911069 93.96552264394107 15.931122150673191
23.488492127716544 78.32811155836177 19.24561366219446
21.931249964004795 80.22986742977332 18.90965980900182
20.14658990976808 80.5492479971368 21.10966444147583
20.720802479735365 80.4873352089739 23.32266261194548
38.476069854401466 63.632106182326744 22.254157248205242
35.46282190929073 63.91024378449816 23.13454062445668
34.515845217424214 61.69096842490052 23.746680238799694
35.298202283546026 59.36302196845216 23.41731558632386
11.181800926900882 68.78255713491433 42.450548390547105
12.496506381402279 67.99192696850281 44.32046596856787
15.140118453104584 67.735824367361 44.166826910030956
16.493918792996002 67.07975132290434 42.416740531947774
38.39377783315634 92.9572658371039 10.274646570174726
39.20273651198017 90.40585012948095 9.746702793543086
39.8087046711575 88.77889401278921 11.772837201794614
38.75833007014027 89.13016444331349 13.418427451700136
56.28758154793313 91.63067670197812 33.31728747065266
58.60629941405514 90.4658401773739 32.19268969758751
58.85886978674781 88.03429049651884 33.05515517049043
58.075549314532466 86.77059518965497 34.94499425624843
18.399580654906703 95.43164011988603 61.243821562877514
29.381182897520837 77.99223658092991 2.2572387249768764
28.165091187000872 78.21738711498745 0.41436085237097353
8.458369509401628 72.30376811794343 45.06045601076825
9.934427640763264 71.36079787928125 46.36440516287994
10.513227775575608 68.84137622049346 47.193022075811754
10.760128326562596 67.08479575071652 46.05998191692971
3.402710461012042 79.40711776377464 43.66048824552553
5.5905308389949875 78.88155793803693 44.40982644057819
7.164023243801994 77.48316941085221 43.96382637703814
6.83624626294527 74.75556693555389 42.803274880278416
31.950795510508414 71.93077467403549 3.1119944315504044
31.2853291577564 70.86825293281521 1.0509980281315188
17.693210724933707 71.20580495235627 15.801088680363652
18.572763224949973 69.58039124754877 17.296521813280346
20.798903013037176 68.85445414090493 17.72206104526521
22.789679988358447 68.25466902071007 16.386339877156523
56.41107911745934 87.68715711999604 28.855077019774072
58.14429692902292 87.83341344227914 30.169331235006027
59.321565566146425 85.25424588810705 31.122483339135062
15.534516694225934 89.01540217201953 21.334361223689854
13.651861574299627 89.43156258192349 22.797482251815925
11.248823259689205 90.13786858152659 22.12015722556559
10.325941468087278 91.74620717441104 20.90618155940642
31.13717547290733 84.8211363806429 27.22403167931828
32.10069066613417 84.78254257728051 29.415735124714725
34.39248050752553 85.73191845436283 30.360754121228574
36.55125977555967 86.43160727240449 28.988080543749618
41.431476399015224 78.89150841158056 18.770911065820226
42.153881139707245 78.14353338900237 16.816554621139108
43.36371959670454 75.96081894055793 17.18341021993371
42.5638890976156 73.84147868383562 18.698743555944645
31.03315102164116 61.098825838160316 28.698576816832297
30.93629923868945 61.669909329601346 25.98115925604469
32.27320150795617 62.893895679605116 24.70337483491837
34.67102284619567 64.68156914491146 25.589476164408264
37.54548173088556 87.10215164115058 11.817274538864623
37.39897622747368 85.97054085611546 14.269658996218702
37.42161227974453 83.24126181232138 14.844108915202725
38.14653400484004 81.09466871083539 13.39427566698942
34.70624785189062 55.566305457893435 19.000997533561222
36.201839963563216 54.56114316276178 20.37695248024851
35.65375270947412 54.56910900138404 22.811212868296035
33.30260474843681 55.18241025669705 23.841131254476583
40.8882213615868 85.67596188620949 19.33017563999226
41.04907028214302 84.4771837131562 16.882165734913983
42.32960143903211 82.54378801598227 16.274733113464514
43.42261395530475 80.52221162337064 17.37495663746935
3.4881974224598573 95.45505771849302 28.172782604585212
4.010948538961639 94.93129145244451 25.696744815191074
6.1653227144376 94.11070924838762 24.397384349705117
8.157032076660716 93.05759722701633 25.07293469244027
29.452198596278578 89.40420550311151 36.10517965134317
30.099992840463187 89.37453858626472 38.0974718599363
30.263641303277648 91.18314011692979 39.80300491287701
28.685363678871706 93.51889175671946 39.61105569797258
30.761743788653394 82.76713130870202 55.79099965959817
22.733173288306485 90.97893011186169 59.62447837671533
23.388256614524252 89.30950986551854 61.2031967001802
25.726751735310973 88.2147487204426 62.03938611144539
28.052960632149286 89.22765979050811 61.55781531617168
34.383386053964735 94.9895021191428 14.131779404644881
36.48875141031659 94.84638847819072 13.487508562058279
11.443866184543053 94.7728477541911 23.000314969005544
11.706080141817823 92.91163922302871 24.56913423000895
13.155336774682835 92.44530640355117 26.20382113705305
34.716709119707794 92.61962400147952 7.0132292841332085
36.29657395701024 92.67238778081621 8.748865350741683
35.69757061313575 93.72053812485814 10.765301675415248
33.8594721394376 95.28806689740482 11.400624074104607
53.44342125757854 65.51515529145604 35.5175312359885
25.423477330363795 70.85943798057218 0.5189791912649392
51.9647167523394 66.7768447233762 33.61428796036486
49.38380993283479 66.1053350858164 32.86387428844182
48.73317970829168 65.21039363983446 30.784853169900266
18.673357117501876 94.23993691066609 58.86748197214592
20.73215940192016 92.97190824624914 59.12707877702866
27.32934316935715 66.16526601108339 13.62517074239314
27.839170264372296 64.1417618847045 15.204508166394643
29.173676021172465 63.8703530464055 17.19867259316421
31.57583397725391 63.9241706964598 16.656997269341343
19.56734606066846 78.27796615677968 18.68689250538194
20.33697376532813 76.20915231183649 19.604454502422417
19.3345704661715 73.590147152081 18.72101483428599
17.12396999235375 73.43136048339538 17.4566827401806
49.276986333351196 95.83748038083755 24.867562797201412
50.92806649245144 94.79986486038182 28.63260403885681
51.86381088756179 93.06963486285659 28.405978355843196
9.65974460641857 95.62922089968671 3.3424039893317796
11.177891214669774 94.74087021734336 4.828877110898632
19.728560088483423 87.14543131083315 28.815683737205
20.004631111275366 89.17506310336978 28.366659297216803
19.761026465245813 91.43183644070018 29.494950120508594
18.533290564801494 92.26009345701257 31.339525842663377
37.96198602452283 56.471432071651286 21.605803754575014
36.13287094605469 57.68082424844006 20.093914109123133
20.088043055568882 67.31876323839853 19.9980332819466
22.046997683335444 68.28532899924201 21.0939734926259
24.07880736806279 67.32030945787015 22.14475322244676
24.996506513152376 64.96786214911835 21.965585220840936
1.7926213906077588 87.55355568125769 41.59277660940138
3.9056177178575435 86.2836159821492 41.86671342086398
5.308717231615277 85.31939850585289 40.104442101183864
23.667618223370177 94.32759836636436 45.080683825031834
45.15820800284426 86.31077155136235 14.599325372014038
43.08263170805836 85.5819236839099 13.784202208997865
40.59918176595148 86.07044993082631 14.688353967824622
39.72885537190238 87.87535929717197 15.597796996454383
35.98133014750035 78.27322984685142 39.41118260262238
35.70105570879185 80.26936097713151 37.898369625461406
34.43478425140128 82.27924522894985 38.39229014683742
33.258012224302455 83.33354948674754 40.452600049937956
35.36686405947345 89.34862060331473 16.90769175662048
37.29439822720628 89.04517442190746 17.66952618009955
38.80675919017201 86.72039160357551 17.884555027943907
38.22992928918776 84.41419276226684 17.321230282195994
41.18435467411038 55.05320808377331 24.437917723457243
20.077159097377088 87.56021089205039 26.167233844423283
19.568831081638095 85.43126432876443 25.934761027760374
20.823548855045505 83.214500101857 24.90428962106213
23.001629392570248 82.85329201299554 24.059080625870696
14.075831502858478 75.93604443089636 43.54328033470513
15.201137036420281 74.16462209856506 43.951616778637934
17.16956887488313 73.60258299248326 45.92376002645983
17.5917577947228 75.04654607987007 47.76048501832633
2.919087333856514 91.68013698497137 22.43742243424907
0.9172914275466844 92.27815237845051 23.430324546619065
20.42174649529878 65.8885300455621 41.30977240786091
21.573824081869233 65.32906838361419 42.74173042186986
22.433634696118727 67.09560149354525 44.489000218121205
22.439696615761783 69.61080173485445 43.78099591696864
45.40784002636405 83.44777746467136 15.334033970047363
44.587106005419685 81.51697331318438 15.209080265067113
56.02470975070278 89.58878852732357 51.276621211849786
56.137646258640416 87.43758081045388 50.60092950817407
57.91973999805873 85.6188031138691 50.01135206287516
15.173928794434284 91.17937845149109 0.07372886217951627
17.14591281317141 90.98263395059448 0.14347070042701787
17.28226331042935 71.27112744656917 48.63141521567943
16.774847712880565 71.0388698572641 46.2216490171892
17.299793523942924 69.34816655040169 44.432456180695006
19.341490767927915 68.15556148223762 44.14099152641225
23.831298099263922 67.43009255098404 25.195961918223286
22.573465632783744 68.57188181657858 24.03554181745437
21.731782923461694 70.96316965514819 24.351347663043217
21.38849965745703 72.55641969851327 26.282196136812562
22.44750260010185 73.57359177816826 19.015612675722007
22.007388070986465 71.06496958152471 19.483150029174045
23.428997206562688 68.93273245499338 18.94214085083753
25.52265215244487 68.34394842772181 18.31077481007589
5.137762121621695 94.85078022754622 20.662235942593114
6.684907462774544 93.01303379425785 20.55598534622461
8.58940518545202 93.48580093939651 22.04932372663747
8.934441420564868 95.82187759289523 23.151406811443405
47.57066232925878 91.08843822131364 57.224179007510344
47.43839245996368 93.58397566463395 58.07963651892608
45.69837974898083 94.89977746986987 59.02470024077708
43.25955688784682 93.77250633403172 59.94819343995149
42.45315038681587 73.58038768537871 15.261470485293403
43.913796009642965 72.59862440578256 16.58008608967868
12.24359575364484 74.14729546041434 47.86057987025589
13.163401208600332 72.95297484521691 45.84312364619193
14.031421364296719 70.5960142091052 45.43688789075928
13.61391261713217 68.59790553076746 47.17568060374125
13.16987307710791 71.04858784840023 42.29025325709334
11.480464651396003 72.04612086858191 43.85149784754076
9.867886456636121 74.15203228384388 43.72091549039937
9.713048087775476 75.8875302046473 42.687017743225766
32.50357386131565 69.11339730385882 3.6406947518618544
30.301860887626173 69.39790657251967 3.1341376465122717
29.63271013953042 67.70074485091622 0.839146966769769
5.029009055910462 89.16084150186249 41.9705882706194
2.9168429567953815 89.42426593127183 42.882833516513564
0.764973054852618 90.63352334847472 41.976491446508454
0.28950625586868134 92.3428647872948 41.00196340580211
25.216624014525067 69.63680097277995 25.64002557932586
26.694191620575225 67.53387642623763 25.64661941811155
26.953232470048953 66.99700322214807 23.18145108237202
26.205811361721647 68.53773742469323 21.314493142235005
7.31574457573005 85.41779898140948 43.853080545531164
5.0705771510481386 85.51033870374204 44.59347607856699
3.746315700472889 87.23566741797488 45.84038125144382
3.5103306701265753 89.51942097475863 45.62954753086155
44.28402826488436 93.2381027329624 55.157463141519564
45.3583745847396 95.6422779461531 55.24160061041497
54.45400884067351 93.82664532840529 28.461036672297332
54.98632791415033 91.4822700754618 29.7529308773465
56.87488736341726 90.24853749176017 30.179891913966642
59.066008658901914 90.05832612736515 29.43493849076409
46.267426787627045 95.08963330312275 52.32931811802924
48.462603591420766 93.67424653032418 52.10621616582214
49.28110138479212 92.74841412527998 50.38284699608587
38.31611450087999 53.07689194994509 23.884818382201722
37.22287475269658 53.005314341400336 26.53613452043514
18.00916597697877 80.67292203380283 24.943596390224478
15.889658233312957 81.61880691802028 24.152311322875526
14.623463317608266 83.83355965725534 25.102876295470146
14.95708151955829 85.39324422628566 26.855827517493267
53.97979791981083 89.8974153424559 35.27286987616159
53.966971705654196 88.74855828522344 33.69694803432414
53.42705770284134 89.9088550531363 31.544441281441408
51.86116592232106 91.61736068401966 30.847141930787487
49.803840348729835 87.78849727081173 51.65045462424668
50.42546286900986 89.421838715971 53.412361963395895
49.10732792560335 91.24976945055644 54.71731900991622
47.06415626689991 92.49314831720726 53.74847891816091
34.84003075540932 51.360016365419455 26.577649344568314
33.37986561733438 52.81040704235564 25.640769093093
31.536956392711545 54.591736065828684 26.560428876751565
31.467594099059852 55.514308685647066 28.974211556208612
54.81517920247923 84.461290538967 28.475296866810385
55.08102776354105 86.02574623614922 30.408143694552077
53.316540400666675 87.02202279347613 31.95119221753896
51.29811520376887 88.39779405512662 30.441357926571904
1.013953439282345 87.96187773067048 45.79867638554148
30.043431866713796 90.91525181988942 31.47009466931727
29.498237797251427 91.15965384171145 33.97451874177038
30.55760269263646 91.86336180676174 35.872171903072086
32.30012362445413 93.55634450991967 36.084954543818995
9.90553412696177 86.02620616551827 24.702621131276462
12.326350997834572 86.73723659287306 24.807402055476636
14.207268384464575 86.90541062710668 22.9898648914704
14.541684639966634 86.28878219628773 21.03135858530975
29.62528736446323 95.80845623322442 38.517184474558896
0.7176393867175598 69.88841494684735 33.35166857403417
30.393120139136137 55.85835844654468 22.76990359742077
29.917448351245987 58.01133023178839 22.607829808807573
31.01958388402926 59.252978836337775 24.798711622132107
31.443838050245866 58.448637056353036 27.160258934140195
4.152698747958072 67.61836443773778 31.975119190914352
13.475111084490567 76.17387686707956 48.41737670310773
12.873262680503371 76.58753308388918 45.893246193485425
11.927642016244349 78.09182789947833 44.719143447372716
10.972688086169734 80.77629523293415 45.262816372584155
57.113992802150285 84.09933214177649 47.09636342251129
12.674539633147434 90.10169216994072 3.9474611657572454
11.403287623056098 91.28360168207183 1.9844473576983037
9.41865003271622 92.36511470827037 1.7589350353978228
7.9696568183120995 93.50430744896997 4.025196969803344
46.4230845998174 64.24627221547705 30.24737706370783
45.9296145516982 64.52914485949246 32.58398492760433
43.626795101840145 65.4810581133975 33.88525342340237
42.168478398769174 67.04144908757866 33.13925424229345
19.11885399768079 91.19932175610033 61.32666762787743
17.109731895410373 91.93389665220579 59.52852458346437
15.019685235659166 91.8359780163673 59.518362697590476
35.2990326749147 89.15486826280885 40.56253235394345
33.515452890381646 90.43921529661804 39.599911003628414
32.22216011880096 90.43845512409172 37.15594844373432
33.046755163747456 89.30267023549763 34.94478889757813
32.63303455873716 64.08918704621604 22.3997899622838
30.61187783579492 63.01578981616757 21.515186168010043
28.68949054039286 64.06407768114563 20.032861152673295
28.078726909157243 66.35494674642086 19.749537776889454
51.39371807732274 69.51617255489934 34.60241601401161
49.21719220731019 69.58430320063192 35.840590069499925
48.66606577919146 70.57442874701448 38.40175529206213
50.19639513363558 70.72206308392855 40.177786180967246
1.0671063289604013 82.82251958578857 61.75015609940585
8.653503052384451 84.39621759106994 41.5936653360323
7.0982117530258435 82.72222862796838 42.01208799656639
7.610796411722587 80.43326983868457 43.431404385924374
9.244100055043493 78.98238253764279 43.36958763291286
25.326656693652158 73.01981678577097 25.005827794520254
24.000756753838665 72.04165466164936 23.219114268965964
22.105948658429124 72.96216397429508 21.58572998146399
22.715141667257367 75.63810467786676 21.18986843801814
48.540751251400266 95.1243581196293 30.296829009615678
50.28786173382389 95.0590342381384 31.461761059331366
50.930439014801486 94.65768325747855 33.91416799582544
50.4562829729614 93.1669291409564 35.345246027134216
20.7368515027362 84.6214822397892 57.64640435227657
22.64740193272334 83.7616454175815 58.87956973346368
35.76283886805895 88.06402053041334 14.762886287301262
36.33066671675071 89.97154042282433 13.996487186382051
35.11832124788131 91.82705030055732 12.282612361372053
33.310905858230825 91.39532522247451 10.780941255357432
26.33625190049842 93.51305898583428 43.03927797572028
16.471738429329694 94.34780340821693 57.13143046877708
16.204766333151124 92.08673722724386 57.08106409116255
51.86214400838958 92.94596474644221 50.835580770834575
51.52469637840258 90.92334378082492 51.764236967585205
52.265310582287945 88.30959794286588 50.86692619546922
53.932802531927116 87.59823769116731 49.052356377365776
15.223976684904232 90.98471299784637 25.787566281015458
16.685741170676657 89.40262364832942 27.195556377565925
17.256329473589126 87.02258261632925 26.11308626750687
16.837010664050553 86.29931123537389 23.634966591063368
21.514925881223892 92.16852728636604 61.749827407867
20.915123596668764 94.3380520558217 61.61657607460036
24.133497240638974 79.92607608378647 42.37828283252199
25.338756909143047 79.58999544171809 40.487074324287796
26.61359394884185 81.08282884730268 38.66801849871011
26.714238839666614 83.41236226791608 38.54462233534579
21.369539396998253 84.30819917007227 20.94183127648686
19.60045290917017 83.32075811504724 22.59413149964106
17.072775541399057 83.42095381816804 22.498556173781182
15.430232816852758 83.80281622042824 20.7488376745137
7.330393020766946 86.00155163164406 23.193742567725437
8.670699253060695 88.24883785419549 23.548566946976525
8.010438644804585 90.28852496690055 23.902289567897082
5.6614302340929665 91.85076211043466 23.08568527562686
1.5933722950203486 81.59486309764877 43.17566437511742
1.9942212722321095 84.4647451791191 43.374263229943004
0.6375544922200584 86.19993601620008 43.49635169621399
28.104438483311604 83.03670767518508 56.982559891215885
25.009167841055966 86.68199933217899 59.90110505502843
39.48615981370515 69.06416892365897 42.89238510005464
40.44271052171303 70.96209519116937 42.46692397314686
40.07443850152326 72.15857600240118 39.711693404718645
38.60307935985164 72.1098784741192 38.39952266594053
37.96683436919957 70.67219619795578 34.77246184702395
39.79650551035008 70.7319045090557 36.39757595396256
41.59175574979774 68.61939906124837 37.10721205303028
42.006360206764626 66.69792350575369 35.91673364532605
19.546909502929456 69.1261306024312 40.54816551484683
18.013445116368047 69.26041806049265 41.74818971646546
17.04590299180444 71.65092315556701 43.22376344925206
18.893416256603835 73.41181059278045 43.833145580868866
54.540274289471675 84.46435017630492 32.762875908055214
56.71916886047855 85.23655578844779 33.19824049390042
59.08522282182751 84.25862643325794 33.424536896632105
59.76470446081039 82.10622506513 34.682712912453894
5.832714942830888 78.33446371220454 47.087289555901144
8.159993269940239 78.33090979924485 46.51397083784994
9.755731435658591 76.18104767569129 45.90629931206008
9.891285873037251 74.09677111584963 46.70301585485998
31.715736201801285 93.44702713779238 8.085345063386084
31.03112143033099 92.23669306321703 6.100585796703016
52.472933197999815 85.4471403893728 50.13540799110423
55.335650180229905 81.51711716563265 47.53606883657085
12.356938879196699 88.59358156520624 0.5328893069119925
16.580571451629428 88.67163319886845 1.1939982042798483
16.738074449160578 88.30322776932694 3.8859503216479907
18.80455941295838 90.52349423202955 56.05602695585468
19.528486834102345 90.17084751423732 58.91162743552143
20.991413092830328 88.70467118191277 59.8138068480479
22.562082179245017 86.71293148817242 58.75312428969844
21.728097783706264 72.32102023793226 44.40440657152012
20.149269749149504 71.95089720368554 46.139737751520684
19.541509067544897 73.15427984232474 48.28237476554527
20.861492161326662 75.30539067918045 49.46753609479728
55.53455350605047 93.54241119230666 53.403946486210195
53.232653582287035 94.13128232104725 52.92660568834244
41.53210217481603 73.75941751847958 43.988064121226074
41.46664029936088 73.71951531464815 41.51761129442706
41.35107584329851 75.8301888326154 39.625806125384415
40.81172004156837 78.1971386315291 39.86067584634677
44.097818338393814 73.45310034750561 40.39368412250481
42.56647367889293 73.33260347157511 38.74020931351308
42.4840054566404 71.22260899549362 36.71787338785583
44.46427116628162 69.66279084800563 36.24589935480372
37.488487694541796 91.32842906498814 16.245166380178325
36.275960374276096 92.57274669383504 14.707484187145498
33.46597832940589 92.57414260822978 15.122716631343238
32.312881371738634 92.3636636198053 17.242661342763977
28.716903367926367 83.18933912691796 41.01357660367653
29.071729940619207 84.95181707554326 39.28894837451653
30.54475412179791 87.05792368145622 39.08526518967508
31.5929607666739 88.52540281328113 40.58408701069476
16.240698690419183 73.29201865159516 20.13108677725404
18.13321253241525 73.45893529840963 21.58725107955703
19.83090651407297 71.60636818339269 22.6476685328721
19.713185457234978 69.45253969104424 22.43932832890181
23.234151110076347 86.25679134775882 1.7092241411584805
21.373408671660613 87.14340128088365 0.21091241046510883
20.397233037430563 89.48924936815354 0.19319204612939547
20.08313363792739 91.14309013285869 1.9652825282048962
8.436388116260906 80.9653542225142 46.95259037004824
7.843076069236991 82.41816594140916 45.389021516672294
5.513935566407978 82.70691712425948 44.446554647282724
3.3328000755864076 82.15543969123384 45.338898987689525
41.62117413204778 83.10100725505849 12.274410104784018
40.663547878822534 81.63684884412933 13.972454332150914
41.12386655051073 79.07064296083938 14.652994706482305
42.74159657464278 77.62528489275637 13.941176222717926
39.742112894252124 72.7696433692361 11.316596809414197
40.977153044735566 74.15562822795951 13.075286426901071
40.46808193757182 76.50205710861 14.006879185531796
38.98559530381933 78.0959507217672 13.163314667589486
30.566943196699796 87.39822631345288 34.31587736100266
31.962301709725494 86.27116137574232 35.30979733214937
31.137264938207586 83.95896978980262 37.180264143265234
29.097419191645418 82.94804050142714 37.14197260183048
38.79338673010324 56.36925767700792 24.11066747655861
36.88004939562728 55.23881133321662 25.04624081039615
34.60538905232842 56.3289216556731 26.14308925008154
33.88294790479597 58.73992489273271 25.953347752134615
18.571695212078158 72.78314645526663 26.00458013234193
19.16131893310363 73.75004817467045 24.17674420046472
18.990725005664185 76.53875656397175 23.03885201294881
18.27275955633098 78.20729419888316 23.851237852573608
38.010981536161594 52.312910712731075 20.93215549088923
36.05769102195756 51.930715557392176 22.775042140388535
34.74840471717856 50.21994547714149 23.309325577207478
27.80191379480098 59.55663951940677 21.731444102293143
29.318380993990306 60.53359619761171 20.379312222223636
29.649536278906083 61.35900944823688 17.948773181804132
27.540825873216995 61.47709299226157 16.0369130146186
32.88222211342391 57.13692558537591 18.129276878222655
31.838640733746136 56.87690726437217 20.264589764541743
32.57043797624567 58.71690658711207 21.907941612110825
32.73555764672851 61.050873066443266 21.63158681861881
39.78158921387936 77.55715896792633 37.171173125314056
41.834996076018264 76.20998983606282 36.677791464043956
42.28856732939676 73.9580239906064 35.54502058252862
40.9051369911284 72.52643699643363 34.48246850898936
43.29169115563569 70.92684594279957 32.86412313779431
44.23931712726181 68.90964614608265 33.76547511894795
46.708445468085976 67.8930802486688 33.26077693568597
49.00833422559235 68.7274711640638 32.79339905705431
16.431167875570843 75.80499986425279 21.71498570307907
17.85542095948325 77.68025025953557 21.008235010243055
17.375283344785768 79.67878195061469 20.03106024378
15.377635347761442 81.16531313944985 19.233957687245823
29.786096825605576 89.48825969622341 43.37034439734254
29.32100982483132 91.30551781721748 42.134367691600886
29.946668507878194 93.58692140119837 42.20774714660212
31.359779084973603 94.84849795547056 43.77968095757487
52.974401249475534 94.39644360875545 30.87272179952028
54.45728727996808 93.25511186789237 31.943744499315805
2.0203322652705267 66.83528622837306 3.756423462458068
3.9845077277342447 67.22604786753051 2.5472810674237047
6.316049675914355 66.0152505222587 2.5220470091828386
7.028617210106415 64.11692153906489 3.712288350872092
0.0362340584475717 72.68147056253311 4.439457049815173
1.359986396107798 71.44808568712699 6.0987000235002515
0.05749399878187771 41.69610987545045 8.304221103285174
3.8469194877177677 72.41205569333235 0.9218450394714179
1.725624085737771 73.41850035208522 2.325736557867422
0.2643236740170398 75.23163130593633 1.9449971742147556
10.435265062910718 53.32808014253262 34.051845227122804
11.21269173207827 54.094799363275996 31.755246347731838
12.454011810780528 52.00295388137875 30.172669684240482
13.863927564102324 50.81994151153108 30.83292427024062
4.478482533310326 64.5416976900006 8.637724291389498
6.014746518323966 65.14171905177427 6.82312886802091
8.332356604290329 64.70810068769755 6.223075756086488
10.283843734684957 64.27667642247316 7.961986890983852
16.176965230629772 59.62512009848874 0.7588821576019396
14.906155934218363 61.59071621975268 2.2744427907151956
13.671832030627359 63.43096914838205 1.6718444901250313
19.847797249457418 47.48103231797165 9.376664538791788
22.16651511557943 46.316195793367434 8.252066765726637
22.419085488272096 43.88464611251237 9.11453223862956
21.635765016056755 42.620950805648505 11.004371324387554
3.2897796875858414 68.76715211573107 0.5450089487497966
19.971294818983626 43.53751273598957 4.9144540879131995
21.70451263054721 43.68376905827267 6.2287083031451544
22.881781267670714 41.10460150410058 7.181860407274192
12.641318185030325 59.242447754868024 8.60341697639946
11.794054901745527 57.58804671645578 7.091602087446378
12.124365778617594 55.22147523131993 6.69991869458358
12.650439295515849 53.625071614401755 8.164102914688907
10.56888105230478 55.97013182046273 29.854802253322585
8.361477095415141 55.768025663097895 28.92728070156055
6.216430239617625 57.40431125093406 29.112500993731192
5.921531602521446 59.79171182213649 29.54406196699998
0.11147547708396244 42.28196288839802 5.0474576118887455
2.7963718009168557 56.56736507713248 34.44642412574182
4.355709385313987 57.21661629031432 33.53488662519368
6.761845009964863 56.00723996819036 32.797403912847315
7.612674655236904 53.836590411366736 33.911337621334646
10.250094082225461 59.66370217309201 1.8738577733480253
10.399529973020588 61.60327104966432 2.7245222110965797
9.258950804441008 62.17909843991943 5.526574643706948
7.6934858229249645 60.895144266703156 6.568226430203495
6.294452794678041 70.05496751788256 8.01505935525598
5.621204954348031 68.38963226587713 6.875413782893076
3.4508435093850687 66.92800073664685 6.734288066466988
1.0542740114254758 67.34490322600394 7.521655998261509
3.794319912183812 56.29887321709361 23.384454838641354
4.417102631165786 56.49188443152277 26.053851812510167
6.204536470321589 54.93972464150801 27.107919459872175
6.052328204904227 52.547740304056624 26.966208610076432
17.00363695910283 21.365510907449565 11.576908304127633
15.524932453863686 22.62720033936973 9.67366502850399
12.944025634359075 21.955690701809935 8.923251356580952
12.293395409815968 21.060749255827993 6.844230238039395
12.837202034875485 51.68783599683108 0.9269398653405401
12.696608828643093 52.118103077919606 2.8408007496860272
14.488282193975733 50.650220476375345 4.69198110699594
15.42402658908608 48.91999047885011 4.465355423982325
8.013245050308559 69.23897431088334 5.701100533250747
8.113882140635754 67.96362370772084 3.7788170840127306
9.253767238150965 66.15357106856351 3.1009811023525984
11.249759644740442 65.2395439097113 3.0703249838816484
10.419400525712936 59.03795529822175 19.396702305301318
9.479593131339122 59.90844271706662 21.310894476362122
8.305357947511508 58.55097828286004 23.331087674324785
7.488782854775941 55.92164182137667 22.800705610340817
2.0351348721969496 61.22223950500871 30.99936406667563
3.2689734822276355 60.19435391811718 29.207814695630415
3.369163264469241 57.72097919974577 28.552103853634954
3.1630956654320093 55.629371278982894 29.501322701182627
14.43972482340539 53.83801539812131 0.885488189872458
13.4581294446154 54.80021104946917 3.054427508088913
14.303245203151334 56.12594028308132 5.009740176707424
16.637997822677427 56.35417927344966 5.793727947366137
4.7445703756346695 10.903563699766844 0.49729479159637174
4.61275044814497 56.35284789789538 5.925785546570355
6.166755049431243 57.3964307014958 5.821745399984826
8.478280271788012 58.07924998384668 7.1686767187110805
9.62092851917065 56.716402727236115 8.645127309841634
10.100477045545942 62.60005240823305 21.334872655843338
8.27110966661334 62.213911203228385 22.382151972778196
7.798872830346007 61.13910736463724 24.709801933635607
8.572300200443543 61.241066533669766 26.781305590473355
19.584925452227072 45.43914414331711 27.335998279988914
19.697861960164705 43.2879364264474 26.660306576313197
21.479955699583023 41.469158729862635 26.070729131014293
11.130878030783068 46.938793837307166 33.28355607564947
10.998608161487969 49.43433128062748 34.13901358706521
9.258595450505116 50.7501330858634 35.08407730891621
6.819772589371112 49.622861950025246 36.007570508090616
7.844243966408651 49.08845834895593 31.21684020965869
8.918590286263889 51.49263356214663 31.300977678554098
7.835807273687328 53.80500829653789 30.789304983178337
5.983465624074672 54.71843148481156 30.27846666978374
18.014224542197802 49.67700094439882 4.520413740436459
18.54654361567462 47.33262569145532 5.812307945485629
20.435103064941547 46.0988931077537 6.239268982105773
22.6262243604262 45.90868174335867 5.494315558903219
8.74334767018679 52.27611752085485 26.82605105286509
9.827642489151332 50.93998891911629 28.388695186168373
12.022819292945055 49.524602146317704 28.165593233961268
12.841317086316415 48.59876974127351 26.442224064224998
0.7830904542208738 8.855669957393866 2.595511588574269
17.540013621335117 45.74777095844942 11.332246944300719
17.527187407178484 44.59891390121697 9.756325102463263
16.98727340436563 45.759210669129835 7.603818349580537
15.421381623845344 47.467716300013194 6.9065189989266145
13.364056050254124 43.63885288680526 27.70983169238581
13.985678570534152 45.27219433196453 29.471739031535023
12.667543627127639 47.10012506654998 30.776696078055345
10.624371968424194 48.343503933200786 29.807855986300044
18.375394904003517 40.31164615496053 4.534673934949514
18.64124346506534 41.87610185214274 6.4675207626912075
16.87675610219096 42.87237840946965 8.010569285678088
14.858330905293165 44.24814967112015 6.500734994711031
9.629518070841687 56.25772027107898 24.549415349917865
9.44464947819752 54.7813878912958 26.66952974791012
11.143159306300564 53.71828872572439 28.110418986381767
13.48322462709148 54.25304821048821 28.453246169674593
11.190141418212116 63.36572431773998 0.5051009929273519
10.489126052136838 65.8844368053231 0.4625243476070614
7.84068056284896 66.61152402684678 0.0011800000032431246
1.5802840308709751 66.76200406081144 31.39456504843252
20.674208503674574 39.94968775777001 23.155740490650416
11.996214210770074 63.45845769698354 5.750020068410664
11.540729979334651 61.32366868983202 6.35502465685587
11.69566151479389 59.18637947655784 4.770742122036532
13.763384477054442 58.39537680035891 3.5331618783164385
9.983300301341686 20.096627831470578 6.306754131846958
9.489830253222493 20.379500475485987 8.643361995743456
7.187010803364434 21.33141372939102 9.944630491541494
5.728694100293461 22.891804703572188 9.198631310432575
14.953933778847023 25.366528170892874 10.661793082150739
12.77740790883448 25.434658816625458 11.899967137639052
12.226281480715752 26.424784363008015 14.461132360201255
13.756610835159874 26.572418699922075 16.237163249106374
0.11004380813805362 64.50447622269458 28.773426191256284
0.8265321071781364 62.519873741510025 28.724980623765465
12.100966952924557 50.974713735622835 6.356206077754805
13.848077435348179 50.90938985413192 7.521138127470494
14.490654716325778 50.508038873472074 9.973545063964568
14.016498674485684 49.01728475694993 11.404623095273344
0.7735902770738607 67.24970555133366 33.91831959364246
15.422359709913868 48.79632036243574 26.894957838973703
15.084912079926868 46.773699396818444 27.823614035724333
15.825526283812232 44.1599535588594 26.926303263608347
17.493018233451405 43.448593307160834 25.111733445504903
2.2750080758668156 62.671757043748514 26.328310139771826
4.237149560695097 61.52231308937258 27.293904240141867
5.973770547023522 60.04992279785738 26.497611145376457
5.695394801532527 58.32383392016126 24.366156877783077
26.551902362155726 45.96407902077563 8.612720285768125
24.69865164804148 46.40176374224014 7.373648636163213
25.363796305912913 48.167659022706545 5.64467765308584
3.046375515229439 24.914524539652493 18.95176216819377
4.0029262232373215 26.812450807162904 18.52630104128599
3.6346542030475533 28.0089316183947 15.771070472857776
2.1632950613759285 27.960234090112724 14.458899734079656
10.342126464778465 53.11140763822325 0.057050615733211164
11.018183426329678 54.476871835699676 2.0357253029582996
11.518940156011455 57.2267953651409 2.0494668269609555
12.757032581841688 58.54148369002089 0.2442367904186915
1.5270500707238532 26.522551813949317 10.831838915163074
3.3567212118743717 26.582260125049228 12.456953022101688
5.15197145132203 24.469754677241905 13.166589121169409
5.566575908288914 22.54827912174722 11.976110713465177
10.486769640968426 69.48838334192276 1.0589378832038967
25.133504218372543 43.43874840364094 9.384543453959976
1.256866280593085 70.02886669552764 1.7375632729178243
1.5312329527204742 69.35683141579567 3.723018045035702
18.100489990995964 40.31470579229844 8.82225297619434
20.279384562002832 41.08691140444132 9.257617562039547
22.6454385233518 40.108982049251466 9.483913964771235
23.32492016233468 37.95658068112353 10.74208998059302
6.447053229110516 63.27303544562114 27.48965924120425
6.484632396516937 63.21002105282123 30.101620240614295
4.018557207462448 63.739104793761534 31.098931763903
2.372051538514925 64.76355717021333 30.05186779948499
3.759366572150842 73.12204188110006 4.532909298819598
4.00995758050408 70.98173467284077 4.944250565344639
5.672541613511135 68.9342658293182 3.968245398217638
6.90897472611493 69.33349238364505 1.6947784187628485
16.033148899524107 41.29749600536634 26.194785059243358
18.895865881754194 37.36747278162619 23.59544590470998
10.142332705938172 52.460228730475855 3.44887691980739
10.447352602198716 53.03565809610953 5.668634067536124
9.565777059529275 55.90308141519229 5.659548147324534
8.5040362790422 57.10500583040626 4.198618088013414
19.094769207574764 49.39276680830019 29.46332355434932
16.792869283811324 49.98163793704078 28.98598275648157
15.402709686700119 52.013758330031386 28.785129333399862
15.898774063120213 54.509838067170996 29.471123682444205
5.092317876340323 29.609773134473105 20.047441189365205
5.026856000885172 29.569870930641684 17.576988362566194
4.911291544822798 31.680544448608938 15.68518319352354
4.371935743092662 34.04749424752262 15.9200529144859
7.6580340399181015 29.30345596349914 16.45306119064394
6.126689380417225 29.182959087568634 14.799586381652205
6.04422115816469 27.072964611487144 12.777250455994958
8.024486867805912 25.513146463999156 12.30527642294285
2.3536024316275284 12.21961329300145 0.17004454469773828
0.4402650971515676 11.089166949210147 1.1056178785352786
3.341804915403648 33.407514583919856 13.230550193453183
5.395211777542553 32.06034545205634 12.737168532183084
5.848783030921051 29.808379606599935 11.604397650667751
4.465352692652691 28.37679261242716 10.541845577128491
6.851906857159981 26.77720155879311 8.923500205933436
7.7995328287861 24.760001762076172 9.824852187087075
10.268661169610269 23.743435864662317 9.320154003825095
12.568549927116637 24.577826780057332 8.85277612519344
1.5036137789743906 66.32487838178436 26.392461956870786
17.11963428581852 54.97279835862909 7.849127312074916
16.285362695043084 53.28055448812241 6.789055357072953
16.53461695099982 50.24679922474898 6.932098867659412
18.017502981492367 49.105467483885896 8.003121567454933
55.01396031272495 30.841749545904058 25.85623466967681
56.3914517901636 30.102508176247387 28.056776763594538
56.534072682097595 27.1360490597907 28.468697543281387
57.36876011878118 47.46661055276831 38.16544168398958
58.604375341918164 45.99000783124429 37.030206107690454
59.82184894108446 47.06690367369913 34.9743422509632
59.15489525462459 48.34811864323102 33.23540891528451
56.08603901459283 34.054934840027755 19.882507427553456
55.57328968725074 36.08226760701995 20.047449538108555
54.21897318859701 37.77169118858441 18.003244288669197
53.593102310705966 37.541968908260884 16.036052407910383
58.38382456891559 41.74269341533186 18.704832646035054
58.03075210239817 39.47491356779328 17.92445853639749
57.61224145527383 37.77674098459955 20.047315077619434
58.54587192574485 38.00336744989136 22.321553716205404
59.20121692301317 22.790662993852873 32.155574695823425
59.11185544551838 25.41025729763481 31.861636376643396
57.32794785640846 26.877732697001637 31.056855400125198
55.34856731893699 18.664313320818408 43.05808783174734
56.5896265709368 20.70065594282515 41.749932042073226
57.08946442482843 20.71852778414097 39.69395636887148
55.4702286780637 24.708795615840756 45.996702699717176
53.613040230786524 24.440909196911733 46.96414530169148
51.71028787352924 26.340541392793266 46.784789327273316
51.80485139036022 28.571999507130776 45.57892233967728
55.347626181813105 55.24292139705839 37.24523616388974
54.672253195230155 57.172975202389935 36.040961768647996
55.73231678314853 57.584276392370505 33.92554478162344
55.876673183253075 56.514839937821 32.19717985025832
58.42988755699075 61.06862058529102 35.98771184524524
57.82793891161872 58.80417123850242 35.1342208315116
58.9763361557628 56.38982171555971 35.96733273608439
52.026485632854545 58.356013065824804 35.47079900469754
52.72322566360863 60.54000213533489 35.90851523787173
43.32854365145039 31.722827968981527 40.63622986591653
56.98715174925568 23.428880015385637 42.072274558309
57.96007677505773 21.928304984895572 43.77852498643126
60.05709246662991 21.038029402103824 43.90278427355888
55.92827984495968 60.457062628554965 36.58704638317206
56.59481118877775 58.00319168246139 37.33749081871348
56.173430265308056 56.709627324216484 39.584235532553095
60.21423030734705 16.487904738299402 50.1055796626158
59.430546439797816 20.815543995627774 46.770001514195606
55.88546137513004 62.16862293313822 33.866514143696755
53.820748193294534 63.083912576163364 35.018024203541344
52.74710397851949 42.86676703041577 21.82915252567139
51.34304765224195 41.37764252187516 22.523994860581197
51.84237317651659 38.43992940378231 21.466526546660788
54.04810310817571 37.77270295532951 22.01442134570722
47.8109827836205 46.67710478119986 24.663813984036974
46.6083130302753 47.50847850355173 22.49120306217801
45.68683401829528 49.84817080817203 21.82619524208319
44.52643984911914 51.63549932002079 22.99703707663245
58.54443364942441 55.57363489997101 38.42793743108018
57.567357363341976 53.84000687690545 37.07062599756073
57.41881959685144 51.04067196013888 37.53198475769622
58.03127326304464 49.80237116238626 39.05441970552164
43.12934883803269 29.410556714933357 41.839358533971925
45.30288933654969 29.376382020062668 41.328437067640586
46.91865064194395 27.72489072662878 40.787219946611316
50.6552249033928 23.820768748655485 41.10729073332831
51.51458637633356 22.378555771872136 42.92283439528671
53.66276495294097 23.595106054165917 44.443850727213764
55.19553138301731 24.79819053196766 43.39117181274645
50.50309950206284 23.254451528729188 45.24199140027463
49.822760474659184 25.260898840313516 43.59855035454682
47.94888269154202 26.395810476060397 43.2381673616749
45.80085025145988 26.833869373181198 44.608674402038694
60.117503796766705 42.89922738938725 59.23319448994651
48.028106737524375 34.80382880130854 42.67321424725186
47.3308304894029 33.48248387044175 44.473619827817046
48.356360320666965 32.89438168285524 46.811930950201386
50.26923546214321 33.38958456811977 47.80794712294011
45.55756437354811 29.36168853357942 45.67983261111036
48.83160736827466 37.03220952057837 19.99367488650977
51.438081380494474 36.72989408066581 19.408989892125803
52.2062252555548 39.30315423218429 18.33850390666034
51.15771192727778 40.659648757707394 17.191845834553586
57.9302476592607 38.662128837461864 57.97167844520214
46.528567745632685 43.79938956691 25.00764135722208
47.932540528866255 42.60262395126123 23.214141173811466
49.15523785474556 40.468553509540506 23.256596220159174
50.543164530956204 39.496560372347695 25.256217554374178
50.63734935397719 49.17962420061326 23.491238093013262
56.45950300358017 18.023908008810984 45.62463659619238
58.571017752715946 16.90812432227797 45.647649261224565
52.55923187819809 27.466761807742916 49.187718373191004
50.03838606319116 26.80790629448778 49.32040037011883
48.50453607014562 28.55686067564028 48.14465448633627
49.17209735574121 30.294091061082824 46.817369734323144
59.44910613976509 26.290299089039355 27.773755199313996
59.223127502582955 27.776001114156042 25.523027696544652
59.81980858986084 29.920246414804172 24.970763010667277
57.640191714419764 31.69324687234518 25.4670784086783
57.34324084485524 32.7522542013201 23.287054285174424
57.501002574606055 35.14094359596919 22.521842800941418
56.269425455781736 37.44687942459308 23.972100823624565
59.11891198098719 18.049145884272605 43.03608071297527
58.922908465090345 16.212102099146446 41.53332638896986
50.8147595297766 27.853520515439307 43.02508245598371
48.89702471435815 28.771977921334493 44.12070234092112
47.32361835473143 30.73790187380649 43.164878523624886
47.45027676240587 32.407271991428075 41.46939229377856
50.73798601534568 42.63653628407404 18.86849977629214
48.73822181582801 41.87643007962706 19.237114541048868
46.67913166171161 43.401817398550286 20.42389111287991
60.10027113913785 14.302682026359893 47.56234029858873
58.997615778026365 34.61066588680708 20.36645597000339
58.23618521111342 32.52185858438084 20.543700697238204
59.34285602712812 30.27940787821238 21.299566474457944
47.4730665228258 39.802611960880434 18.639794615126775
47.66201104496729 39.23687056263143 20.68882933568458
45.60075469148873 38.71700358771384 22.973258117579718
56.75707373953104 20.337492296301164 47.33547965811685
55.85350206623533 21.844218497126967 46.07733844956123
54.637921125292145 21.17007162747418 44.44846856712239
52.37860676863114 20.10618467768773 44.12394621461899
59.56735103570053 48.41243523379054 40.61179480764522
49.428084361415095 36.93887961187849 23.080849368838386
51.4780100392949 37.208112074722784 24.13464885289434
53.61050880207937 35.41981595599284 24.18405553925357
53.661696758148665 32.83630237109386 24.03412457489825
56.15740002467456 39.961942565182596 15.715249200114853
55.3391482426799 40.20659631422198 17.93503248694373
53.36706253791268 41.89968684886449 19.055930137652595
54.29316354828517 43.63587136807572 19.571208630078598
56.923255976739014 28.74542395893395 22.56800619846153
55.386963560859186 31.030112379475547 22.945424815850654
54.71829066993247 32.3289932694742 21.523832143747086
58.82860665710736 51.766934754268064 34.69738580250721
58.388260579154675 53.987071336396994 34.438034415648325
51.90517909630471 59.836497499046345 33.202552934931155
53.26823963453308 58.01405816232433 33.096859974043525
44.05870287554215 43.79468521069657 22.091350479378406
44.192007899755666 46.095045066751794 23.15910065244166
42.80355003004606 47.96414063700314 23.0619070252703
40.19354011668508 48.22681557054323 21.820080416277076
50.36087448364912 43.74147604312929 23.72113167970433
49.42292377991221 45.17140243903856 23.144210479079884
50.59369858087523 46.823427193799795 20.850446119564793
53.21101835835662 46.384152929905845 20.40332818377722
38.30833137513585 16.318559760681662 31.929227206900833
37.47267613213812 14.389638112903198 29.931489313277947
36.96637389670142 16.300383493100934 28.064855325218016
36.38046594393841 18.674882484107023 28.379993334636627
54.480428269006936 28.986974019692237 24.39193256076299
58.508927076556965 6.2556959299258414 10.447635755914856
57.75880180812043 4.43252112366769 11.893208178464283
58.71954620142787 2.240208112795964 12.688003132455563
42.162188273119085 25.538151703790117 7.954458787848382
44.06023828266931 27.439800711879446 9.292586429133717
20.928975820305475 3.3169661687618395 14.224818752128709
22.164591043442453 1.8403634472378176 13.089583175829583
23.38206464260875 2.917259289692655 11.033719319102328
22.715110956148884 4.198474259224548 9.294785983423639
47.099687370632736 19.21526903789012 7.351151530878167
46.98567723903303 17.53513082585734 8.9150539602734
48.089413992926545 14.861879554609246 8.917335310758036
48.62410071496762 13.544428251295285 6.842272987379974
44.76095351884958 2.439903461693668 35.41137074301802
43.862103798783885 4.653817142389032 34.83500513156689
