26.87137689449729 13.644333697783456 12.672895971706211
35.42216142655592 9.170430613420862 40.092614468112714
37.491526620825404 9.178665179641866 41.5081936965886
38.618727937507785 7.775589753426109 43.23934172628534
37.28429696044456 6.732794976728566 44.55434679872997
36.41135941591822 11.448278346917697 23.654535490096134
37.20557775062453 12.496330079199772 26.044451797239052
39.61484445006796 12.487071926047486 26.890214540908175
41.801107587516455 12.66513029344484 26.169989503778208
35.61370076065847 8.97420134608354 28.007406745439493
34.95493220794257 11.557734053379368 27.61702576999046
33.438911065059735 12.864061651947054 26.14590015775948
31.96813338313631 12.28904385047102 24.672044878568162
35.18840342285746 15.108603205922522 30.107560494176756
36.33934377765824 14.295091806604889 28.18743107941244
36.47298506682065 15.107824467570426 25.783321175017104
34.91332562461596 16.911147427498257 24.567436780374635
30.932649459354444 17.319623603824382 19.005102347445913
29.17576266437082 15.576595770173686 19.50427492076709
24.271933945869034 9.996347631448849 19.026032908667638
25.103217128449096 11.488091495115272 17.84555019708069
27.9621064360547 11.442865822587354 16.800650836122326
29.557536858753856 10.088355255820229 17.173549348338735
55.32640654020375 13.661650222236105 30.01209565004193
57.70057361733434 14.894453169913097 28.788583494624522
32.11474542123958 15.018348202746827 27.09361372767215
32.391024663765386 15.033424940250256 24.377324161461903
30.807148802927834 15.279172826162798 22.495254817746854
28.44225787653055 16.40981045286807 22.59079553174037
8.561288565014598 10.592822516112202 17.148369057548013
7.34395100633376 12.277977265558427 18.770369228053717
7.632023783289276 12.519486784748699 21.311760367661595
8.748329749340456 11.528500020007156 22.994999469698804
15.29332741376833 0.16391389549513866 55.96842429986764
16.681738083606195 1.9753068523791828 55.82589697844976
18.23995689385586 2.346721469288546 53.228461200712815
17.680143390284062 0.6978516789372691 51.501315333746085
4.800469450354648 25.571349176370024 61.19230628354782
7.671144555320571 17.88518860323129 29.69258326068905
8.555757749367336 15.7472932579455 29.857631977446413
10.823384930707075 14.850799116020818 30.138469655198367
13.17120232134604 16.07947140707012 30.158926738437902
26.78602919525972 3.6602119752440094 61.81706633578512
11.284781258998688 24.693811682444988 59.122620289603056
10.648124369986865 23.864576930073973 61.01397599048774
9.287033798751759 9.766861720270038 33.25817843713568
10.771141547970625 8.691432692360474 33.697995831904166
12.22809559982671 9.656043306072878 35.8660056197946
11.121475189811187 11.716011408707795 37.45000360985273
6.762040500000954 16.6796596929653 38.035454431271575
7.1510995397703745 15.54272095697408 35.67724697259601
6.867138730818213 16.768885482889036 33.1870685730823
6.637963650175113 18.834989428479627 32.57050965542076
3.1887358181502283 0.45748620808116414 55.30134653419824
2.5794845048963633 1.1505816370577793 57.95648581675567
30.41464044242121 26.913645890895673 44.19985239766419
28.251283664808913 28.105514112347297 43.37528375029091
27.388417239408465 28.517752558870328 41.34859113904794
28.282049906836694 28.23701756272257 38.898750504057475
9.558585254919722 14.291079218270946 22.559962530676213
8.948343619149073 13.609331754963103 24.650547198581968
8.630543636356945 14.635840817036787 27.055238379824743
5.758210457324687 15.160063469840082 25.917378530892204
3.8364634699468025 15.0017788376726 27.51531889700845
17.279142012179037 11.306591297049836 31.709527812608254
18.284721038318477 10.202654534222239 33.43327988504867
16.73174283139338 9.498009679065756 35.563615672919134
14.737288406946938 10.557106474398427 36.56354890132885
21.912499683256062 6.515539771416782 60.472998346577
24.394129985391093 25.810732071914902 45.02578823570457
25.84242583138614 24.180789516252123 46.25443807258164
27.447383934854333 24.614624874633197 48.129976755034775
0.5660879911058955 1.6742359993591451 55.22028397430619
10.146085405984108 27.23463002946788 59.78988918122466
8.98945454559443 27.536268665621176 57.93036135824649
5.601188854369168 10.877432925410053 27.2646980794074
6.513413245955571 12.7967494998675 25.625499193679516
6.045571764818532 13.446203218540216 23.19447594634786
4.100167725372368 12.90274399483284 21.942329471039194
19.3431546331313 0.8416045362188999 55.66786876048325
21.56396736910355 1.1897722111114277 56.877700002963024
20.301135288455374 1.331343144295348 49.43556847815479
20.455750216922976 0.9259940966438762 52.29300079737739
21.92157560728728 2.479254031242314 53.77298426270387
23.61371937956412 3.9124550863670424 53.301368395619285
25.727486530996863 30.232228082600713 42.43959041185478
16.707032633050787 14.588041423089797 48.62662389654578
17.213686815497674 13.692530557173848 45.93589780248198
16.727407248120965 11.200070230449002 45.1141957117858
17.05314444502397 9.314593293277149 46.085804487481404
4.859333555320271 28.15564223625557 55.43561601629018
5.178483079408539 27.606931496973804 53.04786498217764
9.60834360730018 27.816278029952244 50.309105130240596
27.537571617166133 2.620809076723445 58.27023546052982
27.27380027583311 4.903071610286828 59.20380571477802
24.604384604857582 5.858831803174055 59.265317216072376
22.85325287372841 5.696306571067685 57.901369130958024
6.475296853204526 24.157647988023975 50.884287415102804
6.132997044096693 26.428328776512505 49.98677286209091
4.809801602233705 27.179099089753205 47.74353781337527
16.9518349410961 4.296023100141405 57.013435558599184
19.516874048000993 4.565547082814629 57.56453315929174
20.981373867562123 4.294100063567201 59.343379872397435
20.392388731308237 4.306454507506486 61.82128420858855
2.2509401630346817 0.719658639432195 61.6434529159651
16.27144837579308 4.2629186586419285 38.931220724059244
16.23472062804555 5.958742223829244 37.17531438757518
14.402272879708134 8.002992059641235 36.88358304891775
12.426618237484231 8.32563987040944 38.151011427300645
5.127660900876448 24.767737728600206 58.27495656250343
6.001495808168332 25.42725138868431 56.06289651538806
5.544645736312683 25.01610348347945 53.65456393972796
3.3821165246243887 24.31087347448319 52.756868140638545
5.60700173067496 19.861033552456806 61.596532206326614
7.690287513746627 18.626843476349972 61.523521894981634
32.13589676084868 21.99461591502678 45.28498799401598
30.611647641407455 23.67196921727768 45.01091613826184
28.88318986530721 24.355538436956742 43.01946090316695
27.901027618766022 22.679307176248443 40.989224430108024
23.687243291191887 28.808579933170243 42.935036825221474
24.84413443924437 28.49018472788875 45.05303311506238
24.54883996609768 29.094996145109683 47.44723896253014
13.96503105458204 10.879513786855926 45.136885179680455
14.539722414726713 9.084729943388874 43.42265032836033
14.45998023072835 9.121687419964685 40.89528824746498
13.445794832050323 10.682412203551362 39.172317615243514
0.5614667816061621 7.28829865264726 43.833200323685446
0.14835186185427465 6.580717869116542 48.31692499346372
2.326985098897681 7.097452324197265 49.466135246267385
1.6645442387143883 8.826009460188903 51.942782095191035
0.49756921998143133 7.483237570063462 51.25443210995433
9.629956556089667 6.501339203856351 29.840124986513
10.940844200405628 8.698726231414028 30.65198647481539
11.16274567519263 10.92148841208403 29.660651964565236
9.703771656277244 12.411612573120395 28.57340131148399
16.57203761006349 5.8385614245428 54.611770615767036
17.875293324363103 5.129405592518455 52.99572986808031
20.402345406418675 4.780288147516232 52.86442890506713
22.144480025818023 5.63450263787955 54.817253032635925
9.868085058379144 23.489702893478487 56.87920276387421
8.534361376408246 25.302741914875387 56.17564267153027
8.048849528430999 26.514981112390444 53.93015828458157
8.296935027958396 26.2134786306448 51.93119163320872
12.230041942766492 13.122406552200973 27.637291751289638
13.910791385069952 13.354809208929726 29.013579735630003
15.283984316866178 11.269898995285564 30.04263858688511
14.859241789209104 8.96884775561475 29.86053976717244
9.811599370175287 14.644057338007185 36.006344913244995
9.551301793574478 15.238093014283303 33.46118111939671
10.301645239818873 12.876222936808924 31.86123469642066
11.31815097820055 11.397138881946868 32.23851757583729
22.268881585330856 1.2700705178926222 59.46653627654394
23.275946634488804 3.6335690699053784 60.68588636047778
17.19296334055628 9.222120575653957 41.068273936307094
17.155319086869742 9.20281157181132 43.2817062507027
19.05421284370412 8.036694139479216 44.407455500389425
21.036269520554473 6.982966338446632 43.346168133856914
15.063803091722386 0.7680368944061741 42.51746624910822
16.210242804884654 1.7619511388321005 41.27415464395168
18.60608923758175 2.773204251392727 42.75263658015305
19.961177334602446 1.4837697155467633 43.90763395823731
21.426150458674627 2.5525067615174213 41.7767159219217
22.492086029606323 4.4181637275744885 42.3078793868116
22.43546280129963 5.167109705855575 44.88487948775695
21.256907138005353 3.6177166965910117 46.75992319889191
18.91511883126422 1.824046186860413 47.208319462961086
18.65775267869877 3.5520559191371635 46.092300353560894
18.063623229514786 5.977871505362967 47.58941421035663
18.066203587504283 5.7908872019055355 50.28735968057104
27.06273504383941 25.29005121420189 38.95932470148551
25.768142779370795 27.042216764611887 38.74085887923096
5.584412766015991 18.899984407332283 58.46347348352111
6.125226298232819 20.298524256970754 56.813012347566556
6.811375563152883 22.6084862356308 57.742143068292954
7.834767533200047 23.15680167836797 59.71571570462886
7.547010154323521 28.910659683500704 52.988205010983215
7.576728255477141 28.811095663234436 55.530351621235056
9.47803764181468 30.108408584944392 57.14574060393834
19.75007522072287 1.7937113651208316 39.89775912903613
20.52716078462037 2.677005702727016 37.43360844089911
0.5982526690435469 0.9246483367766092 47.84892631450399
5.41158886278113 15.514634380676629 29.819871103097725
4.904606617559376 13.221844787142643 29.4090106904426
6.558495239421459 11.409731092067112 30.898195711543497
7.68283771965189 11.85057467141312 32.862687178513895
24.910383587901574 19.41076632467747 46.6225478133501
25.927107291744175 21.319500035999777 45.580583672138765
28.451445521666486 22.48869239574023 46.03145511454678
30.28234890403415 21.724203875506696 47.29509985838653
26.305639169580044 0.5951182826935488 59.24483138260657
25.787596282848366 0.7919581153426575 61.58863324965608
20.365039271108092 9.242419155855714 46.14802205591978
19.56450643078545 8.631107461879171 48.4317993429151
20.60740387879398 6.706137203239514 50.324536011632404
22.241174738445398 4.927105295971094 49.195987531444736
25.539404669285144 21.75721114960756 41.857890361425284
26.205305014212573 23.68467612180296 43.33132847517921
25.5075865833625 25.978924533682278 42.303696658250566
23.588741850124055 26.688824560111527 40.88652275815158
21.38442006033671 4.063306791450374 39.568384721813324
18.962114190874896 4.593388095637601 40.07480815035501
17.41189860325635 6.798688916857378 39.449167271861754
17.531059666845096 8.438496528301483 37.9854009043198
14.0096050138008 6.597418195725548 41.235972578607736
15.944526116705957 5.333071248303692 41.22016491162006
17.297856096611774 5.55759848880012 43.881958442293495
16.607203557107894 6.649579994901397 45.52140216447576
16.549495880786797 8.333929599428634 32.45846988327397
16.032037008706197 7.405814844707609 34.446303419077296
13.316744936539397 6.5005514573118175 34.21895656212131
11.913276991340947 6.721794614971081 32.15787087252892
34.649123929427994 23.37074811611959 21.53069832924172
33.97599707593994 21.61643649620783 19.975875204272224
19.18103849341944 20.48775275975846 4.577629508982708
21.07667874155533 22.307960154055777 5.203664700311218
23.15887929309576 22.163107458052583 6.287499243095167
24.429896638699816 20.397556290431478 7.245433717710113
43.93231332873062 21.689231821443503 9.259849058527143
45.24383684220394 23.028302440901264 7.599363551538099
45.05531778735083 23.12830278658818 5.057428276122885
43.38122793754326 22.637018479703727 3.2659195655993134
47.04897315936182 46.85031054429571 1.4113553396664151
45.76873866093462 46.19247137881228 3.136400983899961
29.239565051304567 49.556554148270216 7.970142051337935
30.038391568010514 49.67793381027868 5.893534185844413
29.55440235499167 51.5173733674421 3.7822274482948997
28.580237861868792 53.48776921854698 3.5309819644004414
13.592205308101226 63.8463376862542 6.642446925658427
14.25171367822279 63.38203666818443 8.730117574740085
14.656173714211869 64.70461543792823 10.396421077822382
16.594628394797127 63.75869483404851 11.383930229809245
31.202005470742098 45.56115538473834 10.93294753556009
32.099261405077726 43.84451393776454 11.130167535879185
34.413723727959635 42.66766288180728 10.91348624823334
36.343967468070616 44.03860703787991 9.625123951695212
34.93028074123612 48.52787928884949 3.8176507176407015
32.606870657575875 47.70919666514292 4.467735812976427
31.68397361280021 47.87564750443253 6.485023178007785
32.02982281876949 48.98735728818082 8.835182217786086
27.037552077714206 72.35833551824123 1.1164665160685434
29.252152658108095 70.890241135482 0.5178090376919593
17.449063768521462 89.40271711830823 4.274691771060533
18.18279232889032 90.82704109612168 2.611103416026273
17.00647145302668 92.29780447362292 0.8965104613113359
30.754059074763166 68.04010517283379 1.0360403400886122
32.93664100977991 66.86168143877141 2.3504298239325574
34.688437066041885 65.63060765541536 1.183350914586047
17.275628975857323 59.63955670627816 9.44574675196638
14.955895794971493 60.826338540479846 9.033343245247815
13.604451552447994 61.152872455287685 7.149440738602913
12.964685247214469 59.432334349627794 5.297933164125168
51.317950499668726 23.534003075615914 15.862834645663733
52.82353144642683 23.352187286874003 14.097839309822096
52.916166437867325 23.72894855302074 11.591070458685785
51.673800372041015 22.16491214097484 10.679874551334198
37.04508780470621 71.08031810063783 0.30716305622223206
38.204578553572105 70.30277725187909 2.414558806767308
33.21854288489155 45.20785382588635 2.9627473656808916
32.34631793069124 44.97038105257354 5.557692781459844
33.46438493419374 44.04208253460821 7.666449952349741
35.15607158964684 42.55113296552426 8.039900420825884
41.47773594450874 39.12696646225688 25.908377797624233
22.359099155264502 85.14591340964584 3.6418878528386025
20.408481300386644 86.43026930055444 3.888570730914509
18.83752478037832 87.4537325439868 2.5326753346100332
17.39910595824601 86.22302298023668 0.7722974290736331
38.828419165719154 59.23119966761681 11.944551361190994
39.59322373405278 57.40803443279234 10.447287226248708
27.323087339376986 55.15285254797968 25.33113158612517
50.67498107106223 46.1007040842606 0.2598748435156934
51.790934936345366 46.988286003853666 2.6363747509034763
53.174098146121835 46.29306572507851 3.9761068540019746
42.510397412599175 24.905420807866374 1.3271681164046807
41.312065350104476 24.000012561919842 2.7996217764716183
30.582794563067175 41.28078917726897 8.646339879865305
31.181474933360963 43.646898158435846 8.636247985782957
29.859962834065637 46.05700699593278 8.31247702921223
27.705911001126697 46.38229772601992 7.2076787839601595
37.40025552430363 40.67363218313176 8.112797429136943
37.298323017990356 39.15732971742607 9.557237983176874
36.86092040817432 40.077959382922984 12.011464263933242
36.95924531986107 42.34882999019644 12.55405546028184
5.38725288446743 13.315293355250953 2.8642661329645107
14.053230718961592 43.07135526804208 11.009429966990519
13.41060221553374 40.77146567958251 10.481990533141603
11.99244594255188 40.523932187484235 8.339052083806935
11.49409878722831 41.83933813973225 6.767597403250134
42.324965307973784 39.527551541598335 14.809603958431751
41.012396897709394 38.45981998268874 16.291842279467318
41.29426038617946 38.74997139227345 18.91092827962809
42.15466589011392 40.732882640662446 20.198190826077763
21.60462218767864 59.99567970994447 18.065867651913635
19.265694163675747 85.31284196629151 5.885422874052203
35.22457493498799 62.05185123920349 10.377598487349848
35.20843761696225 64.13607668334888 9.535305801501782
41.41808818132726 36.84527574990967 11.37604641356153
40.909183376695104 37.233164914428286 13.479167257291827
41.543955301968786 35.97940127241495 15.753190874600595
44.199398139580225 35.09981292100616 15.623250992720108
55.1987096579873 23.98017017060692 14.931403856105856
55.12903525941859 26.54322225812126 15.04838288008684
56.07246993081544 28.132227168779576 7.421378606958053
53.75866645735042 27.557142404953634 7.436941883449617
52.10275736242649 26.61470537062538 5.263334166674857
52.28065465552396 26.752587349829593 3.0949063613595604
57.79957021769632 24.75354486704884 9.23922854648534
56.69680958845967 24.389899962924297 11.33022761562985
57.799920893608075 23.938575603616247 13.512666934299183
55.918999131117296 44.95508188219302 8.912633326976465
56.709534949907585 43.75002877056279 10.762250898072214
58.17633642556483 41.438134192790926 10.753938098014121
58.406834088385544 39.713332772400534 9.198632429270855
13.640014417307162 37.26116371844408 13.531243738858398
18.44551392532663 21.250494367316982 1.7811736198664407
17.03391413706558 23.37622723383319 1.4630890411663797
54.32270139752851 20.934977216572385 9.880411139872542
17.966916127424454 62.822626186778386 16.13954190382833
10.254962925227364 12.707014816942998 10.012950494973449
34.23778610141409 70.43763119536337 0.12776875957611275
29.89204297525566 46.64160917183026 4.552650327308152
29.6279219400625 49.02411364149697 3.076718446731608
27.83110981582808 49.66642571468431 1.7192657572278434
26.34713410697484 48.37678640805566 0.09690583086319912
11.279017720493563 58.21671132647489 6.7930469371569195
37.10322984928253 67.8152926183647 1.7078523060384183
38.524561906492146 66.43277603227958 2.9222941260652875
40.95590698462144 65.43307745327317 1.831784775436739
33.415278709416484 39.119776447821025 15.667904215904954
35.95068072810671 39.89272123026716 16.532698951766022
36.833227715749764 41.98031894490524 15.527753752870705
35.18819639636358 43.97185044729393 14.234563509488318
19.071120460745774 33.50898670980647 21.648616367775247
30.224251884550096 16.89137054589383 14.503190011313945
20.41463672808747 37.6049473636279 21.004524544430165
20.28167331952865 36.43338689764801 23.149553017132416
21.69152318846733 36.16476569879772 25.124385081414562
24.315979901611584 35.8565980784392 24.824898378599677
26.697153316322748 20.558074517472242 3.3376349336912083
24.846993894801802 22.581370286518354 3.4767437852740533
24.441120186099994 24.613101987395144 2.105924190984402
25.61917799057863 25.84388536377636 0.8369968138026321
37.64248825595333 68.78676990319964 4.568499586752032
35.21968009735306 68.22761032455928 5.474331835013945
34.27760359185052 67.79173952287059 7.323967156899822
34.509486636624075 67.89123402905777 9.488856657078534
43.477154978817644 28.956213444586513 1.2930571508942441
43.848314675422664 30.85251654381212 3.147353962424978
58.83722786807029 44.69634302555812 7.652965064250166
57.64225274536024 46.84475303806062 7.640521673601072
56.03839034691148 46.88958942721819 5.43587675437219
56.6969527187889 45.816307696666286 3.309926451687212
54.90589895900597 50.65585543080616 2.9295827430931274
56.665076469035895 49.28371385756074 3.3220179252863367
58.94181679970002 49.687824914486384 4.322390573665162
24.758161131680566 18.61404809148306 1.7613084047239684
23.01920220501223 20.3112435649333 2.747118838878272
21.138731641588944 21.449529300118694 1.6684260272032356
38.31529377627548 62.37199039293616 6.070643654163276
36.40468441457316 61.428857524306636 7.842357853556942
37.55080366335095 63.732649044638954 8.340738579036545
38.413912155142555 34.411685516291435 18.35251651357793
40.222093625962124 34.22241513834649 17.418818747889265
42.810268396700955 33.790856768514764 18.44061800919106
43.393585653720315 34.28427471700981 21.069839429942768
46.499516391802885 30.27420989002513 26.712445036963437
46.719785253848436 32.99340618409923 26.363601803163665
40.15530956752335 36.325124625737445 24.385247991019952
42.752810405936486 37.059807115060984 24.691137717280384
44.51240327547047 35.93507496534324 26.303406437560874
44.53736158200229 33.74239682292639 27.67799911130883
57.83322025569259 27.31315517500156 9.850562514306999
55.45008801798185 26.55210276323776 9.94050352259643
53.59047716587154 26.629220028282074 11.509163090022522
52.99282895484293 28.314738603563516 13.33460869729391
14.861388935963047 94.76939580930947 3.521698921334244
16.539126994372914 94.39593269804676 2.600642368227518
17.709592374200415 94.80255537864122 0.7625944915927995
12.482443867112492 36.6142611186464 5.552171963591306
12.179018255420896 38.23154400565052 6.757889857932805
9.730875278812709 39.542872194622504 6.640208511626053
8.084362803727057 39.254449692558076 4.965661306472503
25.281607031220155 51.42099965463538 1.7904530425447749
9.61416348037096 67.4973380420832 2.0468157455840115
11.963579530931959 68.59531285088828 2.117454135856805
44.58470818625416 37.89515787958044 16.595585051586227
43.33137419331479 36.867374482707746 18.55431129622755
43.29596193967155 37.19141984868944 20.754904324631042
45.11325307567812 37.3489989919732 22.55440706605569
40.452271417716524 40.27542137734718 23.670081907105768
41.021307944222585 38.199498000508 22.342059720437238
39.95912946516487 36.81275694021468 20.4591613168
37.97513874023474 36.69995144612308 19.689567989171834
29.267251248220433 42.704281872760816 15.923230953439155
30.211294258033142 42.658229248315784 13.153052246130633
30.460121783036367 40.82445798867574 11.486881101238186
29.31395300586155 38.70359568327702 11.394395871867648
26.068746386494055 27.595307719447593 2.9254717054551698
23.880729383514613 28.225352819036193 4.026029455799789
22.06425799850831 28.024360894940376 2.0403351507357126
21.687081065969302 34.163186750873166 21.330063112137722
21.800112051048455 33.360109969100726 23.58962316986318
23.555151811816312 31.2298407116298 24.586774209973736
24.033282018693466 29.22866813622431 23.45934606598375
23.78221464678051 17.432858126414665 17.191331828323136
19.632094385595003 27.25773864254386 0.7612763084906945
21.758578904812637 88.8862555597054 1.50317221233389
19.510563094736533 89.27068347232075 0.7057526206542398
49.31494986879895 21.849442440277983 8.034769529913005
49.88052268505821 23.38846672229162 9.319082788208114
47.88499410645011 25.23239011887126 10.409888276013538
45.342184320907805 24.645885373895087 10.235632392716607
30.13915611108681 69.3893480409414 8.10310457988584
31.83411931268122 68.4864443080248 6.922032621047262
31.33966485271589 67.24062892675909 4.7748236358253
29.372256951886705 65.72600313391524 4.284667769314371
22.369726546832947 30.470725635305804 26.783952324753
22.411983644612597 28.446660694278858 25.582641440494267
22.094607573999998 84.19978391698423 6.042203689282323
20.04250281747242 82.56247288340464 5.3902733243508685
28.85105872901656 22.657805030619727 11.867703703441425
29.049003677857907 22.95221624883114 13.826007129132977
29.933480283734838 20.753122303747947 14.993067406270944
31.858341330502753 19.736095241981786 14.686115472396043
26.234421758829942 16.451849923364552 2.306534291762787
25.284803848765517 15.978545830247482 4.527579775661611
25.786273695372408 17.83816809437546 6.889410937320557
27.414586365610493 19.631709617971417 7.013172318146197
50.52245116223754 50.741940083198436 2.8526165463872353
51.19583539304365 50.37419742603987 0.4191216527967669
52.04043488272391 20.927463425784143 5.2410694831321205
51.395406446413055 22.97415652681584 6.112507909217511
52.43803518143829 24.858269723227284 7.499932269073188
54.69484582293256 24.99158758055317 8.051242423449622
36.45297915305816 63.82051923078235 1.6956378607068538
37.31841412399854 63.62824379918513 3.3439372953511484
35.671772369994166 64.61096820661997 5.858267924342326
33.76377641960603 65.40215553583438 5.619668088686625
37.053410239420444 36.50613909145552 16.964962706504487
38.37702496674323 38.1813587340834 15.646875261674658
38.76346003665026 38.61840353665381 13.37062577590816
38.632414531159085 37.56137743131374 11.223970025780623
41.729638294103985 42.66381400076053 23.15341536600838
43.37398453568314 40.08824128938768 22.866463895166955
35.49970774939118 60.21246554022094 13.314013566164453
37.19988291282666 61.57791431563432 12.331108546182328
4.487382185973276 15.380673893336292 1.5650360080313461
30.60639448397949 70.20765526251729 5.274307431626974
31.143776606398294 70.33114084034514 3.328504273645314
33.72361585762225 69.94647360330758 2.69570739991367
35.757049711880114 70.8378904774608 3.868034971552594
36.560402315468885 20.285730151838425 17.484800213414655
34.350178468317615 19.863684285698085 17.667020714455543
31.928458863657276 21.18593851701971 16.94207466136559
31.8359096946156 23.22696320598118 16.676113209918917
57.95937235135292 25.896905892355452 15.683381664381459
48.001783781536844 34.954989574669476 24.48861384681442
46.001740568717715 35.364486414955 23.822729145068934
44.27318623283241 33.141644762306676 23.279068064585577
45.35195990265681 30.7442169322844 23.844754153088747
27.297991297062723 15.793259415825514 11.154855165866286
27.2936572998198 15.9634982386783 8.506936413005851
27.908791469916817 14.849884241007206 7.286500770650187
8.485680084870001 15.875757387707335 9.176565872889826
13.906501590093477 59.011945218975974 10.700329164499323
15.100062136301919 60.14810296050775 11.519235594725853
17.102151771742477 37.40414226557893 6.948596861088215
16.689933429811155 38.245783380277594 9.224731699531725
14.737728456290618 38.32323497011596 10.870880895002925
12.394082841981625 37.921378339731575 9.717649763583815
20.231417303849717 58.66152997547926 16.05049249796134
18.214822584255366 60.18220195750111 15.55081712997213
17.096935776929065 60.97060002117487 13.199560075888993
18.175814221054594 61.48945430040146 11.115229284431614
52.53377911305997 28.306981919309138 9.810178305895
51.36352482796581 26.420449811819942 9.507224099709978
49.37072284644446 25.865302287928056 8.262865039115127
47.42946395129171 27.331627349952868 7.109366339979951
31.005619737752873 51.679261568186554 0.9332467655869777
13.878700157655922 88.51910316617955 0.12253027502463404
34.91213621156716 39.66732528461713 7.851968115492415
33.39916525122521 40.894104677678726 9.140210256358761
33.01802857948575 40.32274309035682 12.013157323937266
34.466206960455175 38.70925351381897 13.133905985849292
44.88998246274324 25.924971979990453 0.08626131240819136
46.150029695330154 24.52606697931443 1.8371748812842525
46.002769002365234 21.87983797928847 2.296999555677408
12.884294456495311 45.36641821081344 11.5620954054298
25.541301464485553 20.28689542599974 11.175935111043344
26.256213267391956 18.454745260646618 11.438049027478897
27.73179549151372 17.553278149012087 13.798829541793626
28.127985214971176 18.947106776023748 15.790709068827322
21.49833841617068 27.520140306545745 23.18773237847531
20.78542796415588 29.280223915162097 21.79829898617063
25.047791992389033 33.55759340411619 29.690110078066578
24.639167242412544 32.9490931051776 27.724719746297932
42.00378672051541 28.26843575500236 3.529130919860129
44.214075987631595 26.320274607921604 3.4747053283748683
45.62221898469496 25.898592209137373 5.1233258498188885
45.576377662154954 26.033366105639626 7.909830838460149
28.335285832719123 21.217340897743355 18.169065733347118
30.609879769725957 20.03717455222593 18.859363360910507
56.72862589842889 47.555601331532245 1.0925549606076281
54.246238033504206 48.21286066070614 1.6141690794284491
52.38597497000487 48.245718698602126 0.10575802277963738
33.85854685482939 47.869382936954196 1.3340888083732034
31.7027547147902 48.561399710461046 0.5963332330200968
49.973254845006885 29.0155741360837 4.64618177208505
47.75475442762263 27.687200803202717 4.449691380989711
45.66913889204129 28.68303627526131 3.0829229957731603
45.968803188034656 28.53304479474085 0.5645558101666985
53.9087631286759 46.43804698406218 10.182698352769437
54.49597399466585 49.47759864925619 5.8604982048565315
52.993227521851885 49.33097843919028 4.265403468908699
48.87570199957933 25.103973075595015 1.441370335825752
49.91171721211519 25.848449904895887 3.466967849553293
49.17936084142034 24.705841077548055 5.62462690943734
47.830282021270406 22.50916391236046 5.719793453793762
26.534157701245004 22.796804533739714 10.704493754410791
26.680287201649755 21.865372335954007 8.895727926319534
26.178104793316425 22.7433209547855 6.225133143590499
25.185224544169294 24.370896553632637 5.564410675283693
22.08545337976692 24.882693285889882 6.832541761305682
22.876728057450613 25.764732743381057 4.697742693945513
21.589800323074364 25.237859510749534 2.524468129076017
19.300646793811964 24.861296450319994 2.104062418128514
30.37075769467292 15.498876468584527 8.27503176273593
30.838493470773518 16.231552611665926 10.139771163195858
29.61584711928412 18.02987794500398 11.14560115901405
29.251661266890586 20.489523091461997 10.121441992899218
51.522372156807414 29.34831330641239 58.3979714640089
50.97636181982532 27.339995797467303 58.25482199763342
50.51136507494435 25.70361436243446 60.45139763784099
57.923777332922846 44.881246717826684 60.71911010147642
55.94730763737001 43.491125394494766 60.57523071498079
57.29368193389171 26.24476999488718 61.929139842241696
52.97452164117225 25.638936699267234 61.1646021527622
52.89520169327377 25.70309361930499 58.784297886171636
50.571226137077744 23.55155884962684 51.89440516270658
51.77611094696949 25.22880905252999 52.871744035774846
51.309008269734356 27.34921430575436 53.99250277841289
50.10853189713762 28.346371109345533 55.671959996625056
57.14790595255683 31.34042461957399 43.6378484642974
55.79753624495159 31.73903127507937 41.47566752128312
53.779468255965384 33.52667504031601 41.36449684108536
53.250967072696724 35.17208267533892 42.62390530263864
59.3734186544524 21.66478561024591 26.5864690579677
43.694136868783396 4.205939705198872 51.953500609591096
43.73868378819711 6.341232681423394 53.1777513858406
42.17038303539088 8.358102776891407 52.931921191793094
56.61904093281972 21.439887043436006 29.079301008487526
46.39237101658794 7.101901409848393 55.79797842949314
44.07850412763527 5.826071668883204 55.73333064780804
41.78714872136247 6.596789751810717 56.872925656753
52.84927791456357 22.366642912910752 53.38848356854388
53.6065582455174 23.994536390412865 54.76995079536653
54.71881228092176 23.88368274735142 57.457640082875315
54.254665972870626 22.023310326647202 59.1377903184567
43.46326177268351 11.917961887799914 46.800255776215735
42.04850137965158 11.599413715662473 48.81894549873372
42.68889490532751 9.744820995856916 50.180622733152404
44.75607267824471 8.728905278831972 51.06652114527926
58.01450238274965 29.783750724953087 58.54226708969584
56.33168463397025 28.357703648339136 58.22941512358413
56.11200866786714 25.972118430173985 56.58269737500665
57.65036594303579 24.41202982860233 55.91821686618585
48.92507230764117 3.877453509090704 60.9573324364905
46.74789232588626 2.8250233887387806 60.637876915872084
44.330389722358596 3.930642442198424 60.40404204754582
54.54147316235599 24.135239499784376 48.458143992855916
53.66470246632748 25.420296765004807 49.67620218393523
54.07502949987465 26.207327284506466 52.32356690871104
55.77676942220171 25.421544517270018 53.75646231245465
50.03706961861149 34.19823181071085 41.049029528798854
51.351888054658815 32.480818244013065 40.54103869910037
51.55141376173613 29.735933054023118 41.59778247144591
51.027447135991935 28.994312109249915 43.506803451780904
51.25149137463018 26.913362977603484 41.329571148864154
52.524075924324464 25.773942055127087 43.13894701343311
52.59243053960758 23.495392773361427 43.99565462767084
50.44288395236168 21.65389533304093 43.706104354842246
54.949814257733856 25.937702517342903 41.65928967642629
56.24298208182526 27.440703889699964 42.41193028889593
56.630632527434706 27.54659623752443 45.19339980776428
55.6641386127902 25.488446525260347 46.49980161889059
41.1505166505787 10.948272230413831 53.91253394105647
41.68442466149645 12.420746657140825 51.55075770086204
40.115893560701316 13.157019555433543 50.08183634948862
50.26094109660167 25.265446500561065 49.14943548833476
51.912011553829664 24.732777585519838 46.96439841913341
53.149200006848815 26.69104129327434 45.700915916318834
52.97846934900599 29.0771399663943 45.8672403990601
51.673953061836905 22.67069591971412 60.78600882318463
56.99586188140972 26.63427046332404 49.10407527620119
55.167248242459614 27.99656963080175 49.37594017014507
54.71023746829812 30.06528176372467 47.871159660630916
55.75487744122192 30.988951812711516 46.28432938945482
56.69168563151722 46.68882505952695 59.388190287643106
58.42045739710324 44.959523077391566 57.95552376130581
58.39478909760965 44.29500999388865 55.65719983905078
47.21340717538147 5.758430195230257 48.015193767845616
45.737079663879754 6.424502770207767 49.826684503192524
46.2364329775175 6.924917030624871 52.29055467526855
47.906271730423995 6.624909232238053 53.62352963316471
48.67189145548032 4.167581635364346 53.33023455675473
47.63530281857964 4.062435763209805 55.26820415374397
47.8015164321645 3.2583600198180194 57.65774681555129
49.7284535045408 2.592301677988705 58.881346084644356
47.1276418970581 0.5048973933023723 54.49528508189725
47.395343561285706 1.8765897017603184 52.35173928125042
45.22138058367992 0.0646232347294697 61.35056553976095
48.87360506768445 33.50381193328631 36.06794550524734
49.177878595159825 32.4087546711604 38.26387595767433
49.26561233866426 31.136049659737747 35.101678874905275
51.480520970339704 31.364288742264772 36.603632810345744
52.93791583046722 30.073917386519796 38.09397773146114
52.84476709336079 27.429986490305957 38.9247935743844
58.87645016568601 44.775018292044045 53.11612031719115
51.801346031599785 35.84478390764451 39.81540324726553
56.27700721705775 41.12703222570944 59.46925725415258
57.108290399637816 42.61877608937587 58.288774542565626
59.967179707243425 42.573550416847944 57.24387518160726
57.23807206269348 22.723419655819033 58.09242320633479
56.923415765741204 23.800069624357217 60.21621839744199
58.87516109895354 16.57007747676357 30.547849252961022
58.28883686640882 16.908988155780612 33.11785724457753
54.146353181181 30.323800898577456 51.130255323014154
55.20822449259134 28.71993223121518 52.59101271228109
54.861425747601196 28.063893099076157 55.3202444466427
53.875551664251155 29.205750092412938 56.9672469109559
41.57409340738398 4.186471207769759 55.40832949697596
43.737513473681624 3.4113356588849784 54.632557950161946
45.72316114553383 2.170765361522272 55.89740961298175
45.741357886521584 1.345379905802316 58.14641606806296
55.628209090917835 33.34817498432447 39.13324455854518
53.50194430182257 33.56148079831665 38.3563025339689
52.425383871400356 34.092221238392085 36.21535489784503
40.56636183620331 41.72350711037279 57.59159340303295
39.349024277522474 43.40866185981901 59.21359357353865
39.637097054478 43.65017137900929 61.754984713146534
27.142091440825464 30.248384706481723 48.80904231025882
27.729614504401056 29.61300452508552 46.54374868761631
29.597119284032928 30.350795517182945 44.95675576780428
31.407833381741785 32.27031429030839 45.52737528015108
24.08353087483076 33.16481450354852 54.63292647986077
25.873204790476 32.28582175887727 53.97517302619885
26.13920310440971 29.721411059425787 52.88611739700325
24.851430378010857 28.848568507585053 51.355183769890054
31.790587197128637 28.70611501285046 48.69040960176177
30.622110837907893 27.737144549984908 46.647510568167384
29.74964493365238 25.221671707475654 47.138188117394776
30.627641630175642 23.812363356378594 48.98048617409323
26.99049505395738 26.65666788313885 50.26968888433785
40.67600021698291 8.500134976284793 57.054279717643524
43.65760307044696 6.234057303915312 60.41912122979637
32.40512289725475 22.367485333103055 59.07264140019655
31.418690749853575 20.818464157053857 60.9249478066952
28.472224856170893 31.511703134787233 53.88765336589264
28.462771270515564 31.656870632756615 51.896142699358656
28.353138545696453 29.146688455429835 50.944926388022445
30.17255308294798 27.66192189851889 50.76567671470145
39.39279749453546 10.29006804762818 54.83004198893378
27.120829575550683 22.4234099008759 60.416965601375516
29.30623876807297 22.575535539075787 60.597698220710896
30.122699045162996 24.59255757308792 58.89502610090623
29.3179346613698 25.633660445944553 57.03839246304702
29.023676234663434 24.677366817748638 50.89923852177201
30.194764954800988 25.60272484449554 52.47166105947242
28.745280454201474 27.32021645126726 54.489314242948744
26.34053846661118 27.412041459370112 54.40013075638108
26.4956391261892 26.66812343312921 57.921460307029456
28.14036979089004 27.906839149951626 57.214042257827806
28.42783590075717 30.687933700969804 56.615412913660315
26.901882735689465 32.10543379797369 56.59186483421803
31.437291758644363 28.35793931160847 55.102341418877806
31.408855597112776 25.906187501252887 55.33481285818931
32.81233719531888 24.14331985574868 56.69230625682407
33.93575533843335 24.64861689730251 58.896886172447495
31.918131026505698 26.459474439328872 60.35535359476216
30.314043370536417 27.908870504383355 59.32789814825902
58.292884985801706 76.94813213485726 33.009112783772764
57.75471812654512 79.37589748903807 34.08507000814764
58.86089544463739 80.38753072440808 36.355943574935154
59.85910637689819 78.94197199941443 38.558509947509854
51.14412332792565 88.16685709724185 25.796085143516454
49.851970332655206 87.48691118989754 28.402576899755008
50.688036056997454 85.60657328593825 29.078091518099416
53.04990583862875 84.65993522002204 29.05929770746479
51.186111764608164 51.61843735401906 45.020853854467646
53.081752012744055 53.43864474831637 45.64688904579615
55.16395256428448 53.29379205231317 46.7307235885801
56.43496990988853 51.52824088469207 47.68865806319505
52.12606805298816 63.441910584696096 31.307687368133546
51.12405153788014 61.98270983694431 30.091335146103464
48.8189418364714 60.59162341468612 30.527034229056916
47.66079708601952 60.10741611562465 32.723388796566326
45.59727857928995 94.97702228051479 47.08567127114336
46.25678694941151 94.51272126244503 49.17334192022503
46.66124698540058 95.83530003218883 50.839645423307324
48.59970166598585 94.8893794283091 51.82715457529418
41.79976819370309 66.13988572690222 30.215704737002817
43.230720662322085 64.95032762732595 28.829658679191276
43.07224805774056 63.92153558688456 26.60253805482418
41.193611190437096 63.98905763852462 24.77663128981653
49.28070224704604 90.77024130053874 49.88897109745131
46.96096906616021 91.95702313474045 49.476567590732756
45.60952482363671 92.28355704954828 47.59266508408785
44.96975851840319 90.56301894388838 45.7411575096101
40.13436311966865 71.99012577209729 3.914229498228788
43.21219595704906 32.7069763579525 34.69985420161043
43.41735897851781 34.70206270569429 34.59859888449749
44.218568570341006 35.62169278557219 31.819264223925668
43.22251615836046 34.92961149991008 29.605533480178345
42.2821375969466 42.002960882190685 30.566842621478077
40.82733630967819 39.91436644723385 30.29455806029478
41.25210859875873 38.24284658335269 28.102102587534837
49.263974300306366 83.90745396391118 27.42858351701242
51.533655339671846 82.75762499568665 27.30251085444005
52.47417106104776 80.49520506786124 28.083706213197818
51.421616431378375 78.71434189337602 29.606728683444157
57.96036473659456 65.84457573495479 0.3278045381987874
55.368539354148844 66.85423663307634 0.6096547625997365
42.78156862605534 58.527477298198306 14.60405267865254
40.72026612807313 59.60224473268805 14.048039972973712
48.10364220867047 54.108766353530726 35.628881824472785
50.6219814598463 53.71612008187594 35.06132200901411
51.61613809874248 55.9134992744107 35.59504655921527
51.07960546850117 58.30701135909442 34.820741154704905
45.25788157251917 85.16102780146453 16.94000730993404
47.54864832319829 85.22866805962023 17.674385236196354
49.163794983971535 83.18302080805728 18.81242333022658
48.8396030700655 80.97238523104981 18.497538276874817
26.363000115159267 59.96608203772802 28.080506424277324
25.953395239460075 55.69498859821094 26.869128267213966
59.71098427231543 77.51298232028051 47.650903129445105
37.39232615565615 44.445977949511544 43.307490478449445
40.00349906861036 84.02224051601156 10.831383315765517
41.86992105565824 85.68177626072642 11.42546619575583
43.99669180751111 85.16588789996749 12.48109034874431
44.778654602380136 83.23068572988939 14.133889677825902
38.13992191274917 87.98206359472401 6.56948500985403
40.20111675248673 88.4253242336736 7.336427127877915
42.226416554684675 87.0146301196506 8.13332743310143
42.24421538951225 84.70502437499022 8.443240591910067
46.058303990150314 74.20203986230268 51.45265431247545
45.415675486722456 71.9021502738431 50.92521487862654
43.997519213740595 71.65461678174482 48.782276429291876
43.49917205841703 72.97002273399285 47.210821748735064
53.60969545886736 91.12636430420507 58.50909199739857
20.28854006599476 85.99224789464986 7.521684085885758
20.33308698540847 88.12754087087438 8.745934862135261
18.764786232602237 90.14441096634239 8.500104668087749
39.72502420824164 61.01507991919433 17.37814132197794
41.10702705231557 63.295410028252356 17.63343668066238
41.90168076225224 64.68336920098086 19.296636042422023
41.66064495809445 64.35223370677583 21.905082320444187
35.801601136911515 65.97710304321951 11.129856735683392
34.758241032319035 66.68021405770087 13.142188891851873
33.56266569974701 79.58715039122404 28.14248482343554
31.476357258206026 79.58506934683069 27.127328220821816
30.691042993648352 78.73154355515439 24.48380754857713
31.68655365788102 76.85499453927387 23.067009086194936
58.9603449550517 67.1289644651415 2.7289708344679315
58.231611660340306 68.67529210569124 2.9718879285780853
56.70185021377195 69.78656748971267 4.970049560276617
56.61541933223629 69.5591935157802 7.3986324296544765
57.579430664324796 55.231884778705464 8.968056542638209
56.50264431865612 54.05293177588005 7.3910875035166965
57.14795621708307 51.31007578341774 8.529934072571042
57.044768008979055 50.44113560747734 10.50783612006705
41.124283340855186 93.52470038641744 2.148917511924489
41.069056681289176 95.07400084454854 3.9627687595367846
56.14162509963747 60.0987761175572 33.79558255097882
53.824968985582075 59.84749366988566 34.168912969830494
52.03323158416617 60.47799992821582 36.04436969246962
52.71830776397816 60.93793482465475 38.48925481273524
45.64508768849588 68.39184831270468 53.97446808434334
50.45058719651535 52.381178961577575 42.22439796535137
49.03898740825429 54.506911828093784 41.90631338665131
49.43770334154044 55.553767997635866 39.26862798542769
51.35759447901302 54.27095907709383 37.84001977192156
55.38791280037722 77.06973342428878 32.90558855566606
55.96488348376777 78.30432469958204 30.895422486957596
55.10988454478138 78.10003577331196 28.310775990550678
53.10759414077127 76.65172857882591 27.35626360980888
33.05050871749508 78.69332792424773 31.231778252240964
32.3404724702635 77.83953567858909 33.35204717721948
49.971989398613175 93.95331078103898 56.58276624931327
47.20166577371553 37.946963579740135 25.04115970726344
45.58080443943905 38.4474004909851 26.4748732659272
45.62865835977481 38.17482946906964 29.27436913858289
47.27945437072107 38.08614415274741 30.723403155904766
42.26003619641608 43.837699411203594 50.45617484045839
59.462425062067375 50.04262324684773 7.852710519490858
59.02349089303732 48.21395628936438 9.601704078547929
60.07643327656027 47.28179688079726 11.528137463328498
22.986774213799297 88.88820959929937 11.366161905787799
20.672907324846634 87.6123798583342 11.301514124102697
18.381551918573837 88.38309794126171 12.441109133047654
56.046589512172574 73.18155229380224 9.220811451077264
57.251431484771985 72.46665884696846 7.3846913685691895
56.57243931812272 72.49787102781764 4.469056737141956
54.32392299736662 72.56435072726356 3.9182644432989475
59.8361830870168 80.7971103089449 42.16249010271278
58.352207378163556 79.50747100231625 40.540130176348136
43.284090991682284 89.34739592073548 47.236271282641866
28.756020286617282 81.00911665972677 28.38652614222517
30.690764020512624 80.0288257385609 30.118409013579885
53.348039859045585 38.48354622891055 29.249576714737234
51.59110065792689 37.595561177253494 30.715719149194122
50.688327541429736 37.82146704739297 32.66983344241925
49.18487970989002 39.354496212588046 33.559883130911366
56.253523000012876 84.3674745444983 35.08469908914655
56.6645867660064 82.56164883279408 33.851046261854634
56.28428894446255 81.54278783435166 31.80225128952074
54.299598335878066 81.75414748048496 30.828379822400276
20.057664969894873 93.7042700772509 2.36843925251039
18.642904576862946 93.38572190511347 4.387128975028375
19.283298102538875 91.5311291853079 5.748806209447064
21.350475875456077 90.51521346828297 6.634704621573919
22.64744850481015 79.28903070146161 15.964015740479065
24.67521262778212 81.08616664962568 15.74358149414938
26.22257616137337 81.57073085006971 13.982224516686241
25.914379781626003 80.88893514450585 11.217724853957149
46.09258063890207 58.856732247209294 27.89496571671783
48.37118395267224 59.44659860846925 27.802033810411743
50.28674612093862 58.470965982308606 29.476994980671755
50.33191456846163 56.62518669596492 30.939476174216285
25.519475504852533 85.66376169854169 16.525515912785163
23.342295523097626 84.61133157818976 16.206060392166748
20.92479291956996 85.71695063164942 15.972225523840475
33.59611396451926 67.77818658915204 16.69775998517603
35.48502800914589 65.727231153637 16.677383091620303
37.170557600241416 64.81544542589641 17.943045026965276
39.05372772283001 66.3809864724617 19.23226402330671
52.41970999927619 68.7356319578885 61.44774888991511
28.23000256174252 81.83053906988395 22.103589492972493
25.755009956614117 81.7559190934703 23.295923687994115
27.160318938036514 78.5536880002364 26.716177589377647
58.70222658751147 51.688759111732836 43.78085927917615
56.852067165990526 53.71205488077894 43.919968130758996
56.446193457288715 55.74378658165574 42.54914853646934
57.62425126176735 56.97456995803695 41.28022115928757
57.54415875904938 79.3041310222336 27.754430758225375
57.64582866818906 80.23125232153234 30.051137069957562
59.502432115923504 80.23466858683875 32.16609490811523
52.93568642863436 55.81476666734119 30.316059264311253
52.71175498739108 55.89767007634936 32.88274058460077
55.20179799572118 57.371623784392305 33.73985042647202
57.07027119512242 57.49178836100988 32.62900172171713
45.49294910061224 65.2135244672162 26.06822981246897
47.520262554407665 64.45145888448556 26.373206326910722
47.81878089142859 62.518081955539174 28.666353208293895
46.56430571086608 62.35526820741737 30.05998977079352
42.04913143514134 89.47780716728454 0.5371203953124764
59.97367521529298 51.52422164922619 5.452690977891664
56.74840418872143 49.73045892943255 39.6458718685397
56.763234402869294 49.74473268574366 42.20453275020891
55.02427547620095 51.441928159193886 43.190343184363215
53.14380491277766 52.58021389437929 42.111650372688175
39.696897006626685 64.300128070223 8.827202375433533
26.867232576277118 74.28865516591921 27.027070209052788
48.8520388887688 85.62861030471015 8.77712711537995
47.809153459656066 86.17400727064474 10.788344026956636
48.74047522941985 86.4438426605205 13.1251043471863
50.72200464902642 86.12154221775629 14.22261359374156
48.40941057562266 87.08427117560097 26.174904865233998
49.89517331539836 85.59568092565551 25.559571088685693
50.46894603706428 84.12750903301794 23.04948246236215
48.989521253760635 83.53231178686498 21.547363584208192
49.26183097584722 80.1365117539283 20.920482078202298
48.46791449063663 80.80732063735688 22.772194677135428
