24.169631170559615 88.35362883232025 21.310648640073975
24.03689432430073 86.2464040005036 21.68659423655685
25.721621713632697 84.31499075830727 21.258045938410277
27.959779387185694 84.08519135253742 21.203500006680805
14.265910340240836 78.30252611440665 22.32034204781692
12.6502793874702 78.18715016649739 23.700367490449
11.724726906851139 75.90817859602716 24.817697727340867
12.684722532595229 73.67665263516018 24.392509914551876
22.052471012130713 64.31264846395649 5.585224304194489
24.25938577983622 63.679513682472226 6.388127904958853
26.3324763784804 62.213143397405766 5.256529937916986
25.94413162986134 60.33212975235472 4.012505194683856
5.049708815155684 72.88747097064065 45.19218318175946
7.0413348018862365 74.25531692167075 44.999923851762134
8.619003370994102 75.0929031650836 43.03176591742635
8.829809545069468 74.07425053683082 40.82144265661781
11.386978552925553 71.30069436546324 24.913200836381737
9.940850381589435 73.53446937862219 24.704081706331337
8.43557275072565 74.73741032892282 26.412246132279414
7.273912441647807 73.66474750125262 28.746544694311
16.98886613577106 56.26035391256302 31.728541398067467
16.44076400299003 58.15907492768787 29.924330772678427
37.3474684127036 79.7698741628781 20.495941726723075
36.66273894703391 81.67559185989951 20.724957405228956
37.142404736459724 84.16076007384127 19.656071109634382
38.41821104044411 84.66515896402335 17.493703529889203
15.577194428650554 65.67311863688847 9.463657472379264
18.287018094153346 65.440457773538 9.115047630469084
19.675429533110712 64.2208167615977 7.0601802103901115
14.888064060336113 63.62135594255729 10.850412007063623
44.23539525599029 86.29899110645309 22.137733393649743
42.236893964617515 85.75548782698677 20.73493852870811
40.59769592674276 83.83033821968687 20.5033564031766
40.81615177716823 81.58290670176817 20.70570261584713
21.112144224159962 76.81768587723049 41.621662362566255
8.535165455662753 87.45700128252878 7.36432064761012
9.521568259341656 86.69595198068953 5.287964600245169
11.615974658918457 86.52909694931363 4.32575554392951
12.984118811203109 88.48937616487832 3.940734149379861
5.898032559851473 86.93462678256327 0.27947009685493573
7.183922271695171 85.77720850479223 2.284417958801144
9.333049514917814 85.12570204450952 2.5826315190244964
11.36421199985458 85.64628388290478 0.5625795188564079
14.885268424052084 57.35118009746414 27.5705911489312
14.82075395294176 55.742327384871835 29.12582662018215
8.322403161592288 95.09860235027935 36.72671588980586
11.793528275575962 81.18726732048214 44.24640048473214
12.44467152290899 79.69571929770085 45.99369591914253
0.8642956581858348 95.24260988917808 42.852105219265354
21.74212687369717 83.38817185770216 4.144228033643747
21.161261895391384 84.90736569791301 2.351712403470939
18.71467481911705 85.73973863412178 2.0610639972402987
16.92683355258425 85.19877327287446 3.6552951798871605
41.475808003541 81.58687363840089 15.688197759819865
41.04443966720637 83.54631920053271 17.05070471015836
42.43739559946059 85.35506909046812 17.597485223389626
16.561823261048897 69.19878626727444 9.919788508442213
17.619478663663443 67.21572698358271 11.27095424419448
20.13934469893172 66.69586642126805 11.894280215374106
22.320608039512493 67.59812539470846 10.746634141077633
39.56412153832328 86.39536616510722 36.6679233547697
40.10637310004036 84.79181379612005 38.715976096069454
40.774199133585675 85.48770340403266 41.284016188203516
41.60315273021452 87.31613348913791 42.37911494837755
30.297822854116728 62.27134005772674 21.767246186345762
30.984969815287464 61.370682520052135 24.012913314705777
33.56746328269452 61.5782644287746 24.680523216879777
35.28141839253581 62.38277190725833 23.839232219228386
33.3041490712488 80.00521268909344 20.064313917665235
33.913032806368506 81.9953324998688 21.332154214500157
34.854909112458095 82.49962272412996 23.41600601650289
34.770868851005865 81.30810022054786 25.580461813882096
32.81837049522779 88.36578015933759 33.09936977257405
32.55394976733163 88.84814249906744 30.66120309562852
30.700163262054776 88.19692810245122 28.99659781566259
28.840493491618954 86.4335915286557 29.193186481583865
5.101990759201005 72.00946509386371 28.836497414521844
4.684348351517314 74.21941321873298 27.49921745748408
2.505113735286625 75.59842602010062 27.120004138289584
0.25415628271133195 75.26490055138687 27.606311658253762
36.80242863040917 63.10532734284073 30.92028243971587
34.580058376343985 62.4538343523288 31.05929595838739
35.713010541396464 93.68621125929377 1.1095659623348955
35.677954672131065 94.32295710712002 3.655013533170963
22.65650877572416 61.4365323947434 33.177669243318185
22.583388317875716 60.07953223526937 31.266357911253053
21.120802513014393 57.892435635520606 31.518684576300235
38.50306998059046 60.648058570206516 25.037241858606002
36.08740946066301 59.86238584709934 24.013390428828966
11.823437629892018 80.24637515685711 26.631832907428436
13.76489539440569 78.53421822751382 26.66721240997326
16.05881723913472 78.49928009546105 26.717350015965753
17.77827962718524 80.25792001628069 25.86675152999593
14.58487196862031 81.31641284543122 46.30303438766475
15.867893183018753 79.43521160742249 46.08514637098467
19.596079832414016 62.62377574903386 13.20634691421745
19.667666765857415 63.72270135112682 10.96049699357998
21.659794748223337 63.652498398527065 9.16262370465602
23.01742563381694 62.04525681059254 8.778345560666239
27.053457188580328 65.20849596848764 4.285332892525025
29.38843178736446 64.1617800535787 5.095272747581121
26.013127125590415 84.4547942447052 25.35737393393313
25.897535267847257 82.68429256934209 24.454568714945907
27.8259568107952 80.96522344761112 24.164474083507795
30.333222055601222 81.6988542868293 24.938437220005163
30.629591187655805 67.47990615747561 6.02900813705205
28.74547012315048 68.42008812942706 6.938559477319651
7.892880137582976 66.83823320451447 13.334867853676748
28.244673187532054 61.70321413273679 25.236892503345587
28.120190836789924 61.737583042790135 27.391082620326976
25.934219645274297 61.50092636224686 29.32551102622998
23.478248315065983 60.60533834617595 28.363499018429145
44.64491678135041 79.44722638599511 38.25180429622719
42.8781214866215 80.1354670833781 36.428764736843995
40.565138869068555 78.93221563940187 35.73001452279615
17.05625977766969 56.276558567188054 26.234372177277084
18.135095137469545 56.302754768947075 27.832034599830397
20.19129550554798 57.75982111467202 29.074651005843737
21.319752433923007 59.12637373665761 28.471808932097442
27.26199441812872 65.99119225765084 11.350760417568516
25.572948386012573 65.14002885358916 11.85877598171323
23.155576922486944 66.0087456381426 13.057655910751329
22.841154239976845 68.21499759922884 14.566228689852768
4.206208164642821 86.45685075685198 2.7546198442430354
2.45055234464287 86.72950682073932 1.5436310220250669
0.691520831137348 89.04012668017413 0.9468725042251764
1.5041876182674179 91.56883497373764 2.0177249875569836
30.1637475595813 63.110862411051706 28.542235696111703
31.8210429243855 61.66929203847285 28.964541087262972
34.2458409747783 61.59705369840122 28.556683754143304
35.635363529059454 62.76208852308038 26.718871001553467
45.61854748826906 82.10976269710254 37.48095962320934
46.84504011240308 82.29587742924151 39.45351126744044
49.35682649061334 82.28509097142474 39.98085256333544
51.39445051643762 81.9143045463739 38.717296739870726
30.52087492502886 84.62194892947693 20.694783740346633
32.20823208487118 85.70172097124778 21.30536957967196
34.50211561431163 86.27847642367342 20.395139599103935
35.45250843776405 85.90158391162359 18.30961821877638
21.834863719431834 86.15558557820465 25.758493171971683
23.489888880343788 84.9098253367646 24.05243573455524
23.264353840827468 82.59871826363687 22.779658103836837
21.734019306376727 80.90998602338205 22.724553452907866
13.548556549278585 78.34693132731745 43.514783070122306
14.232157945114327 77.46320358224746 45.572486652945784
0.5524478178582286 95.11511174426914 19.46386920411183
44.92187185428785 88.72687741435936 23.005300988989873
43.27599932382435 88.94633156971175 21.8090795412619
42.70196554447331 90.3900476913896 19.885798272230797
43.73240206611851 91.3677596368116 18.11646583275466
0.37688658481155496 84.11554244820532 30.007455041950664
0.46754320734001736 81.7798997508126 29.146383050544546
2.2851095479767536 79.74186315697162 29.94142670671119
3.756077883580184 79.68949426088193 31.208636396216928
22.142120931366005 74.4627216033947 41.31395934885889
13.478699706008031 82.94248215047486 1.0328609294032378
11.063570250448745 82.68939513567607 0.6251316656482752
19.520605477379494 95.44630073013234 55.72974424893497
44.6007023439397 89.04014610347545 16.335956267598046
44.86375823879799 91.14694610131963 15.81353966605561
45.28065545836565 92.43925423539002 13.199115323230451
1.9299572032545047 93.30407839882089 38.722047775496705
0.8774024210105755 92.14118602582528 39.70857451530541
13.195095996159356 81.65925918198462 41.769502047094626
14.357196630818468 80.98445054398876 43.33978250178556
16.89066214475293 81.83917905199105 44.59103637845314
18.067699224614966 83.28381995147683 44.41579213304127
38.040208806745675 86.04396572990908 42.284871834485386
38.14510217204068 83.52688707044591 42.44675305707182
18.014342501101467 80.1127892316445 19.017237916487957
18.82832291137834 80.33346947503617 21.039444952264393
17.398401998839326 80.48903041448754 23.126906626875417
15.013418986382744 81.20426487452983 23.188394659984027
34.32297781772856 59.204764822254226 27.431729457513885
36.88368273210116 60.480407965399166 27.19172769353734
38.67961597963948 60.12707966356098 27.76101466890675
41.74339532248328 82.30143930278436 34.13961883089685
41.432089904740934 82.77713225791693 36.50362883680205
42.69185049745091 84.15545411381979 38.17273597807749
45.39007568588417 84.9536723154843 37.95732174160211
3.7440107677017402 83.81129144049645 3.9699738087287404
2.0776829565890775 84.14759374419967 2.006308538916815
52.70734218236702 84.34189037329084 39.97505329724338
51.484677862488994 86.28163870185855 41.12541854225803
11.987469753302582 92.42311088761912 39.62995225105902
10.35359374383477 93.77164019362614 40.27381387151709
7.722188428161211 93.58830252993107 40.64709856689205
6.533786174640729 91.41916802458367 41.27812314916824
11.091807617571192 95.88174979850112 42.506398481539456
4.0957862946991 74.04801127803265 24.911145801885105
5.893038606943056 75.08127782972873 24.99032689288333
8.091812024805574 75.44913351114918 23.430345462523825
8.58216882770232 74.93737242044891 21.37417838615541
0.08349701656911537 81.72033567300454 1.765112106595857
16.102698899017973 74.45089233150108 23.07212591656722
15.483712931739854 73.96872465600816 25.36922785557446
16.752163833990146 76.44570122116008 24.669507674044258
19.032254186388872 77.03146305157749 25.73283910792774
26.405624269533224 58.92003729497612 30.328937042479843
24.836649351744825 58.01220590740113 28.695020917862625
22.799930918793184 56.83502231833995 28.53688712242622
25.092354735716114 89.63066437083414 1.8787771933629667
26.140272689465032 87.97062099220685 0.22633614591528334
30.520035180721916 87.50316508702534 0.8987177007462163
29.35552451351015 80.89417754755026 0.34602091457564316
29.861043180064144 83.38379894101678 0.9794170793723036
31.86900276397852 84.56977864899685 1.7863484906354168
19.95194831692241 55.114143708404896 30.1082160474011
17.28558914054836 54.37560746408352 29.602788003703136
12.87961261496782 64.11888435410386 12.949793512027812
23.450832216661762 83.23675867754501 19.7384766269207
22.918806357861115 80.87587479671869 20.30514508479258
25.178395724226842 79.83417420862212 21.544037469554
27.205620232846293 80.29394203030553 21.26925994778178
44.10405566355157 87.2765410996977 40.99273441920484
45.81397568466905 87.35602988611377 39.28173478024725
47.92672900205654 85.56147510274862 40.03158024272384
48.63498747137449 84.84247838744173 41.8665187288893
13.25975931362051 66.3583816691998 11.154359144282777
13.619757010956977 69.11828476506044 10.203303451842897
43.4763281473536 84.61668901937682 41.83226519990652
44.45710032812992 83.60788647549414 40.31074549085303
43.36248921896212 81.2335178855133 39.52563034131218
15.755776274708815 85.41017021568804 0.6706130917791508
13.728204187277633 85.76724882045968 1.8782729826959146
28.262012822027824 56.90691823399984 28.305935441241118
29.001856385771354 58.98870442421559 28.02814858171851
31.10023523023656 60.126861416311435 26.811139045362857
32.834849634839976 59.02189046940507 25.34138209073853
33.877500905147755 84.53663244294799 24.702525481652618
31.874356915245453 83.70558176949545 24.270512850760838
30.255638354084567 85.17696299020228 23.43575969124946
29.340050073398555 87.67276282594484 24.34886013634327
24.110880256356 84.29656791575047 3.833718002381322
24.343787886158648 85.29141030538567 1.7647130101254278
22.772717784508174 60.177423192542406 6.678403961592531
20.60912119009418 61.84852360865949 6.872207657532474
18.642892197924716 61.70787189475516 8.063835453809716
37.58303926287342 95.59033075542592 50.75908127559201
46.34954138492369 95.05906248933665 15.747146139116124
35.957089151758595 92.1699857294204 24.838859646356518
36.507942868018574 90.62848818720828 23.308651024247062
37.84081693260856 90.61107743659728 21.20304447044821
39.80733200393326 92.60608679926878 20.308216530398663
18.69490689694185 90.21754216100823 20.724835249159554
20.24759867314139 88.86013713157082 19.47786754102856
21.61716851696707 87.03366558212036 20.047055445212415
21.264150954932393 84.92412870192712 21.474804420082588
40.49567000739791 87.20223777195345 22.492935095279684
38.74475897136315 86.01752443337169 21.464226400543083
36.06374409751368 85.55470672823954 22.398421223240966
34.96928586122254 86.8510629713284 24.010625256077912
26.142798825209443 87.96024421841862 28.48446708815042
27.02123967606265 87.5974911152694 26.62482001967667
25.12686329109219 86.99856175691414 24.910120195785566
23.107842475737506 88.25407357434518 23.99281980910309
43.95105341375118 94.33928231582117 15.212354950062247
43.67941540065878 93.92481056784848 17.388150231007177
41.541631076024814 94.23087587426895 19.033718459427455
39.10929535897495 93.20201189365481 17.84324114951878
54.6434505277279 87.78444873498671 34.099055666854454
55.339624062984385 88.39298099420309 37.36432980971312
54.28634364517179 86.10059683825888 37.28562344780926
51.7742658334619 85.25447494021361 37.802056727164064
49.808640529191784 86.52042536785444 38.33504045217582
3.9625068729404935 94.80298072985849 39.64134455668186
6.020226820553619 95.68140047487513 38.621879050125706
15.463427696088674 87.47043029309759 5.497031278175653
17.211715004533538 88.0394434152722 4.138229487439263
19.23203782304264 89.56164001084747 3.9890038287037477
19.654757563142265 91.57973495430547 5.564910197481541
17.700330211603603 94.6577197776772 22.10666483093084
51.13611616870542 65.45351472834182 49.81591745483906
51.6686049739987 66.95594858561606 50.932993324759735
32.84381729691368 70.8850493038088 60.672169945239936
33.03887295167356 40.22559044025241 34.235354289995996
34.17617534473382 42.61044236489733 34.211262838624634
42.586318475919555 29.155728730045062 61.28472240118241
42.36230315285088 29.75466650647013 59.451840085546166
40.20410537966569 31.79513495665886 58.944538642471706
38.33738077842077 32.055718821352855 60.444061601191414
36.35353015278984 56.76249268314734 50.27182277715276
34.627841656186156 56.080063226846434 49.16627312943518
32.24889366348 55.28761308732571 50.47727679745903
31.685694832924757 55.85280020940396 52.37688714959857
35.093305907045476 51.450626483724164 47.40862738162405
34.592258143800706 52.81602049427249 49.490924107828434
32.57149443926088 52.44310335512233 51.140443365105305
30.69849609121 51.19334049560978 51.18468564057297
23.5121204532456 78.1472765355852 44.842909344466136
23.82003318615992 75.90803546526384 45.57577980147232
26.400328699917267 74.71695601868895 45.32158010775313
28.357763871162778 75.49045379828955 46.372660487045486
34.29742129232051 52.0345419815262 57.9272441290487
32.83327736977508 53.28195303425639 56.69981963784794
34.053129866710414 55.23763486067833 54.94182279968938
36.711480859557625 55.50607967378356 55.07958616825056
55.068352891614175 81.42044592432585 58.61045193670634
55.27194422766784 82.38496124396653 61.21667108325885
38.63772233837471 78.43706205448412 40.80547887236579
29.190093422035165 55.40696046950926 30.795517243172604
28.720392401109375 57.27101592779169 30.9137179019902
32.836358552423114 59.40275760935248 30.896521465285442
38.48559001165545 69.45980343962734 39.88638930078068
37.17139840938575 71.66981519435815 40.94539376789453
35.73357293016102 73.35444529127798 39.69739819681404
35.63833969949488 85.9231785575765 51.01509650457519
35.99518410068064 86.47173377610312 48.7723939521717
35.19952823909279 84.3331396985247 46.91891849057882
34.58166892228359 81.99046111619347 47.46455591534027
23.48783638760579 48.15721887359221 57.39040405303649
24.608658561624623 49.85316101467525 58.807668995157044
25.910043063686206 51.64072295864387 57.11172558941087
26.704879600243984 51.51462476685313 55.17127518224061
55.03274354320236 84.11961002425451 57.88259893887115
53.58217351795408 84.63996862882148 59.355759940812824
53.900269134222086 86.97471639852441 60.519761866480266
54.15804510502289 89.15639342865879 59.861229800256474
51.02149376164901 83.86182984279976 60.31063068613407
45.16147132017033 83.77045545757478 61.50654581990293
25.1796418671758 62.18519151921531 33.9114258628887
27.282731104629907 60.677172038810376 34.2581971385829
29.508837127266684 60.61115371246035 32.715298683536936
41.04795111214587 77.41980177534376 41.613699942493916
42.24764898584223 78.22949898966178 43.73221383999737
40.514617838486174 79.08407843135979 45.45097553800965
38.39037150382348 78.07246307634927 46.10762653800067
13.800963022380607 48.784300077385744 50.60077141889295
14.991108676514955 51.037875493028594 50.598927171076085
17.32391204793196 51.72717431619724 51.39014995513057
18.984136750618575 50.55190725332961 52.13984398559692
48.201699002809434 61.69089011052081 44.213936175563674
47.54835573645305 60.010242610203264 45.75711132373547
46.882059025159165 57.483038668660654 45.357327823247154
33.64676749921006 34.10893501371607 59.16279717682805
35.572009283367414 33.54293788609185 59.75550349988978
38.0693641071011 34.181950939426635 58.909877962361875
38.963512079840186 35.05030264239155 56.75763763038845
31.807729731608905 95.55051817902977 54.64573524266756
33.34263266731404 94.89458593301995 55.7054958997057
20.586877399460878 45.90799875345965 51.48388696918725
21.1477569342372 47.46432760696304 52.82807519688061
22.087195417681954 47.823559393435275 55.34995532716479
20.627371547186975 46.66594513302754 57.26258821328839
44.161808542216306 63.78939070583177 52.822674276504664
45.24418784501229 62.20271149011566 52.371190768723466
45.265891291645616 59.30789435117873 52.451552076361054
44.31462240733754 57.98815331771204 53.999742576330526
37.974359178859764 85.23180659692505 45.56845467479659
37.90447467736895 83.23496441506133 46.403659916679686
39.33973227188781 81.97446710942063 44.96595670873195
8.439828523720715 73.43873380049523 54.33929593567044
6.946560348027734 72.94380023019934 52.27037075059423
4.709198124710738 72.19334675713814 51.95679360575691
2.6342628861982265 72.34590212029939 53.2935359311315
21.77134034081724 51.675711628943304 59.50038002424217
22.175784179326424 51.48062887660324 57.318153940326226
21.224340490906197 50.28837628762107 55.1576730749187
19.351172492944215 49.06601570299326 54.485141675797436
34.36431644703202 31.640286764549135 56.87984047674631
36.57123121473752 31.007151983064862 57.68274407751067
38.64432181338171 29.540781697998405 56.55114611046881
38.25597706476265 27.659768052947353 55.30712136723567
18.368059064987598 71.57190463596626 45.94301729530967
20.41107480487757 70.89319457161129 47.567926966205405
22.846444284429605 72.12138139363874 47.23946754170152
23.88652017190755 72.9102254479732 45.22051001089301
12.988571516952707 56.11844853785637 34.215651329519375
15.476156552210819 55.68200658952459 33.91396835050572
38.169214234394616 51.54780731070476 48.08587531678776
39.362539444818594 52.23822047584755 50.175905833076136
42.23000566265812 52.30633189358913 50.19393391850092
43.821390802914735 52.83613374162659 48.40991325019731
27.88903986355186 33.00075693748111 60.75827364493109
30.598863529054654 32.76809607413064 60.409663803020905
31.98727496801202 31.54845506219034 58.35479638294193
19.53344830103446 77.69197413364265 51.390542127102464
19.805033058073423 75.79584667765056 49.48131579647849
21.958278695660894 75.13786386686073 47.84134982852509
24.000964154434605 75.29037377620926 48.23570391261494
18.203176732274496 95.37576955630536 61.195389518759036
15.588049080658644 94.07965819545409 60.924935789979514
13.818082729156712 94.3911704663463 61.73689398154154
19.416879949863286 77.63418027880947 47.45750768224455
20.00301306320873 76.0479853076365 46.259317927342096
20.34564287375205 75.31774354912254 43.8345198857336
20.84701089056406 54.78463958312141 58.65893682016194
21.833413694242964 54.023590281282175 56.58258077279699
23.927820093819765 53.85673524990626 55.62037171648133
25.29596424610442 55.81701446547097 55.235350321931676
18.20987799475278 54.26226508315592 51.574086269406756
19.495767706596478 53.10484680538487 53.57903413135296
21.644894949819122 52.453340345102156 53.877247691576315
23.67605743475589 52.973922183497415 51.85719569140823
4.43599614016016 47.86472283143128 59.116881205105244
6.303197746052707 47.445517666323255 57.60209527257507
8.295905860160685 48.64748734933118 56.68698643828495
8.249854646135756 51.26341579847864 56.346525417533506
11.778811339129309 77.16349569612055 46.64060678792622
9.551832749250984 76.16775551359397 46.66427340140511
48.580378076060846 64.90746936693671 48.04323024909767
48.37268088575151 62.72979935908017 46.7531836413233
46.47306395587351 61.069090211897475 47.99005348795629
44.780228274247 61.799391290843595 49.763954170258486
0.004776072329120678 73.74797055793138 48.14755325191949
2.1889656090351575 73.40120392806594 46.61734067094646
8.937943063795892 72.13458308816637 45.14388511662148
10.343026696743687 73.58688540615746 45.79458612695403
13.061353072901511 73.8602260796238 46.09042678114936
14.70695224298703 72.6164999075316 45.97018999405012
20.822375491192613 89.42228464360277 56.20365336703716
21.118020356155526 91.6378720570426 57.96126209239832
21.625567166665352 93.68112886151887 57.40864342966269
23.37696432512919 94.75841716502548 56.0728373835024
34.053972308598475 50.71581015829481 55.43884420619557
33.47310733029269 52.23500399850564 53.64632857602276
31.026520254018358 53.067376934714424 53.355680169792116
29.238678987485557 52.52641157346711 54.94991135243898
10.55884501195587 74.87474669444487 52.78326911705924
9.679003609582502 75.16174246943046 50.49660205477073
11.163315752389005 75.09393271325413 48.62375112588783
13.801573995872351 75.63948101861632 48.53397138763588
15.513776696723905 60.41229283800992 49.750190714747816
14.048620241286452 58.651652382274044 50.50098260574596
11.664554278690861 57.74499633311432 50.19691960717802
9.722746677080124 58.75384137738598 49.50437587050161
28.873668695950204 36.526424567867075 61.21440468099403
34.6324534744138 34.92576369530111 62.041250313629455
30.82708497421323 72.76660907077283 61.66518287871517
30.26236728348513 70.0870875282306 60.318989633391865
28.085501975868464 69.03520986122282 60.41462789654726
7.830880090312484 52.208830174776004 50.786766556064286
6.743065493381777 50.61885956216179 51.74440476058541
5.844430320671778 51.51758446017374 54.5623868198476
6.3055981462532715 54.262630317250405 54.86588608879661
18.565326672711528 52.56092657822916 37.24016781815858
17.656006351264132 53.6477176539435 35.12162008555186
18.928536440637707 54.615157005480334 32.93683797000699
21.137587960211214 55.06664577335291 32.37846660580551
45.210850436099804 52.354833298136626 50.6125882585965
44.612166942535744 54.91249510535926 50.25152805498534
45.72758169498423 56.92326186202811 50.22062032357272
48.176255214562474 57.68957190672043 50.63631549010325
38.57217119624072 59.54994641695987 32.441781943185745
39.009051704664905 61.71713461814626 32.110865551683496
51.77966150079729 62.96175578017471 50.901330449640824
49.56459999375337 62.16862641726396 50.890308734210635
48.024855976297765 61.01384955988642 52.40418213488672
47.98980010703237 61.65059540771266 54.949629705722785
16.88184166879737 55.127854787011216 38.00546602448308
16.868326283474925 56.121378921809864 36.11088907994414
17.484942270306554 58.479954127089194 35.10752864371835
18.29692659409877 60.56794944981551 36.07807984330092
59.33699239653968 83.28894452562783 61.20869887201884
19.083223317838414 57.55850232469351 32.89827364711926
16.810925165550483 77.76767712242813 47.640609853252606
17.39167746142224 77.87152442915415 49.843982177093054
10.917176957955355 45.21007392994946 58.130037252092194
8.965859480058098 45.94412475235891 57.78853375338812
33.97164018312464 30.980136699119704 60.45723987720784
35.32927106871825 29.372895111185183 60.07296173321806
26.302664679293716 74.79973642981514 49.91226305476311
28.483110155531357 74.14298479785677 48.69841071815943
27.858145097500735 72.16181347122263 46.88609244438267
25.633343001044107 71.06414553455168 46.52617642750721
58.36180141638587 81.63086319702697 59.32333833161355
57.769182154705334 84.08495930394655 58.46541592619286
58.03955054206134 85.16078837468265 56.14142079953852
16.396807618174517 52.48773120932461 33.0180614422466
14.328242895251131 53.66148571036062 32.41501190393491
39.36530262348163 32.53613426908027 55.579949065076846
41.70027722226577 31.48941835417133 56.38988892013294
42.94143662255711 34.80754445806825 57.32362430960387
41.05731555805178 35.747726430019696 58.23317564987147
22.49497463807158 94.32886604612648 60.783116043555516
23.677400796565955 92.83941428561197 59.18405950019144
44.125113320420944 77.44402903850411 39.67118912423347
2.3753407255158496 74.47829440276728 51.774401539711604
16.518053599544128 53.78448905744462 54.04923601679486
14.762397779544177 54.05714512133196 52.83824719457689
13.003366266038656 56.367764980766765 52.241488676776996
13.816033053168725 58.89647327433027 53.3123411601088
53.28424633960387 78.38532695222081 41.63002551899926
53.85917214161248 80.10863345258645 39.507433168693154
33.798667948071405 91.74566018399045 54.75764876633436
34.929329725925406 92.80362275467441 56.118204629059285
36.73271251338757 94.40179895863773 55.372674464738346
38.409817274660114 93.43808368500035 52.87564345793559
33.340587891395494 72.50296968522389 41.119343870253616
31.988211371017854 71.42132438951776 42.21990386566384
30.52550095296066 72.76151136382859 43.92785232294352
29.184114282201794 74.42684450125984 43.87708171132919
48.256529490348115 58.77680558734304 48.12327013256006
49.8037176649975 60.86809969928467 48.539619201500514
1.5058161440678652 69.2023779119915 47.368145585946365
2.888774770824187 71.3691489014264 47.978437377580796
5.096085184283956 71.90050099449523 47.721757616129175
7.422412686250776 70.67590139856297 47.41886087627271
15.744393812399398 75.58775511634475 46.37018277732834
16.91705469548916 73.72145102198019 45.22537121522028
2.2187535692069837 70.77411998899555 50.448156676716
4.203123448578042 69.32818388772266 50.87990297576932
8.047508970062353 76.06782498048132 48.900808781410014
6.7556266124019775 74.18849801857392 49.75820067079839
4.001746909050861 73.74741765266815 49.49228029698846
2.287438892321373 75.1912575475658 48.982278602562644
23.746238811647697 75.14542411009123 42.20934856214802
26.35562972355978 74.51001915170397 42.645654166322736
27.302631744084486 72.87862900678881 41.97560217182781
12.521356692882195 88.60561091785944 58.77065521692118
10.925869401265052 87.92760564999928 60.98264199317443
8.942955861774278 87.03303839377169 61.266201579675325
6.950993931094174 86.39584800569945 59.855391574136505
47.88205461969795 80.22802806304001 61.89355101687604
28.046358544384713 49.87627565035481 50.86621648606202
25.790545140909337 50.27012045106749 52.327477101955054
23.375415685350053 50.0170334362687 51.919747838200095
22.080048950621794 49.254604944524836 50.148256573233986
17.915216592808836 94.55840002077235 58.21685929983846
15.729713185339415 94.86311418129503 58.38511642882967
14.730775669481755 56.1033204190236 49.23544859556093
14.179002799352341 53.824785014585224 49.993574215775276
11.77607841359219 52.96435122162097 50.72630558866293
9.642182299853609 54.103487407515395 50.287450003547626
16.34873509267314 70.4926803168958 47.606815702759995
15.003763658284264 72.19783175720171 48.609293155781884
16.191377730672894 74.12537952733634 49.01006696228058
17.625508823823097 74.73556707603954 50.472245468693046
28.488279309918347 93.22198860920707 59.137940356683195
26.426156601987422 93.69241415217581 58.408347049627
5.7616853314940535 84.14723463644725 61.00455965709759
36.8051816627691 81.97160081662699 43.74465308667222
34.88291738935378 81.9685348565549 44.566993533741424
30.10282616984407 71.06800227402118 47.3514259004721
31.82881357655918 72.17745962390104 46.054303748378445
32.7197614221273 74.76581484450105 46.34476736159001
32.82198124632566 76.08910636717636 48.0824677912046
33.50992149921791 57.63627922404632 28.966133377796584
7.527711873268543 58.642475298970226 51.58488965309738
9.129623194028468 56.620442306592984 51.42454965166903
10.542580496089473 55.21257580911606 52.92737324015296
10.791651800198556 55.37614881713678 55.543555276203946
34.366381691289305 91.8893827336776 58.86333663803921
35.64551204923032 93.72932183928972 59.295217603196235
34.333675510444806 95.68305212173213 58.625085259469635
16.055856202603046 51.13892974108908 55.26458998128056
14.389528391490385 51.475232044792314 53.30092471146863
11.740446726430052 52.46728687120214 53.444864882137864
10.47476897701053 52.80975874132393 55.84905437607679
52.77513882111952 81.11998911509349 42.9243198922109
52.98121369295328 81.99974077531789 41.02311645630514
39.1607420301976 95.10478192627188 56.48483853389748
8.288898809305449 47.80131547290991 53.850094696370725
10.315973967138785 49.22438185318723 53.112317633787306
12.395342451470423 49.04797397359719 53.05972827914768
50.34589426577759 80.03819333055137 41.82156510069288
48.12453097121053 80.58159328483144 42.93433179507468
45.91910866648906 79.54822888408516 42.52361826662357
45.09319402311515 77.2228737632507 42.30401437819809
26.779514626982124 58.3518004120335 32.60387125757303
37.40420017061742 56.95830267142678 53.173393365914784
38.45211812436634 55.298259292799486 51.5209523184671
41.1669406722231 54.78693079892525 51.22347655359671
42.83188061562322 54.83080338761797 52.19333387329804
43.612532448797154 47.161653850307516 50.43315579756198
41.667369948411455 48.221815848142896 51.64063708712746
42.17288861496545 50.71143724160942 52.27403325192412
44.18084819887983 51.897416949589484 53.08096466318724
21.41024480761601 52.64255138493772 30.91052161194636
56.85807490641276 85.72340031100237 61.23618624733195
58.6850356159849 86.66670528582165 59.49205963186667
29.624571412535428 41.06282608837675 37.69540923018215
35.41516851472979 68.36959222868477 40.828947943927766
34.71462182160572 70.269298685908 41.640989804245336
34.82783853041404 71.06364166962528 44.101230139830236
34.58928478410312 69.70090045713235 46.19008694698655
31.488967924682683 67.51979312553125 45.606651957697
30.876577410755843 69.68505613976544 44.646924459706995
28.624192312259368 70.82819375314261 43.71164133811782
26.669624827641222 70.61951695746978 44.22084446172987
25.931602445858285 36.44592306565308 61.49791962439472
8.520508983475622 48.80597072778466 51.048528551050026
10.762713130385045 49.80972473782123 50.460179525402864
11.957480267183593 50.77829915591885 48.42543258493535
42.38893728397892 79.62442406635121 40.80293334997335
29.936797562051222 56.91813588075237 50.47038911738418
29.400934130037122 54.26604670471317 50.627497411304084
28.067621709610123 52.73780851628068 51.96522926433097
26.04004962217894 53.094887121052324 53.17288915524773
37.68243267557155 53.58527741504438 44.69685592084124
36.82897670488723 53.16936665826263 46.57831682623034
37.33600171571142 54.689564816538834 48.347902740031884
38.66182965476429 56.99895614912255 48.26678485730285
36.00485108832529 77.7749496327115 41.183835801525994
36.498560951446265 79.65175869551514 42.329728102210986
35.90140437315432 79.47856897959191 45.31314996753649
34.629835435658 77.36210497553112 46.27591527465557
44.292386572225844 60.15019284412034 46.31929341076353
44.9777859615152 57.875507503336394 47.53655366322859
43.089260329118176 55.75190652870168 47.89164326461524
41.07758443716866 56.44029916581348 49.299256528330034
35.21347199141518 76.63057850732064 49.370284658400486
34.997814524022715 79.08185966383634 48.27493454101747
37.26387386090079 80.79248718117883 47.608526154750095
39.38468467907027 80.81837905003003 48.167181937676524
36.42272569125731 51.624206216343104 55.128334174933144
36.65563332105996 52.61904860597831 53.059329182677246
36.80368812130514 51.76084517635849 50.806584408609346
36.99859169953564 49.64822244349393 49.825453158645665
35.08456321940948 27.505061493135045 57.97302013414435
32.920966624995486 29.17616190925213 58.16682383008429
30.954737632826024 29.035510195347797 59.358451626361536
12.130880137290593 95.24419447942947 58.07511179827964
13.289543887095293 93.25160674926776 59.220564763633334
12.427137169302581 91.14040379017966 60.24209173642799
10.531621703926437 90.59308041561587 61.04521687432017
35.87141364994278 74.53259322394135 47.104266340928994
34.78704385112201 73.48306266042238 45.65571108135256
34.738226999965526 73.9178251396741 43.16451513511105
36.73674065322351 75.15315124008346 41.85917287173169
16.90204608595223 77.59377249076502 53.18378298214634
15.68756627106072 76.24743774668619 51.470957492780194
13.960211756647627 74.21005789909454 51.87251601023128
13.794647262639893 72.64855533741706 53.559584076176314
18.663685991472068 91.87523507299342 58.71001865446252
17.55613337936724 92.30899236583753 61.03762281157749
32.041957100805554 91.20335345874521 56.79960107091928
31.54750547003616 93.52597491862294 57.249703795225656
29.6264020273394 95.07613851102494 57.08327584284296
27.463530352003 94.90868378301936 56.11792342537722
4.946940665865848 46.36743409045887 61.64538392843339
7.572451997802265 71.13015694787599 50.14476995094966
9.11089698768791 72.52697922945066 49.29465219542663
11.797385925801612 72.56528584605424 49.15931716099807
13.329788305049698 71.97784563775625 50.62983866472085
27.775273130989984 54.79806859369024 56.791647450727474
29.523560439434846 55.36708171586485 55.43284565999108
31.543883257943946 56.88927831144011 55.283620001255564
31.966602998043573 58.907373254898104 56.85952637003336
47.20196690649378 64.05407018274633 53.358733441588946
47.90603233502068 64.67635595352284 50.96595510003874
48.854176477422264 66.90810662373266 49.948608187291136
49.61009646554332 68.98334771936922 51.09505086673658
55.64162035323363 85.07736369380292 34.01018696313568
53.654942956660285 84.80731367159444 34.096067742579095
56.91054040737321 75.25362571330093 15.280179772781347
59.57486836643903 75.98607018208642 15.147136673069912
59.95044084442211 72.46831749614438 18.136505846923708
58.53231180914994 94.16723388517389 32.76021850963632
58.71118876586009 93.16535762222117 34.806960513101735
50.79441203352521 65.60457121484299 29.12839883891609
50.1712117376248 65.06589530227515 27.530432420346955
50.15213061726766 66.02313834091984 25.02497367975089
49.58258183914594 67.94965885468304 24.253702888345746
59.381036671053494 76.89274316057471 20.82278668240745
36.97245225780867 49.16246110999145 11.329129944078566
60.2112528347235 94.80217690837664 29.449566817742184
54.598252951423476 65.61630724881648 24.605931571034215
52.61304489836017 64.73540894413436 24.883026600719692
51.39938168135289 62.95551818078795 26.624493170393446
58.87039477081338 55.15551943975017 3.7743118357414236
57.54452796825791 53.56086828271195 4.394169100460213
54.52341165026961 53.720177880165444 3.4086771938804756
53.48877331187425 55.573938971713666 3.0401932500836772
42.77026220930468 65.45217431322051 26.401654593316238
43.89673910982925 64.00918663422325 25.277480631526306
46.41869221203984 64.06707412482325 23.931202464452006
47.7129046499399 65.83824987855385 23.316464843203846
48.54628537789404 69.2024775764887 16.5447691244515
48.670325480749376 68.91172783783979 19.016499224533074
47.1238262726641 67.5669230657495 20.569423315933125
45.455486912960865 65.82284452909666 20.13718775816629
51.60865072888056 95.60549690793486 15.429268979722641
52.899142571515135 95.32110860550289 13.761363013901668
50.34474274313123 57.817415144647164 24.5931985759992
50.646327449846815 59.977193483399134 24.215040637896863
49.64906598620761 62.22242639650784 25.00024397671413
47.96056955094367 63.04507407349978 26.696444972585546
39.05279433814401 62.99079537503297 23.859608542202448
41.10475030713308 63.10983039573152 25.282834586723087
41.07035168789012 63.09140068888658 27.90193443303993
41.87027562391885 67.91137907886012 3.732839118086541
42.53288126679777 68.48063074878598 1.1783210400743618
44.38893209647305 69.79685807779855 0.2720088452071373
45.55737523814657 71.49273266723662 0.6374809559370035
56.72264173092486 51.14862586357609 2.57349953863484
54.53195505450465 51.376600923834026 2.1582282222339075
59.9646595032224 77.06979644753942 0.8140109292598559
55.37200792963234 77.63714111433264 22.303947073195502
56.58573169148136 75.34712767210291 21.806008127529402
56.94238088756016 74.0453186614433 19.526695204565332
55.84683582836257 73.74666014442023 17.5986106975513
53.707755253115415 75.55691406170806 0.8912805513899631
56.31164724378758 76.49099014706208 1.8664929991201429
58.21013970999041 74.84450561125784 0.5568335693760817
44.61071882860895 76.26510044098781 0.1532675245334548
42.65198361679894 77.44710198765503 1.0399986947448938
55.12700315441364 69.85228811740485 25.372307779889514
52.86774545835157 70.3721108765478 25.49931103551289
51.7592036095193 72.03178253482366 23.73905132572513
53.555957891501855 73.92148591333581 22.277169933923922
41.14946266235399 59.2417412126658 27.245404126865818
42.54583832909351 60.94838528573304 28.351733399478583
44.540795906508095 62.01798022620983 26.707003441133452
45.332227403879386 61.02903359648498 24.619388880888835
46.43976478494976 94.40460063656948 11.600964546465956
48.66679103429055 95.56273335517459 12.10773593457436
41.729190554897926 48.64469167310877 10.74551692885167
42.67340678451558 48.459842645131246 8.68097955027457
43.853542148040574 50.10463239289097 6.906263737481363
42.680436381142975 52.79246421744982 6.851876206966121
41.372565369895355 44.79676290629151 11.73822641710333
43.51248434269575 46.530130798270356 11.60528845102785
44.74712117903683 46.50686261895295 9.041706493279756
44.56019052149196 45.05562031562991 7.427920331572059
43.375594133256385 81.99688194602987 14.149410801440174
48.92601574478283 55.10659982278095 6.610265370057417
48.71747268965028 52.64572138144045 7.785598183983729
47.35738874324106 51.198788761166824 5.850091590840744
46.07607641892961 52.21613677295322 4.36330216864451
32.791305075141395 62.10782263121944 6.622250162722572
32.83260510620419 61.68751850046484 4.308734974688955
34.568101966068035 63.02173835116113 2.608142263040142
36.632404563102924 64.12622539015393 3.1488312351622616
42.09838021387142 58.23794193802597 23.315364516574327
40.69667755779859 60.029652238352284 24.75312251665521
50.95084136979585 75.64203648585539 0.24754077025534071
48.84838617978401 75.94704018873693 0.7710463219782622
46.5277073584548 74.39663427349508 0.6187474443560986
53.030554355045226 55.86483041083924 0.3064281705018183
31.49006079246417 63.81782808370188 3.631430545858174
32.213281571486895 64.30870701629637 1.9027671048029011
47.16888403095869 70.66069834923753 22.66226944134924
49.58181247308624 70.58763716610227 23.12770702870933
51.5693784461035 70.89862829935537 21.49994080704942
52.23987893387015 72.73186693973761 20.15266280635018
32.13856683936848 64.12879189684124 8.250059935425396
32.39716762453483 65.58166859874571 6.668646745951009
39.30738084222057 68.74482402958736 2.4304702497807424
37.612343617443926 66.95385228130426 1.458243398309815
35.37847144037622 66.21474558403027 1.7510638062273443
33.41279694200719 67.34102095409882 3.258397441367581
48.97986830136168 78.58738757710293 1.7644132411326499
54.59680365156339 79.12249267345372 1.2022261193203796
43.54961469193319 46.97332495405824 5.216971085276424
42.92663321179416 49.68545875878082 4.063761441811422
30.584812489475247 57.54341828495151 6.529619987109675
31.532721262505074 59.61181874672894 6.940948165409968
30.199877864414418 61.697186806327714 5.616964534887113
28.743885624757233 61.650746682449494 3.800563696688644
47.77713863152981 44.710987633936114 3.3031981908905217
52.049475632604945 95.50760821424937 10.147797672877804
54.45218434791733 95.6176133970911 11.158101561792261
56.64029132240028 95.48940677934701 10.154472009057555
58.18175355110921 57.01611828483385 1.3432640936291913
39.21464048409689 64.8285987658804 1.3022237643580261
39.2681210428095 63.902852475190365 3.484406399913086
47.36159899280983 91.83852778901561 12.376281011654934
50.87542125436666 48.87444218784986 6.51550725753629
51.33696616302189 51.30207261529601 6.333679711570055
53.723805018478785 52.39576125200654 5.690481024152359
55.764393131192065 51.768624459921455 5.175025111644675
55.81430212829293 77.6681067253892 5.673947475635223
55.55907426366512 78.50636096933948 3.651391794173996
57.070362546851825 80.05641225798803 2.1433026530949855
59.722887028148335 79.61744767935659 1.8681654532415195
39.14388314701497 47.476608644055176 10.332920462761264
59.93742288914025 95.35391714184627 6.925171027844783
42.714866808875996 59.93452979547755 21.296425436959876
43.26807388801761 61.89661806567308 22.8476814014053
42.489119363892485 64.26697894496752 22.94768557405102
41.57024446036289 65.79314160993239 21.20444053931246
51.73975552925963 92.80783685470809 14.425090820399992
49.35239372123919 93.09654595855872 14.274746356228553
47.37308508233951 92.3926921982655 15.786987250251617
47.53093613229625 90.44248958799484 16.373441401231506
52.10969466862472 52.74333813124754 1.6541235264243046
51.95716013974018 50.3342783901201 3.3099074039834107
49.813260780660805 48.91257629333478 3.8177217843683025
47.44177038128474 49.62364169274472 3.641055872524882
58.80974372422584 49.603924203088624 16.451562428097915
56.26891225158993 84.18169715155481 37.89799621796235
57.29793877749564 85.33246303063582 35.91141160119482
59.268369115470875 85.89112578118734 35.05277592472127
54.502762703124 66.79592232054912 22.313677999333564
53.30268434033611 68.10807159086933 21.147579981307366
50.7627899786162 67.6719230817557 19.998758566713406
49.73537198225547 65.22750030364675 19.74684315694565
51.72393591220542 68.1503014430486 17.352199886208492
53.03459107564059 69.18122003148247 18.335390498155906
53.84389304194299 71.71013858667843 17.920494050511994
53.45417986354953 73.01565188929365 15.923003138547678
47.174088240542005 50.443634128735475 8.700997493261093
45.95035868365414 49.27228002954229 8.235311503377309
46.03252592895498 47.703091539084134 6.2991514302098395
47.7428321742664 47.02626806917562 4.841808876938062
40.102789438699176 61.54610793628754 0.919215915720343
38.29364034696066 61.50288258687244 2.389228658828862
36.14853318028889 60.1496936025695 2.863554275301367
48.639784952537894 95.45809258648237 15.779428506897945
57.61355200711205 70.2849890877179 23.41681406688577
55.92327855037394 69.56731267429662 22.417005725114848
55.15619938877854 70.16899568980709 19.833149932542458
56.55109218309889 70.75299214879132 18.16467755113108
54.59053710737756 92.02021370380669 10.214963036351163
53.41251289412654 92.94699499037952 11.796907436356536
50.647115178953314 93.2595763222304 11.591618956523758
49.39367156722554 91.78106614500818 10.107582196519168
59.16149053911002 93.53905127214942 37.96230963836386
58.76328633761168 91.47189526727212 36.94080022222498
58.60245239437458 89.04171735731097 37.57503968615553
59.092548774877 87.86941921411119 39.437317430462016
45.479205506406444 60.74867345592798 21.818027030389224
45.90830781639094 62.84050111662107 21.590981731607688
48.229875527213174 64.0132701946023 21.353737792160064
50.3579993434817 62.865066628336386 21.518445533594324
59.40232251927433 91.20190849528814 33.03721843899056
59.20880099611411 89.40789987362241 34.63249818236487
56.95326321528005 87.88214814707021 35.27623727899994
59.06290711618114 54.819943787055486 0.221612733216688
58.452618364910286 53.034324743712375 1.9246922804527251
58.804848982588304 95.00321044976347 12.073633982806863
56.498416943067944 93.25473249419593 12.38207448659686
54.93838657658745 92.98588525676242 14.266725290972625
36.37627891019787 62.942019067559606 0.5072286554613091
55.14771659709808 63.697357477682665 47.72356090837808
52.99138223025082 63.55440380702024 48.22023365756887
57.34291875789221 48.13422496907502 21.086053152892216
57.47818931826115 47.208685647910244 23.153173330522673
56.20339309178915 45.69865963860839 24.64209741938295
54.18429763383018 43.871255935432764 23.994204024945077
60.092128886981136 33.49847124557114 49.89704394837248
58.04884924548895 34.89475093422028 50.11071728973872
56.65263747786141 36.444465792203644 48.90833628204778
58.4478610181587 38.64247550211117 49.31497533999869
53.06185158097014 27.878815509582292 47.678389491738635
51.976308878356356 29.51758503324996 48.45655438864907
52.411438326113874 31.992967687371106 49.02035304298905
54.034573456100006 33.6370574693778 48.3279731271477
55.535409943393 38.58652666948067 30.1432921472991
55.95135215713532 40.91940209077004 28.953990359532956
58.181989788280326 42.161957022219006 28.814470313552246
60.24043400296655 42.090097318083856 29.7226194646242
42.540159470830496 60.66894502088568 31.081963097265923
43.891616169647214 62.276509532352414 30.285157923114237
52.35406685944185 61.58117132331594 28.05059694464483
58.491339825182834 50.3367621092519 22.514534283820147
59.85085461709666 47.652497927865895 26.968388200373465
53.965946220090366 46.29983840684493 29.08948133090769
55.79623980197681 46.100970069935045 30.68156258100389
57.583338733514296 44.539012790365476 29.49723672198595
58.045069971221025 44.45686619099441 26.95707328910698
53.64387890401191 66.86894465388764 42.66393936035462
52.67683575420643 65.0482423180557 42.112561379739304
50.719837716208964 63.399383454235995 43.32356359564602
50.91576556646516 63.28342882209207 45.97647081801736
47.926349068587086 62.17384195332303 41.85497765668962
35.455310409099376 41.37761709572018 28.496806970837543
35.12474568700836 44.47864552594871 30.786043308684214
35.716335691336035 42.37000908474053 31.63440390086408
37.82839977360475 41.03861727422296 31.720154521443007
39.98208666281195 41.532401986553744 31.47903363282245
57.9979275566569 59.79958125246845 44.397066132118894
57.339322146598256 61.64890372681605 46.062108401452626
56.47969473296382 61.58140359628584 48.46698332649409
55.08238356611696 60.14650755343796 49.44888206706818
48.65832123721351 38.96827264732415 34.258069083218864
47.11219221940426 40.57236286738128 33.363406784009186
45.67279561185571 39.27352613608928 31.358613983739957
44.72907786530296 37.395132752510854 31.128997843569095
54.18212105882016 35.23901737945277 55.02745529063836
54.84472670169908 35.80826904937862 52.47293721262618
56.70077753137436 37.12449637839118 51.56662501775896
57.86922067304788 38.820370967829255 51.93209712848882
47.05731494400757 35.70573423262882 25.436831761527202
48.45172623655859 36.81841835370283 27.393129808475628
