59.2631944873594 53.056042506895054 11.590131646369558
57.14609753528443 52.534279092324056 12.616846452118393
55.995068133911516 51.956346483766836 9.913468731102089
55.348100902882784 50.54206277406172 11.769134370362222
59.3919273902596 36.887549974893254 10.75523617324686
57.994269063470064 38.44388852631833 3.393546308519388
59.41265954368827 36.76773290814808 3.548872571543654
59.496025150674235 37.30894656535162 0.0349478018335938
7.38792381626782 0.041556803917104396 54.703575536669895
5.504736878559365 2.819911476863707 54.462334318530154
4.7860187885194305 0.2170780080883999 54.12095282824702
7.8070127497646356 0.9003667976382972 52.40630595006028
5.231873986545047 2.426843414977726 57.76550711217515
5.483801369641912 0.025068762288514474 58.95798871584121
28.686946220124078 46.50774723229542 48.1591558782804
29.56588475133376 44.319323144942075 48.71376185055995
28.395773270479097 42.10752688205184 49.90330998579177
25.538284295340198 41.98101275362207 50.67064887903377
12.76564842065924 34.682007429430186 43.997082731298285
10.69835372314155 35.43733344741018 45.497893561042176
8.804320043008632 36.31905630461866 44.090392357841125
8.666066818879262 37.32409577037256 42.10170720368977
19.478997066272708 63.11838351461722 43.94459042574813
21.007086361607413 63.52303928522033 45.29646958825524
22.284062220307604 65.41537915055234 45.95363533029298
14.846069225359873 56.277759275586305 50.871919423003106
12.851197155705572 57.667597319441946 50.89673401228331
10.781359101796362 56.442307755169345 49.24863683321533
11.684231067104239 53.771526293920715 48.56265848503632
7.755890747574003 31.35218339931281 48.23032279555903
8.391789391844231 33.097254310129955 46.68789091707842
10.172395875615672 33.105844559907226 44.71772682283995
12.414240633697965 31.746894797537966 44.469135910591596
19.920717807749398 21.22930449735826 53.273207611148884
21.595948513308578 19.321867462051987 54.43087869382236
22.021415349939666 17.03538276210083 53.627456062425836
21.52540801378549 16.054303702331147 51.34735651090101
28.999552816770816 19.68785431643644 55.279938830014686
26.869546363496692 19.929862811695166 53.66229624047126
25.037188962926006 18.626297416337085 53.158984467012246
24.572101617660252 16.295836703383042 52.79624741796191
13.977891411037746 25.395722116267624 36.42009709894171
17.982292069881755 27.18047004489347 37.02332377401906
17.500506205617 27.946749531623638 39.136962767539806
20.707769272232255 24.129503397879414 56.22340459553507
21.010303942159123 21.875945429466167 56.69362976681611
10.142821418090124 5.598269599094773 56.492941938135175
10.01869815342461 3.282282398737882 55.70384199458829
18.44260446706462 56.64520050356313 47.42863953134259
16.17409608374598 57.490051589801894 47.270166940752034
13.927816472067851 55.93584913890289 47.64726262988992
13.690675270174964 53.66241261844072 46.66532919780174
16.59446065668725 11.6089058188191 55.18332094877704
1.0718037220749452 24.72028102107226 47.62014695602779
0.9131021806035052 26.0849809545837 49.65131514033167
1.9304672614394587 28.49081465662411 50.16517937404844
3.537829347994945 30.199755676399285 48.873402428159004
5.123923371251014 36.955559475779744 41.64573277172929
6.277905530566284 37.481538087368435 43.78349369222327
7.613600464032898 39.65993281410441 44.754127536055336
7.187865728413318 41.86646767326483 44.48862457441078
1.3659089170610499 31.55053111559863 49.59219943770028
3.0898026218188033 33.59003784744392 50.522718760649745
18.357692507548485 57.47671606194452 44.869389454548084
16.348103841140713 57.506733557358636 44.23402157057629
15.52058551030439 59.16776357080515 42.57780452057324
17.106588722316978 60.88828114531788 41.17029474081184
33.55968854181382 42.84898519923172 47.34802831958572
33.9850635896083 40.96371731929438 48.51001094111518
32.623223463284894 38.7392042761568 48.89462092450215
30.534561945917737 38.14062762992499 48.952286672676856
15.255798480586119 54.404657745028096 42.96525762219195
13.593911021323603 54.352805973400415 43.79506855170456
12.440889122061915 52.065363590671 44.419376646443084
12.823417462480661 49.77187362563764 43.0403553155457
32.865167503671444 32.62565121137699 56.33090605281356
30.892751065500043 31.96633037592221 55.92568149881176
9.849744593233249 36.55531258969978 0.7110909280744911
10.035986917325147 34.86958935581532 1.8229346043023922
41.571149438565435 47.102995744955884 50.76618770719492
40.16406726239577 48.84593846444099 50.97311526387682
37.60126813290128 48.29699905991683 50.46672412862754
36.676770775202314 45.896103844575265 50.51692233961231
24.730223679746246 60.90397866735093 44.553297713223444
24.11769621770282 62.99243682283238 45.33448509732344
14.999433298034734 10.385451876489629 49.36506933103702
7.5148196741368976 6.255176818157489 62.0149051609446
7.394552936998747 5.34782462917994 59.82861641125072
8.833339077952777 4.0688412224643695 58.496401340458995
10.79686313276138 45.48524407359394 48.12213752460117
9.62683031950855 44.35129806118268 46.0819735731386
9.9028301937432 42.197291261573966 44.92870811428292
11.211248361654855 39.99576426010084 45.49751256083327
26.751096727456552 32.49046802246907 52.43754778445973
27.686727185375727 31.557159293367715 55.022177597278144
27.52958816776346 29.560797116316166 55.70843200467743
25.08488308776538 28.248599973875145 55.99533766243046
34.841276300845294 43.43850707549218 51.968392841983125
33.088853594622364 41.922425523714146 51.30175084174634
30.51991629372139 42.80129301878915 51.35866188811791
29.116230309592105 43.857669599162534 52.6896878856061
12.804625155414698 20.540347803243836 37.46991854883463
14.29859814310113 22.271984448614468 38.957235224365895
15.943199522979752 23.718205333506116 37.73125461341993
17.24165615673306 23.61942268804438 35.506970558238
31.311217320114004 23.437022606479182 53.46569095511538
29.416894854891584 22.08957233429124 54.10417290685318
28.30447176771285 23.48752549678672 56.59999676254697
10.193924903722703 31.95530584166434 1.070729169473088
12.197969796876695 24.345225307942254 38.79777307083382
46.273506598247835 46.54433411209815 34.05296041297462
44.492576194496586 45.8770713842748 32.082121798688455
10.878303617597002 11.300532879878293 52.86930422610858
12.933267059448506 10.57699354589713 51.62774317809843
15.482823695708781 12.123090054524551 51.95187221259625
15.09482837310317 14.505651007938436 51.58042679141825
9.87564074127121 11.601039298711513 50.54812712568955
12.27370551911863 12.15170937489166 49.5688665053441
22.494570992803503 64.3110738382691 48.66067775082521
19.685647865170406 64.06060941416187 47.8888587701608
17.959412645191854 65.6882965702281 48.53664308181352
32.11534116991968 35.94654697205278 50.106858388625916
31.561111511718607 35.13875372703858 52.31717884535597
30.260810736803958 33.16144666979645 53.15738213070083
29.24918096753874 31.286258317727626 52.132092021620544
20.152578986520904 15.937835034598093 55.083804733911606
20.588446790835405 13.371970923005534 55.37891163402163
7.952252983159174 35.829846893159676 39.94124640175289
9.934492745126047 35.25041814205944 40.29914228447113
10.951230033074747 32.944283634494674 41.80696594232903
9.268866660493075 31.18201316904766 42.84378135156802
26.958171150339474 32.84110618247918 57.50843611717267
28.24884071873188 34.80144932574267 57.72365962678775
27.16937238260735 40.16128480974968 53.21431212944846
28.316857257955846 38.248605275951874 52.63770679742085
27.993417828553653 35.719030107595124 53.41307651522705
26.629822522420746 34.83517944773162 55.31456675565477
23.594425024197214 12.926173821975706 37.253091189845485
17.162667263065522 62.99454899018978 52.352859546713155
17.032592525779133 62.85437473287566 50.16984549831892
15.925637172685729 61.13341648198778 48.36015787992498
14.875376484469633 59.25455070529495 48.6127941268569
34.522792810998496 35.67867118171047 51.102478290358995
34.11193328609213 37.92844282707975 52.332532734123745
35.28030948700266 39.82071781633654 52.94680955629442
37.93982509157634 40.71987740775546 52.156284190064454
16.246103414888434 22.633106903844084 41.38407598558596
17.703239516376765 23.736817698671192 39.840719453649875
18.972863782665065 25.700828540552116 39.69263765390024
19.710940139289676 27.437283088605124 41.54727623171957
9.598645265744828 46.90562253093494 50.38965845596469
8.258890696214566 46.18810052212068 48.89838073312204
8.033485753027604 47.73050766553167 46.55554915195553
8.440063138511697 50.5149929428355 46.71146648238152
19.31724435075301 61.68858215952816 49.085509539743654
18.382509194015366 59.92918636600213 47.990708787291524
18.544499195489713 60.23074570151809 45.65990056941283
20.05368795148238 60.48680895277593 43.82300238279799
7.914863185126049 34.548316737877286 49.429120914886695
9.053034930694803 35.70897214225505 47.63720470577877
10.10899975663078 38.013443609344876 47.44781783260822
9.541817102309292 40.02599247877736 48.603851467830566
7.996807316176587 57.600002341501174 46.07454429934949
7.8840255577476865 56.082051305767166 45.299456459195184
8.27695402550494 53.533242614628584 46.05556734111399
8.766188103476285 53.118587125883174 49.00186772282845
19.273093955438117 29.558348201695647 35.50734571369057
16.86371205903695 30.10919655261078 36.31539215930209
30.736010802976708 34.65529011748757 56.79709000350195
30.241073075345543 35.86867056927674 54.64285617081725
30.727195749813333 38.30071890083463 53.754013016230545
32.69230787662595 39.92112520146142 54.350065737995216
3.3249597077763027 35.84492101178559 48.53381255547513
5.026888897095491 36.73330329474618 47.404882601282814
6.6822289899284675 35.97102686450808 46.05151622240524
7.0222421349691135 33.82894299770105 44.17311451147132
38.532350412277914 45.76594889340131 46.34393603079483
40.41594556465855 46.46056877463085 46.73110686638679
41.093536829271336 49.3203674138724 46.04046167675334
39.3413103355188 51.02543616903907 45.30169755811528
40.98922607201939 44.64375161171704 48.7998501832637
38.44350313495263 44.518272926334625 48.82755354073048
37.07988206106904 42.14153595116482 49.81847659640078
36.66556591063796 40.8545252394146 47.57309694924009
11.184274842653606 49.586098842356286 49.97570120135653
11.542787728236304 47.98894164709329 48.643017254129596
13.415003076166064 48.29031431347251 46.379303131139984
14.387128054956072 50.419393957422535 45.76397821492655
23.768875796482057 13.840837904049488 52.97525602952158
21.345402306460038 13.346135457006657 52.609152881790486
20.048912378549367 11.828237418753954 50.78235520717966
41.93129581866635 49.316870300883174 48.77051566084753
41.75740503919463 51.33621530064958 48.55547213076601
7.658116871556668 1.9425407866971929 56.343615154028655
8.251142797490727 1.6502886744165044 58.78970967935243
22.709899680348464 28.75623413518808 40.508556135253066
20.411064277575374 28.421301076872474 39.116540724765265
18.971299058769894 30.21850654906013 38.13742446933176
19.00131735660368 32.35220632962386 37.51898745275244
6.2617346771122 45.176690906889384 47.42131697222268
7.401645799268016 43.57824424347538 47.53099183775298
7.303796694138448 40.93302508764745 47.40449598731651
5.258511141001704 39.50660348052611 47.13865986837847
4.36010216926739 4.3923146815905785 55.499228867456075
39.87421810148617 54.114569973596176 48.31423091262627
39.155500011446236 51.511736504820874 47.972849422343145
37.229019184867525 50.279901747018556 48.30617830604414
36.17152497677744 48.527045409620975 46.23653145680484
36.186455809080805 46.684399093281215 47.56731080701935
34.67775446940926 45.26632932218678 48.91642963476032
32.132518860997344 45.38876000026429 49.28208631129779
21.649277761686346 23.33059222959646 53.949830108638466
23.386473560395626 22.354313939591876 53.508261820395944
25.616609884064736 23.112576088350284 55.22316939031709
26.41014885360462 25.18580162579971 55.3516790722003
0.898739511926025 39.84366168033955 47.92248168795894
2.7991737338303038 38.84024607187547 48.453294434110724
3.6838784340026676 37.76653615400757 51.01546121314169
11.018711077086435 55.90879042437155 42.914653802078675
11.958169940656411 56.01983315886329 45.28252975964205
12.00132424642097 57.82121281074834 46.72756722519501
8.909604954040361 43.64147265715405 42.511279677844655
8.20405142168075 45.623503581359586 44.39002645858103
8.60498141347785 48.228569205869064 43.808479470250454
11.430854689939242 48.45825865309571 44.57831462502539
13.50519373591414 60.31387424515114 46.482011185069624
14.007516613447455 60.33437136834666 44.40191636924691
16.414477425224774 61.90581631879678 43.96479407671482
17.505044754285912 63.26037723878372 45.58309895058826
22.759264868005204 31.348899091565524 34.84633901383047
23.45022291000866 29.58388130253846 36.16723151259993
8.379948686033522 49.578608095706585 41.567321634726625
9.644329410396619 51.45539053758382 43.09785203385559
8.996595928696557 53.95777431887732 43.36633017105741
7.604212720752629 55.303919510216204 42.20445426959767
42.176493972691446 52.19502529437077 46.2582025441564
8.131054318009376 2.9760072649489544 53.78994333042042
8.297353836740285 5.401147521679589 53.40007506701257
9.82433297736455 6.126102060295037 51.928974097672096
9.647854995448327 8.255593420428884 53.88410803245337
8.270652975190535 9.37121005077962 55.20500164376015
23.67834254283178 27.063800915675372 38.37965890025216
21.85783560638934 27.554401873442146 36.743755923947695
19.937316413517845 25.86957165547377 36.05980656475234
19.31584347329842 23.335169168241286 37.269614198200976
19.06977274318257 17.58584563508337 50.32813865796852
18.958420161573954 15.259285646934956 50.981913614874586
17.813303942698397 13.340267579814466 50.22494467100657
16.322400881603333 13.010703913166141 48.115005657523646
29.016238351576995 23.64627789230869 48.84175791205127
29.1035443776818 23.450026436066082 51.72479680329178
26.51603135112677 22.432928971994684 52.55924648134288
25.13339742354779 21.12473094448726 51.36258861642688
4.77686540767951 5.610160027561773 61.096269196335136
5.001271993861897 4.739978803156587 58.75081061174673
39.601355209471855 53.7215019117102 51.61740370627127
39.85328259256872 51.319727259020986 52.80988530993733
30.7014883249756 29.366508867469836 53.57949359601802
29.15896229903997 27.614887632634947 54.68365472116299
27.21369924044994 26.569184510403144 53.22331401628694
27.501953635821838 25.62326977285292 50.96442659880964
23.55589652388683 20.376346012645687 56.58043010015918
26.07307996583093 20.671513939409593 56.02059835875747
8.354641550711246 27.213524863093305 0.7708706397148367
22.45717371879923 32.94400911504845 37.22412902535862
20.666802721451948 33.45078789703676 35.59247628706517
5.809117576714334 7.498468703459468 59.44091361360661
7.6404649344895486 7.580100001137978 58.50547880249361
7.723630899337515 6.727375711806298 55.99698208725603
6.100933623865264 6.216323335243678 54.53750272387965
17.089219745945638 14.748473039767832 55.54225335036967
18.07791341017963 16.2335433282744 53.218759236396856
17.675509154551698 18.346439492253733 52.666100178958565
26.189616564720723 34.020365889773345 49.849824049709696
27.52768159131878 35.637067340324975 50.65386359997303
27.745433964990568 38.328671275408055 49.933298233629884
26.110679242706386 39.54107138691101 48.00204396451988
4.567016331099984 31.718402716755392 51.24754739296515
6.68983194637373 32.477072299059174 50.81040041245131
16.23275360033498 58.44164069214789 28.399796008642323
20.411013836605388 35.248509515672716 12.892472011013922
20.684613442776055 37.50085588077936 12.711901428665918
22.359314351831845 39.0451428364787 14.196818326611462
23.340751024792553 38.38247800172431 16.147075678633072
24.046621898345226 32.49818869035755 18.876757103829576
22.21437908191567 34.211003268796226 18.52596623315035
20.78829952342807 34.42771587939325 16.525314697389398
19.867782828013265 33.32765131603641 15.041939734658413
5.617290162167525 40.31097482418902 40.22796709361405
3.6160675979690695 39.23852368069814 38.4458220089587
2.057961431945652 36.930193026068046 39.34061399751422
7.4952304510821515 47.69845497186581 37.596797908665366
9.503233362160305 46.964237468799254 37.2164793126108
11.718770129814763 48.548012904622425 36.849702140471344
11.729161059283713 51.00071193014312 36.612008146637145
11.370400841087045 60.017084665997835 29.675575999550354
13.202888338014132 59.76888600550875 31.219713919212687
15.01882847758892 60.88427334030735 31.965526405700654
19.040680748235275 20.154069633913352 58.53676555973194
17.136381429802118 20.222916726508018 56.744131840691225
10.78424841968219 46.06350351648204 39.217411738753846
8.308290437220826 46.36167682981901 39.72677877238321
22.89912241747909 43.61520818690157 10.729429380003712
24.713925377607328 43.01130905399872 12.472056302302349
26.79346997720584 44.21933052507615 13.225757142784952
7.172860426296649 40.81059356687112 33.88818951520744
8.40098247574805 40.31966260266879 35.78265524103952
10.33521977068648 41.96531957703608 36.36408352392846
10.429791349928 44.62776372821107 35.718788703282485
17.058409024204096 47.2874767590187 30.480116705333813
15.356969627163853 47.38141018445399 32.245283102108914
13.536123154001954 45.56214073530803 33.28579719219337
13.056892751781803 43.27674638572427 32.518272173032656
6.212019079162423 60.232739955290505 11.723799264131205
8.0099277452812 61.29572175815915 11.768818834530048
8.593363271469748 63.23278876721468 9.837882831707438
7.247920381434191 64.89829320172637 9.284260743313984
10.444288079345185 41.77859210252143 38.9970949338903
9.640594820801091 43.433569712235496 38.694199925336704
6.961036945953958 43.81625998992637 39.10032201444395
5.694101400028118 43.073195931918235 40.750126311347515
7.265562909401638 35.86730453869249 34.16287457865292
7.2142222765407285 37.61783087776588 34.94222123830558
5.554903864106915 37.98800583520331 37.02665197745786
3.8446651577887523 36.12545581304301 37.54712263232949
17.514555162158665 36.39048238332812 18.705395987094473
19.238117973559188 36.39382940480297 17.298784268271252
21.659617058349948 37.29630054309552 17.888690738884826
21.95679538072463 38.760746071247546 20.18318448092125
10.487958062736794 52.94748947251619 30.091945004580865
9.416238235278833 55.56675243215435 30.76231511659016
11.4759568941878 56.90291033114505 31.04551504482031
13.684964534692757 56.71792459424784 30.25470840916948
25.37623542360248 48.53955421293332 13.950925034789435
24.319825861527484 50.01297526736736 15.938819510068583
20.36026027733637 49.055802466677946 17.843097617118616
21.489434894758414 50.99350711933402 17.843327838755084
1.2725994126592703 44.3374819827704 15.39474257637101
20.20058898959943 44.03275214278309 11.715604944933764
21.46417887847997 42.85280513904145 12.805770141464633
21.18240840569784 41.31535909202124 14.870509679401012
18.79018659679961 40.56526689867997 15.997930884859239
10.834221774615894 27.386445255412436 17.38273792601913
13.042034610251568 27.567156471128353 18.367152282551707
15.217585304118 28.98635370547481 17.59733106499396
15.445869145820298 30.377880038809206 15.42411863126854
1.0223141079022258 47.689564628851045 18.080783079899348
0.26824212586826857 45.501829421729255 17.68996874738468
9.361823897728293 54.07943783537981 37.06305399476137
7.580893493977059 53.41217510755646 35.0922153804752
9.125322119753882 52.986525716156585 32.794421393067985
11.552615744079983 53.02986430299064 32.77565891733666
8.278979155585986 35.143075610491216 39.126472458646795
7.290241639834528 37.15939583689961 39.062957369201676
8.622545374352718 39.515929924739424 38.224745577291976
11.064457952838861 39.35285939820228 37.40826491590201
6.4930077244917355 55.985349454850684 6.897024787942842
6.376992913738211 58.047515989171174 7.8547119763806785
7.590646268646178 60.52805704999305 7.375445311945552
8.916594412857835 61.31813615202354 5.490884249973658
2.083159444021234 24.239482544841394 2.505887129839982
20.41620842401914 17.842587396761147 56.932199689247696
9.882390901560395 43.732233447380175 16.493904737870135
12.046800536906158 42.668516033482 16.786790338929524
12.305462057278527 41.617130903513164 19.32870684330025
11.108176042793621 42.07234948127888 21.140207461392016
21.07847269372224 52.75875759177241 9.954206986840223
22.637567892830823 51.681974464496804 11.721429266903197
23.640169033307785 52.60004094772193 14.021309550436758
5.267119706762137 25.469525154962913 32.39584053796642
4.134466384253597 24.51336593124093 34.289557779404205
3.395673477976436 26.359390227454185 35.98532320925184
4.783656633524658 28.733859702085475 36.16558319556483
8.682758226964141 36.19099391381908 4.218247100817023
7.626066393367983 36.85839895550337 2.063897769574217
1.4451986602889177 34.44098265661345 40.667656483010774
0.8521062279845252 33.484087440929976 38.18093985066732
17.797320589661748 27.98055367564083 21.399560709846035
15.461852939492466 28.657023421276172 20.173295662369107
13.133081568519687 28.031268832379315 21.345856013341542
11.119998213646046 33.30966060521548 37.12685870796932
8.997078916302891 34.57012915879516 36.736003545557445
6.826882384292462 33.89852802722471 36.26126571554984
5.727747731296185 31.433803759614975 35.68737848318422
22.086746394198247 46.94210955678288 18.382333714729143
22.5908288231281 46.392059883347635 15.908652732759332
22.721439398691363 44.2693022249607 14.527364126056499
24.636591530447042 44.242808883497375 15.207174947343297
2.049746410670047 48.88084284439954 62.02334097424096
10.410651124778742 45.172543443643924 31.996032487796874
11.210175020969567 46.815467776800865 33.72968518414813
11.936566837115048 48.84328491245717 33.73446361537664
12.4805379075691 50.78866427451974 31.530597038529738
10.094304480012834 25.814695509640895 23.046233413826325
11.806264126713822 25.87836380355271 21.489334227703647
13.559284486337523 35.76780523450979 17.881696844600405
14.647297333817882 36.086190839756355 19.466027691483863
14.911570096245413 33.36397677144859 18.884607415377396
14.037328343682354 31.290950349161083 20.364338856476508
20.238318906536815 45.99883909739069 13.244414724713591
22.246014233383313 47.6211315441236 13.587244826702817
22.299930540446205 50.37038713813002 14.134260097690515
21.04461625623349 51.6447667139216 15.278106786497808
2.005442514563102 24.580005130742904 32.559986214206916
1.448936301991066 26.306718046593716 34.33475082575833
2.08636902021609 31.324044205834042 37.17397277723916
3.22744999613796 32.97714931886064 35.706643838553994
12.40002700776737 66.81946457505978 5.329560859526295
10.30449696902373 65.94499075279182 5.883028924613935
9.835080605936351 63.81306730602846 7.074990764813887
11.083513251221685 61.79784578182881 7.409409908860726
0.5346090667950274 52.2850912296631 11.393799738008953
2.0480969252037045 53.63410808109902 12.121514209632398
21.179915844964 33.60910204333895 21.334683655191718
19.713444543899367 34.58569982260034 19.857536640144072
17.530050752874 33.00872957109498 19.40154725736599
16.516016098011107 31.383797245746738 20.8249334005395
26.2671463671261 39.43428670441723 14.621844742646648
26.40403729410106 40.88072573579415 12.776186861567261
28.071593540931154 42.488973555947574 12.02541063978428
1.579970821951176 52.07358549935495 8.92349160514057
2.4045325391288634 54.61606499156568 9.533027449093009
4.522249487804725 55.70824805385158 8.816251296487625
6.332491587884744 54.67437334577713 10.029575941370057
20.25437978389415 53.82381023862175 19.5827328004677
21.86893826049941 54.103764467930354 17.614487665253062
24.558586913874777 48.093034893714545 18.016829173122424
25.471302051206653 46.744903336933604 15.95890643090645
3.762811956764228 30.567538367059168 39.635409244629315
4.684849066952415 33.08682680192971 38.27340638341515
5.533730675413379 34.87050971998996 39.12943700473951
14.583234594509163 32.87037903637016 12.818225388047992
16.11679016639251 32.825374165449446 14.423961726227764
17.793082343636218 34.89180127196138 15.595285680549702
18.373821410064437 36.83625255884905 14.461003704298275
12.515830444579684 67.59793844923945 10.60635231331667
13.073998954667132 66.32493352665614 8.907708835990071
10.923018664739386 34.42845315538661 33.77893370587049
9.867881301101349 36.13368595020452 34.71631805170052
10.169219706887997 38.78556389882407 34.72561977178703
11.469341802180095 40.17859103291911 33.77682798942971
9.096197055107513 58.65922506488194 14.231876703862858
7.697175400075893 58.08917742944515 12.100042769508377
5.684326052500001 56.7532186421962 11.773136917876158
3.951548091174073 55.623116978121494 13.222634731924096
1.7908330515470163 37.10451809552687 53.01975090918813
8.15282650524858 30.059751172883793 2.759068403003303
6.212145853625218 30.760107134051935 1.8621562056691054
24.5486555104992 26.826968977486814 58.47669867111697
5.476976467369866 35.312796849221535 3.00415142783091
1.9088608864160932 28.30332077744544 53.033183213077
9.461964053170183 68.9121183424801 7.151386860724757
10.144557525712464 67.22104756531495 8.250820151925549
9.589756354870094 66.09094650085154 10.752453062341141
8.575584024534448 67.23918322179719 12.673428750721326
14.396451927203032 50.29418557303839 36.90616525486314
15.079964350473693 48.18437792844737 35.09429497812713
15.786476546027718 45.902085187039766 35.70803587592282
17.390746951615128 49.62710050315126 32.82527414777178
15.034117591332814 50.49626716155639 32.888638911503044
14.242065161271547 53.19999927800828 32.993822226809
14.853334138088695 55.00968182026347 32.01986073721613
0.164126634677101 24.65488028368728 40.42722955089243
0.47580825780061525 26.025448422880395 38.56802010450178
2.23303060248572 27.793100200187077 37.77350802721394
4.513528449954551 28.137922179258794 38.91846283395521
20.57570370763833 30.812468426249833 24.395405913413697
20.130409203619696 30.473503745812938 21.669945572794898
22.284054968808157 20.221549506752922 58.418491390045716
4.421294202039542 61.77051584622101 8.766573065788275
5.02637105913317 59.36766565851137 9.694787512070665
3.8349404803926426 57.74557553143544 10.569063384616348
1.7178435283176903 57.223812116864444 11.595778190365177
28.411133283346675 59.73394373476427 59.325008565032554
7.7997304833159955 66.45417782607196 5.2846459191477
6.388377602563898 64.97504876254783 6.560029459787892
6.035676742496579 62.646142550769895 6.669196401411499
15.570812186084892 56.96632904445752 34.05798166688945
13.409571220312884 56.881696854708444 33.56937717429467
12.05225823381991 55.25889574095983 38.54702297934999
12.083088885960217 53.52062264829701 37.60428028236316
13.890560644671616 53.05939793442192 35.65090166624875
16.044280176099985 54.26407874835034 35.320353792703806
23.193796468972632 40.65616739229256 9.973930182276417
23.846256197391398 39.54048885351027 12.025070701223182
25.38595602750325 37.63322231455625 12.472964801662798
27.36355753762931 36.55812496518574 10.671187758626305
11.318195513379509 61.29704354781092 10.044196524805335
9.432308448924656 60.296219714798355 9.549781209390188
8.445353876302713 57.881928577994216 9.460332425011915
9.561392982106254 55.68706474454521 9.293400440408027
13.054382643699459 40.25119185424598 35.95642684274191
12.919878293622244 42.17194125678658 35.015402525775436
13.219011618823739 44.6383068830733 36.078220126087636
13.811566936999586 45.31786697678977 38.12341417522932
0.5668141269447738 56.64587950830724 8.892400469348871
11.87238132219355 67.20211196591264 14.169860723575693
11.73421992694509 65.58296003579214 12.342934976366156
10.60034829269362 63.16419637176473 12.087140206399424
8.955905464684955 61.95554532650939 14.377952594842215
19.761385438914356 29.88595207913118 13.821419776670576
18.42828610124158 30.990807405914968 15.239628311670176
17.92771477894323 31.125263443900167 17.49947169077075
18.475849080565794 29.771250358012015 19.49999803634883
15.091901455587092 14.7306451951606 55.782863513197135
4.198690276819325 30.363915361568697 55.499450561448135
3.547562038581528 30.83877989379373 53.45681703339891
13.480366850430514 7.963823281338173 54.70021853991132
11.526501154830907 7.589890048956383 55.855686851063105
3.8786383003260725 7.670121307872255 3.2492124704265213
5.632532881055811 6.5464825191064175 2.87673396046384
10.99583651181758 8.643773616780155 60.26639474138594
9.824315627772135 9.010038784004024 57.91278244612617
9.613957857481095 11.286984726611353 56.85862868291265
4.9605673401496535 6.242110870762437 5.927321944424379
10.765280073812304 8.86615978307823 51.613604954695006
16.808234970694308 59.884626032967034 30.289005265942766
17.636233290589953 59.42643104060291 32.6397003286947
19.046877140185995 57.315200225210184 33.487296178511386
0.542806831221966 6.456503459772799 18.55316277650382
32.236264666229474 54.63017113865863 12.42229692092413
32.950457185405405 52.63939951671056 12.542250205363217
16.321780531356556 63.2257535529376 31.003530960182477
27.85450572570244 46.4311967550947 12.768896620561808
23.80814828079002 58.70148890140203 35.49487191759384
23.729338373505517 60.6955408568185 36.34073103321467
31.626073265682574 48.36650572886687 32.1636683692785
1.1054957626650148 8.47585572262087 20.922198022517097
0.564468470652138 9.3913531432724 23.12307775891419
1.5174807150943541 11.886551173569865 23.17095532971321
25.42373329898614 53.27762495813791 20.560573276833207
26.296817656631717 53.5813632395754 18.594862659326065
28.655149950591714 52.81870426196674 17.62720310009405
30.85599226238202 51.41964792130603 18.555553494654937
36.628462471792886 50.23592672962074 31.1268360372877
27.798495031546388 49.02342761049908 13.479733158674433
25.46214493161183 51.588830374798164 17.049328662289167
23.435244297982464 51.454093836916236 19.60659007149013
23.947287318868398 50.34734789713695 21.62732908577748
19.471415618880542 57.664947580517975 36.07222477992035
20.829343505130502 58.70848254017219 35.06460973331622
20.20731824180161 61.543488578200545 34.258562586761805
18.348565911943815 62.67119467054477 35.38257007770535
27.826040426522933 56.436519560705385 14.794939931246399
29.894072526190758 56.4520742382957 14.715409880084698
30.842937198486958 54.019166169912644 15.407399000911903
29.799180579877632 51.85735135972403 15.154022762173206
19.040329888307177 62.41773704846552 30.581449134788475
20.76721884443993 61.01809145337837 31.6537530923336
22.960861272735226 62.46209366946526 32.410965676964686
1.9942349219745195 4.644668814400888 38.18951487278799
23.219208436265554 54.91363516964355 15.16599755530652
33.77142891794337 50.129287981528655 13.376747491160465
31.234339414051007 49.500606069912145 13.27291337502884
29.945076690989 48.671106827081545 15.346896559685975
30.070987488917538 46.421674725815 14.763214625082803
18.831593564770106 63.66503076383286 32.993971765266494
30.311217749391208 43.36009874092956 12.787136055191496
23.982396513528997 55.34357778590894 18.4075913146466
24.568584677361162 56.136450935136196 20.801743144771592
26.162233560527607 49.640558493720754 19.550877420246824
27.305246422966658 45.574428680324225 15.851021432407729
28.209975694218702 56.74918668385412 17.562497716372544
26.282208272528912 56.44325446850762 18.17236640202754
15.825643508417802 61.26975766116014 35.38719898869524
16.90001301963328 59.389320548858315 35.27714487004264
30.055668725071627 55.50436670534325 18.9150740963917
31.671151193747484 54.200401665845945 17.877089864325935
3.0647871276246352 11.338065748740993 28.215957237890414
21.85313604996497 9.373515869873657 53.43829367396335
19.79441718771447 9.713542794555961 52.37667813030012
17.47881625861513 10.729485183586652 53.30603603972805
12.96788484306822 8.266748291594014 48.476128329016085
20.629556137677113 8.70018143685783 48.69888523049929
18.780686508920176 7.959817627432573 50.54982748590116
16.211794169761504 7.967951542782809 50.571388077434406
16.252777799534517 8.667848164230183 55.319907511231555
14.554087041869655 8.491535308743636 53.445714840033965
25.778412414095595 13.17334552334746 51.80901507504459
0.23334513108266225 59.2473288351332 48.31096917041002
14.298452352957472 14.077625107495903 33.59062979265676
17.398356622183805 23.59768562567519 22.814385987609956
15.612257052439908 24.314131026419563 21.84112645771328
12.828845267258302 23.329329496554372 21.839415512893897
11.965707634093318 23.902418793870385 23.514224204960612
15.35651639363623 21.393302598921412 34.72287015395921
16.945461679831748 14.570785342339686 32.4981523854444
5.838955479157246 15.846252153137783 17.110835215654816
8.165728975585713 16.500249878687008 18.131020482687532
9.258194551284717 18.34837265719286 18.472194514023045
9.369688894937896 20.634917510085984 17.17782995957345
11.880618905599302 17.436853910963055 18.14609547424901
12.240423916562646 19.34543339294365 19.17886255213827
13.851951985435008 20.55436409745898 19.969919977943007
16.343659870713296 20.362407018493315 19.916007251527233
8.147493536790055 9.584920802624659 12.961628336375265
6.8383644803676935 10.230285305512874 14.653809832994224
6.286993762572123 13.267741127168186 15.448038105291817
8.421009432665976 14.642341860743008 15.359465297522732
8.737083926362125 9.720785575915976 19.441602463426293
6.9717011659395975 11.311968960322307 17.784932210444133
4.833134696585355 11.380225964693938 17.440523130073817
5.961772944424036 13.368002321990822 19.49710216377063
7.550698430514329 14.771527096041863 20.428862972085636
7.365708808522746 17.062559265103626 21.65374240625491
5.578139853961832 18.5825194369725 21.867265280848226
17.722349023854537 26.412611643096795 22.63553272186905
9.07423423145266 10.55379740209139 22.216872467599618
8.738930623224961 12.373715648281468 20.330450877312046
10.160318455774505 14.154294290969744 19.312494230861077
12.279418976359233 15.502206102344093 20.185333311733768
13.138182988370415 21.94583908475099 16.958637556761154
13.894204771271946 23.117309453236935 18.810560941336014
15.650323285005491 25.033813501066714 19.358141966213108
16.72744955544466 26.603877081815355 17.925957759245122
11.729423515419239 24.9224270977645 18.779275270652995
10.051100372087905 24.523436307553464 17.77009661433278
10.071770489325951 21.969287055432346 21.670309676096977
10.091888442689134 20.257920434271544 20.666680365033532
11.000704620874602 17.63607685504648 21.47981086774772
9.58013792289993 16.450544167428244 22.814579720913613
20.458266540813987 25.280754003001842 23.288819452626242
20.24862977296232 27.14948140688926 21.237922165290037
18.957440772402805 25.81733097362526 19.283109244204386
17.796635661226823 23.395300576509413 19.92961292752938
10.411477507175071 7.44789967686356 22.411528733188472
11.712776932078354 8.091477978767738 20.17799871333816
4.058358145987347 10.097284053649815 13.571575700057137
22.478572765966906 29.33845233172561 25.26913991998516
21.74325421115066 29.1352380742004 20.338229093836617
12.863737577206683 14.275719786812752 16.42028464394733
10.373929153944903 13.497460660954577 16.45482585444646
9.49096992717947 11.154937078972166 16.351412440109733
10.291093429443507 8.937676979399283 17.09720819341047
14.31546875043519 7.706540210532226 32.8701686187118
0.8458446336663628 71.65047895427709 37.991225866250495
1.2035424549250249 69.19645436436633 38.65826923592618
7.417805816105695 72.43730125952003 49.304655114027746
7.358094400025908 70.77419227970313 50.324046904305426
5.446057831511274 68.77586449692703 49.83077841661803
4.403992741277973 68.39572535581031 47.35194141656547
0.036970105050821 66.13147138533897 41.1240453824331
1.777988792125406 64.88925241832247 41.01458704835336
2.4433581989443787 66.44811783195408 39.04069108806091
3.7577979844961167 68.56461365244101 38.93493761894157
1.4623654554499437 65.17021241503616 52.31613561722402
0.875251184432635 65.899261624242 50.07891103460285
2.1329720346368446 68.25409130203667 49.41281239725509
2.9375930064315785 70.01221923591734 50.669888889069085
5.880641832950915 64.44842481773779 50.85171430501748
3.7138812918245137 65.25014155249613 49.41053174753246
3.513093192368344 65.58748463165759 46.954249007484606
4.613127737747714 64.52086240301834 44.98991616569544
4.532942167952097 77.67216736733624 50.72760608030592
0.8030276700931179 77.07922923921052 31.521163137312982
3.0401926074622083 76.21121685100638 32.66642154104461
3.5348488194210437 74.24991645539151 34.031085415931706
1.787605707433943 73.06737187927425 35.886606615383606
1.4721555258763597 61.76738497782354 46.61270351992032
5.187275634656538 71.84617917610136 46.99709306200761
5.21632086120816 73.62220258765988 48.386475200006295
6.032477100133616 75.90198066426774 48.406157166820805
0.5813983823031172 62.275021081723594 40.87870308478739
1.371571171002619 61.66655523261164 43.309834165064075
2.6605158788728085 70.41349505701834 43.201791024477735
1.8397777888593785 71.43474963503283 41.31095324117674
1.5442559358770886 73.57088977227114 40.205693920357305
2.629185512354142 75.90682231473065 41.04241240168954
3.713369428891136 76.86901257363327 38.79198749715146
9.642922841444017 72.2455410095885 53.18646148956237
7.328516393868691 72.85716780416924 52.198689689976305
6.239532314313938 74.85230536048978 51.25588183617513
3.5032080785763133 77.72688301787515 48.247122618885136
2.1089699853943293 74.92380159498718 49.28421416151331
3.0728073172571246 73.21362323968204 49.920861634493605
2.8537440835189165 71.04395129549168 48.24246482284589
0.6711296873136892 69.98055560092205 47.27394139055483
4.158922554692656 62.32237278216562 52.751453909837785
3.986947884078365 64.96539890046338 52.49376686220559
4.378050511335158 66.94942511797605 54.23385094588611
4.901278174610256 66.98559244343232 56.399384266075245
1.123407388493878 76.69481741348989 37.39279107914235
7.101188960089942 69.29009573062498 55.0011480977764
5.409794701978072 69.42786306068632 53.19697389236529
4.4705214168804375 71.54805487030467 52.051455650803106
3.598695948064954 73.58054881422251 52.9304627772862
3.4366638062101393 71.70598849621159 32.71347061269868
3.49511902472576 70.9173288172863 34.81963882042518
2.5359784374641126 68.90384492718154 36.08102842039069
0.1325652897409039 67.79363203804783 35.36185911093109
5.487604650154835 75.24384270003979 36.5608063654504
3.80909758754715 73.66499368220335 37.93466094727506
3.8790134450475673 71.48384126193635 38.77972565996371
2.295526444544208 63.155377802788124 50.30211377405078
3.41435116008084 61.33731984631499 48.85117683309564
1.4236574465165055 64.31407019672352 46.31554802917542
10.481575035713227 69.93548390479683 52.144907680605584
8.039832371851519 69.13777442101205 52.390526901302415
6.986292845665643 67.06731560187212 52.383498993061515
7.9138354084216 64.59129739407402 52.80150401537672
59.90776551826701 93.27567125035455 44.52254547312989
47.13512964358605 85.97666592616265 37.8489793253944
45.06783494606836 86.73199194414266 39.3497901551383
43.17380126593544 87.61371480135114 37.94228895193725
43.03554804180607 88.61875426710503 35.953603797785895
22.396222302793973 67.71421114524105 45.55988792485019
42.125371970500815 82.64684189604529 42.08221938965515
42.76127061477104 84.39191280686244 40.53978751117454
44.54187709854248 84.40050305663969 38.56962341693607
46.78372185662477 83.04155329427044 38.321032504687714
54.29019903067621 72.52396299409074 47.125104205245
55.965429736235386 70.61652595878446 48.282775287918476
56.390896572866474 68.3300412588333 47.479352656521954
55.894889236712295 67.34896219906362 45.19925310499713
59.40667018585282 69.92095591306956 47.010881061108364
58.94158284058706 67.59049520011551 46.648144012058026
48.34737263396456 76.6903806130001 30.27199369303783
52.351773292808566 78.47512854162595 30.875220368115183
51.86998742854381 79.2414080283561 32.98885936163593
32.06195758401118 80.61430578903844 42.913986187136686
32.91606997793932 78.3163740138882 42.01411984117283
32.77928876251507 77.252671179604 39.64695705523009
32.039768352967556 77.95865761286193 37.206751986732854
55.07725049515906 75.42416189461188 50.07530118963119
55.37978516508593 73.17060392619864 50.54552636091223
44.51230264101693 56.892928095827244 50.34483853223129
44.38817937635142 54.57694089547036 49.555738588684406
50.963941879614055 62.90356431555157 49.035217542873156
35.441284945001755 76.01493951780473 41.47204355012391
35.28258340353031 77.37963945131618 43.503211734427786
36.29994848436626 79.78547315335658 44.01707596814457
37.90731057092176 81.49441417313176 42.72529902225513
39.493404594177825 88.25021797251222 35.49762936582541
40.647386753493095 88.7761965841009 37.635390286319385
41.9830816869597 90.95459131083688 38.60602413015146
41.55734695134012 93.1611261699973 38.340521168506896
35.73539013998786 82.84518961233111 43.4440960317964
37.45928384474561 84.88469634417639 44.37461535474586
24.533053976570756 65.4158686397641 44.519034299445224
26.12420080687129 66.54232729026626 43.272257427188926
49.368914520961546 61.6801103732221 43.21696592513314
23.136980125473276 62.96118373716304 1.3894529723487388
41.8843008970637 57.54983531488996 55.866801755040726
41.76403415992556 56.64248312591241 53.68051300534684
43.20282030087959 55.36349971919684 52.34829793455511
23.741799089093174 68.11986497223349 42.052613602811455
24.496178116016303 68.38551803464242 44.26399348918962
26.125541847904817 69.92929535860117 45.676448845515694
26.82944441679866 71.84931275478178 45.3592102129635
43.99631154243536 95.64595655791516 39.933870167234716
44.27231141667001 93.49194975830643 38.78060470837904
45.58072958458166 91.29042275683331 39.34940915492939
59.45436431069219 79.54325847060761 49.847234256526576
47.1741063783415 71.8350062999763 31.321815142930745
48.66807936602794 73.56664294534694 32.80913181846201
50.31268074590656 75.01286383023859 31.583151207516046
51.611137379659866 74.91408118477685 29.35886715233412
46.327920935798375 48.031648708872694 27.752221534803414
27.034584931670388 69.54438928210746 48.739529145189316
28.205193195205734 70.8298092715526 47.288842422261204
46.5674510198035 75.63988380467472 32.64966966492994
45.247784840523806 62.59519137661076 46.7212008202047
47.30274828237531 61.8716520426296 45.479639772194545
49.85230491863559 63.41774855125702 45.803768806692375
49.46430959602998 65.8003095046709 45.43232338551437
44.24512196419802 62.895697795443986 44.400023719785665
46.64318674204544 63.44636787162413 43.420763099440215
22.993667034877912 66.54852972360835 49.348450270367245
54.522060209447716 67.23249353133058 48.935701328007724
54.95792801376221 64.66662941973802 49.230808228117745
30.479253390478657 65.70347155172949 43.25574260740775
28.659127414582912 67.75946226767603 43.92748949277498
29.281334329618833 70.33678610368153 44.319517056775595
42.32173420608598 87.12450538989215 33.79314299584902
44.30397396805285 86.54507663879191 34.15103887856725
45.32071125600155 84.23894213122715 35.65886253642515
43.638347883419875 82.47667166578013 36.69567794566414
57.963906247124015 64.22083231870818 31.104987783941606
50.61558463781524 73.92776540057655 35.23597257968208
52.07272073930357 75.03147619540367 33.69261604774599
53.34234500559187 76.99548703728458 33.54453424799636
54.080421362216484 78.7319415853376 35.39917282581569
42.28434440805286 85.84297523460977 43.28101750898281
43.42251615362161 87.00363063898753 41.489101299874896
44.478480979557595 89.30810210607736 41.29971442670434
43.9112983252361 91.32065097550984 42.455748061926684
29.996861713652617 66.9436798368239 46.91259274113231
27.62832519516038 67.87376388035439 46.30183617676653
25.14600348650464 66.56905322428332 46.78283009227857
24.87763203871093 64.40094486623282 47.7067354261175
53.64257517836492 80.85300669842812 29.359242307786687
51.23319328196376 81.40385504934325 30.167288753398214
37.69444093070311 87.13957950851807 42.38570914957125
39.3963701200223 88.02796179147866 41.25677919537894
41.051710212855276 87.26568536124056 39.903412816501366
41.39172335789592 85.12360149443353 38.02501110556744
31.114925493140504 74.49284445207442 43.45382824633338
58.138357019408865 65.13549640078196 46.82715262361771
55.714883529386846 64.64079395373913 46.461049475886604
54.418393601476176 63.122895915486424 44.63425180127579
42.02759809448348 53.23719928342967 50.19551174812477
42.62062402041754 52.944947171148975 52.641606273448545
57.07938090327528 80.05089263192056 34.360452729349184
54.78054550050218 79.71595957360495 32.96843731886138
53.340780281696695 81.51316504579259 31.989321063427887
53.37079857953049 83.64686482635634 31.370884046848563
41.771127022194825 94.87290274020786 41.382888431849096
41.673277917065256 92.22768358437993 41.256392581412626
39.62799236392851 90.80126197725859 40.99055646247459
38.7295833921942 55.68697317832305 49.35112546155219
56.01875898461315 74.62525072632893 47.801726702734584
57.75595478332243 73.64897243632434 47.36015841449206
59.98609110699155 74.40723458508276 49.07506598441321
35.26822073485283 91.13832017707202 41.77437828205507
37.16865495675711 90.13490456860795 42.30519102820684
38.05335965692948 89.06119465074005 44.86735780723781
43.27908617696717 94.93613115388652 36.36317627194078
57.12874609093201 82.643557588298 28.698235607926595
57.81970413293547 80.87853979927094 30.01912810669605
42.500535540936184 54.27066576168143 47.64183992451654
42.66683505966709 56.695806018412064 47.25197166110869
44.19381420029136 57.420760557027506 45.780870691768214
44.017336218375135 59.550251917161354 47.73600462654949
42.640134198117345 60.66586854751209 49.05689823785627
22.208587415213835 68.71553989903187 48.09881137734369
24.347496793568045 69.81756947286806 47.951284872792854
24.957017785649192 72.42770781418349 47.43522614438081
23.846117478109505 74.0743802022353 47.8942507260626
58.047823765758594 78.35845941240785 32.23155549434828
56.227316829316145 78.84906037017461 30.595652518043813
54.30679763644465 77.16423015220624 29.911703158848464
53.68532469622522 74.62982766497376 31.121510792297098
53.439253966109376 68.88050413181584 44.18003525206464
53.32790138450076 66.55394414366744 44.833810208970704
52.182785165625205 64.63492607654695 44.076841265102686
50.691882104530144 64.30536240989862 41.966902251619764
59.5028786464746 72.41938944121974 45.21448521052301
30.456945186952513 75.39993756282108 39.43716732966685
29.537869064223415 75.67868407137989 41.80113190496065
26.864746027501447 75.3513813793558 42.36642514465283
31.68991235243159 68.83335529388509 48.906397946560034
30.73510207545843 70.05244784018552 47.05521364306168
39.14634663060632 56.90481852429424 54.94816579043126
39.37075321678871 56.03463729988906 52.60270720584285
57.92537774681364 71.67100450937816 50.432326694255295
56.82665494172604 84.23866761178093 31.07602561945474
55.03628394437875 84.74544639376923 29.44437288116129
48.96394093433946 47.72379201767816 35.536929397563235
40.178598799641144 58.79312720019194 53.29281020770273
42.00994615741636 58.87475849787045 52.35737539658974
42.09311212226432 58.02203420853877 49.84887868135215
40.470414846792075 57.51098183197615 48.38939931797577
51.45870096887245 66.04313153650031 49.39414994446579
52.447394633106434 67.52820182500686 47.07065583049298
52.044990377478506 69.64109798898622 46.51799677305468
38.93649755402679 83.01306121348786 45.09944398706128
41.05931316930054 83.77173079579164 44.662297006547426
54.7804950595322 86.54316801240519 6.744368605110041
55.05409466570286 88.79551437751184 6.563798022762038
56.72879557475865 90.33980133321117 8.048714920707582
57.71023224771936 89.67713649845678 9.998972272729194
58.41610312127203 83.79284718709003 12.728653697925697
56.58386030484248 85.5056617655287 12.377862827246469
55.157780746354874 85.72237437612571 10.377211291485517
54.23726405094007 84.62230981276889 8.893836328754533
32.45495232113023 95.46817020126554 5.185862520672729
39.98677138509433 91.60563332092148 34.07986368771017
37.98554882089588 90.5331821774306 32.29771860305482
36.42744265487246 88.22485152280052 33.192510591610336
53.410161971162076 71.44872813064582 52.38866215382806
51.50586265272893 71.5175752232405 50.59602843478734
32.43923162315109 92.01918690557206 16.30528019482873
