46.03204544128673 3.768169957084644 33.37063717743566
40.80189292151386 24.410683380580245 35.87385088754403
43.15495954175625 25.33671619979873 35.769609707604765
52.41870109713167 21.887318967701454 37.38734721922987
51.48389310820222 19.713769639189408 36.742346208630686
49.33829801880816 19.45524365915509 36.30277672152783
48.2600524298728 19.497104508091308 33.53867463308902
53.31718471051832 15.41323339860824 41.734099405791
53.83466510007955 14.480620774693785 40.04855369921934
52.10375223053355 15.100235150028954 37.84319755974568
49.7517030649525 16.538139394775705 38.37767751673648
46.24820291387876 2.371981127304716 18.390525506909956
46.08573009052868 0.6444903153989865 19.814952686511084
58.28991654208567 18.83417653279408 37.00533238598345
59.14393064227516 20.16077610518934 38.656632463737125
54.82434814923764 22.179582860451067 41.20049451256766
54.43646773699013 20.031155827031853 40.15925766165536
54.62245206592989 19.455391771279196 37.73950661636053
55.929994251980716 20.152776805219226 35.90792433518362
35.76389286396347 7.3508763655467035 0.6375941090564157
50.45026989894426 8.520897993807882 56.57249721885202
56.18110679504197 5.956737738581251 54.64802352207904
57.64307588910865 7.198672749237568 56.30834996155865
59.75823010352168 4.131277053209295 1.1725459272515237
57.95447610450618 4.6005418639411175 1.188384422183101
56.644150038568114 4.564800325609719 3.339471705766405
57.349266973177166 3.380567188122375 5.639051561852592
52.62916016983411 1.06970985581264 36.42006638670699
49.94450409217088 1.9158932222624627 36.196939313107436
48.40520450406487 1.3489630925803733 34.53412825039554
44.87967126067484 13.223949135242936 55.51426074347149
57.76720018212658 10.390276952987263 54.11557166537503
45.33362668297679 1.1058112347623827 38.75482570731407
43.92232580866251 6.294327352007755 0.019876706983745152
44.226588781324594 6.702140523178009 2.834272318939839
43.03082297420474 5.728079454847581 4.600772678920009
44.65740721812929 18.29702717968727 36.38346961867609
46.66841966224912 19.558822818088128 37.18285055145803
47.82610370923612 19.580739342337253 39.566147383356075
47.94088701272123 17.961542588975007 41.55564601874986
39.80969271277614 19.686073052297807 31.577724781992313
39.205215088576395 17.10913274691694 31.949421130642143
45.439665101152436 3.342291809515395 21.793976153995967
43.500754753004216 3.8459256853692207 20.10744951374893
42.33514492399314 18.358146941624998 31.438997139376756
44.18666738893162 17.4081926839534 33.01819025161414
46.36953757051001 17.483090682873836 32.85487865714202
39.41447948803078 8.663949533828303 3.8776702244511876
48.50220563858707 4.916128265232321 4.093580334902599
47.88627003760177 6.6539474913006735 4.632085087318317
49.46173088780513 8.352893198452508 6.208185667617125
50.99526429784955 7.77532534068999 7.790628018841445
54.78759871623815 10.958953443737741 4.328646295400787
55.868709227473055 9.33726742682665 3.3090941938761183
53.865045919751715 7.1767253892932965 2.7791240490414784
52.151784606335276 7.407603968659635 1.8391414625271907
38.86844446317934 20.913195175601814 33.81275838320418
41.34637846081092 20.931017387123767 33.87320319872986
43.03521559690325 19.533152087918634 34.71900401939661
40.047201330207265 6.077534300262157 4.463109433107722
39.82706634701542 6.566036164171888 1.9629003858767975
39.0498782198988 5.543196646798955 0.11723590309538641
50.86706250587189 1.6247532524140458 5.099649179766377
51.04371820111086 3.8116576729122604 4.1516639134694
52.29627067003552 4.723117569770539 1.9696571369117641
54.35100907490324 3.923209142082881 0.8237354338184709
57.093636423782634 8.294378892386284 0.36237034806670665
58.106262644065154 7.244986829993078 2.405298435502323
53.65170293159453 19.221941863507883 34.02184226868313
52.274000241155285 17.826846349898386 35.12398566129203
53.71295791307597 17.02663178039862 37.19803406715578
55.865054619252206 15.943418275345634 37.14478748192013
59.57862957952929 22.434500477409056 21.948893723652475
58.86629459365259 23.07298403710638 24.39704643036507
59.5875244799989 20.047064446580045 20.1943781888961
41.540708406097444 9.421622225126253 19.743371667822117
42.50212704492528 11.765145695698573 19.61968205404592
46.38616404174408 6.325361480117579 22.919350456092946
44.5219370727068 6.428292032146998 21.85550301342733
43.45259795669141 8.80522542538308 21.778914999243305
44.06314923641881 10.736424752252145 23.090021593416907
38.761082781315494 21.19741916625718 30.075443661591564
42.15181595026243 19.275031433659098 29.587652401657053
45.49526202427265 11.75900829152572 20.918068521784523
44.218165514055194 9.816226468948928 19.695826255648555
24.590077886077324 3.0052797521924712 28.919021184239828
24.970666100007936 3.104970368844338 31.09998049571817
26.780862543801813 2.57296888417304 32.66699474293317
28.912344012091097 1.5255281151125415 31.964701105288487
27.39913521795663 6.45549834884914 31.890252696115553
25.28887878342846 5.180129259665099 32.884294002476366
24.44136976266162 4.466395487727502 34.93903747138787
25.708396957952996 3.756408870810571 37.22434575417517
24.019223114914453 6.65524434202964 41.77527204054059
22.664507752327836 6.638587779529456 39.88518205599285
21.759846973722766 4.90925470052203 37.99771090267128
22.812086131455352 2.5627152175313994 37.616523441671475
26.063754466785294 9.685348730232203 31.26932732621717
24.77933208404137 8.171024117148969 32.52327356644776
22.20421923335428 8.838407551342833 33.275636514531854
20.717741913433223 10.242785680313922 32.23026182726525
25.05974493559268 8.226628918858063 35.364779869065565
22.981515200272902 6.809749289237517 35.30938919393602
20.85471741147403 6.823642770941699 36.65501469501623
19.800946169882543 8.628710399324865 37.56607403130402
41.84737815543109 0.034621838976936374 39.28784185107593
36.636331611398866 21.090578576924123 34.092508450462546
17.96344294613078 12.761611731575107 41.88654192465938
20.06636540554891 12.217474709896878 40.55000856683781
18.752517065282934 11.806133448225996 37.72838263494729
17.147688001692064 12.528603318671129 37.01293680066621
15.041141922978671 6.64939998024317 35.91747186552137
16.88139892030954 7.163402221689641 35.087944597786304
19.010028911497482 5.920379823240766 35.03379682510901
19.513301958404973 3.534220204592158 36.30686440709409
5.2249928989603145 5.384806481916367 29.307721796891457
7.153323393083046 5.061358282169075 30.88672330980463
8.892213310046397 3.452932930141535 30.873517776670866
8.749494983842213 0.8786226306474968 29.997741922726167
16.025664277942465 5.879777611558724 33.0510193591358
14.014684031333802 7.28650387513412 32.8297798903608
11.360948953655216 6.4683227151158444 33.05737451214559
10.295492003474436 4.605482285946101 33.670128709223484
24.212591966477387 0.047283958648918926 37.334255858113416
26.43630890188414 1.3733715590435145 36.51234517556066
28.502607210364665 1.7645879003759208 38.00701623650549
11.662570810182867 8.797496127314776 34.02317644559379
13.57079827987497 8.997119315202498 34.990557601711046
14.939698988419911 11.024991139864788 36.07904861997456
14.941371005285669 13.295358728663563 35.81700705379306
4.997503185098943 8.231467450621253 31.5300585483359
7.156014052349306 7.755926545625862 31.46193280239362
24.154028037862584 1.3172536662003231 33.776474990041415
22.865275833154246 3.461855088239604 32.628266016813896
20.84396264275724 4.456701106800226 33.49880558937907
36.34634794481689 23.58786958184531 34.961629606995025
37.28467727092407 3.3399794892259336 32.293612252054814
38.320435461785166 1.2705216905909928 30.68084052172741
38.930242478709104 1.2849719441115055 28.409523943926146
37.0143319778244 0.28113022083325395 33.38589555408915
35.153385576406194 1.5978219684516826 32.680255926921646
33.807181188127025 1.5933935931603633 31.078549697066663
40.957541659463175 0.9493849679404563 36.93775290793679
40.29475923354991 0.24295904542284566 33.862587794012
10.665685998912606 8.164729561349997 36.34948350322315
9.63517439984401 5.925724631002601 36.1327006722614
6.772589428518409 6.1089062584967095 34.998455446340415
5.992987014757515 8.47850667336613 34.24672260003265
33.57178588605028 21.851044726148892 33.36788080161127
16.115722076232885 10.956904282573285 31.839772863483276
16.473713316145986 9.856017796743936 34.10861748857593
18.10851536662522 10.230201543004453 35.81489665653605
20.84451367662917 10.978765056593314 35.15064115857872
21.772738415721122 5.163405361211582 30.00697276548154
21.273791155347197 6.509247868593792 31.934356864763085
19.226013618210732 7.64960867149816 32.81963540506706
16.814564459242142 8.253650325405092 31.89902143867996
37.28907722013173 0.03261809001380943 37.41530315011523
25.967325079094305 19.67573313924535 53.76142880950862
24.027811293123026 19.313790635867868 53.3635587869614
33.809810279682935 0.80936753419554 19.33436902911947
33.07488943589357 3.1574888253541333 19.560988120249267
30.691469071842825 4.120769636195275 19.039373396867916
28.893482851592317 3.173241825538382 17.061837361197753
13.57556503069005 1.2379481647658532 52.492857116585625
15.74629740022206 2.774342387796066 52.9726042932075
17.369460580776 1.1363861983315027 54.66165917319716
18.23979142300727 0.2908047012238062 61.41510652604416
34.00012542524683 6.5715777094315575 21.68007109295287
35.78424240049165 5.070018240335972 20.19375687906817
37.66446640935169 4.79468535869098 20.28033023108083
28.66331179892842 14.951044092756751 56.9786346299395
29.400787311831404 16.22085729928386 54.83341679986925
31.34918104944483 17.304382903412773 54.09889072777677
30.09525571387088 14.904661196611622 51.42617035012882
29.954397774762533 17.451079952646758 51.64496539064996
28.067551964072695 19.22689816912367 51.608550559479205
25.481984486356307 18.986827063413532 51.05160037831866
26.094611464345576 23.131250286713744 44.79468415859247
25.276134443311047 23.545071295135806 47.11334825113773
26.369945814024423 22.716312941857645 49.55554794839466
28.336265533461923 21.53401277385529 50.11185165163773
15.588340437574029 0.24699728675922358 62.04931582679135
17.968015358287836 21.375088636985215 54.4207580891652
16.56757197058325 22.155335086762246 52.767785431566644
15.743393052683077 21.130497635809636 50.65797538692459
17.224721299316762 19.780785758103022 49.00975492474687
21.834414853839718 1.0468902204271973 57.52473947597809
20.235907089810933 2.8855746846996135 56.85519178450119
24.398785927413943 9.124933431678315 15.436422413719601
24.925824689746822 7.977239729970673 17.1907443531236
23.73901090823685 8.427942791634402 19.475837351638834
22.00694305978774 9.800379688254228 20.104878803646503
9.944474345007936 26.713064121639306 50.70397658273181
24.50879232493889 1.8208047897787287 56.793418630640595
25.12833768826144 1.3320364411302517 54.68231890476195
27.871219577607818 0.30188550831663147 54.466420752454
29.550095375693367 0.7400858142537018 55.6081140165057
15.607512604188042 20.876765569222094 47.16378405183719
15.273622110739023 23.22376630988881 49.01787071985799
13.450186829594848 23.393456722400565 50.263903908306624
11.22055659101089 24.28438603926109 49.52564481297321
32.59000972102121 7.324457571221291 19.65136924426119
30.740655678233274 6.411705958357485 18.01737486591906
28.011210041116396 6.653504009136796 18.782306890552654
26.845435916799236 8.337370071409675 20.038991734134967
18.526432198399107 4.765987583767127 24.555039668577965
23.197119562311556 6.5105643929405135 21.50711984174914
23.02424266648482 24.952515325379586 47.97863460659083
21.727257110445084 23.937565044229018 49.3604673478945
19.16631795392588 22.852643594935184 49.07215080929475
17.560002491491552 23.13124845967946 47.48115073367531
8.15831442343871 24.954643345012784 52.22376428165256
10.50947582817995 24.6460745268146 53.92889586316124
34.122774937547454 4.3040312290390705 55.315712710869136
35.22746834469617 2.416833484747664 54.68161862235911
35.34217809201869 4.923739516727843 13.08240917343336
35.77965322774682 3.172329395812294 14.574348703134772
34.28044527877759 3.4577583737110573 16.86534907590987
33.64513211015681 5.364282246579373 17.98810374104514
29.00112414061372 1.3842341214527614 52.244861975441076
34.6700313485665 0.1600716260245771 51.96926487224511
36.478920345867095 2.8774906874723607 18.57558827806387
19.45184325507778 24.743069231198437 51.54722174126824
18.358786974625367 26.188006972994838 49.69360794820144
18.18176591900704 8.450454943225825 20.750604372415733
36.15970879727756 19.28146682642781 52.31951336458522
37.61856065739143 0.3037979706111124 54.7635990637005
36.97980020954445 0.4249205197824672 57.09989808388591
38.31421473981881 1.3343218242203405 59.213101743130586
40.81326415913873 2.0269665259571994 59.36257003279497
31.44523939131846 6.16567059846538 13.908844080167551
30.039621739208084 5.273908810097372 15.342778125649033
27.18971919773945 5.287054811577466 15.53790944183115
25.581086552832538 6.281778009603453 14.295070705732641
9.03306957384116 22.678152239265177 50.098820273320115
6.947752787328286 22.88653881035701 51.27877061842305
11.476552205487033 6.6974558955999335 57.08042466143225
11.774649505502875 5.973286174640941 54.46555777651721
13.366010262177044 4.141262139121352 54.06331476447792
15.645128116829305 3.467933768242734 55.5364039009601
32.15680805115508 18.345050083599062 50.40666751645606
33.60669940198289 17.730375867973255 51.86391461284862
34.17331535151264 15.253438872618112 53.03665455650875
34.35027348667136 13.24564360929548 52.1096658281175
23.34036729064146 24.755708426720258 51.38735919426686
23.621303535160934 23.045937003795004 52.7035700753821
34.26858649164746 20.333829004819403 50.47672873893195
34.44102387509347 21.328188496593 52.48943713268067
30.078515917284758 20.43070691590721 53.67434151538838
23.221828647399708 21.345342532711673 46.623082389639215
23.77578828815637 21.98187171217065 48.9476892340366
23.651263140434008 20.82064987255321 51.11269337994567
21.663487476750053 21.135036479484356 51.96906711093403
15.432314878696802 8.565484005732767 15.775404137690066
18.781038869449784 2.286558989378811 59.817118259665435
17.875825470935258 1.8388417348411872 57.92975444749279
15.10018178380497 1.7597640544490134 57.656506921599224
13.413779815116722 2.6438549621011957 59.06406434881835
8.418957083746673 21.608067092379567 53.53660679962573
10.486463378584078 22.567743932960298 52.53545358325862
12.846031917250695 21.570032203835684 52.130618082636126
13.772313297274971 19.428361652436266 51.792780686012364
10.253468308557558 4.079060903650762 55.801317803256495
11.247079204422905 4.026459754167852 57.93899077549276
10.763511234075436 2.1520884553604263 52.00370026480104
29.344677818774805 1.8841094277025632 21.49616015862098
29.18434234497834 4.520528590296478 21.138644313845653
26.82250746374919 5.972118284264117 21.323938552672303
25.198371010943923 5.957714822050025 23.019625459635012
36.54084899157299 1.6586287081307152 23.869206370040974
36.07367322883155 2.91632571213152 22.257812581062854
33.44297282763775 3.7876540272731707 22.059774320495407
31.53801061257734 2.3962914367201864 23.063342689906005
15.472414754486602 7.143968672785261 20.44152240451678
14.8771858410497 8.498010846918772 18.410975606936343
18.51763211767806 9.72713216373405 13.363478547119866
18.43088897119402 10.474743560015815 15.624768079651439
19.30886067411851 9.610452637192052 18.022502910660236
19.81850376173221 7.611294090646882 18.783681783745013
22.131225177505968 6.173241562044793 15.603861176602592
22.625418566749886 5.7642074385678645 18.011977822988484
24.826524840488666 4.735346464602294 19.204431414417332
26.46261451555819 3.399144940451211 18.46803311972524
20.531117268921246 11.794221294395307 16.934353400772473
12.830741201994295 1.0686605961602549 55.46137293454484
10.952498960018204 1.8807650728300034 54.775630549110204
12.004264202611933 26.2775558372998 52.823075556876745
13.270247705066355 26.042195848453545 51.050722327858274
15.965661778324977 24.870268277712384 51.234300068805354
17.321307785665418 24.81393257102487 53.2479060716742
5.684612302252338 2.2251746706232804 18.940719097521054
4.812602021489753 3.807999466753892 17.31987975682121
7.97790166890402 10.602105199340835 20.201367139938057
6.824719550294873 7.713412183572482 20.005217332230295
4.39213688482163 7.7811041329684825 19.959175105635502
15.870491203743352 12.244891707094705 20.355772367129347
16.650503081176716 10.531206684946932 19.734293342910114
3.117779193923567 7.753505232264599 17.227926749351845
5.723599448387907 7.754638013241273 17.506765560017417
7.555398697112753 6.804405196504786 16.25047300937622
12.661842766187844 9.733208340574619 17.862970188043604
10.531385518868962 9.909346166491204 19.339086948336355
9.04101953683122 8.631402219735547 17.69967466310607
11.108609143991641 7.888854455444236 16.49417630376708
18.188499153990502 12.285385647056087 18.29333098819882
6.390410300087953 3.2809686566074707 22.434651065692233
5.956296206227738 4.224392878276138 20.978689790175487
7.118954232833575 5.091724366877965 18.60971143678659
9.046394197120607 5.534269252495477 18.329258383724568
56.236520679143844 93.19530674711108 2.377530601118256
53.63518417155931 92.97946713784825 3.745232857539586
51.79702395169 93.42882634181322 3.2910726653352516
27.144174828052904 79.46600760318574 6.643953419739149
57.419647385814066 95.72556095000391 2.9937190662581155
44.85810626150504 91.38853814439027 4.090935678749009
46.08265763050436 93.52843113219139 4.079559422648652
48.39295808487656 94.38280284245111 4.972092288497246
50.12470986165026 93.11567081599046 6.419861327547997
52.28640618549951 95.7943751489286 5.804365141178562
59.75092471739452 94.75395399693708 6.457752939429968
57.514030640522236 95.67781421191142 5.958191222551708
49.55537131615888 94.9568116118997 8.574976168688055
44.11142697763236 95.14985577952733 5.619154886753998
41.96880915234192 94.80296898871032 4.71489477448303
56.838697045762714 92.34703904001702 5.792498031427038
55.497788723727204 94.07525579081252 6.115537158244125
53.59177473213 94.6994250069122 7.914857155291573
51.61832322975028 93.10833833442742 8.522385739526026
38.914493730431786 95.90522920774589 11.068802740332494
38.5940197449433 95.21173081645534 6.533051576863977
41.51913762416381 90.59423891068559 5.432530656944383
42.91362981095731 92.66256051875413 5.857323721476696
42.41798556459805 94.59346961425905 7.80794635926697
41.44792908406721 94.24987959348746 9.855413587255411
59.874682945666684 92.46179407579743 5.209817845460372
56.1182246333532 95.03383229544337 0.4428948292295518
30.899763185372404 78.05419543661833 2.5664613424027114
46.80616651911973 92.74661819092908 1.574767856874832
49.096165016900706 93.54034552229628 2.118130581760304
50.032409831492195 95.82189593917903 1.3908238748835142
11.799407523993493 87.31922242082666 3.101685386924427
12.87065321089636 85.87698047323528 4.263852159568366
11.76811806492236 85.7201968575345 6.886687575182723
10.443974053789129 87.41811258996171 7.982534487800638
23.61608894701524 77.06445137034713 2.6993836851472643
23.072302890188855 78.98194678193587 4.587464450782228
21.78263926908859 81.12187798547616 4.701304112957696
19.84149313222649 81.20034783490895 4.230165475863564
25.260883549762898 80.96580560268944 7.2516816780988
23.332676663095345 82.23548484528618 6.422451824459391
22.28407830087017 84.51707276292298 7.475785179576586
12.303873330187974 84.87206466506589 1.5529855019614114
14.914715068352061 84.83868991235398 2.3296390252388783
17.151343232903034 84.58468952028774 1.0338483890463535
21.40106733971071 80.83579833238268 9.213741109737068
20.164113986566047 82.43248212392518 8.060405139664294
18.149393639436635 83.8076907883129 8.47313898698307
15.888774099468137 83.26096357216593 9.314586206946373
9.404800448702279 89.2359042834339 4.024031243632991
9.187906356951775 87.42854397936073 2.33494835380629
6.762075137332384 86.49904701344869 1.3765148739984159
4.749236949350098 87.79771724922573 1.5645427428045096
20.099956112273006 84.28383552501745 4.729170724115879
18.43357402027177 84.25606740655338 3.4465447702642513
15.928570778018813 83.58825643188693 4.562865700731503
14.905598272405527 84.20804641541821 6.39742116709174
9.897954266909906 85.40582377194818 11.037372299243431
10.670101754176393 87.49560994977776 10.594844386051106
13.47051721549324 87.77333409366979 9.576192068743474
14.811495071604986 86.01624603603481 9.692231715327866
0.6838382543479998 84.25904324861774 1.2150559696935999
3.020426222550524 84.43699032561976 2.451185375921566
5.413148827906008 84.01537965357277 1.9186450121689118
25.109582404129064 80.6999157762015 3.915077531773612
25.894477842812602 78.32749656418152 3.9019221520998153
15.496816747710525 79.0797432374111 3.857256610697327
15.061096858732489 81.25398037044008 5.1467001397977175
13.018004739670337 82.9640073000023 5.157067684253701
11.191273441335005 83.52402319245691 3.50539596397249
14.177019353018096 81.51462822792102 7.899255869457523
12.978563112050116 83.39463509925318 8.25078975511769
10.516802295328564 84.25656693420402 8.5709457109754
8.370289297241563 83.04235743185113 7.780832915657719
7.690872637482324 88.44126284122527 7.555112162735974
6.816664047694769 87.84130082059505 5.317513551273175
4.0387516421073455 87.22221252856195 5.412689930629289
2.4990878539124677 87.5432919832526 6.9759559425828455
1.8423994828756076 86.78356017909486 2.817270369897976
3.4516968728681814 83.55344000054258 4.722630222663174
4.862548168748183 83.97606462725984 6.816387473561549
7.238731874430077 85.28216942072606 5.999217991154647
8.673030064039285 84.28333132710979 4.701687224061372
21.72282703218156 78.83326489511077 7.362401673143636
19.554220154298214 80.05604107410396 6.8065412364591324
17.039818918000858 79.03496095860095 6.436983273356047
7.7465719288072545 88.41343489245173 10.770665117234834
7.7800711125288515 86.29135052299362 9.204719424908069
6.39026598602656 84.51393632213183 8.862013996101222
4.428421032088405 83.59520414868723 9.655597471373465
0.45324027292758595 86.02152209288695 5.4381220531030365
2.087855233261318 84.61189773796508 6.942183081787006
0.8368654906960828 82.62612247742204 22.375571918028356
3.086472708990372 88.82022588897956 3.485386268358942
4.953129726271037 26.846084849064148 55.10017123096699
0.977749732827193 86.29270197799362 58.880081150701805
0.3295127318522229 67.98618679777003 48.12213824478688
4.463124040212121 46.143971365519164 54.396549332833665
2.6305425203525123 47.76060492812516 53.18935554299556
2.3365774387566165 50.15338882321456 53.523944078275115
0.14972661890857558 51.297431415781205 52.823195153576634
1.6699990424188806 29.837276915429104 53.29988795452838
3.14045623481442 42.88177952977662 49.18870118597484
1.7350508596938408 44.75150679606866 49.55352360863487
0.5315912425690587 32.40928962206239 52.779486074492674
3.562976330837678 47.96002617743319 50.75303179588268
1.4173812414436051 47.70150019739885 50.313462308779826
0.3391356525082752 47.74336104633508 47.54936022034103
4.182835453169001 43.346491688272735 51.85388314699769
1.830786287587943 44.78439593301949 52.38836310398848
0.019970235356685125 46.20779912721878 55.56633160600186
41.92905024654862 32.862610176332 55.176121986059485
58.91743358000671 7.226271649941445 59.03959831784229
53.82796457040623 37.81691010599009 56.19282522918177
54.783291421950054 37.26175121391199 54.024267473971285
53.38862001673219 6.331104144619933 58.48018914365046
57.91088543903463 33.6285060827209 52.74898480325932
56.498020524973725 35.04323920792834 53.12444268939794
55.207453569907635 35.00421289140092 54.9930289934854
53.086289022238425 33.628962258509276 55.503297467344574
54.05819214164592 7.383064460232877 61.59774010073765
55.42114630508591 7.147938844098662 60.013322762129064
56.92589109362007 4.90478145345235 59.22819806268954
59.53854488195817 32.99572539416425 59.35842285072182
56.39317238632324 39.06635123318104 56.75248140541494
58.20802398237678 37.49464103429814 58.419032254320534
59.16769100040115 38.14987929815751 60.483928302180075
47.729166330876716 37.594439667305295 58.87923551455771
49.10001313726337 36.30587678949131 57.38692243947788
52.023509721747686 35.616669167329334 57.84062182767874
53.330012196191014 36.74835091440077 59.63947273053165
46.755661476110944 10.06711773539164 61.854491854020345
47.555028989842256 8.64261016698313 60.11609026260596
49.67824426913035 7.209985706074816 60.03320067271161
50.97661817793539 6.168214610840625 61.46867332326106
46.808209894696034 12.907948775071155 61.27467567478568
49.11532710739521 12.249067119939372 60.82857639735799
51.07858051275767 13.617447083873499 60.22943998318133
42.36827278178401 35.042300420763446 53.72870290851522
48.502990215628685 14.01024991763664 57.369291661049665
48.26188527838277 11.886053366877205 58.53074588973833
49.55349940011589 9.855604581100815 58.495199755420174
57.16202055539115 11.364364401569246 61.051263954226485
56.26692792204262 9.872019136200148 59.63815096867014
53.308128918081195 9.924308554469865 58.976585946551985
51.63494304929212 10.781272171767842 60.000573682833426
59.03499444535142 35.44566197694731 49.73943782553047
60.0326821715003 35.96609872010818 51.87808565787099
45.95409643831852 14.649195747125537 57.45815460915311
44.796759006306004 16.77077559447653 58.415017632204
58.650482500115736 9.981375183695159 56.289179758531326
58.409970946903 11.611542392135014 58.31857417838064
57.73522981321103 13.641370492793504 58.60813803854874
48.32834178303316 32.959199430882556 52.76444611347455
50.526705726483044 33.9857514072245 53.110985506442546
50.83096869914513 34.39356457839476 55.92538111839865
49.635202892025276 33.41950351006433 57.69188147837881
45.788716037189225 11.346138209471354 57.67465571419808
46.018859405851316 36.35537358904505 56.96877902390999
55.10658555640761 32.60755232044907 57.184689134361406
54.490649955422306 34.34537154651742 57.723193886777125
56.06611080562567 36.044317253669256 59.29929446707593
57.59964421567009 35.46674939590674 60.88173681830025
58.75616452415581 35.099028023876386 54.93025026198599
46.6515812480278 33.7689583554789 57.55421823256653
46.431446264835955 34.25746021938864 55.0540091853356
45.65425813771934 33.234620702015704 53.20834470255419
43.93865514747478 31.196340433191285 52.59166436653303
57.47144242369243 29.31617730763079 58.19075797922518
57.6480981189314 31.503081728129004 57.2427727129282
58.900650587856056 32.41454162498729 55.06076593637057
17.152548418328237 22.215759416347193 56.92446148335285
15.522993258467995 23.225309617686573 55.44969802227183
13.12285820973581 23.071700315227428 54.91309515516964
11.266080879786877 21.813634927400052 56.643638338302374
26.633931541541838 16.610268528438148 56.98234543083917
27.60795060432245 18.468688068428325 55.89123767277651
33.66506271569971 18.235027851860213 55.788369824774996
33.51073023212414 24.85760282468933 54.118954026377374
34.39458821489334 22.851698181279367 55.212528016534186
36.806008298689 22.10771214058314 55.67614673789554
38.91948968699904 23.06302440325153 55.93533512509276
24.111992747878357 22.916271544269044 56.38108392370359
22.296794057520437 22.36778408388989 55.01323736724281
19.722786986763346 23.34009617316303 54.97232987556622
18.38573161691964 24.720006453068645 56.17806047036158
39.328660615826905 22.795424052045522 60.1163897579556
41.506111558882154 23.388801073751367 58.31396771008489
43.2154187928885 18.67672472028428 58.16458409481541
33.11959762351687 22.590487740546944 57.6141463998409
31.66749743987346 20.786424174978734 56.77148029738888
29.158256319471263 20.507243534743548 56.550132075344045
27.23464528402109 21.95615147484357 56.85010766833313
38.79555340597683 19.641156728538448 57.874763713385256
37.546123873072595 21.512172558009052 58.345608412368364
34.84110970386058 21.675499074748814 59.22210143718347
33.18537479540491 20.100271246407893 58.99099846878835
22.144470796237005 27.13955708955912 54.31243456162118
21.203946631951094 25.022458958317085 53.031480901705606
37.13957876137 19.808247448647062 54.486731447995055
39.68737509257413 20.27556629706366 55.24882335307477
41.869932954134136 19.878046274732384 53.89956231156617
25.690362046454723 22.095943161056056 54.31467369548732
28.168868551251432 22.323501986571642 54.109522243312185
32.00593445536533 21.14423559688937 54.236556859308216
55.4806006009344 79.75059670550047 47.85786917723074
56.86202660348616 78.21910132312276 48.6764258902322
59.42879354512009 77.41601330157616 48.61845026672826
59.823556349450186 92.15495663915311 27.938044269583674
58.69153992126042 73.71925914699374 49.28830322190631
43.02313517936632 55.68607703671325 48.15076113478215
44.09792433759015 55.04433658436815 50.05379696688803
46.38439361053444 56.29585750275192 50.4820986885963
47.864214699637756 57.4512661312877 48.49943354279816
30.74452701596789 87.5370342221753 28.050189731496726
51.746934020241355 43.15936218858986 39.74153424564952
49.64442901931002 66.23356809810375 32.561144487128104
51.31867513350837 64.72169676215711 32.1558580975821
50.16549301489922 61.83300374638874 31.95970828987434
47.73291034942598 61.900695695784734 31.913666063279532
51.462918793017394 62.04137106007422 55.38021837945385
50.51384481698692 60.154360781655576 54.06234054501215
52.00633628635989 58.19948141939605 52.65436168022376
54.39477285612831 57.98035574981118 52.80557050207927
36.29756097322046 65.3550170715798 48.46375120164683
38.12170902684072 63.451075546328376 48.82876370088008
38.98604143795004 61.75635248232114 46.77224655386839
38.23589415901039 61.827007938242026 44.24326814331922
42.82608293090979 58.09045272110498 53.10454955409027
44.75036572331783 57.25199706088589 53.73519111807053
45.27842925821153 54.94386979374617 54.03805860511682
43.750212715000245 52.963532526713756 54.41837823772847
37.91285065059971 79.06235409529896 46.68377211172013
39.94211213354922 79.7536405304762 47.775378899183174
42.19672497554453 78.72389847723373 48.784004037889204
43.101607899182255 76.50806164911295 48.29255102042578
38.30737499020496 82.39937727215751 60.580441479083326
39.12145643008726 84.24317486435658 61.39691711998563
51.131425187160815 40.74156225274171 54.72849964529187
52.839155919568285 40.279334509330944 56.10778235647311
42.6434413398255 92.49133415183339 29.066892974619012
43.598768191369324 91.93617525975529 26.898335219408523
44.539778474902924 78.1486512641725 46.675676685811155
46.52372672070346 79.32394175916471 47.16626044672283
49.1339701757332 78.25331674177026 47.903447450416806
50.102011348842936 76.11705923594907 47.14000729119897
35.483449848253585 80.81402901966536 44.267402111688526
36.99839327284386 82.01519976617797 45.45959587292857
36.881115297643895 84.22469025509432 46.66196674060315
35.022172832497255 85.90726386761106 47.1329439214753
53.89455319920733 54.639819084617905 46.88454458347098
55.23340911699746 55.82514981501292 47.78857426396141
54.84995264306298 56.481314420491984 50.235913221734286
53.31432209769044 55.2196968872954 52.10445688940013
42.20409678615146 61.005528190463224 31.354256889087704
46.7263622084539 88.30293012856418 25.62305254869656
45.313497294392995 89.71766325377163 25.998510434835183
44.022930339326905 89.6786369372442 27.867096738922644
41.901765791657695 88.30338630435257 28.377365212781815
36.897524141764286 77.6337972191847 59.62957594566131
42.87366891106519 62.05748850607617 34.4718078461749
44.23662307450518 61.82236288994196 32.8873905075663
45.74136786303934 59.57920549929564 32.10226580812679
51.83380627356673 85.43542164484069 35.611568995065156
51.631037575855494 84.26346534753458 33.41572797781525
49.97198020432677 85.79254170143425 31.677159384386304
48.35402165137744 87.67014944000755 32.23249059615907
55.28446731638182 89.54730581165263 32.562110675584044
53.230550318076375 88.78713586073903 30.978126981960347
51.063586959701944 89.7018456352107 31.0668096789345
49.348422427372 90.46327486700413 32.84748422646099
55.246742033770495 76.06540507737846 50.47726276021287
55.31591375307584 41.02115918487264 57.13434894445921
45.208649155742506 93.74077527902433 29.62654915085218
47.02350075179604 92.16906508014144 31.29309999975777
47.98316776982042 92.8243033440008 33.35799604761732
36.54464310029598 92.26886371314859 31.753303259994954
37.91548990668264 90.9803008353346 30.260990184915123
40.838986491166956 90.29109321317263 30.714689573115976
42.145488965610284 91.42277496024406 32.51354047596889
46.217752150405964 41.116528984037394 56.46872789651465
47.90198453396518 39.81543473832214 57.013999237620915
50.402264487915254 39.965913149270875 57.799443362010344
51.70135359513997 42.38059276717721 58.42923654280462
59.849083847299 70.57403663261175 28.552046384980184
59.66964729514839 68.33104692112421 27.918587662684384
57.703708099793616 66.6401572861125 27.500149790661144
55.23503696644597 66.95186550540176 28.017438284477656
39.899132137708754 39.54859427518273 50.80810198523663
40.592796647343 38.56408779277857 52.43664125771334
51.278985798520665 76.09921401920725 49.97378409276969
51.32917095617043 61.53451104071732 34.56177440151936
58.55362643113207 57.38621759189509 49.51768070899294
56.35213400047928 59.24475739084236 49.94453119455248
35.571138245530214 64.74154178123493 34.72855959945758
36.370505759261526 63.31703421282642 32.9901580080432
38.493721038549616 61.884409751918106 32.90726841814885
39.79209494735466 60.84263865668392 34.3427410686983
59.855594760297166 94.84340832149508 29.68359646826028
58.87808012936358 91.10294986212077 30.70509001573786
56.75892650754408 90.91188187663671 31.21620036129978
41.55988300127498 84.7706254353684 61.38083028509779
41.451902128526534 86.13401805814468 59.33581372233169
42.880023585015614 81.12544011654883 47.395907472964375
43.504193092681525 80.32145072418702 45.22880436968466
58.01366730337531 88.32157862013648 32.22074618351356
55.74088285233761 87.32756290937363 31.05483743376524
45.62824738664789 39.773198471310536 53.19915722533881
44.13759511005505 38.040824419073985 52.44861829810071
42.57885912984624 37.89655470106543 50.24325572548844
42.64184071416657 39.31005858944989 48.20930750413632
41.668059601118564 84.73782922836476 44.355702051806
41.505586777768485 83.01033841645902 45.78012923140712
40.700692513993275 80.59171567148496 45.44916695733368
38.36346556345491 79.99640268065974 44.25163209214011
53.662386950682645 60.458554740246065 32.90817553072389
39.560456571858886 39.406768560879364 47.871958479213475
48.7594811121964 81.30109195426137 47.835304515742536
41.932663386370216 56.28183007206349 51.28052391199818
40.59475857331707 57.85592739125236 51.41201905884508
38.907777404224916 58.499151600929444 49.12618778226812
38.918629192197834 56.97062068208444 47.10910559910981
34.428981966676325 69.80496626292269 35.119717549882836
35.623686664115304 67.58237282091444 34.14874342022292
37.93080387681448 66.92349116578266 33.70264414279523
39.89405728217694 68.2918711297168 33.10350772861857
59.21126466834771 66.36448326991096 32.310263324773395
59.991276545781055 64.65079824776319 31.688784300554165
41.6962468722571 61.97108363008188 46.9839608895343
41.88923417515198 60.78436308512845 48.68811558922386
40.66658640579046 61.01245226090021 50.80405187042999
39.13785053858301 63.197548199370495 51.53727682393468
35.58639483234453 81.76463486414029 48.56441235955601
35.34237979772352 80.257062325586 46.835640635583005
47.63933693288311 54.77470888229871 55.15106037694384
47.730071530497064 56.88744252789213 53.50282335195648
48.66762468034161 57.367689731213765 51.50156644619946
51.097277519645935 56.275665194434175 50.86240808697751
41.84687659975891 35.847848813025934 48.606421576900715
40.11834532185934 34.437923893041685 49.80546187115829
40.5663254664475 34.68546576214027 52.58261406191168
31.183749551203277 89.71672446660673 26.60277065395246
37.318466985047955 68.68467396347994 30.243359406486903
37.07736204780204 66.5604774127205 31.404813635175568
38.36897616953516 64.5300286269441 31.369267500857415
40.4626060624987 80.53762863535927 60.48526853648578
43.058879907796296 81.0658404895254 60.989374233139856
45.243371080658015 79.58872378500783 60.81184785610065
45.278457703491156 77.12426786718807 60.11178217444418
42.8848527186958 78.19806122061323 51.61083714988078
46.66904424736 79.48849284928995 50.25944760366245
47.81888053581197 77.88290243326205 50.24785708871875
45.97749732481042 66.03878844741254 33.92533169966372
45.08240469146189 64.54644318204343 32.512218714107384
42.123605687500465 64.59873260031316 31.850653691989226
40.45041981871139 65.45569621761113 32.874641428270664
55.17808679076149 86.49712515426933 27.137722472147573
53.374332791745985 86.96638996500116 27.153560967079144
52.06400672580792 86.93064842666976 29.304648250662446
52.769123660416966 85.74641528918241 31.60422810674864
49.02213940812075 81.76077642567219 60.98041921635277
43.82506119130468 83.71481119364041 60.49930479529159
47.85047121477069 90.1200860227906 22.613505570967714
48.84815894091957 90.64052276595147 24.75215340330823
50.852447909276435 89.01035121669113 25.904437145591356
51.44685477751203 86.89052512110321 24.690284597628267
45.88737645206254 58.869531855493 46.092646027030895
43.524305010425785 58.255496052651694 47.431041080349665
41.08281776074452 58.58812603261125 46.84589249113994
39.90780685997025 59.22249116344912 44.82833374058356
34.769573207737785 69.32361979296883 30.332222354590353
33.612235775725274 71.44519964031983 31.28908537764124
47.465959269535006 64.65579922953845 29.16324750396857
47.225447716322265 66.2859664379783 31.19264192381788
46.5507065826303 68.3157945386368 31.48220578398598
47.974688166994824 79.566142669643 59.85857099454875
36.26633953597066 59.69604232793016 45.233784210935454
35.95526082068717 60.239442590912624 43.29917460130066
37.14381855245243 87.63362347672584 25.638513858911786
39.342182495902314 88.6601754530678 25.985053251879787
39.6464454685644 89.06798862423805 28.799448863835885
38.450679661444546 88.09392755590763 30.56594922381605
47.28239690195038 35.25564085468372 50.00355588732328
46.35495717054718 36.29656089734592 51.86928036413345
47.22479047300956 37.67296254770659 53.67436648924393
49.38980439794146 38.0899135277076 54.677944122436664
34.604192806608495 66.02056225531464 30.548723459635323
49.45148721070896 68.59888803817421 31.531083843771178
50.8370400736579 68.87524707001788 29.542202524715513
52.88700335839375 67.29330941479002 29.643051623281377
54.4155989859041 66.57299461617745 31.020664296637985
52.51027377495346 56.64228508541358 47.32038723312577
50.54290242679227 57.56433028420047 48.54901209174119
51.548213695135956 59.45272353245054 50.25568971885737
53.08971571839304 61.27621811866928 49.94783532239968
40.859521788392236 85.70813991057543 47.75915269889202
38.92061144024402 86.21177378642926 46.07262605864498
40.896364189938865 37.80947421558248 55.60747114421517
42.47235869014609 37.815131047648784 54.412092947630605
45.03528337411754 36.7869480639251 55.118389310090905
34.834336175270586 91.02979763488834 29.84284676934723
43.92206232582687 87.28197636629235 30.058756879798644
43.306126724841576 89.01979559236071 30.597261632214362
44.88158757504494 90.71874129951254 32.17336221251317
46.41512098508935 90.14117344175003 33.755804563737485
56.002616230792206 63.85279990339088 29.81746114568764
53.8721589834733 64.02893772930747 31.293577905980403
51.1612002445467 47.68211200216722 38.94797368158874
50.295608707764835 64.24574760592235 29.086740961417703
52.38179300143556 62.75099378255181 29.654165620750117
52.48116082840176 77.27621600330923 45.78627630792211
54.135538631342136 77.23739256230384 47.44130750618933
56.07601361541196 75.25120052260921 47.984791381317244
57.79075095155829 75.62042721042897 45.50332483825585
58.31241260510553 77.37255802930741 43.18892259763838
59.99991005644354 77.10007934786061 44.56989696207439
50.20745540347796 93.32480154479778 30.293822840296826
51.28856591471286 91.70311552788668 29.27427073877217
49.284902606991515 89.54257349035333 28.744300593937528
47.57164129357508 89.77345206971968 27.80431800742323
35.46705801744707 88.4433824013222 30.42828597800377
35.24692303425522 88.93188426523193 27.92807693077284
34.46973490713861 87.909044747859 26.08241244799143
32.754131916894046 85.87076447903458 25.465732111970272
46.2869191931117 83.99060135347409 31.064825724662423
46.463574888350664 86.1775057739723 30.11684045836544
47.716127357275326 87.08896567083058 27.93483368180781
49.770865762143046 86.28905724314292 26.788911978714513
52.51349311102244 90.66022699344633 26.327546892962747
53.526119331304955 89.61083493105312 28.37047498039837
55.91309150418142 89.22745608540411 29.118898864167367
57.9203000586814 89.56412804889055 28.13372641782264
48.7670398734962 60.29306177702845 51.7897429834418
48.060675061289245 60.68111436294903 49.509582398958834
45.28444302682409 60.14743404110317 48.69365498404644
43.69671912735312 59.23943296414032 50.04856425925763
7.717797331033467 75.39363212338833 61.977323966381206
5.332075732785433 72.24031281063063 60.697273699077584
6.875160964040875 69.74042120231553 60.93355701867189
57.024384549097554 86.98845950022557 46.05637915478966
11.08226917722163 70.7207994844997 59.526140476961324
9.369264545806441 70.09563139420793 61.4278085601158
58.95371772727349 83.0403716656602 48.73602068358026
55.362162185881154 82.07128999439503 61.45599513023515
58.61439557534337 77.34335787270507 60.97236167750203
54.56133005561523 78.40397760207735 61.48013577061725
58.217959305654055 62.617602409735035 30.365466564580387
57.99754827180417 70.63947004438296 60.634520272415955
60.16240583761242 76.00406399603763 61.11475977809663
36.96056509333725 91.7874703261863 45.708548212718156
37.92198373216508 94.13099379675862 45.58485859894196
41.80602072898389 88.69120958117762 48.88452700098899
39.941793759946606 88.79414013320704 47.82067955832338
38.87245464393121 91.17107352644312 47.74409154413934
39.48300592365861 93.10227285331219 49.055198138312946
40.915118711512456 94.12485639258576 46.88324506668058
39.638022201294994 92.18207457000896 45.661002800544594
20.009934573317132 85.3711278532525 54.88419772913587
20.390522787247743 85.47081846990437 57.06515704061422
22.200719231041614 84.93881698523307 58.632171287829216
24.3322006993309 83.89137621617257 57.92987765018452
22.818991905196434 88.82134644990919 57.8554292410116
20.708735470668266 87.54597736072513 58.84947054737241
19.861226449901427 86.83224358878753 60.90421401628391
32.70080447021804 65.18902882735114 59.766702311860705
33.22784323255092 64.0413351256435 61.521024251264706
21.483611154025102 92.05119683129223 57.23450387111321
20.199188771281182 90.53687221820901 58.488450111343816
17.624075920594084 91.20425565240286 59.24081305942788
16.137598600673027 92.60863378137395 58.19543837216129
20.47960162283248 90.5924770199181 61.329956413961604
18.40137188751271 89.17559739029755 61.27456573883205
10.460998610218477 89.01524808130321 61.882648410417424
12.301255607549344 89.52925032274968 61.05312114268234
14.429885598737288 88.28622792430082 60.998973370005054
0.6448495862001189 87.75065458297641 55.2728983417875
2.5731800803228517 87.4272063832291 56.85189985470067
4.312069997286203 85.81878103120157 56.838694321566905
4.169351671082021 83.24447073170754 55.9629184676222
11.445520965182272 88.24562571261876 59.01619590403185
9.434540718573606 89.65235197619415 58.79495643525685
6.780805640895022 88.83417081617588 59.02255105704163
5.715348690714242 86.97133038700613 59.635305254119515
7.082427497422673 91.16334422837483 59.98835299048982
8.990654967114773 91.36296741626253 60.955734146607085
10.359555675659715 93.39083924092483 62.0442251648706
10.361227692525473 95.6612068297236 61.7821835986891
0.41735987233874955 90.59731555168129 57.49523509323195
2.5758707395891114 90.1217746466859 57.42710934728966
18.799385943330144 81.73042689038357 60.68546810837594
19.573884725102396 83.68310176726037 59.74165153493745
18.285132520394047 85.82770318929964 58.593442561709935
16.263819329997045 86.82254920786026 59.46398213427512
32.70453395816387 85.70582759028596 58.25878879695086
33.740292149024974 83.63636979165103 56.64601706662345
34.35009916594891 83.65082004517156 54.3747004888222
33.28061452290007 80.08196568293458 58.86041062706169
32.434188665064205 82.64697832189329 59.3510720989852
30.573242263646 83.9636700695117 58.645432471817685
29.227037875366836 83.9592416942204 57.0437262419627
35.71461592078972 82.60880714648287 59.82776433890805
2.192446115758216 88.47475435955675 60.96363199123646
1.4128437019973221 90.84435477442617 60.211899144928694
23.696661756504458 82.06766686091991 60.63876043386019
21.478020722126658 81.72351172619034 58.94401628455999
19.877238513433724 79.35391727914696 59.35088491340183
11.535578763472687 93.32275238363333 57.80494940837932
11.893570003385793 92.22186589780397 60.07379403347197
13.528372053865024 92.5960496440645 61.780073201432096
16.264370363868977 93.34461315765336 61.11581770347478
17.192595102960922 87.52925346227161 55.972149310377596
16.69364784258701 88.87509596965383 57.899533409659135
14.645870305450538 90.0154567725582 58.7848119499631
12.234421146481948 90.61949842646513 57.86419798357601
26.732907513998097 66.53883895568863 59.95504797779255
30.255048043650785 69.17824969477417 60.10899628558446
28.833135811725334 67.85831669006812 61.26463329891358
33.64029038129435 81.51188550033555 61.357637525198406
35.17619001536373 79.30275125816098 60.792124391804236
28.727919796912012 43.78582864486937 48.18403549993754
27.622532854251514 42.58039376798482 49.50943660240961
25.15134663179194 72.80297139160486 46.98254471906287
24.41671759970209 70.67553097611267 47.524005537160924
25.43320877414429 68.48877914575641 48.304105906845926
27.493521093682087 67.81253661845322 49.46647027957712
5.968025187747504 76.89018346219048 29.79852922879009
4.338470027887263 77.89973366352987 28.323765767709073
1.9383349791550788 77.74612436107073 27.78716290060688
0.08155764920614442 76.48805897324334 29.517706083739615
15.449408310961104 71.28469257428144 29.85641317627641
16.423427373741717 73.14311211427162 28.765305418213753
29.229666966922743 83.17521563525558 45.29954557401551
28.494746123133368 85.52333692641417 45.52616466514531
26.111325759082625 86.48661773725532 45.00454994176397
24.313339538832125 85.53908992659842 43.027013906093806
10.547416267474722 66.27199094584857 49.79866722098558
12.827865927147625 67.17289176056113 49.702921748587656
15.142976275178894 65.929655420216 49.17852569672209
15.46454523740715 63.847677911811246 47.48784122906831
15.243280871377536 69.41779034653683 51.904591928523935
16.79383030828676 69.0729277843893 49.72122024365011
18.671787121784494 68.08085893892407 49.19915824910563
19.56937353654938 65.68359821530782 50.270279974587545
10.417096879759233 74.03738884690772 56.77650249085767
10.642827703508019 76.19984990914067 56.42125946306726
9.65658892846832 77.55539627611512 54.44883319062788
8.21133313739482 76.19859612995974 52.442821535010204
29.419982112486636 88.93742581049159 47.64524763784892
31.204099087731457 87.43586634139601 46.15893342396422
33.0843230965915 87.16053345975101 46.24550677597688
22.480539485118978 72.9094518977035 28.66243757021224
38.030290193980775 47.10881487633236 52.06530268530492
35.90566569431034 47.08541370376515 51.49021455155134
34.21876709479418 48.35042561900361 50.151222094283206
39.567646851256775 36.137743057180266 52.01310955337295
39.172386176941544 40.33611849815946 51.62622730313328
37.04318932556555 40.38309608701875 50.618894509905004
23.44695420654627 74.6181546978971 48.3977701085803
22.176977493306346 72.16953158792765 48.48559315402668
20.078309798946652 71.43857184916246 47.253590646990894
18.307441531401572 72.64877591876616 46.114276609482296
33.47144520145259 40.1029232261159 53.13429561020804
32.64285227405119 42.00850215764314 51.353054621303215
30.382115102618403 43.19378588166466 51.089998616755494
28.258057110163126 43.30663256073921 52.47261505670695
