26.13603380222214 47.039221729538674 48.365534379368135
28.461509183189758 46.48171733682145 47.211583383067634
30.413614462896124 45.340431723558645 48.56005612498901
52.29872511064281 60.613140308999704 53.59059725037165
51.22067495069359 61.56769925992517 55.6413144489766
50.27457826187774 63.99386862031072 56.39769884519195
49.1235676126078 65.28156150685247 54.79160752602863
59.70753756943497 10.12854004859539 39.30985589775878
58.55808079364127 7.938977534150738 38.767186084905106
58.80702101913122 6.155322029852294 37.79595550469318
58.47133629985809 3.9427913867145605 39.51143024682388
56.034173374117174 3.8639190748999908 38.797391655694625
54.60049198980597 2.2333174071279873 38.58964270916715
54.02934628241042 0.187717970464638 39.91560933094443
18.32799960258476 14.902963066712791 34.604026045801
18.848019284217493 17.14034126669529 34.879105327608066
18.15405641330648 18.48604527344524 32.9775253253027
17.50766960217683 17.482227602768983 30.256543257567984
41.971343188864495 20.042642487157533 22.045498538271307
43.25645707503221 18.662397659546272 23.552935641031446
42.7704979040803 16.537086523229153 24.771296622282712
40.67199637050208 15.261894347935774 24.76246628350318
48.349534723956715 29.154762020351853 15.324434556549486
47.22447508645944 28.987488937312815 17.7217583190709
46.083252490338516 27.212478303480893 18.679941839854518
45.9966734659172 24.98911709757694 18.506264957899525
25.6869583259517 53.08804065485107 44.3543166160313
25.437390726974023 51.060108515811194 45.66072090071178
27.467988400319687 49.95215781036378 46.35611744606156
29.79655332760805 51.45943553200184 46.60054954631461
34.45316321188895 6.160386963269483 30.316090708732457
34.1737675625245 4.155267473918337 29.907354741205925
31.717743900822814 2.6339557665345126 30.04934084760734
30.038652961443724 2.797372937253857 31.34225547771142
16.59719170572065 15.5719517602431 42.70775425409344
14.828046866825 15.332411627546398 40.68140300290737
13.329013759670376 13.317179693291665 40.08654525891949
12.082742577442083 11.706431668046433 41.781321227737216
6.837297949009759 1.0221412431804373 36.338025814650955
7.248778454303229 26.969555634859113 61.17571837254464
7.036907008781278 24.789667276877804 61.343312915761295
44.51628811508674 30.16562427171508 21.921434012975407
46.69519423003249 30.02278693000021 22.30247051964836
48.87088807274617 31.4736861309086 20.9829382757867
48.93092836595708 31.972412186552873 18.631780473950037
53.76712938140282 55.135573080720675 36.798584312807556
53.726454969240024 53.47666026875944 38.28221960396947
52.70035532475425 53.30327034611072 40.928565417293655
51.47360196200474 55.18213897005381 41.84018831287712
16.005975671393404 32.07936355183711 31.26298972604003
18.090898266055945 32.337176276097864 30.10701663561289
19.83751624344639 30.696058816399045 30.214595764105606
20.616774002515008 29.177509495220576 31.948060449866375
6.374764476877591 40.69223087338835 37.94902046995673
5.038339623392957 39.59079028139896 36.44572662058132
3.1884449104287746 37.893558293124634 37.0016120292314
1.770080080612415 37.46570337815967 38.35767855983841
0.10042411348612551 35.29489803637463 39.59007876399114
21.430336516431858 31.27784289025868 25.280596237339605
20.01700116748686 30.28939160846497 24.326851969412186
31.36499085070797 13.469503416848676 10.688573227233293
29.121325489473957 13.646196528823891 11.626103328749451
27.37315576032995 15.603414617972945 11.711329408771762
27.179169300578398 17.853776690579178 10.600418008191333
36.519789001946776 6.490718269816593 45.32644514390357
35.08416092171509 8.271877197099029 45.98056651777256
35.034986300763386 10.823851795143113 45.577715979285514
36.799001522953574 12.372868590912748 45.3392644186523
50.61242219078144 17.379965450123215 57.33217676685843
50.99708032221777 18.48356463331896 59.13273742730454
52.57896755566423 20.41189196549216 60.053679631961074
54.389654566506024 21.667069624134093 59.017727969282845
33.18259633138965 21.015273570425023 10.803501153885303
52.36642046088249 53.703873925645844 44.7674112563372
53.624411897495044 52.5121337833656 43.379041024793786
53.94575206372002 50.112513065674904 42.702148907662824
52.89705094115529 50.77298089770249 41.032411262497945
34.465349563648054 34.80419838831215 61.84775949820072
33.86486813780501 37.01940064436372 60.667636816918524
35.19959538205103 57.102256084122246 43.23708751335197
33.168707879659465 6.858312333040251 51.708521891502436
32.40341598303862 7.284709757089028 49.853733307280834
33.82769786788191 9.01118733166838 48.08035002224228
35.31216480255468 10.881561314653482 48.95170380167198
11.635782436580746 8.642976722164116 7.0424107497078
11.37580516199286 6.995366699132813 8.922095815497231
13.331808228927175 5.535384399221383 10.600893457673775
15.75516815997711 6.336229817885035 10.874515857844102
20.803396508691506 48.34288139859114 43.937131806891465
20.82330643545766 46.64008926472055 45.51128739173819
22.556974623284418 44.775632877967475 45.8412548184713
23.834331442136996 43.36915921405285 44.40498768411683
18.522621519883952 0.7577869125470402 52.17059657981497
16.214249446312966 1.3889488381056427 53.3382510658109
13.719665288621773 36.397953093275596 58.05641810000297
14.667494074785896 34.77835843566014 59.70329257794697
13.12050543790718 33.03977432596954 61.34840768738835
10.906869150532643 32.29486266316643 60.78141203336627
6.533228730855176 25.017045658657164 58.038665853038744
8.275126210221346 25.517158256539403 59.18024469492001
10.617589183789114 26.580303572674318 58.729819232829755
11.356846514845861 27.872861983509495 56.75360131586173
53.99263269661518 56.7708016414937 41.79190711151223
55.14890585362374 57.78842101854634 39.907762815962954
56.46630351763137 59.732507581497394 39.614788184037145
56.87860500229261 61.93598320735828 41.0440727071465
39.681245523673674 33.60941409189701 59.51105768981864
40.4062383715751 34.83328758920745 61.453442310826425
37.52558800216996 38.67519710639211 61.9375698190646
50.872481420839215 45.76993943673379 38.80142420094006
53.04689021683897 47.2850578854709 39.71706817241718
53.75796208463035 49.91252740954334 38.775048197868344
52.6520073250365 51.113119338547136 37.377867914831015
11.675375963932268 18.33060125459326 44.05429420676988
9.722223161282397 17.95453152140703 42.78097949745489
9.676666699195962 15.12750033293742 42.13036290861
10.677668975376726 13.405114009193367 43.603963230734394
13.140506174378649 1.7120534114597397 53.884247010253425
14.028351675839186 3.370290745579888 56.00434580030566
13.269632227209254 5.3009108215173235 56.837983635222166
11.863729606344691 7.27749016491585 56.163721439173315
33.85796330158085 61.371647495429045 47.771213169180164
12.327100501727703 33.381989362399274 52.5627471410213
12.398754255804512 34.795478707564925 54.52660501397483
12.586421934192837 33.66044583549094 56.741817393932074
12.1372562372368 31.32300951036305 57.601307544569075
20.210297773471794 19.43501347825114 17.25004196318517
22.18962603531069 18.10878327812487 16.06961027379182
23.66526315462728 18.670316817161154 13.941668265258143
24.399858477668587 20.752756183601598 13.236874509513367
28.55224965217107 34.35053621928579 25.762518322327587
28.938004379705646 32.626520022111784 24.554620025695137
59.92780357392793 17.266216398946533 43.78534870231385
44.93022747309333 19.025403528348832 27.83588255197196
44.69442917906393 19.209040145869366 25.72872587026975
45.09264949542638 21.042097399441534 24.16890042157192
45.26412798495939 23.780237270684474 24.911414644943054
20.288950914048826 37.99759975722467 32.265391841165595
19.553165005797972 36.07471847531291 32.333962172686405
19.61255525046264 34.521980267865246 29.695864575769978
19.87822695905045 35.42326167350309 27.5748319803075
47.37665461122673 10.928525890080481 61.60864431140428
18.47584590715054 3.9613839001276787 53.29232454969223
20.888329562251627 3.604824941194039 53.56768422590844
22.0880414426404 2.593460832258296 51.142866511853434
21.75431558162351 4.148879953022847 49.28612812582572
38.99881114078662 22.230435016406418 47.34688546368573
39.38013735781085 20.279984168853886 45.98398607348681
40.8091586484172 18.556275923720673 46.906253293400866
40.8947773630565 17.199926910256714 48.68910334484956
35.12565493424234 3.7277684260547637 24.98498541222853
34.11105502558076 3.759670091572904 27.234706600683825
31.848968854207133 2.3285764954520096 27.23742868265197
31.202194052518937 0.5474061668640725 25.294477758748034
55.441506776723834 34.28543798042636 17.37341228070995
54.16921059446633 36.354927458583 17.573484873101588
56.82349985382915 39.03800431106034 20.151725483149068
47.72880829068691 38.14168071437568 21.38815075830982
47.710154073296266 36.43282318241394 20.378275742349533
29.127763856808542 0.7448836086176237 29.646519796995626
57.05959324821899 58.02158649919651 37.322843161337644
56.93734161156667 55.77335700657045 39.02805757324707
59.091648124447744 54.37640678008922 39.52159778851173
24.67724454601013 26.78458266505722 26.963252211630742
24.636232710195866 28.69738017750038 25.80474956408696
23.344734714798175 29.68133457091309 23.792213566750473
21.31004202646795 28.539914238194292 22.337022639190856
27.79279486650506 53.21742381029534 42.498796913754425
29.49811726025031 51.80506924105184 43.7940701004054
31.874409296461454 51.93495007857165 44.159177568893405
33.5221198564257 52.01490531149511 42.47289331432828
58.87689609314399 13.093659657606592 44.82935179702847
58.044944884067036 10.434609351976668 43.56110069615366
55.853307155722774 10.182029591744316 43.0013002135954
53.664237724153814 11.05902354441093 44.433320292312914
40.056394756452626 29.18415823215298 47.13502083462291
38.9552105449924 28.02928535270151 45.40460288438641
37.64232702201551 25.85538833615273 45.32368224583042
37.094366862088705 24.085836963812266 46.83177483187421
14.846456762380532 28.263643208696863 60.17444112030024
13.250732260562877 29.923063358044438 60.04304065000561
10.632132659664563 28.8212401915274 60.31526555148622
10.041738199502527 27.250443689433112 61.79531921149782
3.0474080758612527 5.577249840729416 57.694593538281765
1.5888431759818762 7.7203261392579945 57.53086594286283
1.0263391956273267 9.147761816110664 56.035397295405325
2.045826290670411 10.542832190589996 54.20900578939939
50.823152556451134 66.50994268212166 58.18506797928121
50.9328940568166 68.63390085313547 59.714946140400535
53.117193333421056 70.13085705093108 60.16177078652565
4.7717287247098 60.07902122435215 57.68338307609989
5.6999100105976455 58.820583199070896 55.735580552096955
28.85314496416822 72.35340391116148 61.93592940886218
30.74049253165323 71.89371340646876 60.64546525207364
45.51251119691745 60.922957371834855 60.464136468844416
47.249607535559754 59.27109719285144 60.844008769390605
47.54949386437233 56.663023429153434 60.043240569042396
46.19181424703658 55.29131358645617 59.69632224052676
45.034092548461274 66.51083737380212 60.77537459692171
46.70554169934947 68.25708539425676 60.167396044550664
47.50183814594251 70.24295833817192 61.33124815062831
5.106070937329831 51.35387442730005 56.814683783318614
2.326855819321612 52.282941933428305 57.038473523337174
0.41624219092429005 50.894498188535486 57.763686945434664
0.30595402202284105 49.45928006356614 59.99945085840955
2.8490850240406473 53.65232346580006 60.35512526780719
3.2508167567245976 54.58404573122277 58.31598597896072
4.781255162184436 56.590858071693916 57.258361417771226
6.359858636670902 57.86418372048622 58.32872456584719
46.28349263063735 66.38068407681016 58.08425059843496
48.219620747275975 65.24927151543169 58.63149101616885
49.13428614620416 62.88439057144438 58.39339009788697
47.92669388763451 61.06026596250296 58.63933061900261
57.68866882117588 79.42112645941764 57.6118748363134
51.85963303455657 63.50356096695803 59.19421540810124
50.368945446848976 61.34315624852081 60.19898247480861
47.846488256437986 70.49293157095241 58.54229926514325
49.225276502355236 69.3557182052091 57.608450251421765
49.22896566070412 67.83220619364631 55.38921300238597
47.81857031693906 67.59063771188302 53.74956170766133
1.8908213259167679 49.12074371779462 53.85239842003851
0.2868726682026591 54.16487832624257 61.33921327625883
5.9416440908726305 52.72014308431535 50.8444449992413
4.66225888569511 54.705869054144856 51.091734441736
2.87708895790881 55.205759378998124 52.97514698325561
1.8088224123787593 53.604751302743836 54.72571096315251
42.52645979258449 55.49556242325759 61.635184808591966
46.331419049545 64.39543011696344 61.88545712708988
48.46958175698772 66.01087791457061 61.35917487362118
20.31266711039059 52.600912819418525 60.55614040621612
55.875812899333425 79.76950709592553 61.802685070963975
57.188648734638576 81.73912430426003 60.93256716115789
54.98551112148508 73.80321809192925 59.188642866666264
54.9793429120077 75.49993271892353 60.50559200679693
56.81718706983032 76.82691506183708 61.80649622242083
57.800508132630775 77.86110880994188 59.863089259211144
0.5444459543105095 55.84182915845145 55.52292491484987
30.754820664597098 67.57693001585241 59.33905629585515
28.414261406518264 67.56223962150969 60.489694697527376
26.3220490201951 67.43779903386601 58.90655653232871
25.196989382697833 67.27052595082696 61.30388029485012
9.337505146946356 51.75254043036283 54.270695203012515
7.093839785712346 51.92923354233805 55.20822530452867
5.345670056568338 53.8864516314871 55.293451384550984
5.151683596816786 56.136813704093335 54.18253998397055
11.155110627628032 59.29831058393918 54.38562312966452
0.16214033154908156 56.39182029163902 59.65173224957104
1.6377774508656677 56.953353830675304 57.52379024103736
2.372372773906975 59.03579319711575 56.81899648529259
33.41402107296223 72.56847499394051 60.955534256489166
32.141724890704715 74.63796447209715 61.15560684888081
52.65935341727192 74.98953384621642 58.79611718705964
51.847128582874085 76.5879337670106 60.328779216927416
52.574044194450174 79.0883637955312 60.591262247241936
54.37643331729131 80.34532462358149 59.60365288074805
48.06302569268824 72.7026811600806 61.5129792162277
50.254189054797024 73.1518490383214 61.16662349496881
51.646100948217445 72.64630036269428 59.35423606173038
50.77545033949456 71.61443323929205 57.08556990122487
59.30875679374542 89.11078657019351 58.13422990687165
59.5338874310615 21.154358747023668 0.7273239258197651
55.10792745513742 19.436504436494882 0.08758974854528362
55.98784519323238 22.09136443871812 1.6500065736043252
1.6411423772651057 20.08096178763516 13.631579822555539
2.1094253108347156 22.107478916575985 14.784727584406122
4.480701367100603 23.723752113734832 14.5122224129579
6.4464876134440035 23.417911774103953 13.140497171775579
59.56960459649626 58.18486736832007 10.854361471509815
28.92077635986999 25.13626265393774 1.7264503479438957
31.136168457731255 25.372616986303203 2.8008552689314836
32.68833873290724 27.41677399566766 3.1636675440184625
33.03881610312808 29.305710989635422 2.3236545978073084
6.222922196657109 42.167849468268884 35.867046747266656
5.404553411701288 43.655347392070965 34.40733715401736
6.175306602536896 44.26811851183408 31.710117865920694
5.724105291878974 42.48337721742004 30.482785494474772
50.76503839425198 86.3961517521483 13.224731322714424
50.798435043480445 83.95245402050908 12.328543610138201
49.33262283706804 82.03067305897551 12.213685852388602
46.45446891065607 82.28432588607775 12.688888310477125
27.294276491390868 82.35229705852271 25.64539822505144
27.136433517568012 83.7640325271804 23.609392441314185
27.768542537742242 86.31626200754641 23.416823462633335
56.475761403694165 83.75011012734466 17.058616504831843
58.3385125428447 84.69332130134987 15.824704340444725
1.561413002811005 41.34502398612275 37.18806381597556
3.5615727982089633 41.77715807837995 35.63537123174162
3.319112379723317 41.18467271358062 33.19004816233566
0.9577586399811657 40.25550907190346 31.921477948435527
43.933473539637525 86.54698807103685 32.32825118303302
41.92578738917743 86.1772934167027 31.416158515432084
41.78327506582133 84.7628963113233 33.8807402665202
42.27768155086203 82.15932388464482 34.2051264800048
49.98281459050171 79.83028494399535 18.317849895055748
49.27682476205373 81.6557453587251 17.048038801290964
51.40822673481607 83.36785991639073 16.34657645390345
53.5261547102554 83.27242533378545 17.351367647125173
35.63245915795521 37.441246663493516 0.2511666571859087
17.172603811841736 88.13992575181607 0.5846432821499264
17.630394415062323 89.94109553878505 1.150220768072453
20.25732938968925 90.71470717500151 2.4760964861018593
22.371708536800046 89.61708494953064 2.222375378312819
15.301484172037773 58.5512436844651 31.36056309635862
15.068960739145671 56.60894515814645 30.456193758390533
16.909135492231744 55.53753397067009 28.631350477233255
18.995588588630653 56.160153177656575 28.074014007777322
46.18130806536218 66.762258585834 19.562313250042187
44.04848239708381 67.49199489401246 19.163134081111643
41.9882135083677 66.72464865506453 17.37781720402162
41.471369111324165 65.0788603300307 16.2686110073094
34.68991505462787 53.87316111232624 17.3082335832691
36.327809653191174 54.92453210516217 18.529496448898197
38.97965315891879 54.95262303879303 18.357313531075537
40.582048541009875 53.78337218408069 16.932475285678372
33.36860282635498 36.26411146741151 1.248643080154796
34.571920689417986 34.04318266750963 1.375955752566993
34.18659849522496 31.888390655644276 2.803486735098945
31.981947198495412 31.36159727121317 4.257666068687868
4.1572052907453685 68.53682314653632 10.650735061182885
3.4660622703178907 70.10738687961646 9.267784023310401
1.3891922640372707 71.42864976488794 10.151276774763756
15.683491521953547 40.70269061781826 8.298174297858214
16.486779189700563 42.88766337442131 7.711732563506123
16.64728400561229 43.67095481966805 5.577120938915791
16.079225640560924 41.95880188895341 3.3356976158826797
16.956503756176613 63.09504285914547 20.12452859869405
16.7884283742486 62.500365914371294 22.498244169623508
15.045358720177973 60.90448496388413 23.70534389276279
13.370063940569162 59.764410769335015 23.43293903701329
38.99178818423659 60.76462638477525 44.43821447440147
37.50640172729989 59.437395760537825 44.309445901598984
42.90725242963387 74.58046817432323 20.63882974903694
44.59329071045413 74.70589593843725 19.099976097683548
44.4781736924879 73.67134200083822 16.667392504516922
42.914827957852054 74.2038303403836 15.392408440260773
36.4444733200633 84.92601221399104 3.2731445886054518
34.816315365518065 84.42580489527445 2.049608942086624
28.26040574103597 19.675730712131575 4.557660556107717
30.361521278385755 20.225528150149554 4.236858809909346
31.868019456059216 20.883674711217783 6.797817669042268
31.45267617515579 20.176889756403536 8.810458439354827
8.217292688123552 44.88292584552273 29.042833083284506
8.310307317914978 47.08497061031583 29.527509773787376
9.754573168518803 48.78483159364451 28.587754486533736
11.419518736149818 48.52679044470641 26.57493627072952
38.191893482299754 50.19275895367671 22.971748433485736
37.670697414439566 51.85498809634131 21.37064214212241
38.844418583703245 54.368091702830675 21.13451766793356
40.74954743940951 54.99884716425391 20.911214769628728
54.476976484469 67.77453844806676 30.69941662405921
55.70663099065766 66.32000761448307 31.98210432278044
55.28491390655182 64.56677072916783 33.77031800256416
52.88895181428745 63.84512132201856 34.380650534919305
11.014401612413304 33.482920450463276 13.807912070340548
8.8253580217591 32.978816916829366 12.920797475525976
7.739079844870016 31.07691891282858 12.0562842081473
8.295029816913457 28.662508916329866 12.036323394052912
55.770288693611484 59.80402614717639 35.4158617399168
55.850945423537645 62.19007096157346 34.86275400316532
58.408286495652334 63.42168689147541 35.3709950384285
59.68711700870762 57.45441559648987 17.261777253517756
59.71113580839044 55.1788788599699 18.08536850169214
57.84012524935152 53.930699308105595 19.55309528269086
55.92933298063532 54.53642482258199 20.405868070670532
28.26337683697724 30.666283818449443 8.232647770809589
29.8762462359882 29.69393943759995 6.324068723737961
29.837928917160372 30.038013786827644 3.8668399510160194
28.040101461916695 31.21523841363237 2.401041648366508
2.4568047247658233 46.396958006613175 13.666257181209954
3.4263000499822613 44.37492488138313 13.106298834536526
5.8493290046814606 43.12721499100692 14.125657325278725
6.920688203578943 43.77546529608942 16.301682134609024
33.99370415273263 70.23236078050454 34.82133996887451
32.7403718630546 68.56146935931388 36.33473490071848
31.84300203421197 69.8885079859194 38.504090824523196
31.519428678179725 72.64072356954314 38.34334526716704
2.445814935614214 75.00732581866774 14.724586039350802
1.8313309365161277 73.86208500457897 13.26159613138899
1.9654718140391205 73.81965855443688 10.588927687009893
3.8560549272725835 74.78575385499155 9.087013704940908
18.312976767211975 71.99701215876348 23.278538297102074
17.98912153757836 70.10985380858055 23.2434472091244
17.89826072843024 67.90119829239643 24.861430093066417
18.338316505515706 67.84547302809278 27.07336321842655
35.56189879151493 27.83626204955501 2.5262403544654366
36.15454759127591 29.960544882305797 1.9891558399304827
10.531014984493734 56.257484751534776 29.35120712913493
10.867159851045823 54.89581849779413 27.748691175339953
10.109482700912855 52.619806446017265 27.578211080441587
7.90554401140099 51.61043613216649 27.97168398005887
24.429232798920797 68.56817240486177 23.5187799899005
22.234487338485348 68.50589472224432 24.641117763557464
20.429541725972115 66.67472876230539 24.874651217016794
20.466362887611407 64.24210435763504 25.3016800299078
24.256333432833802 37.05034794476497 27.31335639433534
52.731409898427216 78.06008883374986 16.187778781391533
52.65834848915188 80.2109475713466 14.855215728984827
50.43042554968912 80.93001671170794 14.653690476547427
48.32348529693101 79.85864536486218 13.721204991030245
57.60819090804943 39.37509542321518 16.02511274367862
56.447017897303944 41.299588182392 16.421531377148057
56.89637839354332 44.01278866702839 15.714718724885651
58.919203800053694 44.98763908495961 15.204503774146314
59.380772350560264 88.64830937517176 14.980260164450428
58.75498326306605 90.9868911444072 14.1174811367991
60.02372539606896 93.15838722474018 14.017318480654104
12.807261223880962 12.188419654512087 0.10652922664959363
27.041476687477033 80.20883786836879 18.865092854265253
27.477987936293662 81.07767506392507 21.138696170059387
29.281530932238773 82.57919023469651 22.024068725601467
30.969592256855776 84.12039454851367 20.5980062379697
38.609627940411464 67.4697965577815 20.048601978160683
39.4734212562136 65.39660309468675 19.265171564683232
39.74105576518496 63.14634961663366 20.51856769887736
38.480823945854105 62.11319801261155 22.147407380599287
0.97157261983959 34.451305952809335 31.609578971770592
0.6295524201323572 35.6375287364458 33.29347355456769
1.7963731575573536 37.57358604530176 34.258384895276706
3.94245381964184 38.670635821118 33.73017483550017
6.870346727406193 33.28953326144269 9.872945750901653
6.242665585849424 35.29843214262728 10.627166220690855
7.455050640628837 36.523794168471 12.4714610319571
9.02476927894204 37.745901463347 12.38352910787914
4.0745682974834425 78.43316391856096 4.213842694748955
6.555159525761827 78.85833349474755 4.635670614368161
7.797985947914582 76.98242431744623 6.335029535203242
6.759707108250894 75.27129795815156 7.116852670773337
60.01238762200587 67.7171050387165 35.948042769452925
38.154063096127715 71.53906677742594 17.814245001166576
39.155966527394305 69.45895560465071 18.174512585853236
38.709569002510115 67.5907526145829 17.18665539584305
40.06006672530199 66.60699635236348 14.76111246202181
8.795205376556877 82.17226812114427 9.659519267110253
7.158061282573605 80.84992217417648 8.107161498485
5.127498349398828 80.10041544624251 8.233280991681223
5.592036261738454 78.3693895763554 9.114443424041882
28.947875461273405 21.274360019594777 10.124149686824124
29.64837393951391 23.21996112806486 9.16638696581073
30.976379470615008 26.66029050185605 10.097310735319867
31.36800899263566 26.740059637073113 7.811925895990923
32.35960866004127 28.17668668755986 5.897918025599443
33.659002553566744 29.916709947392587 5.7437765447195455
59.460909602083 56.603864993614316 14.743824413506402
57.303897615527305 55.253288560055985 15.056386636842795
47.48580451334809 35.67944269573188 15.932148877047405
48.77548327358131 35.52052684238068 17.876816614685033
9.406378661085737 44.38883614990599 31.90735785323914
9.349697977358602 46.872778806919435 32.16556852532028
10.752259219968352 48.73579929975255 31.468604698213607
13.213758333172727 49.047390350280565 31.344143333111138
23.652013413877107 80.71001102598349 24.25191410046554
23.41591424121164 79.17005220989412 22.07542192726126
21.879103731228174 77.04069368852429 21.399412819419677
20.202780354551198 75.95506096927056 22.654753909519506
57.261081735273 81.92533372392786 13.813353116930688
55.53990029289117 82.11985863857528 15.332453434525549
54.59044865349849 80.70112495371924 17.079770835581872
54.9708037362777 78.1964684464112 17.726612146764946
1.2566207833409848 42.81603875071952 15.742455599497442
2.49419383426331 41.51860980700534 13.384455472619127
2.950196476519263 39.16993407200878 12.888910670665034
2.59000577219067 37.073259935597804 14.451787963216296
18.05343313262182 66.75716629071405 21.548250482800185
19.70772134829014 67.7773940030283 22.496203535482863
21.343221346941494 69.99225730254881 21.928256734666185
21.701796296554125 71.37541219518886 19.944864547992257
57.41077723306576 91.5183018520586 11.75113817331942
56.625734515046396 93.70075159729419 12.583752975797315
30.214263436533685 66.15880201570225 41.03967805980966
31.077453380869414 68.05785651470059 42.28228395003659
28.86919568754713 65.82246561705627 1.883760745580337
28.151536648397062 68.0864385205487 2.7016058144953634
29.541719494675245 69.69641168282422 3.9861109466680733
7.5190421102349285 73.37105098578967 9.023191156016072
5.488152488644658 72.4978296766626 9.420128392323905
4.92869340021561 71.06470923497375 11.520990883518309
6.961563098912922 69.01944155434788 11.866297257550126
32.72588968618127 86.49887800365573 21.55622543372385
31.540654159237835 88.51256342302074 21.140291040117287
32.366268666776456 90.89701842211511 20.646181589919454
34.532214497394186 91.98096159628747 20.34312318068616
43.59115013059098 75.80257380780134 41.74986270864272
42.66069775173954 77.59152993856239 40.61650186726345
40.95906501313558 76.81416215451867 39.12091362864441
40.68676828100675 74.26231937965282 37.88758614076892
53.3748904274148 47.634881811973386 21.79150884914024
55.16135864655093 47.92760329221529 20.3984942510055
55.52892869528806 45.37361471713845 18.957978756404184
55.51681908000788 43.13059212531722 19.74613817464789
15.875351240987683 44.0208378506646 1.3885910936961103
16.09842915754945 45.62613048786068 3.0825316628308004
17.88262891007492 47.58717511569548 3.460501582091045
19.180531228828176 48.59892449454011 2.0389322804310996
59.08819598805146 72.37563353739336 31.710592697867384
58.45794791759371 70.65032928178925 32.76092972948616
58.82473743514036 70.26367114095954 35.32334356955526
57.88631340974132 71.04044533858361 36.83055076307024
33.49623437915333 87.00914096026041 25.731583813325805
31.999518876298175 86.53813991914599 24.224211645954362
30.16898892309664 85.16607611650625 23.978890397804854
29.991413286218513 82.48743110930961 24.547832572953844
27.229631712953303 76.3470893974388 6.57156278396062
27.382846652819104 75.15343277947221 4.528255532818858
26.17069213672776 73.05160985447642 3.4012963589871497
24.387786448184933 71.26311390213984 4.123883926598459
54.11932975413272 95.0271640674357 12.737348601405326
52.346286422783216 81.55006387373582 12.40213100809921
53.73374376876663 83.14461040428687 13.56355708095846
56.07027490126813 84.23727790343567 12.914775511015725
56.67603058260151 85.22733051905325 10.745279421422508
1.5023347381658358 58.15447017531539 0.47825240819445874
1.2018986505178826 66.56504873789034 12.506460111627103
0.13610911567742973 67.3337905203887 14.273839353000966
30.03626806741807 88.37391481003955 18.81743445726251
29.486422228068083 86.27465542737269 20.320893746875093
26.890918591380128 85.43668080467623 20.906930173501546
24.878481349335257 86.31806604769942 19.94134708391276
21.087626008047867 55.29045233030399 0.7754013779446821
19.872251965771554 53.29021751648406 2.009269199379733
18.71919117717795 51.37280819708862 1.0634075000549024
34.340545878329465 72.60289327297588 38.839986054687714
35.63441872807382 72.55886723246681 40.665915227514525
37.927327945720315 73.85830910724341 41.205880430092925
38.93317933267133 75.63110692750313 40.164136953793054
29.088105379845945 44.71964356378923 24.25731640669161
30.94714210369599 45.48268361437736 24.977986856207806
32.223813162760095 47.7194888026525 24.314758857026185
31.581116391273227 49.212562325498375 22.506114267012673
58.29817829306973 58.46476222003271 13.08959370364056
38.481919619136704 63.39922217640342 41.286792508621424
37.8803562199999 61.855330962809774 42.43572985977764
36.22268299701701 60.295441834074644 41.142882414055485
36.05107653082543 60.10391272322778 38.624623783505825
43.19239628993535 72.78318858139222 24.258134196955325
44.29757056745113 72.71809768043488 22.244228856472937
46.74323099941988 73.98330077639909 21.21714718398234
47.75187564873789 76.16384784232378 21.834667432017056
20.06662752543366 94.97544297626897 6.6826328431649085
19.09355108557384 94.99484507016378 4.0011360303012165
45.53781461532436 81.7885432370174 37.78314006969381
43.796832327791954 82.5603795970922 36.430235774589605
44.02976637707671 84.95963249377273 35.297533639444026
46.292665961824305 86.1539581609264 34.99349644224575
10.31591448212134 43.06268110927965 10.434491483138443
12.078801718656312 42.67485286247952 8.7261316486644
13.914359399753321 43.81671615062459 7.869204345027633
15.04328709652093 46.12988496214346 8.936455094929993
19.12533560918359 54.381239154618584 6.3043200743845995
20.861264038500565 53.512201179042364 4.678996114420985
22.46732111774701 55.23105077196936 3.1294787158685575
23.270016536767507 57.27057133314928 4.477240626941045
4.005857918980247 72.20422970952329 6.445818713578691
2.382529076518034 72.24075006768257 7.731742889643571
6.105914457521109 25.361723579209706 11.18686140219522
4.305516681376136 25.732994898021257 11.865708028082295
3.8237993864609527 28.357639830843485 12.66822296681705
5.24760204091778 30.378738186475797 12.16348443056249
25.288112192658026 52.9706349061019 40.86733648644114
9.187386550245884 90.68135400835314 0.9922595272551129
7.170054144866023 91.43188673427095 1.6881852660727643
38.304371320949706 32.83916882939581 1.0283412778990566
40.40437404533299 32.36747616725071 2.145289811505585
8.449066234125691 91.61064907620069 3.870439108060622
9.736741437075048 89.87394612603362 4.536203160227734
9.685690847211838 88.23927702145122 6.538593134531877
7.540976074280711 87.39035520714104 7.925890019058848
21.47076122751548 58.11738318315717 0.9204482158527255
23.523666716485753 59.18846978193931 2.267234722992133
44.851830690438184 74.48341005258044 13.030601789053296
45.79572906677174 75.4122405825292 15.537850909549887
47.74556356954488 75.65328214315723 16.340087594023988
50.1726238360815 74.70943362110711 15.929935110214549
44.37855156122399 60.87941462190497 0.7169606552435224
29.119457062984623 76.0851599102716 1.0694625807891653
28.970803859846107 77.51765826655534 2.8326593599767396
27.336791539734467 77.90410247430465 4.275641029250828
22.884510743221234 70.94655659128888 1.788440223229531
23.893187003564343 68.76485749448624 0.5713035680838975
33.165879927558294 45.87513861424795 27.79630827661434
34.00095161598116 46.5047894385259 26.06356416386249
34.11765797926841 44.621812835463146 23.78865445535601
33.556692885401766 41.934001224253734 24.32279280516283
4.402836663241201 69.15323861990382 13.502346382006447
2.1675574903359083 68.93042400542639 13.641807310409504
0.8743524976306394 70.9890476400347 14.299307338954346
1.202510657552562 72.79446975919896 15.588657094988774
28.60174998662649 60.92427711946135 5.839073316033555
28.24673199516738 63.186119140048746 5.275948169601137
27.586956817062152 63.667006681987026 2.9980817647178837
28.32582282315038 62.21420141721656 0.8007119945578144
50.39930379555841 74.29818306945113 0.6448518522047848
13.683133325642148 82.85253391236446 1.7498694792314824
14.430997852273721 84.87836517015877 1.5699188752891138
16.507005527150906 86.24477532342691 2.6575797444420792
18.47884148657035 85.4552068803593 4.018870558448361
5.894560803744523 51.61438615601684 30.959664692552984
6.724849169170628 49.492482633237486 30.441281729859472
5.873343282524552 47.04225555542552 31.02991097990479
4.29166559541375 46.21400198695019 33.03955735123903
46.73701808773524 88.30486987818088 33.44544590361445
3.404487054139178 80.84376840589564 4.798788841448329
4.650410491651778 82.03360180783561 6.523243834328009
7.4748437451020715 82.72119061391801 5.975724566713643
8.571919004254477 82.40129020780788 4.027786063446344
24.35806001855888 34.38424363270129 20.997632510069785
25.24983284802432 34.138742536210856 23.15752264032817
4.88994083968154 37.26416013142131 16.844667938001585
5.307218075688521 35.92799563548304 14.738237863378254
6.21027368174468 33.45461539715204 14.438659803841425
6.906881091454341 31.768882599496035 15.954014140271667
40.3141815750175 40.36509452862282 5.069222474086582
39.80816945505206 42.83181057525421 4.457687377087677
41.26013751320743 44.33387988963548 3.3154275655200522
43.65740578357732 43.96218610737054 2.110002276186047
59.2622546287935 83.63798322709621 13.65496639750923
57.9620458273591 86.21852930248967 13.112959696582172
58.921748187718066 88.10046360389435 12.285178085457032
47.432213028974274 72.21897361766385 17.535505419468265
45.55577182415681 70.88582181481225 17.22710687038061
44.09218935741028 70.24348016548065 19.275512479786048
44.738939298638115 70.21062486214693 21.650131352332217
42.8422406039618 90.70279533076258 0.24066178167522165
41.46689238005904 95.28782087807836 0.9723714618796623
55.38821389297003 67.65016724724453 39.253608674233455
55.25577853050262 69.937515824432 40.12745046971314
57.93604400153829 70.90987712838262 39.55305782865338
59.86994672027496 69.57086398834836 39.54545169773822
37.118129747266856 38.77244811655194 1.972612413817988
39.19385167960655 39.48031434583253 0.668657816255883
40.3386784976553 41.72032738933773 0.30045647053081426
40.058001443649886 43.574796170069405 0.36339739109631436
59.562610267882796 51.62343522503054 20.9127605143173
58.57991924012669 53.81531491383693 22.54554809485821
17.74564010514762 62.426446665106646 0.17587271456398862
14.905326691341374 88.46364272321165 2.038865174536962
12.50448143944495 88.24351705213711 2.8440275890440208
41.91898981501952 55.51552036199079 18.40167738311496
41.066815693479676 57.787878336708516 17.996622933413448
42.313825414345786 60.08535195102832 17.51569488841246
44.16147402314958 60.74162043430339 16.604509914332592
16.138472000031147 54.40288301313968 1.9495331230070647
17.709197848574625 54.02409120748371 3.581582229154632
18.596928580246864 52.00159884372776 4.9995790747589
17.780971791103315 49.68408483246946 4.9685080392007475
13.138440774058829 49.03671149589022 28.520635480792308
12.46225139090368 51.308283880616756 28.81743062677253
13.512046817963947 53.63468597210126 27.883952877315306
15.076398784427319 54.2426962528636 26.315283702529047
53.93450551318349 52.00193156018252 16.80029875153167
54.91039883490163 51.92570591187559 19.518901365944785
53.90615664190987 49.858043516255755 18.496912402556763
51.491838132412425 48.55450078332459 19.264563584319937
38.950901029736926 32.48284956297243 4.233703319196171
36.97361867098078 31.270560613980972 4.097051680527421
36.12406214450208 28.821883978256412 5.034125298261883
37.582634277902514 27.279156361903418 6.028763226817991
37.3917019002393 65.13882238118636 17.26913688166461
38.04275431946552 63.455638731821885 17.477851191117878
36.89819255868427 61.515951818210794 19.084433484311493
34.32198935835871 60.7994171318443 19.014015051262792
37.68350251041924 44.6567435461016 3.4010128577915593
38.34861536906211 46.31517047517345 1.7536078196255034
39.804598163806254 48.61165549552747 2.2077885435623186
39.11869498445203 50.13620879390215 4.703481893098921
42.05013872391976 61.02681604647917 24.800358743581686
43.767719013524584 59.63819565522245 22.662561876103066
43.363915708445965 61.419799465188355 20.544666000819994
42.408778772822274 63.6084356979484 20.48858076288964
30.35493360973128 22.69351461444822 1.4035780871248689
28.575905904555533 21.81087685527274 2.8216528479514116
26.225988530973485 20.275628186756848 1.9104430795705214
24.914805330289433 22.413187006963092 1.04725851005454
32.47068346144891 21.558067308825805 2.9349910288989784
32.09255231933417 23.39202552752378 4.678038676869134
33.459037848748316 25.198500391531347 5.208462969248367
35.17494436835946 25.451099756511947 5.9349917467693425
31.117854113080206 42.85164376461406 25.562968478560453
30.588591142158542 41.08942954770402 24.492806923672696
28.379551441661697 39.54254553795923 24.44750734789083
26.171319470996206 39.68927373371303 26.101278914386345
23.776811218417983 89.43236525071192 6.85493372736488
23.052920413396173 91.22010662312357 5.491036455028195
21.10189517388417 92.51432758641573 4.771897845970709
18.89274150706398 92.39551869783618 5.281687814697385
29.382735122645485 46.30913462512623 21.142043387093953
31.78069030738214 47.12745693593479 20.326776836917052
32.42325109304786 48.10144609370966 18.521726502930317
31.635686417105486 48.18197652983554 15.857512336547774
58.93476988692298 41.080440798713695 19.29088184153625
57.81603556924791 42.874576864863315 18.587442752405376
58.09936735264836 45.081391814437325 18.099154510102135
57.854180786594675 46.3527117640854 19.96795674646213
60.20125350850261 69.9633029281356 30.489681119034994
58.66882367395996 67.90854419147381 30.876542724375152
57.055014767085815 67.00723891315036 29.45163542331591
36.21166294321048 50.38758655198943 20.017214468949565
34.50805706006436 49.03722776771032 20.27542301169773
34.331520952179744 47.02101169711868 22.25625606168844
35.85387239725829 46.961064099409306 23.97388385447766
41.591382716092276 74.04857543014833 42.66000694525052
40.31072838563271 72.57250787029835 41.38441695039235
38.66641828406233 70.39687362203996 42.6367152844532
36.945064153241695 71.75224820781624 43.29406084083208
9.522178763239367 25.984522937887256 18.139754339924973
7.429263185955144 26.57444817687522 16.350181259319132
7.4094764440119 26.55276863436829 13.749494786955864
8.571404071532179 25.095670816162016 12.226746387943075
51.84287937376493 43.42701064810602 23.62996238842056
49.60902393080048 42.22919333786251 23.380818890686392
35.88626333856296 82.88554544608007 6.252686470104604
34.556343860010095 82.6038165918759 3.9927770189171876
35.015127604753346 81.34817414467575 2.172595987391963
37.30029230440478 80.75703951350314 1.0420526914598969
13.206282535218909 63.556982781233415 26.32023185847959
14.582822876195682 61.88173494571182 26.021595538388937
14.641336177257967 59.44803844720133 27.262094657862363
12.771084022355028 58.40721161177878 28.694710796574494
8.075307194281336 75.93334877738482 10.459199913468591
8.120109698932032 77.89357303814276 9.016235923903771
9.989892987499198 79.32210852987517 8.055774485875562
12.0728480193871 77.81863297259635 6.98090069936414
31.962660000560515 75.08495066568207 0.8864023032331944
32.11744466685212 79.225247874104 1.4651614952279957
33.75786510141854 78.99916897409884 3.261686708191221
0.13809908713234212 20.965717438010454 19.268997828243215
54.48984640242078 60.60151946779677 37.898049785282545
56.02287285535179 62.36540476474905 38.159952392536546
55.62475834245279 65.03152384964872 38.11831259844616
53.5791593471354 66.45953587546259 37.98416675018562
36.33182598087203 70.948132690389 36.637209246048336
36.519661073468285 70.15851199684951 38.55621247776532
38.44007300181649 70.28395979144483 40.1840442812517
40.606128452767855 70.2751233724186 39.85856120235674
40.98394495145785 61.944819636656725 1.0666406894338638
28.390482065077965 90.3409523001926 19.377176187223963
30.555181454923016 91.65818134416976 18.477033679373204
30.88064145544221 94.3062515218734 18.97927131264417
59.92588158063965 64.31322750958687 37.72542354582621
58.04753575729997 65.04044885809446 39.302260051429386
23.49051391296375 20.01740313285765 10.483170851091023
25.293843920845465 21.349562934034626 10.063550582828197
27.127831171799194 20.18675311106098 8.137896981418296
26.461330304023424 18.74048717940561 6.305104278568694
8.553031073869102 43.589781737115274 3.9136907906472715
10.310837310579101 42.53265739426328 5.421767680491538
12.703218666258971 42.6859181183502 5.70470653595203
14.408450854171024 44.71530187944308 4.870786303940123
28.275107251725462 26.871586399641807 9.21130675039132
29.064998608975735 27.380622957654765 6.967973295254022
29.903636166886056 25.384764534559537 5.108696899258106
28.612216765350173 23.868678619677674 4.4992370758649045
51.59809084513773 45.3499068341198 15.79041716552053
52.38984770859626 46.970693251020315 17.321077047983003
55.28728710813964 47.300659379514556 16.965140300863027
56.612684143778516 47.40902726767097 15.236211445125333
32.52516157346848 76.98142995776172 4.695803783300349
30.84533206698507 75.66427503935596 3.340842598989763
29.55148958284448 73.41385846552024 3.7738512225023455
29.013552132477056 72.32145422421281 5.392675574077223
17.426986893132394 60.017245339462434 2.1026119887143393
18.024066371218623 58.18741333850715 3.6301693104001354
18.553112866548187 55.95093024469611 1.6122290235804664
10.436861671289646 55.49845840994119 23.728638070640176
11.681037545241102 56.791974280973804 24.931158973047527
13.82591151731041 57.633119953685046 25.10551111235571
16.16199188822497 56.48121132000045 24.12738332998329
42.21858602271639 46.52856609065274 1.6741126159619282
32.50742919572506 83.64351191549117 5.166201476194259
31.815368536670032 82.32609701372787 3.328326744105711
30.426153646984343 80.11838866310165 3.1474024145202604
30.080949838462686 78.21379060690472 5.091581697252469
22.66668175884647 81.85263551986826 18.093125946246293
24.85706784497038 81.74185127355864 19.546670547885874
25.395909627584647 82.94931435389242 21.4848455927045
24.20244874564054 83.50202868421725 23.505595185800573
26.977179517057923 70.07909451222869 1.3058965251021941
28.524436778508452 71.65392075221773 1.9546278962790369
30.167063458344508 73.06949301139171 1.0986101374916433
18.615916740262115 57.18234455429623 25.479312296344823
19.568516703805578 59.345992413877504 26.406543326993553
19.92840857944194 61.72708841481372 24.80296574245361
20.159051069990714 61.79883322021284 22.18841045310722
20.02940010106551 43.96736688481596 9.31127092687276
18.434192498662295 45.00637227096857 7.872818406082926
18.45609853698422 45.37864471021218 5.162134595779334
20.466292288734863 45.60110079215643 3.535304206540501
31.990254111275046 55.697197449699466 19.434252895507377
34.23437942596353 56.59223283812784 19.13447176291535
35.16441463020259 58.28890634887932 17.648591690271978
34.63253084726751 59.36049599584918 15.505913957635315
26.202730985280127 79.97368079953576 25.745123891799206
25.72216489232015 79.1935120120859 23.43828427510113
26.181783815084444 77.01957740327727 22.220147908153866
29.003049728541782 76.5621776002093 22.288117185175874
53.84145484247838 69.71610966667629 32.96104297235764
56.1463550578793 68.89060587159756 32.776725525527
57.74217604206047 67.63846922142747 34.150701392805516
57.20889329198123 66.4063494030676 36.63495620644427
6.124625054301582 50.511431656168995 25.01004666232939
6.862744914861585 52.6862246953198 25.524372435150628
9.655064769830279 52.87809802887428 25.176808051304587
10.757088044512741 50.7713379144895 24.520491970164663
59.444294813918674 30.41363178932178 2.195912435491133
57.689834909995476 28.628989087090677 1.0814682649683272
0.2850979546177547 74.74493753032213 7.47605320301077
2.374160908228351 75.41875383359385 6.714181551090311
3.421246098639675 77.91902588756149 6.892311881458998
2.3540833604588625 80.07292523083444 7.35826025244144
32.06883804667142 48.344342822778366 27.01484999919611
32.543974506008176 50.079863222025736 25.677817752748098
35.50107586607071 50.32107580621413 25.283348007277876
37.12076071292256 49.503825833696034 26.60202527312932
33.19237552742669 90.66146714854669 17.16026282081026
33.53808137883696 92.62539799373127 18.11992174786975
34.864450943970404 94.69262946570595 18.053622798914514
36.59406712283839 95.05605372475294 15.529005890696004
57.70727896116356 92.02054857481994 16.31053291774451
57.848962092597354 94.0488384022452 15.061761071819722
55.524669336755544 95.71266382103583 14.911351219411554
53.7611261027727 95.94979716590248 15.84624505634977
59.80444802484469 51.94265939063406 14.910092461059426
58.86143224947755 52.307831932494054 17.61084928035754
57.46691110726022 51.28546951218697 18.81066741770098
57.60592521804717 49.20187933878966 19.102343073392134
9.59782074785083 77.09388939411888 4.3477086731663706
9.273028489341536 79.01574425671055 5.422598639246966
10.556695868589234 81.1903619387167 5.465341341400187
12.658043393840096 81.75062887503442 4.081883727027833
19.31168897182411 64.8134456989961 1.336561620229469
21.493414581423604 64.3851493733905 2.243132612319627
22.24965415345086 61.561508978779635 2.622652941353517
20.969679212855596 59.795012044189164 3.0106136857919883
22.183179810417165 17.71398382190787 9.505118460746298
32.49240794943548 44.22427276131574 21.632126191224078
30.183934556731487 43.29865013274551 22.31350847124883
29.029801928517344 40.949779277329824 21.492679219975585
30.404069145588263 38.91384227266289 21.300431909284747
41.41399340045707 58.338269330434734 22.811273400715667
40.23765503431718 59.96007554305678 22.215858505891354
38.84584685441135 59.73945590542019 19.85674940050001
38.28955150935397 57.64481451570267 18.82147247120311
30.761255355927837 57.58105086474768 21.846692096370926
33.36716180969235 56.655630829159335 21.78126088968659
35.57858700769614 58.180417219484454 21.472730296038357
36.097600046551705 60.390949894757384 21.333792423401313
21.31543366016641 94.32752354614875 1.8790024602229647
22.09318824576769 92.57923478406113 1.4600563746861746
25.989145635918405 64.91432253831357 0.7958630778701266
23.758511779701873 63.307393975916916 0.8023593044479739
41.24308217141933 72.81605349881916 22.594807655619473
41.16865539205419 72.4778074698564 20.628985108324787
41.439578905142504 70.13988074515974 19.08081439738224
41.446271116426324 67.76671834397013 19.98140386417544
6.261096441995191 39.91217206277444 16.303652863210605
5.763341140411951 38.79166854572557 14.870816174669638
5.983490820601825 39.20507145981793 12.10318278233403
7.2585691888401485 41.297379976141976 11.284177829587172
24.16868048152203 54.02421051158665 0.5120020988670858
24.4383136357378 55.98714427666641 1.0325885186724522
26.609263469187052 57.29627087203024 2.5161143340965366
28.293350853966952 55.742542798477345 4.235216783800816
48.74962474610193 38.667218260356265 15.566645540640211
50.10368242222457 38.21298853086118 17.847392780216204
50.049403763603365 39.17600381124137 19.946824838524506
49.565851093942264 41.64627226452579 20.75730355433552
28.18649137891082 37.64483895948348 19.74528229452761
28.468539029602713 36.93774433759809 21.93412811023435
26.788387682390432 36.55699797551835 24.027698987557965
24.602561310835966 37.45210308734609 24.43886032287743
24.247625658356302 75.23860938432209 21.966987091875286
22.636142288881366 74.3839313170271 21.65837638243872
21.271373815231165 72.66039836863159 23.117555928376323
21.857921838082955 71.28605234171451 25.21210487774599
