9.819185933395532 80.24826354828933 52.75072830579421
11.282690800602147 78.6799675499955 53.459986282914045
12.519658023397055 78.11134678270015 55.3893130331574
12.855629153040066 79.18922015031983 57.5971367327692
21.028853038003295 86.0897984621163 28.407926415194794
21.2278320295404 84.78890031490839 26.83006223891945
8.579012196870647 60.711401471510484 14.87133271501066
14.605823469987271 69.64921773648348 16.413137634644084
15.349997442553398 67.85979750220164 15.018880842269462
14.28292535590258 66.6114414517871 13.233742210883731
11.349512372583451 66.41426187890333 12.415222162973738
17.81361667000111 82.93658794663786 56.43858434976891
18.825155397611915 80.80634651285887 57.55289777566132
20.85924405414309 80.96815792562184 59.56165178517415
21.36294190095481 82.52552838015107 60.85528486566505
8.12158178171158 75.0469808148007 52.87865325467463
9.069688772417031 77.00463395539096 53.208642659460885
11.975815112541353 76.04853371835111 52.98454091518995
12.35756585080841 73.66689642729709 53.24053597751416
5.83429721234692 93.34311333308067 38.299864689141245
8.10643867858579 93.53601744357789 38.213156642067794
9.994879321911144 93.46234399426339 40.15065034805476
9.557303269996607 93.31509059221581 42.75817554549718
12.531254950160639 59.57863131028189 18.418994024749697
10.249609266788106 58.98812444297609 19.495752734084782
41.593180081249976 75.43715826700993 0.45630728090613365
55.40496986619128 50.28763700370018 1.0858202686748022
55.51872198873095 52.539525708057084 0.0424153506967915
46.38011644298001 93.43888128941386 2.8979171300809408
59.70414454506664 52.31066271715731 0.9062526780170393
60.20702737035977 55.08562081717801 1.2931638362429896
51.04620915097828 75.17768678184122 2.8783214816065454
49.477289375790356 74.34272436952342 1.6727050921382303
25.823546031915818 87.30130428924096 0.7596525902057126
24.567261450783377 84.96324943269425 0.6259570476644643
49.16824134342228 95.03347487795193 3.2510590664530032
48.780901608567305 92.94327979637902 1.7439103934276612
25.19822920452045 85.18900336476902 3.4473699462890086
57.37619022446306 53.79726783399768 1.714646107079925
57.517475908231745 59.69287183699363 1.5352858341110283
46.83724865768004 74.67443415617969 3.1032100254461072
45.35571111860822 73.1938130407003 1.2385542695025218
26.731982169744445 89.20376333366535 3.3008073419537816
46.26497467326541 76.55127981825349 0.18968347075021244
47.574938515510055 90.55961865168274 1.5660111532874499
45.44036325382658 95.77537143064448 1.9381308099873722
44.736526189496104 93.17091807109955 0.7274040750556774
42.597690151581126 92.23312566412783 0.36721489835834253
39.91699420463316 91.03915315453472 1.1867771232624895
45.25521010987636 93.64535385057454 4.827755626163484
48.62471389927199 78.4826697946648 2.4547682008903062
49.87027377622313 77.36003261198847 4.164549025537389
31.678289583915365 87.51647810331134 3.4398115261990396
46.42808849754778 77.32270966260026 3.1244521502703897
44.358921360768406 77.57063268222173 1.9798215256387892
23.63894104275922 63.607163601551264 30.354107269613287
22.87278046594979 65.38616761884319 28.98040524134625
21.47982619325499 65.31382322625714 26.49066969985005
20.92939133702797 63.893662728362905 25.151238206492586
23.970260113424548 67.5434061176106 30.389982774874127
24.439098726300312 68.55786200613342 32.23040222912392
19.779137475496945 68.47283592626897 26.49200419160813
19.094703820871583 65.76412323955999 26.483463094392242
17.278967705717633 58.09748702174967 23.732577321846975
29.546071772459097 92.64075146368022 37.84501959377198
30.56796263416291 94.47505055482253 37.12010808878103
20.763271433378844 56.0684527096952 47.56664455661514
32.250557015103595 94.34224694222587 33.738674677968696
27.891256482999086 95.73219954816994 34.93204015221375
22.010491059347792 62.89144041628094 32.455122113353944
22.09306657886837 65.37887391875535 31.958186712865114
21.902694827770617 67.29872890276519 33.48621741771196
19.527883955728928 61.49655133324316 24.394968293246542
18.242358542074545 55.54154423115708 48.86749145803399
22.64326214602304 70.20463692914561 24.637986956155558
22.18578873840184 67.73718789938151 25.23137022673425
24.081753485805944 65.50718749338674 25.528239475241474
19.59303623021472 62.8525772987716 29.346930631954347
19.864442133905627 63.90244911428313 31.453632123819812
29.286340254838684 94.39023002052322 24.37806345151655
29.243875540174564 94.149764664951 17.360464002097427
28.940388848854123 82.50052008635032 24.635433962373515
28.90429866783757 86.32920109117688 25.27604558265601
27.1536780235175 88.20708496082571 25.70449941062822
29.03590048326029 90.2160845385023 25.81967686918833
28.573349253067224 91.02978724096857 28.103098869863647
40.832301388998 70.44181960974726 60.70580953070412
38.90649529695734 69.5029520485343 59.40640616972238
36.623885426586696 70.95614155857005 58.79776705585374
55.840759406488935 95.41352518394959 40.15657414585477
56.663380346233694 95.70368033809598 41.97067626440796
49.84722564912328 56.40760459096354 31.19573887651291
48.65034738855504 56.09391815921392 29.181116234069528
46.580987946926705 57.91698198736604 28.37896853424151
46.650192496472386 60.41272652829175 29.446101014538243
47.7233720196051 62.86053483834972 37.039466670308755
48.19564874468309 64.71473845083354 36.18497829941345
49.90668800340058 66.56547249368315 36.61441291921502
50.75926529814354 67.4682339108299 38.39840001808283
45.13487674389557 59.74411256749702 16.291387788987503
47.15243535069943 59.112788749672156 15.260774815529098
49.320281170639475 60.381600198454386 14.554152577619464
50.14772144578718 62.208596130792124 15.098646156736372
30.085244823650076 58.19166003501524 47.79020771516027
30.381429686974723 58.34844882576728 50.292152995805424
31.90103750596179 60.186210536307804 51.68674089774155
32.812972671891295 62.34428643960947 50.76365882970488
43.12983112360583 61.4411146957619 30.270809345883354
43.68487649351641 59.22770371882822 29.260950481289335
42.433237442223685 57.466520068404165 27.91729409351706
40.52106198466283 57.47621195611828 26.2459760088281
54.84417328768956 49.587293711675606 62.018472950456065
53.510038600542764 50.718883507849625 59.879526822918
51.51428650662855 49.907340271220754 58.766936021916955
35.07185418232109 60.25052453531973 54.88543091851763
33.67408284236419 58.80157086742524 56.314586556846706
31.77999235352862 57.5001375457779 55.988364461549196
31.082004188896484 55.99453520221372 53.876431647224614
37.225107369288885 82.2077163125988 34.36158270835912
36.39789281773438 82.34357951646226 36.809151258531685
34.989799583886054 80.90597400521803 38.13493201138674
34.0523365213145 78.69231494085278 37.96744419247218
45.636353397309 47.794507056662006 51.72588924473756
21.629205907218978 57.32124931063474 54.01866336990458
24.304741612472984 83.59068561707689 8.282523521134255
27.612327698357813 68.43304199890787 52.50142706133823
25.880408558556876 73.09012185432519 21.313595531281102
24.808543209644338 75.06492081397533 20.781124012609776
53.87291679838135 75.48678116000497 37.8283803088348
54.86362998026166 73.40614426949962 39.58838436840572
56.746460297049715 73.2884142063461 41.01209790689691
58.2653001195139 74.7849791934883 41.656665354910736
28.968749352074667 91.32298913503364 14.695294479420948
27.721920596577213 93.10226839397914 14.217781709265374
29.697811625381476 55.94202729210586 50.34624987660797
19.575872156341095 68.38603406344092 16.427864446011657
18.489855972435286 63.9340836461767 13.13760091984372
35.615311641406905 89.57479642401167 26.207846853498626
44.249900030433494 50.00658451972722 50.23906245096759
44.55985768734058 48.250796019446184 48.71283086170721
44.62573550144885 74.0639203483293 6.564561460563009
46.58317727777642 75.2641516899606 7.036572355523528
48.36202864555282 75.2716554288941 8.94961293227751
48.89930712931787 73.71011687436864 10.785300815487314
53.56422100131352 93.83060277977874 39.87251989326416
55.57406422211308 91.84620573496625 39.68759622642244
55.75275833976792 89.7185936090696 40.7627815206928
54.365060769987615 88.27486305600414 42.11872210000482
37.34403483109394 83.33873385278056 42.881156454137454
32.98720197357714 83.16248807490615 41.25858202380751
32.624777835744474 80.99478468579753 40.2718583498289
26.32721757998128 77.031672301257 40.55826876596277
22.476319445169363 74.5689931463432 15.497191570045306
22.506346206906215 73.95178184560329 18.323030476394543
22.227715167997196 75.61643824406192 20.28149870107059
34.132689544289306 60.57122167180587 58.220366532036174
35.31820444980046 62.47628210770222 57.724035218350615
37.85878634347237 63.11155041924957 57.85343150781238
39.86601120246456 61.771820979840186 58.48793966834924
59.452632510029055 49.02056936369847 60.44708722627259
52.69301426981252 46.58029236772883 58.29700723501822
52.08652695018868 48.43094656415099 56.58673583291772
50.54270422429333 48.494492890688015 54.60563841379913
48.4652505920882 46.80598826642836 54.24044772113366
47.924379647840766 72.7931382638277 61.51264153345851
49.09523942793357 74.80559615604562 60.53373871379829
21.57680202127246 65.4408442511028 19.897137512879702
19.52179176230169 65.92893748114882 18.938358775068384
40.29557691451819 57.32935507232355 12.52624808915479
38.527652170354706 55.758803831266135 13.640591939770992
52.503536558982454 82.08431459885506 25.80837729441286
31.33255157568849 74.2688069718074 39.91139824870342
30.889399800058346 75.2999032419034 37.68100000221693
29.739378561430005 79.29668782124484 39.006522547754045
23.89622737147655 66.8637882731175 20.05539963997214
23.065801577226495 68.82585981427962 22.087771711237217
34.4607283770431 73.95339749018325 55.29607710667201
35.52421248511635 72.07034906660854 56.162855415443154
36.19098395933417 69.67913808124062 55.07290545010062
35.9667264994299 68.8478128565209 52.90722549949159
18.125054896622405 59.227527072036665 16.363871901545988
42.8702307922308 56.887474667434496 12.849255564203048
43.81758743877042 58.09622783059144 14.779062323049088
45.71221256836249 56.702637440259124 15.731777540188627
46.408211407978115 54.59213937054392 15.1368813551996
23.40300586695786 80.65042843957725 60.98668598816272
24.422876794206758 80.18747333508749 58.68895141247662
55.43505291915301 45.04168626974239 57.14160999664469
55.23432590643871 47.03126951711957 57.896539390487646
56.16012115546007 48.10817610632884 60.14108935918509
57.567440028636064 47.04313884672277 61.92191482119753
48.88902159178226 74.31724593686805 39.90345315348443
50.04186416118178 72.17247023979048 39.728030048651576
49.5760264377553 69.73744095260395 39.46797282751601
47.519393683573504 68.53409461542091 39.292017255339175
57.92604311624654 68.44505314093509 42.798689067132045
55.76986147913244 69.61005867392086 41.78400242793413
55.481219281978035 70.90240204305044 39.51040439574935
26.670973641006064 75.99534396555956 43.06827480423778
29.90318694975516 67.21081612647193 14.875175332386945
26.154154994990307 90.10302306694771 10.847639023254798
27.937255366925022 90.44643338770783 12.243218387777434
58.23989507670766 90.76403411382044 43.597810428560706
56.92537523618222 89.00288283761732 42.915311415646755
46.376593184246104 94.47719230324613 61.59709760231604
48.04781218419639 58.20339071323377 37.88046023157646
49.59381757954536 57.041183702055555 36.664882403261146
49.23858764361622 56.64770738277542 33.833718825561704
47.639770473277565 57.160900232208874 32.74557383120488
52.0338546760747 59.657323636183214 16.095459313576114
52.51282081170507 61.72444810739824 17.481863388297036
54.07412690628766 63.45782563703677 17.09570113672588
56.01884595400662 64.0173486296282 16.499312423751764
47.398952587000366 51.88892457897959 27.682386979704127
47.522986671294206 53.4210863042663 29.572045947052082
49.31172015090227 53.711347141432114 31.22172327823067
52.04529799957734 54.08846581100948 30.445565721975534
56.4426481558414 93.41266162770404 53.387693252667475
57.06484247166776 94.39740893676702 51.3878962674085
59.2042935839219 94.10137754913127 49.85785081117424
22.037470247645352 62.803566478489735 19.129659880144956
21.03083222527635 62.39192358696352 16.544010253568224
18.256656712045103 63.1144105193621 16.907503188078312
26.29408260654023 73.20788354266753 42.78450263735965
26.35655840267861 73.98913074528436 40.37907851845036
45.230652616992714 51.64998519428283 33.21224718531102
46.67327818225496 52.99886369047441 32.11496065851558
46.172890337871735 55.531384741741014 30.66293816637376
44.457874767964086 56.58380616164925 29.828220116072835
49.97102209108898 60.84820970623705 37.3531118523084
49.41994810104845 60.68797700388344 35.30403169409574
49.87414713016553 62.73847541753136 33.4541259331552
51.210530226225025 64.49339580336841 33.82560193122692
26.646639532348487 93.60257389501183 7.1465610469573
31.329783551339155 71.38484370250082 38.057567715129046
48.36508124520356 89.58907252829144 61.47840509541353
56.178321983055284 64.38387326808122 19.257755953264958
53.804211441215834 65.14657679020839 20.133801183925417
52.8490562330841 67.31174916653917 20.94578447882355
52.92590876069763 69.09818659055716 19.040271125660773
29.42563144798358 89.4581472847476 6.997611787500469
27.788143277010573 90.47892494440116 8.686320385836126
27.962322716293965 92.28237604982309 10.377957538229245
57.41730589542632 93.70765435140585 38.74958636808982
57.921448377367646 93.3673402364724 41.13649034669329
59.46315615329866 93.83381276832131 42.78353427863096
58.71213988820737 83.53524628120387 26.29927081062613
48.55908253039653 58.3272091863487 17.810129806967183
50.93274807189054 59.5145258037576 18.77394119874768
44.13295044904076 50.83646198699721 12.492932367485052
45.030304869776536 52.41846003853868 14.422213286479309
52.46117538482918 52.723433851235214 58.45911574717485
52.585980168924706 53.83590645574021 56.079338560312785
51.294581723353446 52.08882504959265 54.266178683976555
49.37160816805202 50.705203495616715 54.70922619687609
48.38342348466532 67.17334099517677 41.56336474864064
49.9476565690721 69.27565250855932 42.2614597311438
50.58848514144145 70.01812433135021 44.47141136837805
49.30986601040128 70.17575395074842 46.60935890749737
21.06591900450414 73.14312964363866 21.025901030643166
23.029395293072657 72.18622813376165 22.899147169726287
46.74630480248163 52.94061039039404 24.98577183322668
46.48770463107769 54.65412416036713 26.231369957781425
44.33210852078858 56.276936926174564 26.550721272246108
42.54257314672193 56.4973960444206 24.900136202753448
51.92802358439903 67.04130924444091 34.913703970873335
50.69966802498321 69.20951498527603 36.094075030395146
51.467513132441475 71.02933472169559 37.53022684718604
53.195771345865595 72.50913373075485 37.45393790655438
24.86155215455534 86.46797402623658 7.566180633741042
26.88033042276842 87.53646198019821 8.3276178457068
53.75392149012576 65.63999583761361 44.55415614643837
53.09536953208447 68.13438255149713 43.77255956665588
52.56208646450164 69.14264103708285 41.62436720767554
53.00468076030435 68.2293291090817 39.284900901359634
23.177534917754695 70.80035214156409 20.258880075518967
21.753130033858056 71.19404736540233 18.414535738436683
46.960949141741224 47.55524325649759 47.47487436079908
44.24758844058818 48.0278048181543 42.52974810993969
59.66620425791182 76.13130157998243 55.37271504617566
59.07774261150356 76.11931231806447 49.70907206330678
59.230379297677764 67.22092083069936 44.80745868870281
57.2239982954346 68.15879128644175 46.30410271686485
55.30351220607769 67.30158815061176 47.36038646054087
53.67431962068661 91.26958915828372 37.31738393327972
54.99293979511777 89.9096339249548 35.42738229991094
56.435933267051 91.11695841653074 36.601555810668884
50.41426890802391 75.40791667052049 37.58676124907467
50.1131891847507 73.38525240740975 37.291786705678746
49.47192611179169 71.59325360869282 35.345614722080036
48.74189057788948 71.86690250521998 33.445184648627404
45.48425826098006 72.59176386181413 35.985888285444936
47.42200832324555 71.27621240478666 36.7944909851971
48.05308066136262 68.449690642707 36.45125028736951
47.57085345311039 67.02637287533139 34.98676147153972
22.095120398294956 71.8916224514369 34.288490613429325
23.410501575020987 70.59708146279759 36.21884209885174
22.817294994537352 70.1578538022322 38.43914473534233
56.99986522147184 52.27064851098743 61.949015053573234
57.7417105297426 54.50880971984832 61.95134444635962
49.28092092634653 62.64234489898577 31.004275736765646
47.60819984034869 64.13140039802069 31.33339064042015
47.872046088192164 66.2697573156872 32.35121118656494
50.100262090165586 67.79369206733601 32.604286319951456
48.896907356652484 71.32975517512301 5.817491818021751
47.94650962329958 73.7724941942826 5.294449214297687
21.437665305015706 70.89872873034888 27.00432786905545
22.73827420513364 72.79898289928607 26.551162929994316
54.91397569292145 84.78367957294275 38.4918490747827
55.03761782477736 87.20973260075107 39.03077466883732
56.27218133343699 88.94116079672305 38.13330810845483
37.61508829675531 73.56300183960687 57.41279565372209
39.429732998180754 72.92793239775364 58.09846123235449
40.202118331592395 70.6961934414275 57.150863856046314
39.0949260109648 69.68128854447251 55.11977469661875
28.72588299521195 57.16809053723528 52.97895283789922
31.719259860165142 77.28187149439096 35.39978114956372
31.085837498146365 79.8560819015926 36.367882954588964
33.47225721643984 69.83853770673625 31.433838432589404
32.370722480591716 74.62208226077473 35.03727066538898
27.60877191455597 90.25645003661977 5.2696526451784935
28.72156369735883 92.60091968266624 5.359637790300693
20.325397381540427 61.28524105267649 13.582949090794074
18.235015552638483 61.443391393199256 14.18953523927718
44.144155439197554 52.13661948866101 9.19397146916933
44.26675755035165 53.26119174076225 11.121425116815162
42.589615405183736 54.34369047157191 12.550043204680163
39.96329912972098 53.6845428011406 12.206196374902552
37.984257357007664 84.86827095650959 40.74594606649702
36.48884778236592 83.6076653185163 39.360721575335994
34.40599105684745 84.90549727563179 39.39245231995593
41.48667461275569 50.453320711944876 9.840797160918106
39.54958334455318 51.217112219375174 8.05096913536952
45.559731979308836 50.96633368030122 26.3231876530876
43.821283952694124 51.78946444515033 25.02963875975541
41.40624232134129 50.77253320815985 24.489002986671387
51.35640284554449 54.64839247680148 34.310296844190965
49.143330363330904 54.14371469569332 33.8613244764257
47.489194208699296 52.26363974067193 35.013187642594026
47.51022279997194 50.169793461637994 35.307543082773535
36.79486039616434 53.48384158253124 26.50847081921858
39.0551479987126 52.81283443849824 25.534666472378863
41.154480912822635 53.06492023465601 26.164492458628093
41.92503854868887 52.563538046317646 28.238201328242283
52.661036022108505 79.36971343035202 26.34774694823603
41.56601021731662 51.327495701610395 13.071758587718849
22.49529978441036 67.78372342976654 35.56682783929531
44.8080062811388 60.33272613609099 32.085545928608155
46.6370910946828 59.84305729400876 33.56647443478566
47.3963940692069 62.45818544694116 34.537961966375235
45.702536999929 64.54552435952219 33.41811918975405
49.285428747091444 53.92188980928778 52.14963567340597
50.44622751887206 51.525356720229766 51.80060223930149
49.68591566653112 49.783080200411106 50.42987165768617
46.96762464104356 49.05638115615175 50.006867369233554
52.558124295549966 64.1263103693593 47.12802007059273
51.36183549409391 65.22200056271181 46.04155149242222
51.50663032967901 67.42324714695535 45.90462120905277
51.99669825972892 69.31468882019249 47.552907808306834
32.7114346199099 63.54206445088072 57.998865627118775
33.48525554925597 65.05216154446892 56.64857045381658
35.10478638463741 67.14157684769738 56.83678259926389
35.11352462037235 68.58024509374239 58.16098844268146
36.547433575313086 55.618042518706005 12.069331781674643
36.91534691835912 52.92420885866604 11.939719731150772
35.69946568768944 52.590592905459026 7.668068747132598
42.01230700430245 72.81899076774667 58.95904207629476
43.41816905048975 72.50428650432251 61.102548317934655
46.63006080022165 75.6511057940031 61.613602787898245
60.12021109758333 60.1712297049082 5.631655448714215
55.50980313869028 46.50097518642715 54.64693398964546
53.727276656190156 47.5883799077319 54.155397588464645
51.748486547953895 47.85447142366723 52.203314179325865
51.4890151706209 46.39051510770909 50.05877455112862
18.357745513036626 58.00651542958273 50.490785787142926
58.873767687002875 58.52000240103226 3.631078769321294
50.33079132501047 66.92829167666908 20.00729860621488
50.65307097919407 64.97612615769545 21.592882873665985
50.19887843616415 62.102516079081134 20.978187490745842
48.90140870544527 61.25388550528419 19.266811726810225
21.94797266042563 75.64048522962369 23.23293626212317
24.191567125166223 74.95372365199478 23.51300916606361
26.06845838301111 76.45489824857835 23.38502413975449
25.545379343380617 77.94382823308048 21.97433386313859
33.184324885622765 70.5099538263808 57.051915010605825
33.11310838580976 68.5310716381397 55.61290014003342
31.288420119703087 66.54877578230492 54.98385732879124
28.69618268429372 66.89206711583755 55.044395624652466
33.039896595012465 89.73235941800202 28.34414958537485
32.52730700179973 87.63388009944293 28.887880115155237
19.77854952775972 69.14923634937072 34.027852599091354
20.39958731368989 70.67498208330495 32.34356650261455
21.572454700055182 69.97462770258714 30.215690471775556
20.787955184211356 67.53289793732611 28.789720490282306
33.462563873483184 68.0417590718849 52.93218170128528
33.12049690594999 65.59725415873707 53.363510548114405
31.153215252328224 63.92343267770468 52.359210809944024
30.05945312126968 63.76401918606235 50.52321520614665
53.18193693690724 50.169034415912904 51.0253822560952
53.368238435683246 50.234200646930105 53.1231329051968
54.83386176749189 51.72272212484581 54.88358689021283
55.8302114010967 53.580655671616306 54.85763525542225
47.727309282597965 70.02642770474219 60.55678249028548
45.09377699904528 70.6171030415863 60.267918673077965
43.60204935299191 70.66197181147865 58.701435799435046
43.38150473399167 70.18406819834414 56.39176179882399
52.94296006251723 63.373802845423356 21.719877248796557
53.00196867028528 61.712174529131325 20.40797000422428
59.25368586801594 51.68497047331937 58.78635847422416
57.23195344252945 50.54685839107152 58.74258029563703
55.75493171986548 49.60032125176293 57.00715916014635
55.93385520357552 49.166354335548036 54.63202670805302
51.89320616757222 75.84033830713192 8.918342498292308
50.43207817551162 75.37501200362213 7.1993016436142945
50.644854966853934 73.66417055705926 5.275298043620821
51.97407953619392 71.95308362395603 5.214018252163331
23.866382385433713 71.12267930735699 31.797224245286355
24.93158922585983 70.8150526766815 33.84196906015903
25.520454485307397 72.69128164083739 35.86897411564585
25.8399566256611 75.06363152646131 35.72517128320417
58.23062923066419 73.35276781586768 51.96784447058761
58.64716584750537 73.26962747575898 49.74681184069971
58.53398979944227 70.9760820930781 47.9731867128734
58.52529966192794 68.54536620627118 49.090002559877455
57.41628392838993 73.11391197082096 43.90636700870267
55.1432780209361 72.47969941536917 43.18750868731782
54.35343680177049 70.3489048055592 44.66456887778692
54.467539202946995 69.95365368770806 47.12560072424086
39.67028799294506 63.10439956467887 55.912229292842376
41.76460833226768 64.33498820647347 57.75701499793856
42.54695028254061 67.20886715176077 56.93423700938361
41.3541040910826 68.41071523279602 55.32513470775239
57.58554587455737 90.2279320265324 47.98116030084267
58.20711600705394 92.06688004659587 48.16291295225159
58.06521798158088 94.32814097815104 46.33294560387644
56.994384650856965 94.35929698978919 44.2882562390225
44.87616746359964 59.01306051583465 26.02179171027038
46.98872740735015 57.82963446868623 25.8648284804416
49.215742921651284 58.30909133803889 25.431362843981812
50.40941150987437 60.40096944830056 25.234374153046293
30.46082028533915 64.14273565740837 56.354178088284215
29.14662879890076 64.32131852862751 54.44102052426039
28.905855000671846 62.09734814388915 52.61260712597705
29.393891338574093 60.1837187553712 52.753187183597284
58.82099097199206 56.711296448090984 59.6980130911704
58.40107079544496 54.39462167757686 58.94426057793111
56.698411461917274 53.45744827454397 57.584062250841036
55.23777078723362 53.15838984629428 59.01596263752717
39.88110776756348 64.35998269024503 60.024881413564444
39.96744343375208 66.41679612291594 59.40647731789789
41.89969764515305 68.44881454130045 59.56303078081053
43.87836932430108 68.50043717905251 61.27757865033387
34.840303395648554 61.8162105808369 52.25159251987719
34.80729602633667 62.70549901284417 54.18175538838933
35.97154851316827 64.75381969656313 55.64929901184806
37.16927811608618 66.52383079056436 54.63710547597966
52.05591801560843 76.18763570828553 40.84418983786459
52.762553974777475 73.91747192382374 41.040505775520835
52.68114503484785 72.01022627962463 42.636893077281485
52.23378858198893 72.2549900452728 45.028174427617834
28.90673003005712 64.83831583777149 13.750202544899254
26.569228357483603 64.70848370596113 14.803354232310882
24.272942165283776 63.96124162222811 13.644772329211799
23.986160158271584 62.98600990437443 11.119817825696598
54.70313512285651 83.36392605494004 26.802087307217022
55.49462486120273 87.19067100993549 25.219695058416175
54.297746600634504 86.87698457818587 23.205072415972786
52.228387159006154 88.70004840633798 22.402924716144774
52.297591708551835 91.19579294726368 23.47005719644151
48.777230335685296 92.22418111473382 24.29476552778661
49.332275705595855 90.01077013780017 23.284906663192594
48.08063665430314 88.2495864873761 21.941250275420316
46.16846119674229 88.25927837509023 20.269932190731357
24.836067870191727 62.47312240487144 17.295673172388614
50.557874496857956 56.59888902063567 22.01140679839691
51.50393768592504 58.85268470563854 22.99864055078979
40.02045064674592 54.38633191302378 15.642273190727321
41.724292787767276 54.982640579714825 16.896203613302838
48.30993122649607 94.50848542862747 5.8485126436290535
57.6926972116568 84.87153222998141 24.46952190387879
51.8202895499512 86.31445116071298 24.686894348277022
50.105273980043535 87.36687258062119 23.8521762979761
47.9328961169922 56.43357226206366 17.387097129516114
52.26100096077182 58.690619354678006 20.23342824861027
47.30127988079394 51.99041943183426 15.531777817249035
49.97950773286803 87.0600033451465 20.57467745414936
26.812470062309387 64.55600470410108 18.961603898186453
27.342270959927017 63.49995650406707 16.96120287388878
54.92832013842598 93.4254113179577 25.028231918668897
53.25559905242814 94.91446681699261 25.357346822323414
41.881792250893334 52.268039411211795 17.43557326712602
41.8924812452288 52.59937647238809 14.685802277850325
49.12013092030202 60.34439754935071 23.111458940434304
54.37626471815365 64.04249470260154 24.046237038446186
50.52356667567909 89.7961269348066 20.045747892173644
52.63612661942959 88.61270088765816 19.88878466234486
54.86314213373074 89.09215775701084 19.455319025885064
56.056810721953816 91.1840358672725 19.258330334949548
43.92389135164134 56.26225203579982 17.88991362610701
45.64308060715155 58.263708310458696 18.338649606794434
47.27415632401566 58.94138662980776 20.01235113986835
47.918065171434904 57.867912688744646 21.903088573660554
27.707811809724806 66.76399361942241 50.738310823320326
27.571640536318412 64.680869089244 51.42460583339812
26.264596428834597 63.70517528937422 53.65706506929209
46.566178156069164 90.47250433761042 60.062131345525614
44.822692959715475 88.98711677215698 59.34032158233972
42.52342665637688 89.80267879263509 59.432225418515394
41.45156130746436 91.77747775228525 58.89975389984407
28.080798028932076 54.685611130835454 49.77557394787822
25.315933994488688 64.94732348349005 25.48814910385203
26.215706704193234 66.21521482613403 27.500818662470287
27.787744318660955 67.39991017944008 27.770920737577153
39.119337542989385 91.2815500846531 53.6158214572796
39.149364304726234 90.66433878391321 56.441660363628834
38.87073326581722 92.32899518237183 58.40012858830488
38.534479020581045 94.60404620723293 58.411649793014185
49.651936942200486 90.76735899337855 37.09082821033317
50.43110737659319 89.30493149855144 35.17485495081938
49.007216705925956 87.47538670662097 33.79388539442642
29.55133700876684 77.45056281718674 37.75429290343955
35.20127931484999 95.35800533181946 33.536059774735044
35.0871826281143 94.91518874441216 31.27040794405276
26.5658062296663 72.25820031626394 33.35285629639227
28.353569559237382 73.98465274056926 34.120193901516416
28.04478563984899 76.01752439722863 35.289096270465706
28.021097229972256 75.25377518303588 37.777119560295795
27.305974062507715 64.00692900760865 28.354053490807633
26.3271375430433 65.54511165115632 30.254630319436593
27.5849186838277 66.24198403001616 32.547370456211745
29.640708165114425 66.88516429133416 32.82100079365791
44.96096441948628 94.04402231816974 59.56581027039901
32.12695848650127 92.26283103752428 27.83592777051322
29.572580329216834 72.17347154624214 36.05986925887787
28.517653712185506 70.53916241599474 34.27041257124909
27.896578827537763 68.20324742263627 34.48201259773403
30.29981060935161 52.511178546989825 46.53814919463827
24.816693555038178 61.3023845111096 24.449094166042272
24.501325938935366 63.27735437240349 29.823828856457457
29.483664562539236 73.0608759184985 32.05649826064701
29.67437375743013 70.8474985051659 31.57842314300795
28.07836085454316 69.28628208477807 29.924046939906802
26.20937294237186 69.81220197566348 28.71229434632736
35.55015140796589 89.48424096412066 59.20370251683588
37.70893710232416 89.85568658194858 59.144530917877454
39.672413390892665 88.89878507207155 61.01777705696058
50.910233374210385 87.78837654517753 37.47600594522374
51.64249827204424 89.69051033287685 38.26001562780166
35.70496699132699 91.2447720782216 56.58236869594798
36.8909468217972 89.88166522226273 55.27351793072433
44.305786442144914 87.40364931830115 56.83164487213228
42.47754882835588 87.47021098956944 58.463776551082596
52.395869405390826 93.28368664526424 37.26889929629689
24.88002909061417 60.599089682031476 51.1394570168454
25.98155219094705 59.94440955309012 53.45854429082659
25.72628282063816 60.27991544577168 55.43635413957565
52.840065220427434 89.19915042889507 33.67509386047352
53.421086795505595 87.63890317195147 35.51861760052498
53.44206702717001 85.32360448692961 35.707417227819704
27.748454066262457 57.73754363469796 54.51476323717749
27.29736317407499 57.437906725342266 50.49642997271316
25.346615487055804 57.997365411879365 50.27762929426093
30.60894913895087 76.16800807160237 33.8978128480765
29.407087499628297 81.20150758834612 35.788789370163705
31.73640686509616 70.73524372573809 33.199434039578016
31.06153984200025 72.98303134457511 34.16898925233261
35.26842173235012 95.18549297543419 36.621770699057905
34.85762281001995 90.96025942899486 51.702438146112456
29.07872448575016 54.2440575319887 44.174810526626246
29.184741083213254 55.32996229603112 46.50944050140351
26.822138562518038 54.90349571167703 47.69671152593512
24.7860289402754 54.07584443151338 45.96406990340297
25.529017741070668 54.23598850899303 50.822363102663964
23.777560831122617 53.91816098526902 50.1122923503805
38.59099075824565 92.35304216793357 61.35156614935747
40.834585222986234 91.6662805903047 61.6316390532979
42.71147648083113 93.16745518688826 61.503654026988784
42.18839744120063 94.65638517139038 60.09296375037288
25.85670904091297 63.32493339052332 49.80119582954561
27.191040807305022 61.59538272527149 50.59821591276147
28.091537285726005 59.656852268878936 49.57538747613111
27.593146558613935 58.89106680958559 46.90354090336581
23.83183329419602 60.195878813445404 46.92188183003575
24.902367517559806 57.92984035056025 47.54754662318463
23.748451507731986 55.67932990341252 48.04097161960476
22.41137932170191 54.971172243761494 46.97709041756627
45.26533643376646 88.13452502616387 61.76993467406187
32.95337327458717 94.78999542658059 22.37800967271089
34.55103884186252 72.06147860496102 20.07918634341932
32.73530192619626 72.93273141493758 20.61688151439226
30.100436885685966 71.65850318879508 20.342621236083335
29.90340495594799 69.4356575369594 19.19080845910092
48.51491918932583 82.27615404444838 11.520827154065092
47.887802230164645 81.41894754116404 8.954174456262425
48.20014217405297 78.88008660513493 9.151744112418049
47.572518238958416 77.17534116229739 10.636176737434456
35.32680496684589 84.02255722228593 42.690375637314986
51.25593710100931 78.14820092589656 6.167086820778006
50.82892661459349 80.21626564383897 7.792294358281406
29.04307608218629 77.75121549781761 22.036800129441087
35.55500781492827 74.32528970970587 23.396383902207482
36.7787401026125 73.40793295224559 21.549481195164816
38.98413970598457 71.97772299486418 21.55693225453224
36.59896150897172 77.58411140673768 23.21877497688018
34.75488495033894 76.88771674105169 22.804014820850448
33.53614494968761 75.89283363052613 20.60583444153764
34.71908676173547 75.02522421281084 18.508180624260202
26.4678742248564 72.68453230380182 17.1087083952618
27.091090605512115 74.72753275326129 16.559776739934822
35.16919850693386 68.98237445509325 16.93802603810965
33.097674814929604 69.84563185182908 17.268640163356444
30.620728973023816 69.3200221499876 16.62456665477975
55.9892829970569 83.58463051985467 21.163772934303385
55.12840615853053 84.50738802701746 10.67945944700569
53.92137283882108 84.34065397149857 12.450359391040056
52.20960289293949 82.27816139408955 12.954411875169288
51.45397187549653 80.55676417823047 11.077331999578016
32.74893548854751 92.11690408688514 11.682342449044581
55.41970056118004 85.31667737414826 15.302756402338417
56.44081985813789 85.09231809712196 13.127565125483677
45.90692789949868 78.08791671132285 7.782453065087589
47.26830422678307 77.5390039187873 5.493377326001887
27.84867949963323 75.25969743870971 13.315540804530297
29.517187006841937 75.1560557248262 14.73721983473625
30.66196112513963 72.6550209043028 15.58959984845898
30.343713418931443 70.79280762911966 14.099027189115702
26.001992194174196 67.27006542267483 15.99023647067829
27.612116206763226 69.13614287545583 15.67222959969454
27.674291764502623 71.41352830235535 14.588863788439358
54.66151359852933 78.03813453105639 11.75576460418909
53.180370678332864 79.08539284666652 13.345881236941464
50.526994244377995 78.34252227253927 12.511443879407718
50.19392387594437 76.58255404474113 10.9750140717471
48.36685728286764 85.4933197601823 51.67144288295127
43.85712817943172 85.2022999428134 52.50705073707827
31.474008553248805 76.9569983783642 15.842832480421132
32.542377376630846 75.52078831082507 16.99999404391368
31.271983903676016 73.62517929648394 18.04464258806151
29.012060669553076 73.96642795667019 19.152155889069213
52.420733322324956 81.44984150021351 19.95852466785651
53.96059201386898 82.82962943011158 19.394367720623492
54.13425909889463 84.95445334979635 18.231121203572133
34.048225804274495 86.71713869415245 38.40484970832205
30.188079249827215 80.95349465617774 41.61568290086529
31.177304310595158 82.24146776378444 43.44854969528362
44.00641234882624 83.99690084013848 47.55805537196528
43.231512394157534 85.82015796738588 46.75828861070749
41.13605225992181 86.21512617557526 45.395420320330444
39.53583008742454 84.70147272120735 44.22195580130538
34.805707878212594 74.22057540198675 12.733087696300986
33.13249540330187 74.34644345908595 14.632230610346237
33.525670504321326 72.41899124837344 16.652873001741884
35.50847996608186 71.44231774568898 17.52866279617753
49.0529615369469 80.3322940579579 13.33191803492424
49.43866898053974 82.3865865352831 14.051291746866239
51.24285267679227 82.71600617290439 16.204742877916505
52.061622138240025 80.2481551956654 17.633486401360845
50.333266467488166 85.46572097553153 16.327437002469395
48.57975663550774 85.00540642087137 14.553967815295907
55.93249488332609 81.79253575073011 10.199430163833716
53.83632420955593 79.92508613984064 10.39186580907452
53.11741833101534 78.27751188764645 8.763315300591263
53.799355638270306 77.29800749267325 6.515195938664779
29.494511069775363 74.9553146034377 22.515221905869904
32.16403486507521 75.32313804157886 23.485687565073462
33.36209600642234 72.95368257460156 23.55994369127779
29.48643922097637 82.68247131694537 38.43028463690396
32.026222146514314 82.06787422469833 37.93230461995662
33.743422749485575 83.35175394909103 37.57077044851097
49.69931766019422 69.41929215130907 21.06783580104161
49.5416364995686 67.60802168357408 22.366519092481322
27.322840558998905 70.59889195975632 19.1324224459627
25.76315411171645 68.82955419280192 18.1304311881933
35.97061378224319 86.03344444163764 44.20329035887243
36.95969747035168 87.00652935617757 46.537173809297705
37.87356107919469 85.18277039341376 48.383980622948265
38.26811750531244 82.78846799412486 47.88952602345303
55.68120693864106 84.04050135505517 24.562981519844715
41.2093042100218 81.22109398256579 49.71575725298251
41.16319152806681 83.10276948039065 48.197803380143505
41.052086746187996 85.67437652456927 48.57555822953531
41.724093503777624 86.79764259764505 50.8056160227253
57.215965523866984 79.8823542097322 12.771657659601388
55.77000285906025 81.96704624971952 13.080147399391564
54.50746629252901 82.74546525802658 14.942883147574282
54.09046413586323 82.02333505278713 16.99538951491939
36.85734977008052 87.64627655099383 42.05971829839652
39.25426151253765 86.96533220086764 42.28262509718518
41.44529828105546 87.93800994828692 43.07259055897531
45.28135544948592 85.22036510233833 49.62537193378508
30.354078006146214 66.45808063957168 20.198785738125327
28.635492756103538 65.3880681405769 20.869417695982932
27.905153925168484 73.52379527004285 23.074478819517466
27.98440422220565 70.87031757251401 21.809734341806532
24.88023273598822 66.66043139914456 18.96582188292118
26.25176754752644 63.886857972703716 21.423543241918534
24.070694202150552 64.2698708321211 20.386229144418344
9.091921817312837 49.89427423839732 1.465262737075864
9.445089082117587 52.482804714966285 0.38823434606423535
5.8711831592987 54.920375863715265 2.6204296028952623
6.04210340820561 26.517463422194442 0.4540331967025247
3.8392758672617506 56.069159357842544 1.1381048823796476
7.74319132563329 30.363363072331296 0.541456921159235
1.7565954612279544 23.39867512331952 0.2299343946754722
8.44054352526695 56.08926065715636 1.588400763820065
2.2694656086630545 53.35290221235804 1.2253506590801724
6.394758515213043 50.18568420151836 1.8853796246466588
6.0322571833934076 41.79157510470031 31.621221747279986
8.207215501956869 41.05892178849 31.215009179773702
8.836815651243608 40.021577125107065 28.808238438988983
7.200077249760767 39.88054909279913 26.719282285242336
2.8813347853567053 59.815678197695284 35.78449282784086
9.73222927923907 36.23467962027331 22.36526485632618
8.008817177940978 36.87545339484226 23.79915542919224
7.864237187905128 37.2633079399416 26.28655245578357
9.489784299972783 37.11257162276175 28.293207925557336
8.351878266173385 38.34829039292013 36.007930448168516
8.877351473135658 39.156103159194714 33.78882092900526
8.185723708682396 38.269358000794 31.23361159691173
6.270067770962544 36.95948084868324 30.595090945061994
6.801503323529519 41.39610153744414 34.016565643739604
8.583901412369265 41.203038266552035 35.5817331079955
11.124780165970398 42.54622739794709 34.5615903243651
10.721736487049755 43.48818228265696 32.02742998876296
4.188536482811813 38.59688493931463 30.435881093764447
3.417112792500328 39.725807497903716 28.691681830158288
1.073790337940515 39.042031655099194 27.037361271206223
9.08649985198114 46.380245151139185 61.1709293950316
7.45072908598805 44.460200097506366 60.04377601524737
5.850058063523326 42.8370295338276 61.22405438703178
2.523503278363134 12.57993303515766 22.25874922884193
0.8734401677479247 7.051329985783991 21.991711947113647
1.825214385946991 47.60218491305988 57.017983686156946
0.8140368893233902 46.19813680331291 55.35669437755102
10.765754139393279 42.766592307684476 29.33632712585156
10.913549074024377 40.92677417419532 30.832113185354928
1.5557073443601939 38.7989595622264 50.505215413999835
1.3807027175311155 40.88213401684902 51.13277806081379
0.35016856831996956 59.98093970773716 34.761100865975976
5.193686409705081 38.288118395696195 25.993527182325327
10.090722141116652 36.512508316453534 30.840376489579867
7.426172134386267 47.74083522511615 59.050347265240944
6.70511793649102 48.73277627937462 60.72993391088935
6.508782399786202 45.67154994340878 57.6277255537115
4.635294379696051 46.771209556293435 57.40413637009305
3.0361284111229767 46.60311880380329 59.27905889607178
2.072967640291555 44.39100581400665 60.504269319501596
1.4580209336111183 43.79988415657787 51.279514243814134
1.1647045008947603 45.21031807356193 52.86514801043506
1.31365358603009 5.413871885481262 24.355143456109218
10.700582422039835 38.21214920711693 17.578496018740033
10.15014756581278 36.791988709222686 16.239064525382577
8.170902490442598 43.3629994541296 16.282705410745187
8.999893704281757 41.37116190712876 17.579830510498116
8.3154600496564 38.66244922041977 17.57128941328222
6.520839379827387 37.83439640475592 16.015668129016905
1.9903526683701165 40.06759373901791 14.61872737176683
3.2211322035476933 38.22743391191803 15.80083158897108
2.759726774090867 38.23197761776056 12.706775113913045
4.73718971081245 37.646864483600666 13.56814557420473
11.864018374807856 43.10296291000539 15.72581327504555
11.406544967186653 40.63551388024128 16.319196545624237
5.011591840372187 37.245116741558455 18.17661046935754
8.367329185892098 30.300467074370037 23.596061949473565
9.123913387809221 33.300112354091844 24.431602347275753
5.5051368867266195 30.898227798227264 22.804642409143067
2.8776334181659653 35.741991935142636 39.81986942450628
6.58457998901891 26.22441240341319 6.735987108623697
6.9892014100798745 25.145905631045682 2.942997161591236
4.4930874598984145 24.336677034709012 2.522375861639104
8.316130405767073 59.595062354199875 7.683107340886183
12.187623386832835 57.93289814324636 4.486780916054354
11.178340864315755 57.49095543523473 6.57247635123187
11.896047687638875 57.23128185468848 9.047639987758775
13.917263984542798 58.069774547271905 10.10732220783584
13.106896257078585 55.26769129628406 4.252674850031489
10.759807113188394 53.83707703636427 3.9437726697701683
10.04717430813628 52.38801436555663 2.8254120208522435
1.2295673948885422 9.243461616196962 13.154287859525004
1.0506398917046906 6.877937025606716 11.936096316389875
5.464817939466423 20.006748830810853 17.35689004276662
1.9496259868488177 10.558439535605032 16.104338992794162
3.1906649503283044 12.490701868959613 16.969624900563062
6.883855738081174 28.795564891309958 24.395037842846442
5.037372931260548 20.41403865310309 55.813670117978866
2.6593614086187465 19.436798743905232 55.7420073221763
1.4570695326939376 17.808475959015905 54.457357624246754
1.342972845958257 17.365659371608608 52.191705793564466
0.3195102932439572 21.593400283911553 56.164886567423046
1.037547783122704 21.643513063729845 57.829819669558745
7.545787567887705 28.208878782747373 8.252162596070443
8.203000751668819 30.25301179276565 7.126542420031843
1.3674624985574424 6.0433727837162 16.254795325740368
1.2652367437595318 19.929210675317815 48.78926818198697
5.934500156362867 56.72730839865865 4.417568965271941
7.409730908505026 52.81979427637549 3.1859093582332374
8.746756592012767 52.45129249359506 5.735452566585039
9.107717278001207 33.6592797404631 3.5878983508353017
7.568815392903311 32.3785001853086 5.542563415395982
6.1057699644403405 33.34369113629934 7.1906721430897145
0.5207008494120903 49.0250610476977 58.989935641885296
0.7037810878521926 20.628961778198562 51.587846111156786
2.6107480965297962 22.317312830168266 51.5606684903084
9.659122967315477 55.0124665863816 10.484067754063313
9.620937278245915 55.72630644530523 8.423328072275403
11.155533174562994 54.80296554228768 6.2893330720680565
12.954138339083 53.32506932194108 6.46144139278802
4.47668155588513 27.920533683354325 7.183164119743422
6.003326668617275 28.894613472437943 5.973593627727038
5.614381151977629 30.571206210714877 3.914683751804199
3.127196519541472 30.5355388186298 3.047750357601733
2.4804903268512515 14.886943587698605 18.14894276658832
4.741356790161013 56.482428380956115 9.042503695362248
7.137572704661503 57.29983277480547 8.910632309776286
8.86870487709507 57.737380522226 11.09318978287608
8.538810413174634 58.373112271255536 13.278718531629526
3.9920820701685917 19.88502248608174 58.23634418820757
3.3797237102204094 22.267660327621346 59.056049339137786
3.866951642022085 23.5756423850604 61.036287962595416
7.802016722126443 27.81538681189832 2.0753415034742226
2.6353059102123493 16.647474701799535 15.52760894570042
3.8212857406825793 15.28436784584065 14.218758180476765
2.914309542553187 13.008860476165582 12.568159144794558
0.9983672962238183 12.051784542212811 12.352738397866506
3.138478272853328 53.86683313627359 60.7104213434785
1.690985866932916 52.78579371605181 58.78241502566433
12.271902599151252 55.36083628602517 11.557554001916447
10.521234201616142 56.31974720294892 12.706193081863663
3.5268211770389306 26.18349104825802 59.760913619243354
5.555685330888158 25.740575607413614 60.77120454490888
7.126271576322729 31.996595490614993 1.8899230549725106
3.2700197028108158 14.734368006872938 31.381155780766818
3.2140462351806276 15.08006881792544 27.62184416720606
2.845251321272074 13.19777198886154 26.2457913200006
3.642954357955663 59.13201182217395 45.22631570913537
8.195003040581673 29.333353119293665 60.26879828572845
4.369424944994421 50.19959713194386 60.44614566392112
3.141752286549895 50.38586973312923 58.84601726166947
1.3094562455079741 24.68628703186227 61.64885336344889
3.6211993199795085 27.332675964525844 2.154231382137195
3.0236666050266408 26.10129327526065 3.869989879967241
0.7976130771742086 9.736891762265262 7.098549724417055
0.17001544731848392 7.6090927714951695 8.467331696082335
0.12559063733701561 19.35169865709344 58.350904697143434
1.5242119501940758 17.635963602630635 57.543068548569615
1.7879617289053202 16.362962052572787 10.647678395864888
2.8394628530152013 14.208477116491416 9.929200560989974
1.4884947996706264 11.79264228633138 9.477268456338434
1.69756100578059 52.92488184838633 55.83751170768862
1.446622912094807 52.150119690327266 53.61157543044297
2.367246219514357 49.4183900584677 52.85714226955594
3.0674290857094535 47.85768890675526 54.63024709154392
6.886952978090979 35.59377502369873 9.76676778656305
7.8234142742264225 33.443831156356886 9.359293851765058
0.18059505041858218 59.23971545669837 41.46810023069968
1.775916373348266 58.744031424611485 42.8893162827013
7.288101462995646 55.076700653803144 58.0852141965099
5.944298935908993 53.16794147781598 59.142821668727244
5.965769312061629 52.489729743708 61.39318938337827
0.12116954442619066 37.47549129336929 38.03404946554525
4.602210054708669 28.205058024004135 25.47179655218152
4.801189046245778 26.90415987679623 23.89393237590618
9.967031168612742 58.38046941693747 15.466795449205321
2.1701048168629318 49.13336386089662 61.37179806197089
4.384384802362706 47.43415733300915 61.60066202644947
1.3869736867064861 25.05184750852571 53.50245448675564
2.3985124143172913 22.921606074746688 54.61676791264805
4.4326010708484676 23.083417487509674 56.62552192216088
4.936298917660184 24.640787942038912 57.91915500265177
8.861445447260069 45.8631352368974 21.645800349109315
8.49265053335151 43.98083840783349 20.269747501903854
10.658421533800544 43.79705471120864 18.092154187945436
11.959030433918475 45.69730888014586 17.638989248884307
10.793210928840026 42.87295368344692 21.303516790665547
10.008711412996197 40.4312239181859 19.8775468091723
10.448588258325215 57.68722629576818 17.917888557809437
31.299480483633936 40.680090255415514 1.9861714542049582
