52.908494931524636 45.70356880643329 81.14051433036165
50.99230868831355 45.50841764006137 79.45785628762656
49.288530190940165 47.330888059662385 78.91474307471746
56.29829817481564 73.74123052919515 68.78247185942104
55.03440364173744 72.35764612074495 66.87975409819406
54.265689937835596 73.2286702854384 64.80396502861697
53.549073730105185 75.18856568082116 64.40655246247717
58.90120499085173 71.35702722131448 63.819325344654004
59.48937137586762 69.08629148879652 64.61560606522495
61.57524450251695 67.47518298811535 64.07940062050162
63.214713392201425 67.76249719546773 62.003029976000796
10.763214705693796 67.89605982710053 91.33556164628733
8.591392981742809 66.75257313893937 91.19289169289232
49.526899427716224 46.23792964983275 59.39286308681453
48.904624534078515 44.334492789171016 60.63051266614123
46.77897517405641 42.37543964560967 59.396549594703835
45.789087577302716 42.630112943998206 57.827121948282624
67.61613154980233 80.3069529088031 46.574511713974175
67.46647498111577 81.68923963709813 48.23508086352215
69.88189269290746 81.87292209185867 49.78510910443938
16.90895368362686 30.28215830543482 69.96208623236492
18.69218949274349 29.205919152697483 69.97021578686008
20.67157280708396 29.163683004091663 68.83541742941092
22.20490576900925 30.597396987755218 68.1471181417606
42.278187514194904 92.3914028851233 67.60503870159614
42.19477524053895 93.13468026372836 65.34324946969029
40.092532130110634 95.44347354032074 65.44207157735329
38.40404838922523 95.61511898410316 66.73230306546502
62.07100655965907 62.74145770627229 64.66258200480578
61.550345035315004 64.69702845792384 64.51723687371997
63.62145752854831 65.68546233136946 65.89961479715458
65.68056564069077 64.4109765449191 66.43752448205679
57.9589666519884 103.35424868852479 70.2033620372552
58.05796304461876 101.96823735597599 68.22814986578568
56.57223562165423 101.32139178997846 66.43828107245814
54.48498504169261 101.83682905360156 65.9193304399564
60.26963692540447 60.14876378135881 46.37908124073024
56.46672844037804 56.42509208196519 44.16919473471257
48.09042559026648 94.92966254061659 61.5033934787458
49.39138897236624 96.82700507943439 62.32432765874534
47.64562431351224 98.9677584716001 62.973902247497605
45.07379788531601 98.54264547725431 63.395855989588725
51.976663702193804 102.04974762428348 61.1333756967663
49.59227002030126 100.36457643451519 61.37899704910139
48.98913413275339 98.45260195996502 60.1444596695941
50.33810839003983 96.88466535465024 58.607086764859055
54.70066305491673 25.40627731978273 85.74198711907444
53.13914693681702 23.296335640999512 85.02763706188195
50.71356367376834 23.304013980322583 84.27583125695956
49.191667690401275 25.0687004009447 83.27547919088742
69.9160083124884 82.54371280479225 45.8889536923735
52.612553324430706 68.242619717147 57.846895568015086
51.399716918636905 70.16913192667688 58.22108760319049
48.92509901972406 70.90521174310504 57.98583391890762
46.85814403082168 69.5016613609508 56.83039459703084
46.98605155665931 81.07462987850646 61.616697462365615
47.60948284186 79.19552641089979 61.85470253112782
47.29817012130835 77.54276638419334 60.303112926256674
44.61365025954864 76.9847035959611 59.14153223990606
7.405336791560579 71.38490110145801 83.58954597714165
9.14390732979985 69.57081615832726 85.13908724209705
11.57149858741223 69.89880188943387 85.38898879672342
63.37806489794667 42.621154205885674 86.9113335483311
64.33796070121873 42.827445884871906 88.87190613942306
64.71117211731203 45.67488700794798 89.64965231962745
64.28544852550449 47.5439026705814 88.02552297669828
58.31385956551195 59.76873516532384 41.378152724785735
58.66185927313288 22.350527168326963 91.79529682170346
66.94528103336476 78.16398147974778 40.280430757415814
67.87132397952865 79.81936151275596 42.16375200456605
69.25065326269919 79.33642416037142 44.18408595615275
69.86858109909865 77.21639071184204 45.36627428922682
30.439345873909232 53.40699830755993 77.65637340663842
30.53659264559836 55.785793280105416 77.98332177052845
29.051328099623074 57.324328223034094 76.19686778635776
27.173387542885855 56.414507853244466 74.6246867081781
49.19900777082886 78.9019630479752 68.9596063248286
48.47222332879748 80.15169116337538 67.21911403059008
49.103067509339546 79.03452982317329 64.5528924414815
50.62929711292543 77.23552631906911 64.18374401677674
47.413076910621044 24.38082024494259 85.21567618194842
46.99498298935458 23.574399377681193 82.9419107221215
44.73977084909245 22.63535632145309 81.57429002645256
42.689095071466774 22.629041445010817 82.11282679569763
0.4080538972061829 42.63992222739487 84.1457976551673
0.0298965502757191 45.83850503269182 86.36021247784485
0.6603559558339176 45.003141308673285 88.44985070213491
32.5972614032745 102.82550283442403 59.16965015916382
34.00106951021237 101.58991646828247 57.716865076704835
33.896692183254665 101.03502966954893 54.79118918999074
32.029737182078044 101.19426024591576 53.44868882448822
41.60986508853512 53.95997281815165 79.27184335324858
39.842520896813774 53.34653614572437 80.67361201265315
39.58250297322644 52.86597847033794 83.022813997002
41.07758747571849 53.41023613153483 85.36910836093331
57.33913777940309 99.3420650516301 72.30645847252353
58.72494415902495 101.15258471527004 72.5042062113258
60.17450759466186 101.84670306845851 74.72291237218514
61.73929660448679 100.54421630647774 75.54136944430536
23.513697332574463 103.0518367416931 92.07650678372985
24.08181837157481 100.44199370507204 91.76555697554745
58.26066782781753 83.21440310338707 83.92639180945146
55.87716962169149 82.85080001419651 83.43585758588917
54.322069479569976 83.64020328586386 81.58632728780961
8.255564846165353 91.41875638305659 73.38950037219205
9.803463339766887 89.67107814166238 72.64456198718976
12.319336092854098 89.38350036252572 73.24016468523317
13.89720764621747 90.46374509851324 74.21861580415381
39.51148497859747 86.25940309742984 79.78738002728134
37.347148755465575 86.95845025841143 80.10334463891705
37.40314390669753 89.30683440525281 81.63114428399693
38.60379062127482 91.16417907268442 81.24220180624009
29.491713042241038 88.2891746206119 81.73976401831496
27.5445042577442 89.27470851660426 81.37608705398671
27.69485229009646 91.43275903745568 80.9490172012561
28.921565784296767 93.69734212347055 82.6920144755093
37.434990182544986 95.66080612221961 79.76554519476993
37.019657738647474 93.12770648483365 80.25374396957872
35.05667905596969 91.5688013003566 78.56521989023373
34.44925254984273 91.90004759249244 76.67326141473951
23.152572238764396 94.91809228823496 80.18580190751456
24.74608430463416 93.42745175548045 79.73130126946448
25.063512572625786 90.96452271750825 80.87714315297289
24.17981339644641 90.0136581985391 82.42019602096256
8.969496654092923 84.43753122043185 73.49382030624716
8.994092611842936 86.175241982224 74.13452266623966
11.279519450689923 88.10376654819936 75.30101465259925
13.645908365502725 87.30318524959735 75.05568404857588
38.28150373944096 93.95871622700838 85.96854020109167
37.87408829385144 91.81545869502874 85.31045707077607
39.09309368954482 90.01969765613288 83.85514862797717
41.542821408913674 89.68764495332485 83.69095914174662
16.46665171330231 91.91966365295458 70.05372169647791
14.938424643416013 90.63434821555518 70.5845305149111
15.095147008520057 88.53505071801463 72.4653588469581
17.071394258077408 88.00530670494294 73.5828371474435
49.68604406198741 31.718816559605518 59.16110897856081
24.72364337875165 76.6516965864113 92.55982142902099
22.85572694588622 75.51477943338735 91.97690246413211
50.71436643165224 29.86397429261791 60.986645374421656
16.233316963858687 88.98161221753149 82.05542984198752
18.372802288813997 88.11982168231913 81.69678987143905
20.217672277099297 90.58635247442002 82.08543986809484
20.001284089509184 92.39850850474578 83.06462358624087
64.69302058272238 83.21314429646429 87.53293976677102
64.73879810818983 83.4401572538318 89.90199897647243
65.7720185481264 85.16308935203978 91.68859460790658
66.2758156693395 87.64132260898901 91.2199121155462
64.4929337033992 27.711727123060168 91.49962920919042
60.82752477980707 24.171624281692054 89.8950726956746
46.114981178171256 87.41788738699925 85.27210044736756
44.96391223772973 85.70278253035936 85.1353463569715
42.747697716239166 84.7088443314282 83.80911998458721
41.445515676719126 85.99463507288597 82.33476777667006
53.3145040058418 84.83454417784785 87.45816527381076
55.282001323757235 83.90183096168177 86.9724357851936
57.37979348678326 82.79999041776102 88.54486010113733
57.57730189387443 82.65912111269064 90.74351431630923
68.46577255077524 80.01420752448941 92.96838232772505
0.004188171125361335 84.57112856428145 87.38139281693648
5.237374366124796 84.90752278012245 90.11929199857202
34.98994078055642 94.02562810859902 86.32463880248353
35.22539877147495 91.7908832752838 84.45721332288451
35.272896307423885 92.1930694681179 81.65252147286373
33.15214894460135 92.67110644092718 80.97929043622068
5.577681174029125 85.74620540203603 92.82752611313542
67.87548091685548 80.38861646819885 90.15480296780316
65.37670640245014 80.77807382704266 90.24723038879942
63.45210876808165 79.56986012752996 88.86753117761016
63.3722501207425 77.55841267333348 87.95453628760256
35.954670136393375 84.31690086387798 80.26119783021281
36.58528989013833 83.6628951351902 82.23060519443197
39.07470685986675 82.72119603690827 83.30251138500053
41.37593999696815 83.24623323207285 82.03806436681043
21.919641794742578 88.21923609524414 83.42813347591135
22.444335518658068 87.98877606054616 81.23733324145827
21.611280115858698 86.38308529192298 79.01472256662937
19.36482352732421 85.26524864693688 79.14494224180002
49.05093551986855 82.14014747584362 82.63133239145073
50.36551549455689 83.74245316024984 81.82704709616696
52.0611599819408 85.05695203821017 83.38402108944652
53.59591209685243 84.19029161045223 84.76580868059541
55.774711953800505 19.214552669005897 85.15107546729772
57.107063939283776 21.02244961398806 84.04516481180194
33.66615117611881 89.63046874097223 77.75465400736988
31.811573968353517 89.95587205900641 79.0912315234097
31.925295295092788 90.30628666792478 81.37854621086612
33.27434004338493 89.31378287821205 83.2579167152348
51.710885536730565 86.58351903649634 85.71530082327541
49.69222428011846 86.03769831377747 84.68828918836785
47.72718591553914 85.74204479396427 86.47689030437645
47.46646071185295 86.46590401855475 88.5043651303822
8.704275847376383 95.5557539772691 68.05736381441419
8.43446025605119 93.0834399977571 69.56629320456278
10.153329171894617 91.31111921643323 70.02925994020309
12.211660696053201 90.67429942529677 69.10076734951762
45.60974364750834 87.82036849352986 89.97990161024826
44.8219760272909 88.1866076379765 87.62307267492535
42.952322524436084 89.5753923490607 86.70221036072465
40.739886771069116 90.52502493803743 87.91445263644887
62.84141796265916 80.92148823824519 86.69370410127138
60.24761300447769 80.66986952637109 85.84394659990575
31.630999060445372 93.9694599455856 78.72745056029528
29.64104094086409 93.37666052659229 79.90309637619539
27.33992887120971 94.08524884288693 79.65417890614627
26.271141768769564 96.19253313307324 79.00339854735267
1.997134170810581 70.53469014507955 87.98107943840733
10.594620947704048 101.50935988818613 92.16242012893404
9.034724429659514 100.88711828920626 90.279999980579
44.39354117500581 85.14723746768186 90.00062070085146
43.50206519001381 85.91251979037584 87.46448983058721
41.48653321465679 85.44172951661014 86.24698811017754
39.86489159768654 83.54959271923808 86.41130192884401
39.65016443796796 64.95320098558797 81.83270861080831
43.50721688565941 80.01441852705445 80.52390022652435
43.50292546246092 81.72399280912649 81.93734731552657
45.25962358012981 83.56165231025591 82.91713282224576
46.91508922282461 84.64755414490153 81.78858842578549
65.3711602369425 79.96386408514623 92.76759752755568
63.21338531788808 81.95512037628092 91.89802210906824
62.86725010687962 83.91639027361283 92.72287205821422
0.028825476289967195 102.2044301309233 87.43743477351894
60.376426812217936 23.134650641996416 87.39261934440161
54.484072189800784 16.00763270296994 86.49135429151423
50.60181982278036 13.431102849595206 83.09579477860157
2.1084523474468524 73.48969570643868 88.6675224198132
21.427977526454708 76.23850825406934 88.39297906369083
7.814859409988557 89.83207088539038 70.91335688078574
8.707662475603593 88.80911447007001 69.16265724838571
8.822786545276669 86.23339931945848 68.35028129203373
8.608128475346891 84.16738406906035 69.89144088505402
57.543444431516804 22.106586541879647 86.85076167512742
57.380409324172234 19.825786427066635 87.10860598650439
68.17298757761395 83.01870999559468 91.02315884707109
67.1498527588682 83.1966512758691 93.24668217401057
39.85621528623882 80.47487364352452 85.69247769222474
41.80732719070427 81.69591178495902 85.19138118879418
44.399554423755816 80.69630061554966 84.42112309721932
45.11383243096216 78.70826430935668 84.31215552978193
17.814721012829143 83.82327859703537 76.85016363235152
17.100258375827387 85.82520428028201 75.85445254660584
19.03287294601053 87.57243268321592 75.81133742600248
21.222786266213813 87.23903678114604 75.69607824728841
0.4147383764268582 66.83503263181008 88.84803167505655
15.119751498777495 101.53720617184322 93.17789407655792
20.50773655889212 101.6965632295777 91.40002725168598
47.40210264831389 80.30306542155493 84.64526018822723
46.25520583746512 82.63712465377688 85.20261102859237
45.929809574103324 83.86914804961172 87.43457354952224
47.171529737504756 83.98536529228659 89.60803166976484
19.09416531148707 95.5695754467221 76.963941198314
20.471659926219697 94.71670557038203 77.81467839881843
20.5749908581668 95.26257242682102 80.03715867338803
20.318656107136896 97.61771134993465 81.15419226707151
17.336301834635037 86.62196460292658 79.96852916013287
16.84649130008777 87.52971042418523 77.79916249613495
14.751709414611105 88.90664140187104 77.2578684372806
13.268399768016135 90.13089931178683 79.22352552735266
54.74436832085333 79.62119023998636 83.90398477856743
56.15815297246469 81.08383885114536 85.86918795751006
57.44174549835775 80.1169955781821 87.80168772661823
12.248718204772578 84.45938734708828 67.13641027794168
11.304146474824112 84.92552492619491 69.20770500825232
12.292100182786715 85.52488833873126 71.61203494758729
14.35841758835003 85.83563146398745 72.40140511872939
27.038238727299163 95.96377327348809 74.16179061912155
26.14857468325353 95.92295940121653 76.34899340845699
24.089309610923433 95.1103486943303 77.28710292270304
22.725847196346525 93.16164776687503 77.03087449301299
3.9400234520209625 102.61987348675491 88.81022599915639
5.807398280487707 103.2409002220014 89.56635217408453
7.512950037463354 102.80044488427451 91.39880407440464
16.579014657699645 95.20645996931975 90.84783823470593
16.25680724897708 95.59202922922958 93.12538585566922
29.15556326058908 88.01869567012638 78.99420413438062
27.946484093898448 89.81846265291705 78.77880934857932
25.458895802585182 90.21531628988576 77.98755534259415
23.488220269369155 88.46248532762986 77.74840537076221
58.88787832066654 77.44618953505784 85.129313292218
61.09791373852888 77.80678952546239 86.09961648811054
7.013761006628964 82.80395042114526 90.19894835432713
7.551218481018371 83.68447911985363 88.75153008641512
62.41812538564928 84.63535212544546 90.13198342443337
61.88333060441643 83.33396618262466 87.84911190676519
60.22548310629575 83.77067507571938 85.97279025193698
58.177813634046586 84.92605690803809 86.05427023062138
11.874521967843716 67.45483985011035 93.31133863009403
49.1649503067356 10.598660944181056 84.57589518223351
61.02110423552291 77.35417190618973 88.77625021797786
60.42264412699847 79.45563072602314 88.2430392073526
60.15993165870529 81.7110976314568 89.72018557670633
60.20290564658151 82.31769126289072 91.85092339911193
14.810007772269907 91.90512209718528 78.21482183467673
14.867603393868796 91.58655534685985 81.13686315811546
16.59946083622249 93.16223026257676 82.74355869339063
18.265241164985344 94.9482098862302 81.94093155065082
31.99363192589327 92.46495724572297 74.90419274641334
31.744240315909877 91.46248489628458 76.90338595670227
29.373795478679202 91.76293179332615 77.81130046630658
27.069676727366392 92.09753246634135 76.44895746520889
38.50905586172632 88.62220234001525 88.34861990858685
39.99393257874558 88.10896989367833 86.60234619478302
39.35918212821061 87.38127787507527 84.03095067578494
37.420871427886574 86.76442502794491 83.04097551791004
18.01901039748426 92.7904272656222 77.33380150546806
16.98095044912163 90.81029585265354 77.38668292025949
18.539564739211553 89.3900032954242 79.17391799425957
20.768512470857242 89.33151135705825 79.66761478344246
52.31723196632198 35.43805977530897 58.15652889588551
51.49344666384443 32.7952369851144 58.0731881280985
53.283012950678035 37.74890877370332 56.98296419673675
55.03901776770987 38.84927232475514 57.377942480320705
60.368968881812584 57.049230659421724 44.464414028060276
58.218581264045525 56.2302240152234 44.749368802843094
69.77899408209763 75.36327447277147 42.51871273170245
55.97036247758345 50.264071688410894 44.43203932734961
56.65307216049284 51.73820792954253 46.037247613988164
40.28559014829971 14.490509629760785 60.385156204288734
58.07450254136827 57.61262474558316 42.30509324767405
47.93617692204496 33.86623831534133 53.30461522271718
45.73805288688149 54.26562820524646 63.73801354266073
47.745398449809606 52.85012876535278 59.97151346033145
46.44216918395283 54.60049607237842 61.12246628555202
42.9313316712465 55.04674567792118 58.23169875217232
40.99819678993266 55.38961725710965 60.74026123875274
38.13021616876106 55.01719860299123 56.16200917661941
5.902928979551204 77.02253041192957 81.85158752196786
4.375183851373147 76.23033581050579 82.87899673997491
3.989392632193857 73.8177614683124 83.6318063317278
8.692168553468417 78.17522224568359 83.4608798267175
8.315549848636191 75.94659223725951 84.48019333653575
9.882335152212775 74.82998365801025 86.33350897034016
10.755241814845629 75.75691749273827 88.30542869206353
31.427580944007897 64.67827072744672 77.08895053759993
11.875012058505984 73.3055738993728 88.10642161707145
5.445629163856554 76.84720589307666 85.34283447649649
5.20294138319013 74.50647623169479 85.89473107435134
8.587733868943115 73.55428044721616 89.1001332028147
7.395018462289862 73.52829027193012 87.3216911739292
8.008064934080963 73.71460388170266 82.89089281425952
29.568615319630055 1.0769953679880693 47.08548457836322
28.690857480452028 1.1314095447334742 49.036108068369266
31.967148528653492 0.1947956378006461 53.6963439265307
34.65595717167216 0.10200603096894231 54.34402400256903
31.366392124342422 3.0535212928251814 47.79495204590145
31.56255374851664 3.3423401005822435 49.699561674395966
32.81045018159078 2.101381188712557 51.63817331333049
34.6506935899179 0.3484500424926613 51.50668980845584
23.199541905481933 0.676484375665035 42.55794733797411
37.01887818910254 1.5432062016655934 52.18304173160368
27.46983741480303 2.4811175979976463 45.53792679606301
33.103686271773554 2.838258703357728 54.744792965776604
29.043120284848996 4.32475657392137 48.95841452517313
65.56871278208767 19.760182670469465 36.56300415273479
66.03829750986661 17.920640987354744 38.371091288310325
67.93978915586689 16.37058403154862 38.86300039544056
61.59294866873487 19.45456646398138 37.49625396038182
64.02432137236569 21.769002319808433 38.12934456951877
24.237947477775975 2.5141394165901225 3.9732124076878943
22.276624397490217 2.9336780353370884 3.7367195685022887
20.462394317415782 3.5721730035603136 5.551696047216372
20.701472917965976 4.103202682816755 7.632688597858645
67.93917422638928 44.980432559597695 1.7863680560081725
51.039780671405445 21.135908112923875 42.33903195951758
49.8092798340062 19.599651510666714 40.61522994597137
47.753764222267584 19.075668886549224 39.88433723067227
45.39719002805023 19.72344814409769 40.71594736371891
66.38991986462695 11.404509700029392 1.0578978055134494
65.00446848502106 10.183592502453882 2.277063688742778
62.81021241583702 10.022607432463332 1.5997457048444812
41.77192965245368 20.39475729382056 39.60710366860714
42.94348796018203 18.876631661875603 37.841349254534336
43.365580622263046 16.149993968656048 37.92745347996296
43.09264966562626 14.66492361231089 39.286591296108895
33.438028871198185 17.26553421421914 23.78808323552999
32.93708360714076 16.639354711153928 25.71305017379741
31.901988202276982 14.47182341583954 26.98557599647633
31.809440334426807 12.653432692311009 26.619089522108492
54.26958533431666 15.695232604372338 41.25838640386285
47.58831783469798 31.093303662519727 4.275611871528432
50.88134499054401 33.90383164779399 11.805151082240675
49.24691481824144 33.76653157280861 9.834452613542606
47.80832188200322 15.719287227790929 34.64349684107896
47.75535562136374 17.464219891368113 36.17231173316358
49.87278866905326 18.37485937418092 37.89084288220805
51.89529179508935 17.249413921853744 38.58531564272719
59.43983678335296 10.018404653320273 38.55877391832632
58.00948089406577 9.070188425666581 36.579391203778776
51.2118781097162 1.5294093900211791 8.806283436831155
49.09317217615077 2.102210658013386 7.62339174453316
48.31141325583605 2.3571377622123486 5.088741195012516
49.22680289231756 2.41426904431252 3.212648671263983
66.5930580357661 81.28639001890546 17.02687748459626
65.71530019658809 81.34080419565088 18.9775009746023
66.1694975214862 29.936078372389535 22.366148110479205
65.26094469406229 32.307254990471755 22.51949219987808
28.206422326163572 5.986926137107123 6.008170446332713
29.61948535008311 3.6782789949122656 5.837582600594784
31.88974876943313 3.316594843989178 5.9807431516921294
33.85896338027792 4.376776429259939 6.5362953519933304
32.08983857417638 19.189633291109327 25.17029411691098
30.468754569591578 19.668039752175016 26.6948087912
30.56364262752731 18.72855621058572 28.960902875191447
32.29113920529183 18.135648707975477 30.38473555427134
58.11797715443554 17.54450780239208 40.54443905467853
21.902409722958325 23.32270265594517 2.606593830098626
21.869824193422946 22.954299594324144 0.556455186332906
54.29197272575388 0.5447979761071288 17.287179380564766
14.590736637040237 6.240922814137651 2.888985613403487
16.197638528440375 5.407432257125833 3.1253139860894823
16.855512081631183 2.893585603130273 2.0324814613059363
15.33303559133186 1.430303573051362 0.8645153261837933
28.985500526804735 7.240716684307575 0.19094233580469355
28.922288388746328 5.761460852100189 2.2567233995741316
27.12166465845336 4.9898546814835205 3.660091472989159
24.517665604184167 5.3060843043561885 3.497853251550706
57.05912125417245 52.07194317817849 24.864005601772575
58.81811773662866 53.471242526843845 24.456697190677087
59.430601031098725 54.449778429699435 21.76816825483081
58.39518428648744 54.382593664368244 20.00962932184939
33.57708409644264 3.0259597377572645 9.008089116433627
35.53913372592816 2.6572422210387328 7.633602527052579
37.900292026563534 1.740619455408629 8.11231618282774
39.22881540129887 1.1688074996216307 10.318191185825066
33.25171545304749 16.106477382864856 34.00461039296464
34.858887674244805 17.831232940872066 33.78530565713264
36.525201914098794 19.015944660395977 35.61064668607804
37.249308008628915 18.508745128580678 37.714099235316866
53.895252032621435 55.584977981561934 18.17262960879114
52.911554289802865 56.930274957322794 19.651262449166786
50.5168561271724 57.346238610168086 20.264624961171485
48.494779201999705 55.74984302014998 19.457809506529873
31.631540665875587 0.22835859146078272 5.878750028971575
33.95397846829364 0.6755986847116299 6.735087876677494
39.356939935296964 18.093854437266927 29.127089525305028
37.88119124937033 17.416493059780628 30.185170571177007
37.34220358576516 17.852768109037157 32.74836430557692
38.644262184824186 17.591050146828245 34.72635288378918
53.047126234333554 19.720408673030203 38.57253187718828
51.74389696847677 21.47077598005585 39.723484702408854
48.23305945577044 21.917025585598612 36.83271716902915
30.424263552612544 0.5534776479112901 1.3099301873024634
28.490728896169117 1.745723113506355 0.6949178595216496
26.68539906751292 2.4358406558852552 3.0029045554040588
26.706204587261322 1.7555505469965167 4.925652463406543
32.651695533963824 40.772237228353866 9.064820690791045
35.11876605873576 39.643428850239225 8.221872718535618
36.74663177559858 38.06245179823921 9.30961343189717
18.465414841130443 1.7075281292067512 3.878160927626235
20.079959328083476 0.44013470843600205 2.6962035609693142
28.88604407974801 20.95125862066913 28.885610609779235
27.052012120138844 18.592375673868442 28.451351202544373
59.33926867003101 33.22334291472398 14.985575304902072
57.47741206466932 32.65434573962061 13.433104384304892
55.586081883587546 34.99850353328234 13.603068734497187
56.198339897200185 37.277632610350715 14.471734445020125
46.29992457445662 22.259897164787073 39.341279655609554
44.08704073271794 21.538426278438013 39.22270165764154
42.91517963043371 21.35605832812259 36.92054583977802
43.431943953285014 21.887478510668657 34.76302759347624
47.77913832696637 55.96617573527191 11.962465876730832
45.41862000841189 56.95431689736152 12.887943221151946
42.93859337080776 53.832357720002534 13.957211972920614
69.20143995229613 54.183569514797874 27.002048240058325
69.82914050440624 55.62123319915243 25.35880881135029
70.00691047102497 58.10655106191924 24.81504374831109
69.04788163248207 59.882538139652524 25.732057841347782
30.715485910164723 3.4367854484133913 1.6698073753512315
31.82440218936193 2.3066905097626518 3.425699911670688
34.37866201700294 1.527071927976214 3.899669967588681
36.34456387659117 1.5225742034787821 2.265772926016477
53.88308997782235 63.622591518594035 10.823360183753213
54.04159983629586 61.52652077426491 11.853308648750293
53.62042076415846 60.73544359433555 14.276411740512758
53.061928351395075 61.681010659715355 16.21721005451243
51.94366502178301 38.0612301453844 15.774616399387646
49.935730644097035 36.39709004580339 14.608574349909777
47.50180344235371 36.7197184884696 14.119991387115496
46.12707652819189 38.893698327280525 13.948621686810956
49.369885809153075 55.22094799729646 16.782446830691185
48.448082268119975 56.39594593183981 14.622770077855174
46.10317350663748 57.59821664640099 15.710621590686571
69.3268948470638 52.71081186353209 22.376592204944263
68.99159124478955 80.40419028871804 23.637736832763736
32.76797453359622 39.840192131803576 6.5445111224560915
29.4155465823756 38.73717826507164 1.9343044475743063
66.9719411840089 38.78528964233485 21.331909522658798
67.45298286129174 36.591305725700956 20.823033986126713
69.31523364655303 34.94717877575433 21.658955089968774
32.030978686580085 13.612672651740045 29.45737623911704
33.08654421143326 15.796097787375508 29.603815229191447
34.936839281643024 16.591818526510092 31.418752043012297
36.54430206935936 15.374635349218565 32.6942767479235
42.91510080525426 22.45923490156923 31.717404360426592
41.735265335152455 20.915035224434913 29.833041862886834
39.95522910253231 21.482155433985263 28.341944024091834
68.39083484047848 83.26291594374258 17.736344952134484
68.58699646465269 83.55173475149965 19.640954580629
69.83489289772683 82.31077583962995 21.57956621956353
54.506071616462364 30.02141117278284 9.967265923893345
53.48656223939856 31.802719127146155 11.223859311599119
53.69369744521395 34.09107018068841 10.655278446909504
55.43417116600745 35.77174945526059 10.110856944172054
47.68854758672058 6.649884701302768 53.05105011234236
55.84416283028226 60.41605909357535 15.333657960226708
56.267116383248116 60.10610390288086 17.24081638747773
56.50432769794456 57.9086097497732 18.93666207554468
56.74978502895818 55.62458810425303 18.366171247198704
53.86225752138874 10.160520617589158 37.774974569143644
53.951332865734074 11.784083140250257 39.456014217637204
53.941096962777756 11.427267034784386 42.30437554326231
24.137186338622616 8.701958664110727 6.88920535356072
24.128883113153417 6.811835218543658 5.707422827895825
24.937835686873015 4.264002962660898 6.769808047516646
26.9820845701167 4.242249220015026 8.016402743693021
46.325597055366146 2.8400156150867404 12.7475059325432
45.096527790264965 0.9228439750830313 13.477177974652323
42.38934894623511 0.45934637901990943 13.273829965040376
40.58736203437031 1.8029537071958042 12.42146422362024
55.92315860542122 11.235138724675544 35.907890013478244
56.40968866139458 11.874812383335065 38.3441809454023
56.46459967406203 14.349758749623199 39.739833836493446
55.82300728414634 16.418913541746804 38.882455276470616
60.624918730884616 0.2968380668253465 16.84500757440374
55.26851670836196 1.2808055465016313 14.760305125819334
43.11325384550722 16.49515559337478 31.776465394321306
43.01296595257328 17.822598365574397 34.029862534820786
44.78681008775351 19.302458535948453 35.043613617919576
46.97847037697346 19.841005398491497 34.74365143684627
66.81974144359582 33.602499377837404 27.358098915019333
67.30101645119927 32.71431386973923 25.249396892434007
66.9629566968982 29.71752410932949 24.94960045929127
58.857952457663224 30.572854386553054 15.693786717642316
61.62864712718204 30.864523865134856 18.98942523081084
63.60530031595519 30.387731345947167 18.193850492497127
45.84922362107544 37.85846804741823 11.417052832187846
47.64164734507318 36.57888758860162 11.074506094413584
46.81931499990659 34.173231882604654 10.818112222348567
37.20398690748756 20.97092726098302 26.39227914035542
35.61957026878628 19.97947980626096 27.65581372263117
35.03565360221544 17.304739286708788 27.66738668100879
36.93512846839265 15.493040399899808 27.028348495561275
56.35574775673415 31.673714302373778 16.23587545831828
54.994646309782404 31.76554649897998 14.066165333094707
40.678461379123085 4.034098262071159 2.8738189846360216
39.24638320084191 2.8166402034502 4.158513307100592
36.721544955904996 3.238496413602986 5.049228761357561
35.17374903903361 4.574291786402243 4.168001645065272
60.22398462161799 80.88587902658243 12.499340244207147
53.380543360317155 59.85192638098016 21.69267092583887
55.45560032237368 58.42815767960478 21.9977269952393
57.83816283481219 58.83554603589904 22.80129700414739
58.52966793132361 60.67943767570523 23.83519147677656
20.208134719593808 4.543874613066565 0.18322089912619138
16.038142892211702 5.6915950355264435 0.5660748510379809
37.01697513734967 4.186175876596206 52.65659286013059
34.588599778404976 4.0205730840629 52.11859791448957
32.6445452579178 5.558909263573525 51.35860790326954
32.513919959563054 6.485174155510952 49.33698810603925
52.834308545721846 37.459715913586855 18.613933189586856
54.31110480053089 36.557091387108585 16.910521315244203
54.35832746332442 33.92207016861338 15.800775760279842
46.5353282548266 1.1191830791095403 10.60091674673201
29.972606957372534 14.985838628457167 33.93667420566151
31.005401661056176 16.169744572217105 31.966662269152238
30.124299121416133 15.964147745134225 29.23209765763214
28.219373590361016 15.846466948786142 28.49715863295862
61.460243921354355 60.289402703920004 24.06107865589319
63.7774798011092 59.275395519731745 24.263268674146023
66.16858334693032 60.266211869160514 25.09189040471981
66.76917661070424 61.846966469085174 26.11074437711258
64.49428013093909 82.69051224891504 15.47931970229605
70.1281289879096 83.04765335427513 24.68618587200964
69.65124835763821 65.1010785374794 1.1731934402238986
67.15402464205289 64.20127920330513 1.1792313396837848
8.621557888810734 1.2736402231738884 0.08973194579469605
63.9501343631767 57.54206038439833 22.241418642174043
61.699890792762965 56.561478458467306 22.29343500790048
59.41236304736526 57.49646443675498 20.94394790769732
59.7209618075794 57.09783753535059 18.371674926691426
29.853058688802825 17.61817529383033 24.79232642909691
29.167570913451648 15.740336473867073 25.57690552516726
26.653251896930033 14.98035563501544 26.438347717797637
62.79903584795178 19.771313517637097 39.714385665277256
63.743349115273354 18.491299046902334 41.15980601634567
56.91049796705613 55.59702294632945 26.438034919295955
57.73111386319951 56.47860968555334 24.71783733317462
59.92649939080905 58.15285888074991 24.494980645615673
61.512759341235 58.17183605949604 26.45417272281802
33.72477685005545 21.2208833148367 33.82252659202208
36.44662018411605 21.528560264527506 34.25571466767291
38.373387359606646 20.877567882131608 32.09222376731549
37.83136217408644 20.406711717751485 29.948620784081967
50.70750603381531 17.11466093339023 42.43440694176851
51.394219941283644 15.555610881017122 40.64838393878387
51.228135448044945 12.883672485996465 40.486740079873826
51.146869266479655 11.061256250201952 42.33353421926377
23.5944637696884 12.579150953417765 28.75861949001158
25.032017658229538 13.932226722521984 30.332669105848414
63.800311720423615 39.18124200120484 20.39232296114548
61.73036745688344 38.617785575313 20.735561834796748
60.512065192950175 36.854707246836476 19.403518646519075
59.75790846382485 36.94648535965036 16.756725624011082
66.06756300098505 84.53415122483877 18.89980743140617
50.130071074011376 36.234816482693105 9.679342330783921
50.70787907116377 36.37131338650222 12.24667199012467
52.664851261325936 36.812898947209845 13.311901302697033
53.90790740186946 38.23832287286426 13.515884103170219
65.73414435308707 36.19725046953362 17.02554730050746
65.06350838191257 34.885625583367094 19.0722468561999
65.2718871259539 32.60365322270193 19.724857522712625
67.36696433820525 31.463574684435557 20.17500199257413
40.18879455510675 35.12222983182972 3.5439524862186764
38.7480061063747 35.44013645796692 5.289954304147502
67.13972422459719 34.07896875593443 30.24391362052297
69.1754224364868 33.53106605766333 29.516645390050126
39.0618203464042 20.443772705635453 38.56159525730048
40.363133301716196 19.34157744354012 36.76848145598211
41.13385367772671 19.931580353695445 34.462521858131645
40.41640525466768 21.952441430561453 33.02361711811463
65.59546343045393 55.32748590268628 19.330790991119347
64.00763575152938 54.451837942686964 21.260285204515093
62.02304342405292 53.376779584296024 21.191578470392017
60.39550884489999 52.63636158962429 19.57095908079044
48.27100383715977 3.178298543589977 14.734395129847357
49.656747501829884 1.1889332323863298 15.122811787102275
52.020572318046185 0.272515987504637 14.530472896676292
53.59033334614698 1.489377512321608 12.552012444237853
61.31754616996155 2.7431648136323874 20.994383110702042
60.43412326994168 1.2235891204887144 19.347086138264604
55.9141594113625 0.600725498815843 20.070160800048942
41.33719813860448 4.385349504945601 6.010643051271841
39.78450870974521 2.838236406301454 6.861527718730714
41.00390343591845 0.508238867808608 7.868875787952674
43.39049613093809 0.2935855709434443 8.463496866369283
46.01329807051829 4.219174291755297 2.1639543573159545
43.69254571457273 4.15477545738794 3.7005036182668776
44.20974527734856 3.477720116112981 6.081753484557927
45.91489044716066 3.774694817988843 7.599912500729592
65.92877936045763 8.774018305529832 0.11662222658988958
65.78877087272161 16.709987833665064 40.895599102267425
69.9828017432578 1.2837345556629889 23.170510630430236
62.0966857066661 0.18245089988457983 21.51731782123208
68.86402000204824 10.737724713140377 2.3637962591485753
69.50201127587044 30.074991675010686 24.052296448925535
68.64388397715993 32.21841565116794 22.62267832505729
68.63417586464107 67.27015870104213 0.2964295983678689
59.60730159353155 20.09276870215298 41.4871451722748
59.338634871818904 19.83305638602095 39.44502703011277
60.17283295259757 23.75758491644882 37.717665381358266
52.162640331139755 57.30156190854759 22.58844913992004
54.438223899076775 55.98459620386251 22.67386543525395
55.36537088269947 54.41421043455845 24.292935618365195
54.3496345576299 52.882475478588624 25.790511337078026
60.49097769326285 33.1013144681872 20.125123242447906
59.13415297992224 33.54244389527608 17.953605812694743
56.3179530020818 33.71037551277549 17.704409260332582
56.985366679818 35.9452790061087 17.41059545735818
37.759264959057795 3.616330569778472 15.502028410167247
37.958392125740694 1.270742939619273 14.299998419489254
52.222629664996276 54.46909258708646 15.62958500214623
53.08051404983 56.42473642199435 15.74563544880721
51.9516533640114 58.32194054073383 13.619686611886792
50.37434706341732 57.63593043377602 12.021277453801769
34.75932774912747 37.67409644895311 6.067243774913978
35.38101976127828 39.84155972758981 4.880083055360303
46.7097214878574 1.796044588772516 2.477082152849878
44.68389590366675 1.7890326605318752 2.9281818047848587
43.54168890486899 0.5510314442302299 5.126198590764478
42.61131821335946 14.079174941520028 34.08374299922298
41.34664741650954 15.547320946065444 35.84182190257455
38.68596033471055 15.331483718127368 36.771355066877305
38.274560736030594 13.552039508498023 38.30744121001847
28.598376848061744 11.163861679143155 27.092765137261832
26.210707655973472 11.497911454187848 28.098328520891215
24.79506471056795 9.63674126400108 29.77421765825137
23.980274096762543 9.096161619154254 27.99772109138227
46.355742447615924 1.135595622914126 16.07996660542574
67.46241020232894 4.187252185859126 20.925743053710804
66.84013530869125 2.283815325197393 22.16339263303752
64.71448594866915 0.32476218163604703 20.929429561600127
63.724598351915446 0.5794354800246044 19.36000191517891
21.509735133316426 10.287531257118493 28.10684972012389
21.485833345514013 2.507261006081604 1.3878679243202734
24.355445991348823 2.3648153968424404 1.2154233006143582
45.88320707243378 0.44303591183716684 53.24991340984554
25.71813729090092 22.33274744358333 4.609257812938591
60.21369828880764 50.340725421149685 29.137918668492414
60.13028601515169 51.08400279975474 26.876129436586584
58.02804290472335 53.392796076347125 26.97495154424957
56.339559163837954 53.56444152012954 28.265183032361296
62.83503613970532 24.06335735393962 38.5071058126982
65.74724454478962 20.369839553113547 39.52955337695446
37.753694011216446 40.45375009627986 5.94246915996368
38.161332020982066 38.442509086513915 6.937534559168549
39.824413305273666 37.28146124232073 8.11359813508908
42.36806754048816 37.776830879544995 8.501525878068886
66.02593636487921 52.87898507664298 23.036273445642088
67.32689974697897 54.77632761546078 23.857207625641625
65.581135088125 56.9170810076265 24.50678221439389
63.00930865992874 56.4919680132807 24.928735956484992
69.91217447680653 59.99907016030988 22.666255663662575
67.52778079491401 58.31389897054157 22.91187701599768
66.92464490736613 56.4019244959914 21.67733963649039
68.27361916465256 54.83398789067663 20.139966731755347
65.81254824072909 68.57876719238244 2.303512253751214
65.14374465746877 67.47197418071173 0.5223052858926029
69.62609351946013 62.63815734253696 26.5735812736557
68.03082804487974 64.63701305331696 25.986226199054997
31.81423863725414 1.016061021944056 10.836192564160399
31.6537135757915 1.2240756580781866 8.657659162468283
29.384220824758366 1.3752416155328564 6.9421956109624885
26.823678968062435 1.3418661997308976 7.558890302834394
69.33522769324964 28.11845446270328 19.753967570086772
66.86060979433681 28.854534279131425 19.518713885803898
64.92156233127206 39.02395241453285 23.14957742926189
65.54499361647274 37.144848946926174 23.387582498024106
65.2336808959211 35.49208892021974 21.835992893152966
62.54916103416137 34.93402613198749 20.674412206802344
51.71276659243147 61.37268091889582 10.340158503944986
50.153437608199525 60.309101309823006 12.16873722639218
47.74536734389331 59.70722474618878 12.3246737283502
45.82098934743656 59.58951177839668 10.267179336981272
43.81442636051935 37.59499108502068 14.811192179113439
43.50799180864438 36.803306673379886 12.747591335568831
41.255731389034 37.41540147269434 11.073524742923185
39.72596426186862 38.62730975059186 10.884589564768804
48.37485664852197 11.356320843586314 39.1892533735347
48.47210342021109 13.735115816131811 39.516201737424744
46.986838874235815 15.273650759060489 37.729747753254046
45.10889831749859 14.363830389270854 36.15756667507438
42.18485724986461 1.2394809436329646 1.9721048025648888
40.80171751307974 0.30577067893652454 3.980982281628618
67.1345185454416 36.85128558400159 30.49248629172489
66.40773410341022 38.10101369940176 28.751993997486352
67.03857828395228 36.98385235919969 26.085772408377785
68.56480788753817 35.1848488550955 25.716623983673028
51.936580284825105 59.53923900430885 19.249745043601102
51.83220295786739 58.98435220557533 16.32406915688702
49.96524795669078 59.143582781942136 14.981568791384491
23.163778773729128 8.695859596072163 4.3085549745032266
21.843784348741913 7.713429770800726 2.01429473719568
19.77056298122777 5.746337674206429 2.691317260564086
18.52466950972002 5.4270033663874315 4.9493613024921554
24.72611035181761 13.882333146377416 23.7123460615012
24.966389446989133 12.677206460862381 25.290765260430156
23.07989222265724 10.476681920001427 25.880480743292594
21.064976474397202 10.21733555958687 24.354994429465343
53.067135361533246 20.327736765974244 17.017370840335687
54.73690069178796 22.084120224263206 16.680014524265875
54.315362312445195 23.435313936788663 14.413009333194662
51.9252291439583 22.861811001473832 13.166601789214452
66.70537914539196 14.303012200764325 0.4540595847895978
61.34997496400388 30.836432329403358 21.753236602295686
62.74830120689179 28.840972753875153 22.037200728256362
65.219468336898 28.688562544858637 22.499349049047808
30.396168691489095 37.64739171267115 6.595077388927255
30.73401471337682 35.24399209852236 6.607351596296792
32.81942428485297 33.96284934349891 7.946329678614047
34.39528026360405 34.86432921077833 9.353856891702069
25.677716420298037 28.125352817218122 0.33669314632955144
62.93818212956541 27.062052506787506 17.34287247751184
62.016888300582046 29.22001302543718 18.509200910852503
50.36925699033313 37.53859665294773 37.2797073144254
51.90123084766141 36.59847052055262 38.7772127095893
53.53571453139743 38.85703574404055 39.43428656043976
52.6271617039735 41.22821236212278 39.58763064983863
56.06298920034894 27.192344942726574 8.007527255893164
54.19507276748352 26.055427789702623 7.424608291004289
51.65989403406571 26.57243602205009 7.548001929046914
57.24423978836895 27.39996538718713 11.5637404199421
58.35170775086502 25.662512133936435 12.46848052891134
59.86816609060474 25.204962601034385 14.432025709135115
60.447855327203584 26.832494550995733 16.32877779635654
49.36309171862062 22.6275932634731 38.62183050449619
24.12287403280064 31.836641994279127 2.0924357918493075
23.275947883003987 29.3917384352318 1.6714558168085938
21.334029884085727 28.5359114476634 0.32807348313458945
21.844860327563254 26.362154424227235 3.1315144761929408
23.22268329816611 25.529917524462803 4.304018184622703
25.800842263649187 27.05489597278274 4.7813734748292305
26.246787204102834 29.1009872874464 5.053407874996048
44.843629074580534 41.575303111271644 30.50124283426545
47.17381243393436 23.884422586181213 11.520410900465373
47.00651445074981 25.96542999835586 10.808803895026674
49.57702343447565 27.039422211373296 10.05949269050293
51.721137768870655 25.442243211536752 10.949436270997559
28.395501947195825 36.64468828715791 2.955547695434623
28.982185743646145 35.502785177755804 4.504738727075452
27.848366897285487 33.23433366296411 5.747084771892185
25.497535490492055 32.19092588180333 4.345892913391572
42.53391991805453 24.15633432848577 6.779016906858722
41.38829871637373 26.1511982089974 8.215326098192566
39.34442738714568 27.657687409225574 7.947340657440473
37.45759797547892 27.113432133870337 7.307921336611227
31.34353399272268 35.111776920596725 2.829098643808659
32.44207489200372 33.7992438329314 4.700169750152035
34.461658723874535 33.927525282756555 5.615320638063329
36.5767201877221 35.44817113643776 5.566997825444203
59.20365409528996 23.389063803118432 20.01255203105099
56.96769681537947 24.252362744546577 18.706199931852602
57.05340499198785 23.692348400531916 16.04483544542812
58.533068679654505 22.754773635557314 14.717535814262986
35.21774019065531 24.40283348937514 10.055837922732353
35.544847655712054 26.237205468294704 9.277092126401834
33.490055632263946 28.138326577863317 9.411921669597948
31.207095231178272 27.298346419156235 9.929013398165782
69.00303957423603 26.184319836219892 20.08589214381214
42.71723244931882 24.905036761543812 32.15113343458138
31.236308819309286 30.627639430793778 11.434588595412299
32.59991099186556 30.758567458343567 9.498442250508472
35.1365457044802 31.560504597303186 8.966770635491832
37.10013219663099 31.10968851378096 10.623584375631621
41.87228862637358 38.942368544433876 27.035404373853897
37.24683401359801 37.67769652829577 10.011155373168148
36.91702699562643 36.286853758351306 8.275231940007595
37.30040755961339 33.594758353026585 8.288620720802449
39.017256376264406 32.556060370101086 9.54307525332414
59.743244587690434 25.093106539421306 21.920804970621674
60.82900785416297 26.487664129758983 21.287202114681477
60.219584592023196 27.6132182961014 19.02999394642253
58.10006126124753 27.478734340090973 17.733818052368633
69.87135676728589 23.099493423867134 25.204076206521304
46.22416946757444 39.49381175820409 32.761925167602875
46.59400026354686 39.21924360573095 35.006149490535364
48.99486413709325 39.78548123678588 36.05756368077141
50.9715173258664 39.30868871759821 35.261988942457684
43.07416122386513 20.682862316525796 8.65058439726301
44.55845627685841 22.70665790835739 8.851579848004494
44.54500898016837 24.77190936080102 10.482907842288595
43.07844855657225 25.202543275064922 12.285891653483436
67.03080717852305 23.90672570739427 13.6859900442582
64.32478190603595 23.21510097106308 13.514299696537526
62.38114962149152 24.92707799046171 13.630427678703288
32.698550645852734 28.190618566451562 3.70156723591316
33.121273886562264 28.221520081599177 5.899736748959704
35.1247402659758 29.488710036106937 7.386779228268714
36.85837816765025 29.989222745456573 6.2316326323480995
52.76732334805201 26.779156610384632 3.840684890563003
51.31453909853749 25.37144049188151 5.131554830356372
51.669667579290966 22.97374685625191 6.321670153952583
54.22508847166053 21.77562810265867 6.612950536238049
56.50994788578149 24.095801266751813 7.218629810928124
54.69378240788938 24.09369623621359 9.260728369247708
54.95361565372077 23.760237938470283 11.78511373945566
56.37004890918218 22.550161694932296 13.066788466136714
27.07073486552008 25.485786278993142 1.2054058447725935
27.37844625152744 27.51242954244301 2.298502033398507
29.024956473582655 28.22217160342262 4.4698136567551074
30.477337679137527 26.81491505364541 5.529252929224897
25.030106493475007 26.09628336811033 7.575218675324886
25.155193131436267 24.522067542819066 5.945250449259993
27.974330461496397 23.735580346145117 5.806202577637613
29.799010271959816 24.738068132339635 7.49038478499823
48.92429730125672 23.62144352249075 5.49607190060301
48.38690866067294 23.1641304155028 7.728240297003603
47.17468454730221 21.044681284009705 9.069889226317422
46.36435137520309 19.2390469098242 8.226227759039352
36.11191238875676 27.904199043872456 11.420895240046736
38.39269022635523 28.28459404891978 10.799315590894565
40.444471217592266 26.41079929934676 10.752936546773842
40.37011946519647 23.969738409665904 11.284517420181945
47.857194703174066 42.02227183983824 37.19326169240846
46.50036998983346 42.46340126692712 35.021744262655304
41.56092799009166 30.18218616664564 7.2764533336332935
39.15130153753672 30.99573056672423 6.918960343316204
38.35310682822628 33.344598777460554 5.646654181199322
38.89056430261569 34.22512747616894 4.199235913287299
26.960443373868088 28.27288759123103 7.456841737139187
29.39905396221566 27.772385156328045 7.868788043030565
31.50400183757851 29.508455588308237 7.390251759508766
31.02562057593905 32.052213800558384 6.647603689764756
69.72604696645898 26.843343427475418 22.904942221463635
68.39858486169243 25.522938949680547 24.60637006009396
48.91673549673186 26.025582317720566 7.409202209005776
47.041134658858944 25.32664768360364 8.193452831749257
