33.15732828440346 73.82692131733089 56.571599139455714
51.128866938433134 58.06478188738703 34.74401326328792
50.156016828639764 60.09355716094608 33.57991550910661
50.87164019370569 62.18683198181385 32.74530420598864
53.10980292668909 63.09215588432353 32.4334780753285
0.4961229625549212 15.65194285925462 1.8236120882621165
0.581487329307469 18.221228157889485 1.4154219822763137
0.8037030543789342 17.919373138822845 4.086437467979395
47.80034033682144 84.48204751025244 45.002652127437095
45.8627470420761 82.9164599233462 44.87988311122878
28.673385740248406 91.67172023788231 60.93404102303354
29.510801655213548 93.85780989233504 61.295261512453706
28.064148653733984 95.79576006489928 61.49942422205016
26.018655381417787 96.14250554824075 60.22863967460331
31.829162619752847 82.4961499504979 30.88651793138144
31.693595062598327 82.3819769532155 28.502032763988318
31.416808092864905 84.40078012654685 26.804700400204343
29.612017234091088 86.01711550674509 27.281415154412258
26.684224980142332 27.096490053710408 58.814018378325684
27.89820476929666 27.672607865483283 57.15026236267326
27.43236731636366 24.955536072233162 57.16890065837853
29.314481492694373 23.201210123781863 57.176349597616685
42.6040715764073 28.674720113624826 23.520390811770017
44.4051762163437 27.65630088904005 25.29489192883844
44.21707455508053 26.160198808224624 27.180310381863183
42.42644277064892 24.821601147506154 28.05215853548029
20.203141811610706 42.94811847102368 26.15332948795109
20.091200155724387 40.93732472228684 24.797821254344555
18.600397278517836 40.323987387652494 22.819227157974773
16.59811218038853 41.3845717694009 21.865588145777732
3.19584999880359 94.2635840054724 12.488673558174925
5.504997151415154 93.90279913293334 12.28240200663026
7.5634746928623615 95.48145657647312 11.304358467352158
6.969453066950948 97.79701142096135 10.400917990407311
23.090782401634208 44.840750292861586 15.772486818839804
24.40938120727599 44.662088044733956 17.094747312964788
27.335405420953585 45.44762240441226 17.018902009327178
28.491911207239962 45.75471351500445 15.576082394147583
4.100407645443393 15.092532213130971 1.849833684112741
4.943497008076242 16.029760816800486 3.5009311177275326
6.171657027834811 18.440450152694336 3.7179280201163616
3.886574575603004 18.621725292205635 3.3975862855834573
69.0250068092196 90.49064890240057 11.584759492240032
67.80777814215567 91.88878444047033 13.102311501172965
65.49193970175875 92.17961134855771 14.021419162634897
63.518283383935255 91.42361700690749 12.650233775664283
33.638927021676956 15.368469408261177 28.1941947451794
35.425405572400344 14.61738614968008 29.77502336359549
35.60104666134861 13.12796201632507 31.758411662482246
33.84405163476859 12.342642674182688 33.58527320612446
19.79409890361575 54.50046321334027 60.29670163755626
21.2455280064817 56.262041286619734 59.32535478259181
21.983275183217675 56.708470663850555 56.781812012050345
22.19795417210261 55.58234647909204 54.99348781598424
12.240332956196495 55.5463734466948 45.60688488744403
11.178296647918172 55.72806606017971 43.538586229488374
11.777286822652108 55.834550812949594 41.26990533910144
13.953287912499116 57.38371426380088 40.38350529811664
12.420519759130553 102.14761730509822 9.313537326836967
11.268506128544159 101.60484070480769 11.430998235176833
8.899694097547393 101.69064728798183 12.243584313647835
48.95370863521253 97.678161442766 33.57313531709073
49.972515432398794 98.75049210169801 35.26128500656808
51.023814539575746 101.24416899319118 35.41319511551119
51.42356025218215 103.09446152743958 33.63194898732758
5.652059666582286 53.49340094587627 20.89173844458021
3.327501641778364 53.838474770772166 20.496808909041846
2.0182044063013946 54.235236493392534 18.14441029340999
2.630172515498193 53.57310854483603 16.02168596563971
64.07629691006761 62.099934322602095 6.097504356820323
65.47148963467156 60.460984228449135 6.801085194099865
66.25883835214424 58.16167179539105 5.938071048619418
65.22224053317919 56.42847481144807 3.951812921550017
23.726402836405256 95.71995409815683 68.63191561576456
20.71804089334655 91.56443689927262 71.59963548362455
45.741758980104244 20.070847217401386 30.912865298324515
43.2834259383003 20.011004703410492 30.215897081413807
41.695063498606224 17.924301758711294 29.983362425560042
41.336884749592365 16.330681867072762 31.629839542688497
36.54181529027492 4.772001378716195 39.25303950462221
35.92195885557346 6.481458195047012 40.538864400664124
37.03695114258257 8.561326025235912 40.72172451664271
39.16911324785437 9.226566968893923 39.87690880219122
4.484759878660531 61.55368942460358 37.76460145899816
3.1695864822959137 59.4003011481274 36.37850190790678
5.093812194116716 57.434814275574524 36.79563206873866
6.6030940235145845 57.271181999384744 38.67281237620282
40.016825652586576 85.9073910894765 50.76164599164461
42.08211119422089 86.747198849814 51.01085623617502
43.607529431774786 87.15271705360733 48.68230285840284
42.996072819960474 86.87718699211176 46.57246582215281
10.36346089699646 29.02869791317494 5.411317592081282
11.491111093361528 27.320242036074923 5.029686656638018
10.623227493718899 25.251835057025392 3.914209955090685
8.20297035791189 24.31381593653735 4.466937319230086
51.31862366927927 71.77049864300136 34.87195789082849
51.9279598249187 70.99813294913551 32.90123453115471
54.2852548908429 72.08263786074812 31.879281639406134
55.429049738875975 74.34502106902771 32.7905232028237
43.28559409065637 54.88282088262156 29.84746185240853
45.00283836407532 54.553881230827024 31.64884159568065
45.91665681821387 52.792754762104465 32.70667909515712
45.462693728760435 50.149247550967026 32.71640351596378
40.099604061452084 59.77769832304474 11.22958930978466
41.8805367435509 60.289654944255666 10.279237013148354
42.44846451909342 58.97446287366377 8.182240022376531
42.843562472399874 56.62773993802156 7.6625787903927876
33.28127315316766 74.88118587530948 53.84837006990779
35.45769019429669 75.14715210998413 54.90173063128325
36.83038886650704 77.09463310862559 55.37020773279817
36.848128833450126 79.52075438613144 54.413614111451274
59.46891042570847 94.0849282004681 15.948110127756193
61.417161896021916 93.57812714527621 15.025984792462515
61.67017472251626 90.7950630313212 14.753243020470848
59.33883771942913 89.25872462497566 14.549080153595265
10.540104655876934 81.46336887699451 81.8809289361447
33.14243353364848 46.79074019845194 44.53578608945816
32.93788688555992 44.611377792403324 44.80189880256315
31.838808737226685 43.06695517961425 46.76911559051014
31.383843037073117 43.89256791954591 49.09348694988326
30.63199934330624 37.44552558541906 39.7871597113231
32.18448598510266 37.84417209369885 41.68444195241546
33.84804134751038 39.88580358283196 41.973522745736105
34.29373072924906 41.954356150500125 40.84862524554475
9.19296301891588 76.29896860419429 49.65028740909624
8.835144484985001 78.22423117780133 48.92243569047836
9.616538745451075 79.79778048673327 47.11289845137346
10.711431375913634 79.27398870738277 45.03180641193547
59.83150314859248 79.17540201689394 27.476632213349827
58.72264354417895 81.20396772196712 26.09624182257115
58.869173000092175 80.10207179388502 23.31199598343145
60.72253795494107 78.45527712729258 22.70585151074298
2.260555381176733 59.918607058212075 86.44829940362658
2.0146392330704104 62.20140173296196 86.11579196179868
4.081721683450269 63.56282933570039 85.2706305749187
5.411361510132656 63.01471734320246 83.37557892101681
38.61992977129873 71.48812035167592 22.22441289148651
37.977226246337345 73.70984551209025 21.299435745055156
35.96304885956407 74.76565153895827 21.541673232820376
33.42684024084431 73.80896519822625 21.736329385064302
50.932052202759806 88.03955447728245 42.23178229267505
49.852223517497706 87.9475594584302 43.937311408537695
60.75121415437667 77.19000244430575 20.252195995837603
58.80290229508765 77.82408118915134 19.39632425501086
57.99747305762298 79.98756310757788 17.942982622269632
58.94501481022017 81.88702028807805 17.35116290685317
0.5456069483703384 52.50996397039815 19.475851570840103
31.353174151990235 74.53032456339487 59.94423746405505
33.293921491741514 74.08368491069716 59.16944010047237
35.391048525048994 75.51083425186091 58.44476960431809
35.81835826657756 77.73255323694691 58.04146592957422
30.031272470761834 45.38578496070175 17.809740805536737
29.719909217702494 45.3613932887252 20.142479762475766
28.051682800269315 44.05959536907989 21.33151704034564
26.891510169212832 41.61672169313775 20.638658174518167
0.15569994754896832 85.26104441604508 31.85031543896684
45.55347365558972 66.45397542744581 2.6318862439723567
44.67697961813295 68.51819444148263 2.7129793252962324
45.46812834305171 71.17070239992667 2.109991691932918
47.82149829602825 72.07887423769355 2.5529862398576095
42.08791168533667 61.625682155878486 31.393402363953054
43.81461339852655 60.67662891379842 33.034543441763276
44.436929164521466 57.998641781784364 33.92025729819434
43.31444000485898 56.00371587708139 33.57821752475766
6.14290398036462 64.00644782148687 13.34204906016992
8.155678148279685 64.52068578387556 13.264906237707375
9.14463447628079 66.3708113509128 11.348762386607843
8.288457149948547 68.14153014264764 10.812432664927934
39.77821908643059 48.04821080243629 46.08753668942137
37.92372498866632 47.935199940268525 44.30802182647271
35.89242276483214 46.388203000005674 44.756421093945754
35.25529387713045 45.16142180968967 46.52424634053409
66.58057754874862 95.42594392369173 16.88252039799568
67.62519610774797 93.97954488483308 15.201099776655102
69.89754510277909 94.29404415599616 13.942739838886661
25.36233261031299 95.91102053688407 63.8307234150575
25.0100605121136 95.32165415654158 66.13317939506352
21.11321077798788 94.46548107718152 40.69927990767676
20.321471635807907 96.94643464207601 40.3706392441817
21.508318063286954 99.21927747582978 40.47677977270472
23.82543451195559 99.87996888272775 40.56661330010413
3.688230366175196 88.69762513168861 25.76404672623981
2.873954938987868 88.9025068109318 22.91329360875007
3.192080637710739 90.97736754832172 21.392216544992024
3.9046702780722797 92.9030880648292 21.610976762220584
68.38927554874746 99.70398170023304 8.897017000273244
68.29998068338193 98.35902783353481 10.720874854709367
68.16303829243968 98.64699377368855 13.26503154590805
68.7631196815635 100.52698041066512 14.507456069362942
35.870425036730545 33.682946203369504 0.9046185843628665
35.73682289358253 32.148481416083314 2.5396024530439867
34.08582960813415 31.708265004751947 4.488377957349592
31.822722934194015 32.49764413552847 5.030448415727767
60.490882176492704 77.19005203764573 29.45092802741087
58.51089917011016 76.20343881099771 29.079074513335748
55.89058885971877 76.32934825610737 30.46881390630697
55.513639676989285 77.13874872723865 32.372750782774574
25.673326029975936 75.96285370228334 1.3390511213156133
23.729543393920945 77.58517040671953 0.6831168563543001
23.52876448540876 79.76255649826646 0.4118287869422327
25.57425026995634 81.88281866111589 0.09439860872056861
10.790070591465392 94.42410157574385 44.51467851033056
12.570080096334445 92.99816903779711 44.73922728339621
12.504017008969322 90.43905021526353 46.39963649002437
10.643996377065724 89.5190079540329 47.511428692919075
23.662627549027828 102.4140164289353 33.217697171110004
4.936911287409757 58.646143709099455 87.03192159104393
3.392932559352156 91.55402276356551 18.726062047587266
5.281055297460582 92.88515900582003 17.452159585179306
4.92270906278845 93.75381132800531 14.936994728567903
3.516119016351008 95.70185308780239 14.739634081070756
27.172156663938974 82.03354850074373 26.221196378302118
28.69091002648176 83.52743874353649 25.25163355816586
28.544380747518627 86.19713658178924 24.269560873375017
26.910951088192473 87.77381701242734 24.31687421071111
0.02745883913511946 63.79882139232253 85.76017234572831
1.8146853928199662 64.66572810760451 87.6423191743486
1.3482233662149972 65.96892940289867 89.24244760981183
27.25228145354801 57.04142473484806 16.397502487765838
27.840739299592475 54.675309846314576 15.75841459048012
30.463491057804085 54.64903497904111 15.129351439082907
32.0854193911262 56.68039008267375 15.250206354610091
29.58631537353915 59.11154324630362 58.70007191994739
28.091333621463836 57.978915924585465 60.14500413607675
25.475822447456217 57.2746961029921 58.985054128495946
25.11948595471424 57.56389732578442 56.62549557959797
16.365704618685214 29.593718526778257 31.156921429126566
14.419880205319043 30.876011720139825 31.44548091177097
15.212112208996606 33.76415025734375 31.24237881820006
17.78458104514866 34.22699658845251 30.466997114304395
2.273933622250922 54.68438047270584 11.500387876275148
2.859521013609446 55.39270568745703 13.876047308562237
4.995335140276121 56.29700009701455 15.086278989138934
7.168581530777143 57.27282489325838 13.74205277752653
6.242129740723595 44.36104085689786 36.94502237844369
5.782223903027723 44.09771931314133 39.1276305946127
7.6627415477146705 43.151179726922905 40.386386464852116
9.751186132463614 41.80024120535375 39.6118360519991
60.94227609620635 92.45715577263938 17.56581117359896
62.10820245093019 90.71822756564418 17.44734777913729
64.83064468665661 90.90054237672805 16.430183926669418
66.26843022488525 92.65623621423656 17.098065154052424
24.275230537944733 51.55391147280143 21.676697824252763
26.18117678548945 51.386884183782094 19.83614022603622
27.41331347073785 53.45058268377588 18.614891033837658
27.626649118452914 55.324392303605094 18.711835663524955
11.763090738072865 47.40605179373583 78.7866665463868
11.833247902944441 46.57823148508012 77.020239168821
12.847377448438165 47.89858941985819 74.80792644183155
13.021534046968902 50.24065769816255 74.53520955356142
43.67503273022907 50.355850651084296 36.966322198723006
43.980127064192295 52.2413591101519 35.58868430867844
44.88100435406263 54.67453021324103 36.78912074093092
46.15104611423596 54.77300208068856 38.7379702440391
14.395799687768324 47.958224145087755 79.01885240102852
14.537061478586178 45.997864036830656 77.47307878404058
15.07154493320707 43.585906186362436 77.99980223985364
13.456288464831418 86.59630173600394 43.04189535722143
12.923344534192077 88.90949976293659 43.93332206079323
13.742070035650212 90.95357750445207 43.42543584313901
14.370101392643878 92.07501713236591 41.38050733162137
69.32707877903641 66.2000926131217 2.844466277910852
17.57196895125416 55.47703606792893 65.97529442728244
19.85458840975015 56.22595837325585 65.7126491302865
20.48223355899739 57.48984416789145 63.29482420730465
19.41459296379351 57.40619767655646 61.325678066167086
29.173475668486848 57.90937813507349 64.39936169408873
28.909841619643995 58.91861362487839 62.631230653875875
30.939781145786036 60.006331816008654 60.80511158813373
32.84750102545612 60.235393036710946 61.04547618462819
45.88571700232422 75.30579958377353 3.258315356758337
47.690157277062525 74.16600766678006 4.311427815894324
46.89544652871421 71.79753211698448 5.71579832361884
44.52290451957296 71.48974555926148 6.094573409348109
62.43650793854996 87.96346592439897 13.332921042574997
64.19787251289644 87.18184418011077 14.075457112166369
63.398066368933534 85.73877944252627 16.92256004382452
60.88193241196844 84.92915452816385 17.04963357627481
19.667996446686136 34.800048473504006 1.8066244678239358
17.852544302259727 35.54034801314862 2.7273757254591975
15.49044215128412 34.482409227636765 1.9353572075819485
14.822844819262336 32.793888932464895 0.5762142934829785
9.54170723243395 95.44606103418872 41.70367791928568
11.73176972980525 95.60097177566239 42.091061441667385
13.8843520110713 94.87592392684506 40.93943102070082
14.3839288617058 94.0406741661876 38.578304904589366
33.99487552599591 43.73769994553654 51.16811073267754
34.39829002352262 43.056999220856156 49.321018877507534
33.53031331063995 40.39819985235196 49.377849473806236
33.5836079430219 39.07749932275668 51.58257487813976
23.757349084723707 24.059650724408385 51.308024742565735
23.623906136373655 25.464225532294602 53.009760792087796
21.09027851332608 25.389639109970844 54.87241081104895
20.024508131994953 22.950572498308038 54.971319265113436
6.209869111152131 36.99205867434403 52.01961043540149
5.102163666838038 37.96475682077516 50.723410417552216
2.757502664367187 36.84585667806053 50.047553704659336
2.0915427576488184 34.47775373163575 49.583738024011645
10.427216964528457 62.290717439811345 4.436763969956427
11.438093800382774 63.64993223824523 5.892784524250546
13.412976550505986 65.03721169924277 6.190986470397786
15.703424124179872 65.08148875508302 4.922828331287723
56.38319831063541 35.917868162830146 25.90724675520424
54.2070401262328 34.47319151528583 26.30641668710635
54.30974285990285 31.600880139686005 26.649906178738114
56.39513162220362 30.136881034252628 26.941244964121623
11.845893486711557 61.00814004025609 7.430659863754898
10.44842323370597 61.22022034045079 8.888602972955185
9.797879983783632 63.740929073706724 9.560326288891542
11.318351374728925 65.59434659564913 9.321098251873968
41.599142717099845 95.5009247716918 38.545669299611724
43.59036571218249 96.42615138004516 38.15197891905396
45.72907210517022 95.00027552991892 39.703661288560184
45.28377719880871 93.12882453607168 41.33990077618592
8.803771524886775 28.35509128774484 0.0516136818795091
7.9711859826258875 26.111041586214146 0.6837402818520376
43.68558648805968 81.61131760712658 49.250140636144685
44.27996544929037 82.96611841010669 48.115828208135184
45.673475781334325 85.23554373053673 48.846110609974666
33.8706884765182 4.40055925298579 38.07339122015377
32.28249160223755 5.509232150547397 40.060657656540464
0.9757373539361682 68.3415596007558 55.82129402190409
1.1362411472657956 69.89610954716304 57.463624042726586
2.512422075901232 72.5182130025234 57.464411956633946
3.0823347669971786 73.88324483735589 55.94330548349037
27.79407959807265 90.07209170286218 25.580817658400406
26.89865633093152 91.56299179934109 23.59272357005166
28.956231912580908 93.15553525762041 22.71439634969227
30.883188459596646 93.57085891492908 23.990379018690607
9.636664174750015 59.45371898564146 41.65876151954039
9.735601895933593 57.57230717854323 39.92631763482712
8.442430767003243 55.41196362592357 39.60394811426102
6.813561806463121 54.21091293519268 41.29178922735041
24.569222083446473 70.1259337809505 33.534547573296585
23.546628317354955 70.53202980696535 30.841424892677093
24.271089804089666 72.08383748551172 29.191905705933532
25.9457394725739 74.24406271641605 29.273063395745293
6.346170367331074 78.39666976884993 49.36919223476223
6.080338301248937 78.19329783545395 51.429450540282964
5.861335738109454 75.73429090207807 52.89550928488218
6.0873594212496975 73.61199029582909 51.950801271804664
33.33776000052546 78.81373404565383 23.351773410674582
32.926977592485095 79.75354757828512 25.974925730731332
33.98751309128588 82.08344354532343 27.050080915034933
33.793757877763994 84.40063271564897 25.256781890373702
24.722269123459803 58.63956350584136 66.08285512430898
26.273899731463832 58.08047481152414 64.75310545417197
26.08625583816193 58.048821145965746 62.254891771542574
25.237298500335232 59.53353137266478 60.627593306879994
16.324081742565774 89.24603894454891 46.94913657713367
15.705498889232613 90.93314419690142 45.66102638245211
16.519998736778973 91.89935906685548 43.285703134024914
18.703756126361654 91.62228187822224 42.32596909876111
25.847055089986476 102.87403280376304 39.06969152474387
37.800013242137624 13.172820551538814 37.7318762140087
37.24116984136522 13.17728742878621 35.7554441524253
36.64443743654838 11.275767657360499 34.09920835252601
36.552580558522095 8.94934538825254 34.668579413688164
20.554509349700755 86.42412540712976 72.40807302553243
20.210298384462842 89.1274225524618 72.66526597811819
23.2117408434419 82.75886135182775 0.7258391956568081
43.5941302463423 21.92696117856293 28.34771692401855
44.61457013810831 23.818039834625854 29.668238732383156
46.91642196325921 24.776926132005688 29.98481235555437
48.89045334146448 24.655301744366177 28.415878851358954
5.739341161658261 100.02623375897694 20.040326514459892
6.3386937946099975 98.28829539855846 18.360346464932956
5.8370748517215345 95.61938337841066 18.17677046434168
5.775667835479284 93.9405273374164 20.193263421306142
4.1617450042070905 25.62096425212696 2.542323153894745
6.782168592378261 26.121861562509913 2.9340998308325665
7.882427154584395 28.34185774491419 3.1227911639832238
7.184261185190246 30.64908145903219 2.8682144827465645
21.90878327075384 7.169600502565201 15.752529561346797
9.55423175830887 90.29637356308861 50.28912678640474
9.646838349682666 88.15865061123797 49.33497960209721
8.407721013733374 85.86008634825343 49.68600214275079
6.493237873183577 86.00538024123148 50.311276574464586
38.045477933998654 91.44791807069491 14.383200177743458
37.50009015706527 93.66145939560833 14.913095075175399
35.18024732268851 95.0807059968279 15.22792659775305
33.30034353395862 94.85604569570428 13.700621253081438
17.586419996038735 27.289453352323584 29.94082820579528
16.186485394545535 26.895422869179626 27.951242605661495
15.794681688837848 24.982377912545665 26.397629255140863
15.929305512326643 22.743983360117493 26.761562618056868
41.96043613882494 38.04234888833774 0.9173530483018204
26.027063527231146 85.06634371156352 19.61250589722878
28.13549514700589 85.56331034490195 20.899488038188174
28.74828074531011 87.94756600060613 22.06748679442963
27.838499282160413 90.34634776328775 21.546483179440543
31.200042230744256 64.06017094895807 53.987394831843794
30.182486240317264 66.04737779956133 55.422654265229696
30.510336774402262 68.5842840415903 55.18962546022472
31.180510613746012 69.95118050057346 53.89737881066167
53.431941787868844 33.28406647986483 21.49168916764984
54.27185456171033 34.91685774318491 23.274670997459655
55.672709318731016 36.81568966522003 23.36489144847652
56.99369052120126 38.180745758917645 21.285089007501607
33.999587984210095 98.35651471037353 12.687085634209684
35.902071570380976 99.10616179170526 12.429919462335128
36.775301908789245 101.77757191267384 13.784059352714133
35.77732416871367 103.47899097008866 13.694303723808275
28.52236161712497 91.14992907990201 18.57972684089162
29.948505591793566 91.77715176883277 20.445750065972845
31.48691556827226 93.69905049455993 21.010172634958327
31.905738022735733 95.61388327381802 19.925373435539928
17.551110812606893 57.16018460071991 68.24849604144723
18.151643213105437 55.95609911455549 70.00418883883442
16.28811600217857 54.67332904208385 72.04924721755648
14.08838511102437 54.646163460042686 71.9294170798077
29.30117241175319 53.056231691497345 20.700361430745737
30.58038533882219 51.853661210555224 19.29641924388591
31.92931206362874 52.82617885997575 17.04381448628109
33.140910095568245 54.967754464752794 16.906786568796132
9.865049669388005 58.18876199826956 34.338929626907614
10.02549380255261 57.16199641681977 36.46510253487866
9.367724304714057 54.85544337315223 37.137360152018495
9.361876376276163 53.473770571037726 35.871562834273796
31.66488505848756 47.14386348329748 37.62973491099806
32.93562647110755 47.87523310001765 39.02950640778091
35.60145026277212 48.36800770997423 38.43764428815859
36.58277935475133 48.56165355809392 36.17515118761764
20.685338197755254 40.364531407698635 27.77373387667483
18.538728578606435 39.72515904002508 26.889877310138505
16.85552815506343 37.74460497326234 28.234341018172106
17.005332592208408 36.92847762063906 30.284353111984363
69.03662230373241 63.63453877701924 1.5991781183863045
67.83352138669275 61.76817747586293 0.7928104651966499
17.021823397297634 96.0201296457921 31.288744396412742
17.77037537900542 96.02497721125123 33.5118011801725
16.609304941675337 95.74355099003151 35.699266425925366
14.595249932602322 96.11589143221153 36.63937618839726
34.3519570131929 70.87966962627857 50.779601949993705
34.493432164122666 72.9964991932236 51.95568316405402
36.03283124203119 74.79068550853027 51.73027539637645
37.631920196391924 75.57261720820316 50.26781384441081
30.132675145413863 102.39968846277324 59.1527287134849
30.417647437130135 100.13122934330771 59.98282361997256
29.090244833705775 98.44873281848575 61.08933968640197
27.430869879703945 99.13978436475662 63.25433673719684
6.604868222748056 35.519767107474294 56.14126993666022
4.871936971948527 35.59124064652571 54.4848196542373
2.753366381391587 34.03773582547537 54.24677610442472
55.54793659401553 50.74460275580794 15.666480494099385
56.87011139413218 49.1280451221864 16.988711855102103
57.170281964271105 48.53919438651002 19.364913861357856
56.60526777287304 50.3847382440685 21.526206873899678
15.162776647952905 33.648003098601684 23.03486745735264
16.174927865665534 33.60802724421255 25.468647305583275
14.989176014925478 32.589439592424384 27.737318388504747
14.710341828889923 30.45764442451163 27.809610979257684
42.277983979031106 55.38218337893095 40.858542808776114
41.121930324596896 54.093537335921745 39.913973874351576
41.050101644817936 53.77731167038019 37.23575756467312
42.63616282305787 55.38246467978355 35.898895935821635
67.7861071093585 56.14687198930616 3.4066793083753097
67.79641289939028 58.14253818096338 1.9518680163112079
69.03246025781574 60.50594663570818 3.202529180840446
19.80113314223939 51.808580448162886 71.80083076373253
18.753518712485896 53.16255562112849 70.18069563774682
19.987233330356663 54.48515142985024 67.96274754111889
21.792570177938938 54.43361332431532 67.20242385588122
50.45774195776663 89.0513538931923 38.88627450940855
48.71448648953536 91.04908557512877 38.39971390345838
47.59108085996485 91.65098059888902 40.665836841940276
47.83647134042454 90.02698143159388 43.01618154299958
43.01933991908418 83.54719074000285 52.024452927645214
42.09708434129439 81.26863875443365 52.07724483973549
5.831010246174757 69.2153282234435 58.908775833892335
3.459041098844094 69.82404154812325 59.187707225189875
1.18668483879603 68.15350217410533 59.559486297797655
1.0502907596152653 65.88121653303189 59.59501905375063
29.094384438505717 43.07795179786998 40.79888682562054
31.410459794656774 42.86882563701042 41.92611677457568
33.07114780275237 44.12104638374794 42.11501746257445
33.70116421312439 46.68603695664595 41.74422911458831
17.79533795565634 34.239805345150984 18.949367003511192
17.59735958315406 34.099582025112035 21.26020154693019
17.666263467793996 32.248011714246076 22.815044530888937
17.488871266602025 29.690332882198067 22.24453848524761
16.68815315796916 66.94492839124116 10.998556487062922
15.388434825101674 67.47464773157647 12.32965720952769
13.416477818595826 65.96607559666023 13.424811024612291
13.455352048923558 64.00714779891652 14.179430808481513
0.005658595576751712 52.725088355536286 23.019286104289
0.9508870090362098 48.787708814401554 24.64141032440182
1.8423830332653097 49.31187009040311 26.889668442027375
56.01770603189973 47.337566877300645 15.137274789371283
57.93647303387175 46.32394765815008 16.56547660274366
57.95839261960153 44.526609585639015 18.104053201610192
55.67805532432367 42.84292474890114 18.779636884680773
30.173338826270964 43.18904385603653 54.21295948882804
31.101706379905263 42.87514803813578 52.229967143301636
29.700285945435482 41.49696045783592 50.17922254595908
27.232721349574682 41.335100560626366 50.22481511159091
21.09335829685789 102.82424842649692 36.215759091424246
0.7775379367296319 18.75562874263276 13.050560527937424
4.0496093400279385 36.38235081427701 57.64830913695803
4.01696203096167 38.29894303456236 56.352747739374344
3.664907087742606 40.626886553953575 56.77619466130489
29.62786798180547 28.58009319136009 55.46442133181187
28.815945588362766 30.474849470219016 53.71995756000545
30.16744087982884 31.9917418009257 52.197966281736896
32.85809204768832 32.04164121992437 51.697515485126715
11.65655707993119 67.32037134057373 2.5939682973014873
12.308966920262517 67.1630967159512 5.0920136238822575
11.210562645363929 67.39457293170139 7.351998394197776
8.604576849673268 67.58154664461043 7.757777859307256
35.441904312855044 34.55611995185075 8.719363693945407
34.129591613227326 35.31315536581527 6.354586171792699
36.042638750335875 36.113015982613085 4.821617067691858
38.71924270244153 36.288774269765334 5.930192615782928
1.170579457269923 41.31619376320564 21.2924360102744
62.07078737015005 88.15259750221686 21.671688211434535
61.9301533040634 88.22162442829095 19.562951111133955
63.76787785812618 88.3942788297154 17.491833283445917
65.89499966495748 88.39646616645378 17.283297344450265
48.93286354726759 101.72805714467394 37.21956888968837
49.870564045032864 99.49714840176503 37.73156649087487
48.9115715767423 97.29618597801536 38.93538280090979
47.37315604068033 96.98769180703749 40.343147131491406
58.8723893396877 73.47166174379866 29.591066412188294
57.011610013007854 73.91758920192675 29.09633885802599
54.64592567054367 72.26084340276041 28.744082682418064
54.78309971557596 69.79123950996829 28.403294147816414
44.445052303477674 69.98868424034906 8.325338475521923
44.85624275092046 68.04503831396245 9.325006550292809
46.552847077606245 66.58551388823558 8.719003626078237
48.70382339031326 66.87988567948358 7.614777404392576
0.8284975832785947 13.577289107188085 3.8210523397434963
58.58405463714543 50.8342845733255 16.15868628978611
57.62239914193091 52.04511168120494 14.378324667045067
58.47188581991632 54.142861326752225 12.77891172027618
60.07529474929373 55.7837814536158 13.533279794686592
67.87623511094168 65.1085154208187 4.989632568278031
67.79514902513209 62.603430753823 4.9764924271538975
68.32163029749714 60.7128602534826 6.75586960433626
69.03178240305428 61.09163140638178 9.004112168864472
23.05971352787498 56.862929837615006 71.60444313929432
23.64945603414352 55.445312612439906 69.5873856012806
25.304377176873956 55.31743981116734 67.8219156230275
27.075287757334696 57.18635426240411 67.12937436118943
37.12218043934944 7.378127891428044 32.786281369087156
36.44992044969542 10.108362606282256 31.448170741836858
35.04643443256011 10.38227555603486 29.58117344225776
8.382746013960597 64.33951406408664 5.101792006320431
8.112140566092224 64.65746478538995 7.591043516638193
6.788454243988449 62.902224031066915 9.31636120562559
6.023462445223406 60.96717861812067 9.195601064345212
32.436345717769974 76.21207503142794 32.933229115152336
31.44281598965246 76.8153346896589 31.068470703739802
29.45639073200742 74.93836334887455 30.072715645621912
29.51740464525129 72.52669056925862 30.222345380994728
40.55728865043747 65.55087816606803 6.665467214276134
42.434197538833054 65.43084392934661 7.757402633946332
44.38758096401277 66.93481957066908 7.008188895310986
44.53399334081435 68.90396507986476 5.386387617137136
21.53533040400793 79.53986038226253 2.243539611393703
19.77074841378472 77.70260139837255 2.5525120013806046
21.00429773534909 74.86896694556147 2.7488737436479984
23.551380784398734 74.80625842672397 2.704080451853059
29.313994356678418 97.50310120049375 16.000194385082963
31.570555083024512 96.77380032694347 15.35781822930912
33.94432369008481 97.72158006607864 15.666970045953388
34.83403003465134 99.03717973059742 17.335270703633462
6.699533597102095 50.585396420678435 42.19212136602715
8.015611506069371 48.75219060596906 40.89615741481557
7.604920458973463 47.076073448808025 39.34642500787668
5.465729551566342 46.927855587726484 37.811527930070675
28.866487981579404 49.77980592573073 12.464156415638877
29.812657119498798 51.955869012503264 13.491339699592913
29.497350923936008 52.01422244397327 16.393762601642834
28.347193713208885 50.633437130638185 17.785912148471258
38.30475540736425 33.503128428644736 5.2146556878330745
37.803961024242206 34.79893340798445 2.778997316538955
39.074458842884646 35.71122335530461 1.2342750403013165
40.93422724973139 35.68023026385943 0.4703523566629651
13.851685186283518 14.613707886734188 30.340012143754894
12.153918487701441 16.214944156041714 31.49405989757288
12.03393637094964 16.948356086910003 34.08252077151932
12.638565488307087 16.125328906501892 36.18637420363665
67.95150445339458 90.16310111899365 16.729233992108238
69.24709462965254 91.61269967097198 15.185712191371596
24.686895706872736 67.01367489550698 29.238822648741504
24.998181217799576 69.52041930050423 28.50446984269086
26.558849325046644 70.75432649059833 27.923843137768973
29.066295334622595 70.69798012525312 27.600525213488112
55.98804234885456 27.653161548057398 27.810903082408785
53.809972630901974 27.838549386076018 26.892415449409864
51.455844708454165 26.899363876125346 27.292658398104944
50.71944766417055 26.045352823062636 29.751415791589825
53.65391791655971 67.14984214934324 39.64509575234976
53.4410137808489 67.79954138957883 37.414360293444226
54.21610269983988 69.70980143009186 35.914206341731315
54.38709841206114 72.17586285917963 36.14993876163628
0.6042035635177598 58.585131971820125 87.82411458171859
0.7188000681648059 58.48805237801194 90.15181067631103
44.327522710205166 89.67965383373924 49.347842486797134
42.73767277090682 91.43149779478647 48.412971356438106
44.3886596892608 93.24821407732561 47.07312494302141
47.05424681024393 93.60343824853373 47.17213718767963
50.80164505346949 32.77597737321577 19.37943456915754
50.77549887649407 33.043173394199464 21.4539473173282
49.00376955284624 33.807157992525745 23.227438368031542
46.865492651432724 32.21384545589482 23.537031334264217
21.085267651724386 66.12100044814076 37.539361577490354
19.920374274723635 65.92950704516444 35.313439404240846
19.19702863877743 63.99673989412281 33.90803575205206
17.956217841307634 61.831354713066496 34.505352481979585
47.86299073615658 66.71395695400062 29.079427463391468
50.16804241696815 66.59484745634914 30.225000611613485
52.514687460364605 66.37768482254579 29.685695127065667
53.75854543261802 67.17050612849839 28.068873176991477
16.774219542269204 98.90847861551559 8.932818466782663
17.287951999994593 100.81148665841435 10.526739838935669
18.915843247513887 102.86298537706062 10.335788710784815
12.826994055001084 23.004582105108348 1.704018137535636
10.445093991892685 23.83828171814459 1.5224071884440904
8.441872575430127 22.739221761404018 1.4934917538176402
7.57819569520338 20.396757567478357 2.3402202479360783
15.806545962490256 19.857220985665585 28.902523970756178
13.356372142428887 19.007828627039867 29.34390938872843
11.908214898354998 17.112793168078205 28.687921908724945
12.145136607223309 15.321364627473978 27.59116749156795
43.62580743346381 31.447081760521385 24.671127379001447
45.59678930710775 30.74637819490281 25.451822448155852
47.570219353896796 31.80269077215653 27.08480483636859
47.11377686934951 34.25963665288573 27.85794778706484
59.16965679865395 100.86976116394187 28.54545090980788
58.47709397516318 101.82445265608833 30.325804998428627
60.618364891225525 102.72001168760717 31.455052213876574
62.6188496811399 101.36121613290508 32.11049719766957
12.722777568719007 53.77448494018651 39.71110405247686
12.020448316740547 52.71532666836392 41.317536609089
9.355516206926382 51.638529598535335 41.255113791089926
7.87807828182329 51.93178580722839 39.462482033163056
57.15427058930507 48.25312591556087 23.639348617890445
57.330902832632326 47.115513656042936 21.674096303252277
56.15885718448204 44.53478982374755 20.92085163953282
55.004524297953466 43.078371785974085 22.159468540578484
8.384920588984611 66.49785565595401 79.80565955780413
7.2439588185239785 66.81265214237442 81.50547261455145
7.434505848641026 68.75057441335076 82.76976499372654
7.298745599720894 70.9085379982069 82.56326107394688
0.5670246341112858 21.050109997356557 0.09390193235221511
1.9782736623345152 20.898985281395454 2.0107764776951425
4.595415356645198 22.121069808206308 1.5463819278982252
5.099045281231768 23.846319998121867 0.45451202565962473
41.99824583895687 50.06230718555037 34.89023732097967
39.5890146504054 49.481912729847 35.98345333655925
39.16398023576358 47.80539347258922 37.67788834103923
40.26746668358859 45.95427636620751 38.437557869075185
1.902153975636529 38.35131267374288 48.18256470445405
4.267871214608965 39.30415302726576 48.261729211565516
5.385863185199544 41.38841062984258 48.76332835111497
4.34566144499404 43.93075456534013 48.753126715620105
19.23293454715593 98.07155335256427 11.335096653849437
17.03358612454546 98.31438125834467 11.746452739669985
15.469507837027507 99.38250053479938 13.750069417185124
16.43408916742447 100.21687342826654 15.770597671904103
68.30173007775556 95.87708733900037 9.596680959495192
66.88021057223142 96.12266840487959 11.958717406574436
65.63216910378593 94.55201507159818 13.026195871163521
63.1434685705108 93.96912785461447 12.474030904951537
37.58914026699198 17.32856465652678 28.578086872966136
37.900067897851436 19.02601409543498 30.294136977390757
39.33220214101264 21.450021482577124 30.260422686157476
40.90004739427745 22.203510203334826 29.065386476648847
46.45793171925688 59.639648019818075 31.766205841512047
47.22757726790868 61.70955695518312 32.77485017284595
48.15721989873925 64.02614476092943 31.430668323723804
50.02002933913796 63.92204267134407 29.88751130241718
12.859220602692124 83.00000512460282 48.33309242310137
10.991455963703526 81.9809520181959 47.67348149715124
9.760817334132378 83.20946636681026 45.969450123989816
11.152645590703408 84.94084666518788 44.154910623913466
8.707285130240626 74.23058804329607 63.066318697393484
8.075155932690308 72.93410624399759 61.07017798833417
8.623176077758476 73.17258289375044 58.44317904422913
9.476263867689891 75.07878557946121 57.39724517540922
43.06493837387451 26.11006796325478 32.14489773910682
43.71593214773502 23.775120844915378 32.301253820603826
42.54342848940671 21.4363222498147 32.87466097679789
40.00871363541952 21.183813650715557 32.94974399035995
10.29306868479184 71.6478609615194 79.79392371416913
11.09900478136336 73.64618908620199 80.73137501265902
11.301109598995595 75.97910312381288 80.14283929036966
10.946492808468696 77.44086266527256 78.13139938332274
0.603218913983721 63.81925436870306 82.51360424211107
1.0338564352878108 65.58044219532417 84.16367191224346
3.560213639336891 65.77892871143223 83.99110273366368
5.086640888999726 65.49818701030078 82.05845043958335
24.04117316784261 54.062584517896255 65.76710912484823
22.4248824397142 55.339061569200034 64.34004445507111
22.542424483107276 55.8567664029807 61.71279203774561
23.70632557328838 55.244994884808726 60.04219724596767
15.106555414284635 20.80016994318092 37.182032696580876
13.384680828675284 18.85063338280244 37.39938646925736
13.555615883367647 76.90743099167672 77.58184005683832
54.74467884917019 70.11325463715464 25.745304814420045
56.4613295548734 71.56271031102506 24.561937307436033
56.08714575655911 73.40313848044858 22.789798906804272
54.428415917970625 73.76978230274979 21.0047846057158
9.766277231861912 63.876667716259284 78.40501298364585
10.600047703778179 63.74629043252384 80.70264549879022
9.666617628549528 62.03549404945054 83.02178952756118
8.322819574197256 60.025706518099405 82.90022216019501
59.21839831174281 48.84532906235443 20.987752639386326
60.06941156261579 48.376843931498165 18.892593298941357
60.556295854042204 45.82750843644958 18.03553917829965
60.93552012102457 43.73403357957384 19.420657625638587
17.10130183422742 71.60954388930696 0.9822273627029762
17.489765844165447 69.14831469070816 1.7690305439056686
15.868898896250872 67.88511889448723 3.8749134935808605
14.427263929231335 69.13363177290671 5.3343468479656995
14.936825239427959 4.712960488188664 16.937566888949675
15.83359654320374 6.797472314886368 16.317433534678347
18.311663547807434 7.334342442774752 17.241449782646296
19.261886655140753 6.058913282384254 19.143048768439254
39.55134284498797 78.30636859554657 55.292804174226696
38.688620298983786 76.782128024282 52.89749840696797
39.0378006741376 74.43878847633549 52.63963732537051
53.60619379173954 101.82669084595275 37.633179181409524
53.088541572411934 99.51411488186717 36.39294550596863
52.65107497330674 97.11382961110773 37.549991239790174
52.102400348540705 96.43208902930478 39.54902729043929
34.72679593542081 34.626011467498294 50.31045454360458
35.14950771132975 36.96775406868309 49.9549789716094
37.328065134587995 38.34357354333072 50.30243527590488
39.596980535348045 37.74873372902842 50.59263613209383
15.389791785154932 23.597048035490438 31.25412421637278
13.497484513777772 22.0436047496465 31.182955298622645
12.879370523298562 19.746122247056203 32.1970856586263
13.982898836529943 18.78458103408958 34.39773798067397
15.524087355440278 45.167625627618285 71.64652848732526
14.25391384098925 45.149817623441365 74.03873179654447
13.828268744108772 43.57519493025078 75.74677894833955
13.397432932238354 41.7214751249993 75.5393564870949
4.292038596330411 83.7809443857764 47.44173995068652
4.908835053110548 81.53395929493625 48.29778612351875
7.163321108497644 80.38638549966322 46.903568270307694
8.096277929053146 80.8468416614249 44.83445379253445
11.80963965806549 94.3887146350159 15.784596737277006
12.657556895491878 96.42300272981186 14.961143017861898
14.845204953740486 97.71243075102227 15.826275625770297
17.15702106383138 96.95417456261349 16.405994972523953
52.96301667299 30.193713314417177 28.290606429577657
50.83282520310545 29.496564611175497 28.272129131300364
50.24781498192499 30.718438685743127 25.594702286874153
51.18632324710749 32.624935424991094 24.814606131828604
24.80497298050743 70.60751059686972 6.427612629905055
22.34804416882488 70.83170769892173 6.336581549853504
20.680244298217723 73.3513173967717 6.312451337871152
21.313006048157856 75.60809316325941 6.403125922103364
32.49596123618201 85.03470847355126 22.80787291401686
31.709311275988984 87.32193219883571 23.091415169880143
31.209283343676283 89.41824281077758 21.73752630519989
31.752457260268404 89.95773159954824 19.583795938661286
1.0539380206865692 42.402717992516806 24.04972452187375
0.661613510378285 44.64575488739235 24.45707088560576
1.9190903172978904 46.38279772125663 25.767076676877107
4.649764928598499 46.642591543740274 26.041990923483823
35.605609644758516 50.91816637402744 13.64900207761949
34.10506696951542 51.66038153970775 15.018499590967368
33.23160701721448 54.09435753315093 14.178713978363037
34.18881719262416 55.77248319748707 13.36589317413408
13.41451667114655 95.6277211128054 45.78521615280631
15.465914050088058 94.5559150197425 44.718600879426646
17.02442934499455 95.17063889494563 42.99871878685661
17.438098504954723 97.20339240264265 41.93917756582956
14.516767754366347 76.77792517489742 3.348023162271564
15.059902172885511 74.74927815544467 3.0366620377848594
17.54971878352151 73.97202734860497 2.0456789259286485
19.083351761798625 74.84604044178535 0.6272902715967574
25.92331790539651 71.3893704605973 25.26693183133873
27.792505136181962 71.6332113964743 25.288717150803897
29.17935384810204 74.07573894086647 26.340299669423544
27.827242483569286 75.92626456732971 27.292560946392985
61.525092155270336 71.52298190665262 23.468675345167863
59.56076860056088 71.64868081917224 23.17033718869691
58.10160699859511 72.94077514336809 20.666064050659735
58.8317463095284 74.8485487499612 19.845617422380197
47.529496056345394 63.89836678086302 5.280232625930789
45.66876257167316 65.03895953773517 5.380674554070661
43.0687625576865 64.16724346053984 5.6686432311262065
42.06437329396668 61.56783126794121 6.065720525721424
19.431383053217818 41.5674806111273 20.325959061312876
20.66184133770016 42.7938764930816 21.69666655444093
23.33696059859757 43.20567304984148 21.428460226640997
24.559660830763708 42.77686294032842 19.425130222339583
9.797913047614273 66.05773482721203 82.4212608793361
7.864194054572418 64.09804904508742 83.18273664744385
7.81867526643305 63.13196781265715 85.05093879115257
65.05523970140382 63.83495737673852 4.126385113137901
65.97421511392038 61.87034667776546 2.9503545220742446
65.07144820230873 60.651778574021996 0.6639566548365702
16.554433874476068 3.4320116108859424 20.03358595983171
18.664721639298676 3.1020960703310188 18.833438950414717
3.4872262824755897 56.84378476322747 88.2243737439561
6.3843053210565195 43.82059083759188 47.05162854327635
8.711873280786612 44.11619918807168 46.329232494493
9.562561717029956 44.565029580978056 43.75877050259956
8.015676748335688 45.48305281961735 41.513695735119825
18.12853544144151 45.07901465862608 74.31720983431286
16.74975249067989 46.78794626794907 73.42211341723835
15.54888573021922 49.02016139840521 74.70221139777233
15.631415616913888 49.65394430532343 76.85700186042953
36.31280886404948 75.65246402007946 24.096012078123533
34.409566964026325 75.93536999200956 23.634433782946513
32.00430017670237 76.03405538840404 25.104520753820186
31.955403529544657 76.39384553288808 27.65933293493007
43.210453255674445 61.76810511739347 12.683271813403492
44.433715237838584 62.629829971759904 10.811055813338118
44.470688082728564 65.12117883097044 10.253557215238375
44.02935891968309 67.10162526064921 11.664382258436888
16.10781349087332 36.30613309242495 25.944062294288415
17.65218442072688 37.90275591548824 24.90927167776787
18.136475194003545 37.54658099533139 22.32764242160403
16.812941286542987 36.96162365657447 20.416533225663184
15.041107683360927 96.00867781847603 12.31098707149298
12.676027261401632 96.67539806981145 12.458195726717145
12.63544592189104 98.99883994832362 11.417143254809323
13.911081794585973 99.49303148399584 8.902594121577236
20.08603276314773 11.602512843683776 12.780780222138974
21.404256513429157 9.801979081135464 13.034058504313766
22.293432253057208 38.35414927836057 27.311720829018412
20.31113398373844 37.55363427751727 26.016016405186097
20.217362746070513 35.75741666301786 24.130808549047053
22.30979716519157 34.38059137891529 23.310133492988946
35.33819188519292 30.606660180922557 0.43952344584239905
35.966679464330525 29.643898255895035 1.9606089534898226
66.91050183626855 53.399465447522026 5.497670313353885
65.88246883801084 53.13779625210888 7.337547169499095
63.26723833964141 53.28282964623792 7.9119429767031155
61.48876673121215 53.93380097817183 6.32557381330307
6.651553205129044 20.872746047891805 0.0635941560243763
13.666906684713169 36.941796761534114 1.478723503145533
43.29525215754814 91.26651823191419 45.32533178301461
45.23392478866091 91.77949404878323 44.73335598067549
47.17399662414759 90.15950398181069 45.5248463279109
46.881141512904314 87.80204723840939 46.10987211455669
7.716775094757099 19.464259853512203 36.65879023446756
33.95022533988514 52.67573528346767 9.65678991170031
33.79562942569723 54.6479263897762 10.06106521263235
31.915080234513866 55.23801533204884 12.018212922216248
29.94194497430925 54.287746847917276 12.318611100401986
13.971181454180492 45.60947429287363 46.57147876004429
11.319996195024336 45.48744489716122 46.382997846045626
9.718467577854286 46.368337910336905 47.35835244113621
9.110085254576253 47.56038277828944 49.74790629016248
18.010366063864495 94.1755916504844 72.27046289910109
17.216470406731624 89.36337955044418 75.32667660981092
14.727873712724746 45.20594389514074 43.34324250983798
12.280628693787659 46.54289580308052 43.614794970743255
11.667578009271873 49.074608205425655 43.42656094240398
13.197722021455455 51.10433025030738 43.40885757326507
37.154789581048114 37.48159017466968 2.641802400412909
37.53541884050439 38.61111603703328 4.421651530918476
23.99902654421464 28.00622329852894 53.17444167410989
25.636089142876802 28.961622969361738 54.12271176042298
26.01898618301377 29.52070068681308 57.078575551260265
24.580743712257593 29.052740168976587 58.66406597742056
43.33691262563694 65.28333047634456 1.182780590462018
41.59093554483559 65.77321532888425 2.95865413212035
40.04190588263105 64.39239402258407 4.263221621885355
39.793369552561515 61.606203207319524 4.1561958508391825
17.517836159852063 82.45779318705634 71.89796578871628
17.280543670461025 83.79557517582595 73.81473994887922
16.86882704999127 86.4964145870159 74.22584173386345
17.78777998557113 88.4058226169466 72.65804043495591
55.24227278899199 64.42590713246176 33.09815610779877
53.78652185384061 66.09862360474015 32.659012630963026
