21.302423459234124 78.15542359206201 57.17994331043045
20.5793442793309 79.46303975288401 55.85622372209021
17.68701230306065 67.18068876409797 33.524499551791926
17.11730434161635 69.74579211447391 33.75373357973415
17.883941438062916 71.53435449813296 35.15364453552713
19.200519022080115 71.13607128544747 37.702488743894776
17.406396219046663 95.80078502924566 40.64658186753822
15.536364299226376 94.9295702539756 39.674866063056314
19.367404519012734 81.57061792166502 46.06011952625834
20.352708869618958 79.54295922884408 46.32836375143061
21.082309762150253 78.20513572066972 48.26827974243428
21.410436154871896 78.65755365177748 50.65995670991164
6.228915452249158 92.21144122647995 59.66718945305357
6.308560009822526 90.23142553525614 58.45868801241184
4.000535128510407 89.2462518640517 57.55930650281367
1.8216539489717947 90.29585398638935 57.616083424482056
19.952724568738734 76.65747769258175 61.13498218599864
21.717224507733004 75.21102223000202 59.63521196879182
21.987249794068795 72.886691999845 59.42629367391027
20.486319792344318 70.43802408099069 53.7259167747496
20.279568151668176 71.9532613797366 52.06327491773093
21.916655201096745 72.63762005682757 49.96764526742393
24.33509882897922 72.02172408365946 49.55801036970844
45.30374521938956 82.0295212201536 54.66066684186568
46.594286843702555 82.55593690257089 56.9131242232798
0.6411813529134481 89.31354413978933 59.76914688291963
0.08293074244790352 87.07279613097268 58.07729777412044
21.595883208403745 79.29661866162465 40.94272519764723
21.077603907000597 78.01635026461031 42.71226435726578
18.99807221736246 77.96673953378892 44.25567434939927
17.653226010866128 79.60153936504537 44.89675914560517
15.338480401112932 71.35622294162016 29.792451617035205
15.8661305596527 68.94298874042194 30.48612736945877
17.663487429995712 67.68926991985242 30.92656224539431
20.94910817151652 72.52537632198019 34.89038841344926
19.17289857942479 73.6241447455566 36.34890785808578
19.113043570269575 75.90659208036924 37.465908194416684
20.90297089341383 77.01756856237274 38.9350811037062
15.805179956218689 74.11075774498252 45.129047108144576
16.071880363442666 74.2408993115566 42.98966499195597
15.769566912712527 76.37247725463676 41.61072783081628
14.232993444801119 78.26769829333738 41.828874543659936
25.10796132796106 94.29856899128815 50.59991879027282
23.43800302858738 95.13794054337981 49.2206175141734
22.504789091807663 94.01672688563598 47.10590266647099
23.289800293227973 92.0424045809574 45.95834653123929
39.22734410484364 85.73976447083021 55.15875106200684
40.967853564642745 84.55955884720883 55.19672814496868
42.80816216006731 84.20449013405592 57.33759237274996
43.11311618726055 85.11330698855005 59.42444524500772
3.823556533672178 82.73455150184705 55.89929972848088
1.5607921236734752 83.65304561083359 55.879081996435964
0.9762728900595958 84.6555241811235 53.42749549460839
0.8274253125764891 83.57771112841398 51.66798443993234
46.180824991604865 87.90618545450084 55.833337837696654
45.64795162927362 85.8677002769551 56.66462134424106
43.96220133318847 84.53414427267496 55.06832287174187
43.2799411196442 85.07274141440143 52.733250789232976
23.800851704651613 76.90517151119087 42.1676326267992
23.235723134398864 77.12924857012503 44.52800224726377
23.564499739865692 79.19996729219017 46.23326904727148
24.402324401959927 81.38101917793391 46.007422917097884
24.57968313453614 74.76974143931521 50.90789677375919
24.085811637972387 75.04958048957873 53.03238226067179
22.99918269935652 77.57886222113412 53.19823554421888
23.748444120599032 79.57117798185459 52.27894588916129
1.1961381951253873 87.68224265286463 61.95572175887529
18.570906176573075 94.75818867758105 54.66144400881734
10.172607505882711 68.35273574262386 25.570268208848926
7.961800289070033 68.44423791655507 26.789330085340403
37.54838144384223 91.77488970266906 51.477601392383654
37.925890994268194 91.52270035658835 54.04073572073048
40.481428619509444 89.85401570265437 54.49987248070843
41.75439908860168 89.14006624322904 53.32675475062228
12.840517578107471 72.42477612413349 29.067961620732437
12.259482186768047 71.21910981270422 27.566187122699787
12.037054542224773 68.65651057576738 27.5755325538168
11.694900135469917 67.04072603847627 29.59522293562467
0.4782617000720575 81.24806478133877 34.01443422319393
25.712833766533524 95.9148373929482 52.851029382158416
24.194678337295546 77.11881503353179 60.502474734574214
22.527402138497898 77.50220304372664 61.82626459302922
13.390862240870627 65.5823678171964 31.269464849115543
13.769054269756763 67.79558197079479 31.72129786592294
14.562112670052002 68.9120505354854 34.22459219027624
14.444716368276278 68.0896468943505 36.360199604936554
23.050925616029605 73.90541255871736 44.886744029723125
22.105723779292674 73.44703864424449 47.2135407352588
22.428112603994325 75.29722995652321 48.78456972322289
23.895152192756964 77.43786790386328 48.79065596963544
14.560826982885875 66.91823243717123 28.59225003883549
16.734091593054675 75.59244922151608 35.66757134720834
15.671676096629334 73.2692615218146 35.98187063305069
14.588840339005964 71.74578191232823 34.12720609792662
13.160075733799037 72.12544359153942 32.67482816066604
20.970667964569277 79.94630652434687 61.95924167209042
20.557147449182757 78.9132783498662 59.70161831559727
18.755072337212233 79.63809756225773 57.56280817277146
2.133656128740262 69.9780774380775 50.653784821494654
0.8964615540372223 68.15395458858183 50.60122136960627
0.6878957312188994 66.47508177384766 48.407068363339
1.3152158332128925 66.58498066683592 46.24292358967584
21.364387030853113 75.3909503858875 40.9612115448606
19.574470410213447 75.63124797005145 41.59455753203945
18.355687871492613 75.37631405930883 43.91456350782385
19.270321289253484 74.20773573987015 45.90235077041689
1.157828965607318 63.52331641085892 48.57688639557291
13.353420011625062 78.05367855507866 36.52611837460549
14.843022110040609 76.24456858078781 37.94340543801792
16.844800584839724 76.60832578097326 39.16432880610354
18.44269756447402 78.25037584230978 39.65606570280634
17.429929903767626 76.54099897672748 51.59807997202723
18.856277761013406 76.56108014878667 49.7185676554571
18.588857294785452 76.91493190032044 47.175410337382885
16.64047577638787 77.4027030997367 45.774503223128825
39.146353010818444 83.21124973368234 53.308787921709914
40.934288404109765 82.54697347552411 52.084155127329105
43.20334742782427 81.29593105513823 53.16240587476274
43.579534076552186 80.56363490954516 55.86053080335149
0.49541265851052807 81.65711866922679 48.19552985766895
0.21355140939807069 83.60439095825497 46.9522427031495
1.810543573391177 85.71180941065333 46.34639354909751
3.7516517724013085 86.33513721502446 47.02481021580724
6.01423105535712 65.50395899058262 22.938088749355202
0.16338598303370655 84.5543524745891 60.422733529889776
0.08622500672231628 89.16909090521543 47.844364962631836
0.4023503585213588 87.75500302544857 49.92774092093377
20.37720650943404 93.02411265870299 45.457667233619425
20.19366254753276 95.08738300322928 44.87867718440505
46.65302211520569 88.43241218879305 59.03466927929196
45.76075314091178 87.05875258051387 60.500306618826436
20.963463182203736 73.72661961545556 56.99354172127674
21.188162687607473 72.93762045532827 55.1976820311671
21.201412318550016 74.41902831450739 53.14404914603929
20.46809886738092 76.31707979149007 52.37301862424461
24.432870493476102 74.22847197174963 59.9933385211099
25.384029343714236 75.40010453103835 58.8153233971968
25.087354709269142 74.73797685247128 55.79166952010051
23.769324600979804 72.97948602695553 55.13066901822323
42.69987108507772 77.8814378481716 52.550170730858824
0.05713714425274561 61.191429894464065 52.225969067031286
0.0013292857719014424 65.56626357224263 51.01834670234618
18.125323530127876 72.25043958884459 47.55541503398922
18.747182776992386 73.59441629511919 49.30847164405975
18.039763828462434 73.85101592552505 51.81904982037444
17.4238127602683 71.73504998582719 53.199678944206184
22.38799965962034 95.73465862544725 60.97237758776104
16.180449941986595 95.42240978400288 50.009859387325406
16.483898579661375 68.17002602108754 38.48440177026704
16.73677719035566 70.60079058723754 38.78720712229788
16.357672697944103 72.1254440802898 41.20521628933393
17.099997673378947 71.51512085282393 42.90429952840654
21.297043725690845 33.4043448631449 60.43329658541502
19.457738728834695 31.75584476489441 60.32333080504267
18.64451543499372 29.834925388305958 58.44756949658962
20.068687857862525 28.980268981809047 56.70829881639393
17.847554099532342 30.576588257281458 35.656083540045266
16.37332438382719 30.27285487858565 37.31935424162449
16.558419431075393 30.447598185607973 40.156124514021954
18.6981209190971 29.964667019556682 41.485703816647366
12.434611380689608 50.504506226814534 33.10776901190396
12.626187193364695 51.40809455116262 30.926645409283363
14.131810302198197 50.14339717042313 28.715238397598817
13.967481356461148 47.79326324441392 28.428300696327412
42.413873341803466 41.450825148516365 56.50925186825562
40.0578896168915 41.32303847263166 56.01537848735195
38.25901365752698 40.590264610570905 57.99036781319575
38.36410964000312 40.78284912821533 60.60648698500265
11.50524680667916 48.11565676712333 26.770542571586404
12.252740446136324 47.94423090188536 24.043157744892607
11.750693038705792 46.46515356907987 22.535496543678455
9.74934778214426 46.80493810041973 21.84322505944349
23.438076301535133 25.661713834231648 55.70822863771897
21.161583164050324 26.731656981439034 55.79006691368815
19.229320524429617 27.283315290105342 53.813344229780846
18.703896024048788 26.331606762898705 52.00876219142589
16.319724820134 52.81171291263783 59.656451413571446
17.571590529660124 52.93257372780971 57.786845716860114
17.30437921943583 51.805553613482246 55.50961237956437
16.101113798415696 49.83935406753935 54.773378004106966
13.626545816105102 18.453655378084004 16.297367132836293
12.210571192265752 20.328535481447517 16.489860866361667
12.309408104022188 22.18358540347952 18.404617236996096
13.763710071676702 22.48865113949678 20.287539566584112
46.08830034641919 59.6392077193592 54.03407096291756
44.5443978764074 61.21562403608039 54.93924625343861
44.1977259575351 62.20664017505598 57.37822511495218
45.73077867371282 62.57923213419396 59.25453878555987
11.403000018826335 10.08278848948771 31.898828959187487
12.362241044079985 9.249732728268468 34.18752424365027
12.295408352724527 10.138187670975821 36.336232858151504
11.27081036557691 12.249747472424056 37.51779705486573
17.619986427995222 13.080265176515509 42.803618473054584
16.682911666138136 11.233218770618649 42.76022120482924
14.45273213087391 10.332817378937657 41.38898234464866
13.366535561206724 11.199994313926494 39.652733043621986
18.997214505551096 21.60371649441788 58.849340730461684
20.677536538752854 23.43859643548144 57.575102551453526
22.67451146893806 24.36591098912831 57.891528655686905
24.565885619312176 23.667309470080394 59.80725058038628
35.13470390274813 62.29907938812767 44.73430185093161
36.81233357152069 63.061513572556514 43.21559694683301
39.36792555579442 62.77656834629329 43.99901337783129
39.89335585329633 61.87681043722835 46.00512081051674
37.41537174870597 18.22410583231163 61.6166220426165
36.94193535550839 19.425042431996374 59.47857529500449
35.29818310971053 18.72748551500502 58.05755852535246
18.44213484675954 53.14325310579034 50.4128884397444
17.958335916210658 51.876047739395204 52.13998462032778
19.729591673671273 51.21584097726536 54.65095274912153
21.0313267254331 52.764590196112025 55.19002053667185
17.858095085844038 27.49574644362277 47.977705302279844
17.036279756802042 28.389395058709912 49.79297951516213
16.544680837325494 30.956259775100605 49.77141384570666
17.10259610341929 32.94378204890499 49.0630040204664
36.696823994469426 57.487604861860696 58.853474212296234
37.90259594292119 57.36960185774 56.57344649030009
37.09470973480671 56.55400967554299 54.18341534743115
34.77719601486664 57.37498622762497 53.352878166198956
41.1830633906285 34.58758706846392 59.06953158568211
41.22616631464842 36.96805585190642 60.1673847470648
18.984707347192852 27.699564132559516 34.79675915666886
16.889086158102703 27.69511404941674 35.92411587249216
15.760871589287587 26.398604296393525 38.08676317069277
15.8229359251257 24.281173642850003 38.544726198398564
11.880764869166192 5.762374624367471 46.820589346412135
11.634741007599121 8.146324211018687 46.3269309828523
13.28931276672326 8.356481157246122 44.00633421208335
14.040401546630356 6.4650517523330135 42.36188711835144
54.660747291961385 23.076515240580065 44.891189556028415
57.377911047898856 27.2289051858351 46.489951850002235
26.827356748806128 29.068378484720288 59.193989636919135
26.529954985562917 26.727297139706494 60.306930918230954
23.579912232886713 26.077212766568213 60.41610451462437
22.053721462759988 27.049964865433484 58.81382927989674
0.10950121419598852 49.3273226492316 42.993750352130746
2.7350588747155204 48.77854486201835 42.35127328233765
4.3306879680950985 50.18309077676067 40.902643396812245
37.75728913624784 57.67712270073199 42.52559370979814
37.41509516401302 59.81607558813266 41.59730060873928
19.060027447501966 47.6859641048923 41.10632585460477
18.855547504740258 49.35071976286741 43.21401083401166
18.019154381240725 48.65977938921823 45.66850919875111
16.502483532816985 46.876232609133424 46.136720880491474
16.55978461227352 31.39160509933212 59.07138185705126
17.08146659443825 31.556449469688154 57.021459340693916
17.863093057450513 33.590700776948786 55.40167689130242
16.253531028273592 35.719302340050156 55.93015596600964
22.141215692647346 56.473243754789266 61.70246152194415
14.387447536104997 48.82465337077213 46.57670333259341
16.02686250926275 49.987377387427124 48.153756578956084
15.930302436478472 50.21087702305402 50.840209039819236
14.030235923487679 50.127916763515195 52.366863647136505
7.93609249579539 1.7014660656113936 17.582253886156685
15.88734410090118 57.23109732790945 33.86476528698913
15.433606513272544 54.914559485281586 34.04187189884629
14.550143089823948 53.13078886184313 32.2929929647268
14.420180517399961 53.26464327591619 29.939715146704327
9.431375156285524 2.977136362995335 35.36260428515153
10.226245648393958 5.201153787638002 36.18279254613428
9.717569087570409 6.525854176463547 38.15462523013576
9.618014678357273 5.076991798478203 40.94816200425158
3.2613390557218445 19.84346354448655 10.762726551765978
2.4877740121212053 18.96935239327973 9.344503287527951
56.12446392235558 29.91986540487526 55.817572869889325
57.2316138336617 28.183644062304506 55.38691084409734
59.19151516271543 26.67800864532323 56.67385251053409
59.156407964041364 26.35197878515402 59.07540522947603
39.40250995865194 35.054832962045474 47.06366483746728
37.48216683091027 36.465194464607215 47.189193190215214
35.75816888242161 36.298961975383094 45.4414938514874
35.87507420185572 34.483338728349736 43.642952774456475
13.129196860473998 2.8294103046271326 25.022499647923485
12.357745071697323 1.1562648442335381 27.264094147465748
21.075470297524035 24.964943919626485 61.41397632970617
19.655775125063222 26.606440765886667 60.585064723042386
19.18438143129857 29.239355420984058 61.459415214594664
36.39045896645119 61.99851230458096 56.33962010257126
38.34580357934419 61.094897530328495 55.858242671699806
40.69664490713011 61.32521930924607 57.25194629491615
41.46878189437421 62.874536202868384 58.78731659101387
14.00361511347944 46.98159807893589 36.36335903372871
15.839033880530291 48.10403135671098 37.53770934153792
16.3239375472994 48.43025653494697 40.17488276775717
15.100824629374898 48.04498342730907 42.182618499255256
4.51089286680837 2.549232424978891 11.556944492058724
4.217317720213331 0.776578267787748 13.185327742780443
4.8836922238964515 0.7782181622094139 15.75563116461432
5.2839091441960795 2.4640190789989256 17.190111887502916
17.00521881854174 52.42697429520231 47.117827620188216
16.444632865179855 51.038988344381934 45.58921918804085
16.581901359731777 51.04887876948234 42.984520844004294
16.917232513166827 52.72607895150087 41.58567942284297
4.379700566589184 25.338630923526665 24.733551850792544
6.943299078836531 24.945429063749565 24.619987863020754
8.949923595051459 25.735593320226396 26.086516691078657
9.04927096540364 26.650644883012085 28.240548436542436
8.696665357514702 19.327133343806512 22.895167292067278
10.46277203432108 20.656113579639033 22.55470571552758
11.475398880900798 22.566588544195522 24.22830419896868
10.597690338148753 23.625427837373987 26.17903421293235
6.131338089565958 43.818906691040404 42.17842207716532
4.361930416692952 45.7606116919682 43.073803734875774
2.1005875405271732 46.345282606970656 41.68125088039552
1.8915330702255964 45.89707779791239 38.92495412617268
30.05776084911859 14.40658388665351 34.6897947457767
30.640584708982722 12.342143905908523 32.81013354693177
29.0013408356708 10.8729602634133 31.46536589786464
27.441782391007386 12.1329185073555 29.945375330236413
33.81779572353665 61.58689789837119 39.58335853402555
35.2083404289262 61.666038399053996 41.37104170858807
33.72168550199409 60.17409438684357 43.29049378516417
31.467966691247106 59.470826917760974 43.37071772089579
59.164776005865754 21.83953471214315 52.91271568782261
59.99593786788739 29.788300859692647 49.93342184892349
59.279290086317474 28.299487033106217 52.16161211921975
59.63440082854635 28.395484328815733 54.31835557198009
59.364560113358934 30.583200083634207 55.77119384504774
18.096802247465043 46.25417645908885 28.629755225005606
17.25883336850976 47.83832110217249 27.460282846317973
16.538058690736754 50.246188305820006 27.843097152354517
17.184885935978528 51.99363086142388 29.31929068010794
11.861738107212245 51.20381888914067 22.43987339698501
11.338883848676344 49.144559530388996 21.432151308451378
39.93887240085715 35.98786691454171 38.86592125067723
38.27716651058524 37.20127430412727 39.76798093232214
36.73861457096055 39.31578316587822 39.27955409918772
36.33204087936073 40.155720813226495 36.70491160127556
59.753520001606056 44.024008291402204 56.59692885195597
59.8424529568608 46.358731462489274 55.94104161958735
58.416882446391696 47.985475218753706 54.76951339548888
56.23290888790563 48.17401657847039 54.348298469026375
37.114367406237335 42.645759338614205 56.494928740127136
36.62009748573213 41.299294259861085 55.24937094997149
34.26519446956385 40.6346023999353 53.63190042014244
32.07190432493773 42.16782570810163 54.40114236536755
38.31629640875596 33.8647494290659 37.72504366996025
37.77300452146919 35.328088901779964 35.4404450827307
35.66997611011182 35.198688832260245 34.304864055688476
33.827785437744026 33.08771013529277 33.90505940366434
41.06788840975912 17.771377195837573 50.420225542782454
40.090764617268896 17.79972559651939 52.43708678735269
37.37384024247049 18.458689033190144 51.86846038131214
36.65076106256727 19.766305194012148 50.5447407929719
8.08096206539775 17.600009748156246 11.495095529814872
7.795023081682992 19.99210353692271 12.08581270536308
9.300556257187731 21.538059965558002 13.237891462397481
11.305736443277985 21.295263606010003 14.28867118391359
13.207074775265742 27.083755851610952 24.703355575336673
11.48455952474544 25.259251449109 23.548732055191728
11.207332019668621 24.765186879062064 21.241783464005938
12.625331524347793 24.9661978537053 19.160987669587755
10.150639594905137 50.494109007965314 24.23435831357662
12.004705971208844 50.44800120587688 25.92327572719659
13.091780116561734 52.225626730789784 27.562901915690297
12.365947525774036 54.26214018751481 28.541039518082812
33.75842908629702 7.483954205226091 28.213016622673614
33.18872112485272 10.04905755560204 28.442250650615843
33.955358221299285 11.837619939261085 29.84216160640882
35.27193580531649 11.439336726575608 32.39100581477646
32.48895771987023 38.945492221275686 38.818740892275144
33.90680445000591 37.55010170762391 37.28487933159033
33.477813002283035 36.10405047037379 35.335098938419904
31.607781082462747 35.23283569510373 34.363383133938
34.527443597041994 62.30758515372751 48.73587744087087
36.09019020613108 60.83151290671696 49.692080821879266
36.45894878363716 59.81911357557323 51.97612723113707
35.85278549882785 60.187923557248965 54.16273688000239
14.05507960529843 50.16247003249615 23.537412749321312
14.736057311531017 50.66889297691483 25.677099787915854
48.70531913974613 39.17638908897992 59.82362752761203
46.58781996294086 37.82425321555698 61.00830473557524
43.9845289252718 38.51828375235572 60.8800125337256
42.70484711730794 39.700114445178464 59.47280469977658
35.4388213022491 21.873883362793155 40.74863659714003
36.42412565285533 19.846224669972212 41.016880822312295
37.153726545386625 18.50840116179785 42.95679681331597
37.48185293810827 18.960819092905606 45.34847378079332
14.736678781214522 5.997508170343814 56.464128709258674
13.941083832439762 4.768713685478397 54.63150811934608
14.28038044852898 5.329561983465394 52.18177816219713
15.436105379086946 6.800293118844693 50.81949837629046
6.582853071766291 2.0281663665136813 27.444276140512855
6.0138212981910035 2.3413951869820018 24.9824754372505
4.267441220578356 1.256004877605643 23.649528690485653
0.059293173148612655 37.36188411078673 61.72781910985564
22.30033223548553 32.51470666760808 54.355706523935254
22.379976793058898 30.534690976384276 53.14720508329353
20.071951911746776 29.54951730517983 52.24782357369536
17.893070732208166 30.599119427517476 52.304600495363744
59.37366755238194 45.247823261220844 52.37047561217294
34.71295857236068 15.920302908299693 57.42836695204751
36.0241413519751 16.960743133709876 55.823499256880325
37.78864129096937 15.514287671130147 54.32372903967351
38.05866657730517 13.189957440973135 54.11481074479196
36.55773657558069 10.741289522118823 48.41443384563129
36.350984934904545 12.25652682086474 46.75179198861262
37.98807198433312 12.94088549795571 44.65616233830562
40.40651561221559 12.324989524787593 44.24652744059013
15.642358603541544 31.627962798714474 54.55020471331595
16.71259813614982 29.616809580917465 54.457663953801315
16.154347525684276 27.376061572100806 52.765814845002126
14.295405166420249 27.538528313625356 50.84075015344182
7.630071595827611 26.49143690428366 19.240400420257146
8.518711602419923 25.699903196374407 21.573099913590575
9.25453619704014 26.669043876596604 23.526355504168684
9.32963384123236 28.538742907178836 24.41023653113753
37.667299991640114 19.599884102752775 35.631242268528915
37.149020690236966 18.319615705738443 37.40078142814747
35.06948900059883 18.270004974917054 38.94419142028096
33.7246427941025 19.9048048061735 39.585276216486854
10.840505127748965 4.645529294957584 24.28616719673412
8.64047009942868 4.52882632053328 23.380238011043915
7.943275308373593 1.6502504512017695 23.062775528809816
13.547553913684542 25.30719043172167 37.102592114415906
13.126990838584572 27.523286953324654 36.1448939783945
12.836881551262652 28.287485253528686 33.558965071841506
13.814994933640913 27.336700077835044 31.503631210347525
31.4098971843493 11.65948838274829 24.480968687916892
31.93754734288907 9.246254181550071 25.174644440340455
33.734904213232085 7.99253536098056 25.615079316276
37.020524954752894 12.828641763108322 29.57890548433095
35.24431536266116 13.927410186684744 31.037424928967464
35.18446035350595 16.209857521497373 32.15442526529837
36.9743876766502 17.32083400350088 33.62359817458789
11.4660725672292 1.3098408695382 54.253537785562855
11.648445164058279 3.402890758507258 52.79989835279501
11.435517529017769 5.360062792520058 54.55108748386756
10.460478871153107 5.611785498830241 56.5987917667666
32.786091234177086 59.53442758503182 45.90824016393354
35.01800433779903 60.235482314209754 46.82667799503534
37.27348166941839 58.78335037724202 46.9930579947151
37.3217292417754 56.29778512609197 45.63557384102445
31.87659673945506 14.414023186110658 39.81756417902626
32.14329714667904 14.544164752684733 37.67818206283765
31.840983695948896 16.6757426957649 36.29924490169797
30.30441022803749 18.570963734465508 36.51739161454162
14.831467424743995 20.016774362015497 25.774566228866206
14.062506394363368 21.27172064334904 24.308205673311416
13.104536545383418 20.532295903118882 21.951425705623052
13.738781332897805 18.615041751261607 20.395557424480206
11.703847771668721 29.355490213845272 25.019662901006512
11.158717954378284 28.250592862292258 27.19023416028803
11.562913062249724 29.091953688299323 29.83319253369998
9.793710994349588 30.578083890434083 30.10181826481014
10.881762539412364 44.47224055933497 20.108836180192803
13.319270035832616 44.3189339635496 23.120767430245465
41.17937811119743 34.60183443241628 45.288435861154504
39.509419811823754 35.44120598450794 43.909134585055085
38.57620587504403 34.3199923267641 41.794419737352676
39.36121707646434 32.34567002208553 40.64686360212098
12.842022150993515 25.21082019852197 50.34997191929081
14.291264703220252 24.42472922597894 48.710295358908226
15.074971638857434 26.156451525029496 46.41989810317559
14.252319455771 28.567903335056023 46.29056955107139
1.4479550386881779 2.502635507017668 10.675006938974859
2.39604057271732 0.3699131363495557 9.61658511254848
1.89705663444125 0.5395309238216914 5.043870387065782
51.9618836066287 62.57900812736315 61.26525308077264
49.84117332050753 61.71528037543256 61.06308875575146
47.624054247402576 63.00069579040981 61.95193006401851
30.09963941398808 37.9239251150215 31.54036915287033
28.74719769138321 39.20208497472502 33.18783107560537
55.29876088808001 26.043029911958342 49.84726813288853
57.03927034787912 24.862824288336963 49.88524521585037
58.879578943303684 24.507755575184046 52.02610944363165
59.184532970496925 25.416572429678176 54.112962315889405
7.495392716131901 4.561983218178652 28.339570429164322
8.394505056226462 3.8025746677345005 26.18398745588282
11.324862533207426 3.5999648128622046 26.82548470424168
12.444509359533287 4.458184730737299 28.616657271123028
19.894973316908548 23.03781694297518 50.587816799362564
17.632208906909845 23.95631105196172 50.56759906731765
17.047689673295967 24.958789622251622 48.116012565490074
16.89884209581286 23.880976569542113 46.35650151081403
43.6352877363689 58.89260817971128 58.904809300312344
42.686039509888566 59.83488933994388 56.738781756575975
41.48547694382667 58.839841288422996 54.94392758061727
40.06459121520716 57.164356787041136 54.60419099230297
60.03361811642484 24.837409713803094 49.75683994262356
59.35135790288057 25.376006855529567 47.42176786011466
33.79262236416382 38.25272381838437 33.78547896289196
35.55838948054503 37.72848206423758 35.020381407538785
39.872268487887986 17.208436952319005 36.856149697680884
39.30713991763523 17.432514011253158 39.21651931814546
39.63591652310206 19.503232733318303 40.921786118153165
40.473741185196296 21.684284619062037 40.69593998797957
3.089329114162964 19.344215775043633 34.3697326864866
4.598553890708583 17.523918347520645 34.86230492485406
5.325209775029349 15.31635998794972 33.25067770210079
4.872028824380733 15.055851393219484 30.987265282751572
40.651099917772505 15.07300688044335 45.59641384464088
40.15722842120876 15.352845930706861 47.720899331553476
39.07059948259289 17.882127662262242 47.88675261510057
39.8198609038354 19.874443422982722 46.96746296004298
11.053843310686013 31.988755223516414 31.646357781716798
9.662991936557013 31.032975704951195 33.553955004114904
7.322023968139199 32.137166564359184 34.632894410852266
6.688506496074456 34.38145140132223 34.73505875085767
18.618803150500124 55.96140400134605 61.98396796388618
18.296122241744197 55.28556923766281 59.66653183773175
16.138572369626832 55.61888277199327 58.048667914700616
10.146665941723011 25.06785889239829 18.28718397911536
9.647281035427628 22.60594518356815 19.329226898568724
7.722051247052595 20.80411090662541 18.591491754820943
7.038994251334131 20.394306716614437 16.53947889311144
15.368771494502903 29.050185879888524 57.72954643239584
17.26755497836176 27.985508093992756 56.64423882975698
18.360179250782892 25.726248828325556 56.9196526730492
18.28002232533946 24.41316201028984 59.1454038693046
13.040755402106699 3.07124950489363 35.62328379053714
11.675784416947373 2.8829425646366666 33.73811163703366
12.007451485832846 2.8883696057659187 31.33951410089968
12.39370194429809 4.793621748898183 31.35175762681322
14.794630586319622 21.130859247781746 47.61598277243763
15.516933656857649 21.928428130164207 45.451938770780636
14.044846444060928 23.458227948500934 43.885799443142815
11.860459823661849 24.722306287854494 44.16721738517242
8.475217249205931 8.083826629702322 36.301056045326504
10.406249007268737 7.368842164302103 34.852691794886375
10.84736102013181 7.087193521640055 32.682356799880026
9.105898400749822 6.377094913809167 30.58092379847762
34.64232295980945 35.061454118709186 49.34996107969903
36.02421792725495 37.33918395558463 49.61367511531887
35.961142564595264 38.8931358227255 51.25673088612282
36.31067298165896 39.22505124415438 53.420317700217346
23.04134869115029 37.818618371443144 59.78992092191615
21.560319311814496 36.24479680932572 60.999449780783245
59.75188812989932 24.00444129957424 59.9485241461155
17.704203647488598 34.111358469947064 61.17193240008329
18.504081602546073 36.15222931723063 59.98857890201788
12.727240894934223 4.83966777998735 57.71961109464184
12.262356171679437 6.470978462956646 59.55545982607605
14.120549360052395 7.1614033913886965 61.01625713224161
16.44068127566338 6.177127427839406 61.201782160434185
14.156349912969949 8.934176038205155 49.33093493469698
14.240272468819208 8.637554322640058 46.9373356384333
14.932992166626047 10.705910722577533 44.875480698980084
14.851162941932403 13.081597490537334 45.076634634640016
60.23128680659432 46.25901128068929 60.037422413025865
11.299960070452176 9.513770914416417 48.624854462816074
11.902967683736861 9.014592563437642 51.17661828076237
11.861037381197457 6.218463492097133 51.553038709172064
10.820687147559003 4.719510078704716 50.380700695325075
5.852621803348373 20.88422348083439 10.656091946505798
5.777238389042617 22.046177024163267 12.987759082191454
1.2508050967730395 38.34382816742324 47.80153222595808
11.109667180012227 63.762470457708254 24.926377385853915
26.244024289119082 8.656001183751993 20.258785279730613
24.033217072306403 8.747503357683193 21.47784715622209
23.37714741544127 48.7300858486765 56.62789903208033
20.970962000610342 49.39599210731831 56.73447955970967
20.01200724070667 51.7334826526498 57.90016933684503
21.21153437017293 53.251893069043504 59.48738125896462
31.6648890229339 60.142970893113045 38.666893786577205
53.619798227078604 32.07815514379719 46.16611846326534
53.99730777750457 31.825965797716478 48.72925279161217
56.55284540274581 30.15728114378249 49.18838955159012
57.82581587183805 29.44333168435718 48.015271821503966
28.911934361343842 12.728041565261618 23.756478691614124
28.330898970004416 11.52237525383235 22.254704193581475
28.108471325461146 8.959776016895516 22.264049624698487
27.766316918706288 7.3439914796043935 24.283740006506356
16.54967848330843 21.551330222466895 28.70295129407562
15.725177733426444 22.722624748804687 26.793807753488306
13.8566970226687 24.246008720520702 26.098009572756997
12.405898095308737 25.59511859675003 27.047643903246914
19.98406109598505 45.39204450250429 26.950430208509136
17.84611010697243 46.29367906108903 25.464629991708907
16.127502714151756 44.64804987095957 24.02872291866915
14.659457111449308 43.0078476465952 25.40442747754038
41.784250549769894 36.21810283407633 47.5395464530401
39.95026856744456 37.90376925372277 47.68264222105188
38.48536706896667 38.77320124275088 49.77518102684849
39.95378221286398 39.136497441006746 51.829047181192045
40.266095120531915 17.422080474659914 55.1909918054559
38.59881892173427 17.805468484854767 56.51478166391091
38.14970692884802 16.68846013190363 58.91337757844875
39.54850731098951 16.122283093006324 60.81763995421045
34.58745212811244 41.25679183813209 47.24025509998088
35.137578078085376 40.8680263090268 49.757866378133805
35.021472473978974 42.43559663601985 51.671506455681794
34.38464867774399 45.07411221669772 51.86554807969478
44.79802815761046 61.708649340963206 61.43887980139061
29.462279024106998 5.8856332583245345 25.95798191999723
29.840471052993134 8.098847411922915 26.409814936804626
30.63352945328837 9.215315976613539 28.913109261157928
30.51613315151265 8.392912335478625 31.04871667581824
39.122342399265975 14.208677999845484 39.57526110060481
38.17714056252905 13.750304085372616 41.90205780614049
38.499529387230695 15.600495397651343 43.473086794104574
39.96656897599333 17.741133344991404 43.479173040517125
19.375573891108367 59.60223358124422 59.48702546297583
20.28893653091416 57.853968886827815 60.03056937929473
20.578472066047937 55.685711202994334 58.76912799278836
20.353776141238882 55.5780624371319 55.86456772110197
11.611299696804865 29.800595371046096 40.04072806340469
13.535242262163159 28.814086519157783 39.43804457969224
15.538679392754052 27.561460264691544 40.78182864272464
15.182808448482835 26.202450817050984 43.00488616755772
30.632243766122247 7.221497878299356 23.28076710971718
15.929627102489524 65.77348695248828 30.05088148671589
18.983192864442756 52.53381757374742 36.025751966854784
16.778266252784793 53.0550063753744 34.98003481407482
15.197429318789977 51.10946446181237 33.73363073338531
15.808608240407548 48.693152714879446 33.371159051964554
4.5890689357364565 21.783514689695085 24.505933933125423
6.337596203394191 20.952012283606663 22.693413991023075
7.1580478447519 22.2388341743132 20.80653158619467
5.93207972282128 24.465287629876194 19.538450799266606
32.805508376291044 15.895714662644215 30.356088418090025
31.743092879865703 13.572526962942725 30.670387703932377
30.660257122242335 12.049047353456356 28.8157231688083
29.23149251703541 12.42870903266755 27.363345231547722
16.386131169472915 56.37861616264873 55.30566155191766
15.356323527952588 53.687131638296975 55.37201549853607
15.604309464776811 52.373014102327325 53.39197412466588
15.630132616743918 52.77133885194894 51.0259263624489
36.11588577774623 22.71581595757662 57.622006870095966
37.042084747805646 20.249571965475006 56.64775874297211
36.62856423241913 19.21654379099434 54.39013538647896
34.826489120448606 19.941363003385856 52.25132524365315
18.205072911976632 10.281342879205644 45.34230189237634
16.967878337273593 8.457220029709958 45.28973844048796
16.75931251445527 6.7783472149758 43.09558543422069
17.386632616449262 6.888246107964048 40.93144066055753
7.971419701427284 50.781331650771705 34.202065924750606
10.106407211493755 51.89654316598201 34.226091500344374
11.171651771763733 53.4175413049747 32.35217845768652
10.251170230165366 54.54214125062833 30.619047364712156
2.7689715655830236 40.60856716681536 47.53712843473993
2.003848274840054 43.35629498388509 48.76734366855747
1.1220384107432964 44.96106787965894 46.74281040901926
1.5426611726224908 45.458284632399796 44.79865381444524
14.103870664232328 2.269002329934654 53.21879022329671
15.596471135596362 3.0287595298341947 51.567514146121006
13.930991977793566 3.6356714980290947 49.61346484371818
12.061866136709643 2.3326294999026786 48.48623146799705
37.43580381408948 15.694215827015642 35.64972861574229
35.645887193449816 15.93451341117958 36.28307460292114
34.427104654728986 15.679579500436958 38.60308057870554
35.34173807248985 14.511001180998282 40.590867841298575
9.495679959531437 8.1944452279057 53.566044696463145
11.962152855567748 7.8070867189876445 54.097624553621685
13.641040295523227 8.703426795330603 55.9726190683888
13.296611897560332 9.245171836812663 58.04726103692148
3.5365761210916142 16.059020806167005 7.3188631149578125
4.205746649560311 16.8427883884675 9.868826931369313
8.879397027281108 11.624348513562598 38.44404171119171
9.6874125438992 10.0172045983836 37.84211912332173
11.627742133059252 8.799227167464002 38.83913420298231
11.38873168381626 7.492797096268339 40.451032949387454
14.900618728611589 29.352636141809445 29.993197335073173
13.194611669437903 30.098557973822626 31.611132507173885
13.388790432807644 31.954256891377273 33.56177523405034
15.668325675556062 32.34324914830384 34.80217722754182
17.229245748843688 3.826581851987048 43.2654034664546
15.152637369529094 4.042012412478549 42.71494298149964
13.791507978308765 4.000832898148192 40.250881323496294
14.468262579606618 3.5960957526831567 38.19096162723052
29.424836794861434 18.356943996206798 31.214635445487176
30.91443889327698 16.54783402191594 32.631922508899606
32.9162173680761 16.911591222101386 33.85284587698523
34.51411434771039 18.553641283437916 34.344582773688025
9.672409819788559 1.1486456433850343 29.902056042038534
9.381757833460105 3.638589987534506 30.850707636978683
7.344609196974562 4.273052803410889 31.07225006250164
33.501346687003995 16.844264417855612 46.286597042908916
34.927694544249775 16.8643455899148 44.40708472633879
34.66027407802182 17.21819734144857 41.86392740826457
32.71189255962424 17.70596854086483 40.463020294010505
14.415655658537036 10.901568220537719 59.90783182134661
39.03420993405191 37.91883678992958 42.451788614907315
36.68911532576442 37.98122847320041 43.708528630228244
36.288071981829695 39.15781708933125 46.33889102573347
37.07072916364336 41.06969073723932 47.23083071425382
14.465981868292344 52.99955114755441 36.293703998697886
15.888091911864187 52.91836185594505 37.75921978442433
15.876137835088993 51.215590715835106 39.547706906650646
14.424277849440374 50.70161581962997 41.48046612406239
18.86237228948481 52.76333118864061 60.95446344961139
55.21776979405481 23.514515174810466 47.9973049925916
57.00570518734614 22.85023891665224 46.77267219821079
59.27476421106064 21.59919649626636 47.85092294564443
59.65095085978856 20.86690035067329 50.549047874233175
16.5668294417469 21.960384110354923 42.88404692855064
16.28496819263444 23.907656399383104 41.64075977403119
17.88196035662755 26.015074851781467 41.0349106199792
19.82306855563768 26.638402656152593 41.71332728668893
0.8685057284068165 18.524470079873357 6.127296581517052
22.08564783859349 5.807224431710753 17.62660582023689
58.164086826846855 50.038690874624294 56.61739206053289
14.914603148505687 24.164886642090877 56.63598517589879
16.23480276627008 24.857617915717228 55.11125060077146
15.620998003635176 24.72540772184008 52.286639235646646
14.7096243966663 23.177361003216195 51.13344581759156
9.126514411558704 31.275897983014424 36.50183774817147
11.305400551237465 30.784621102577212 35.5905438192568
13.654148083549943 31.366256004819068 36.33547857855631
14.211403944114803 31.873123823415927 38.85520579330123
13.026657439678628 34.472696199498294 48.28462442297358
13.765638947290439 32.82911983474331 49.46039521486903
15.473111434584908 32.75217906246142 51.788332683111946
15.999433262018183 34.37113842011098 53.409370762689555
15.751963525818123 32.174195970592464 45.52999785361332
15.502728670121405 32.30677318693167 43.017128953397695
16.15764178995869 29.472356346343553 42.53288203351352
16.47376714175773 28.0582684665767 44.61625799181546
36.44862329267041 33.32737809983112 40.14618430450111
36.26507933076913 35.3906484443574 39.567194255286736
34.62794210547347 37.33410562658325 39.75667452864917
32.70506448085583 37.52679971228544 41.1769356890527
37.96528304609015 59.0129859515357 60.23204863731784
40.01278184548892 59.45235996351482 59.28116115553269
42.201095199507606 60.85015759799403 60.65975392283911
43.72243509856118 57.604779378283446 47.94167010820451
42.47979188401969 58.75533100535909 49.334585111014
42.25037057813334 58.89310154185714 52.103666046979406
43.70534495172236 58.452719350320756 53.68694743385167
18.346428610115055 48.80923583452475 52.96963044541008
18.552594535705182 49.29241699210285 50.884863709983215
18.276398814973998 48.182801102665216 48.723613183381076
18.43714882691746 45.911063698617546 47.931772288570535
37.034879965440105 14.029885056583694 51.68205879215843
37.259579470843846 13.240885896456406 49.886199102048785
37.272829101786385 14.722293755635514 47.83256621692098
36.53951565061729 16.620345232618202 47.061535695126295
15.693915187163627 8.443343434362781 39.5115042443189
13.665151249088497 6.682227660593141 39.36968248012754
12.889892169802895 5.307554120445365 37.14702516464879
12.69600627748163 5.9691700327379635 34.95378705562605
40.669048194859975 43.66343505496267 53.92026147823734
38.751080231467576 43.09760133874515 54.184356525310285
37.44661512996894 41.53698967641155 52.13480184417442
37.78126320124492 41.32839852017119 49.90765359866227
20.15842410584682 50.852187662045495 41.64777497928558
18.9442069325918 51.93727864418233 39.738543871364875
18.00675100106182 50.691158572652114 37.718155442288975
18.441839706379902 48.85231633464441 36.89796162029328
40.50428727671247 14.531737412877765 54.68185559199158
41.455446126950605 15.703369972166481 53.50384046807849
41.158771492505515 15.041242293599414 50.4801865909822
39.84074138421617 13.282751468083655 49.81918608910492
5.976555062385063 3.9264904418475415 22.59188957695615
6.867974709620539 3.432279046780194 20.715162812799466
6.7357257410532405 0.8523833344455723 19.76656046531838
4.944298348357243 0.1345863781406318 18.476644494033845
0.9174968776691158 33.867734299120706 52.62639087478848
0.5474566976126436 35.55075689853298 53.969418920072464
39.78860855493984 58.84277637133941 44.0990094748797
39.914241510556025 59.33647511040343 46.547200159134604
40.22867352317022 57.67591325511128 48.42826731755145
41.959656837909996 62.05920018721604 54.26113325129583
39.999167963380415 60.96055367684193 53.73773251533322
38.80010513822297 60.708738353845156 51.77161659255273
38.662802817175 61.80168829942673 49.375990916506936
41.511714558858365 19.369499168063737 61.231448004965344
21.102870896751373 50.676682749745716 50.43833286851003
19.316541951991002 51.377062641217044 48.55174582434301
19.341113307812126 51.360663762268295 46.40384786384051
20.84046035134127 50.514420300155244 44.44694299382949
20.992982906105034 54.62011533825423 39.46470651176711
19.1132953788013 54.06370785520075 38.33685323185897
17.558342160293734 55.06311886878208 36.55817837298394
18.543465005085764 57.04463561579951 34.76832183971353
58.77128786831408 18.18470328929974 47.23868780174051
35.994488712561704 36.4945344258665 56.680436222148245
37.626786483852165 37.87151894704699 57.743700390658724
38.663665204733796 38.04297586490738 60.22741614639949
0.17167465805371546 33.40758828012971 59.30304341959274
0.16126881122311204 36.105571525835735 59.26382255537185
0.4675811551866472 37.71152845530227 57.619985048468955
2.090560060055963 37.662213111282135 55.65513938128484
44.58489426044124 59.806085065247416 46.33614161936846
43.58516567519202 60.9621707380793 48.0396486472313
42.43892380249348 63.204138451110545 48.22861499592123
41.151361514198584 64.228748764216 45.88940265798399
6.038015465835212 29.563606059262717 34.24027142661993
8.52787328640736 28.808859642675493 34.8946157624812
10.259452108591992 27.14393079276407 33.37916766193342
10.464383535397035 27.14564297508425 31.117867565871343
19.167155657988115 7.026744237388254 61.90014817380158
16.128553927489115 1.4946953355921948 46.914486137912974
15.725215483446632 2.8346295749309895 45.505775280107954
16.07274606900827 5.86952901337077 45.706863773227866
15.683895448767963 6.7386106860474 47.940059047389546
36.86459412669648 11.49255090377098 61.17971760533426
36.92366287486438 12.962719207332114 58.83029578211455
36.19561772394048 15.39169012112788 60.0870564931937
34.196740313364245 12.553705029972715 42.24393210487091
34.818599560228755 13.897681736247323 43.99698871494144
34.111180611698806 14.154281366653187 46.507566891256126
33.49522954350467 12.03831542695532 47.88819601508787
13.571559765720403 1.0797409699721991 46.060923453858045
12.409723098808849 2.6132784789020636 45.05270607122125
10.910268734460569 2.90029656880683 42.75714090260464
11.158890858438738 1.837931301361268 40.8467418614162
36.28205117506664 41.226890372728626 41.547284316925875
35.45757661463911 39.29022900870432 41.765359788337534
33.81590431507896 38.82994021644011 43.94558458604818
32.657126664378445 40.33582602055111 45.278436556522266
42.63292854240917 37.71926423108208 57.663210059539814
42.31891997927721 38.87289402882179 56.01356860067051
39.86398089407381 38.219656399158225 55.01609935710779
38.459416442856714 36.037924066575385 55.660894658642725
31.455223075965666 37.670044799418854 43.83427497841235
32.25186672522297 35.72567522513102 44.69837645820709
33.87436004995998 36.29708439842759 47.2158642605728
33.9572871098038 38.44884828007412 48.20093921611624
4.875599141343434 14.962347126447966 13.404122826552477
6.414658790440556 16.86815783847197 13.580483953262455
6.503452757829005 19.001236861357043 14.302639418006661
4.492629464100339 20.64020174706245 14.937865766199616
4.193814361271072 47.311954802839594 61.15730228159666
0.13766906707057017 45.392706878206006 61.98544719812448
3.201378813653534 46.32599424661292 48.62833147237113
1.30224397289598 47.555939415427055 47.037352415970936
1.2087861577348584 49.40226282110246 45.69961590942132
3.1353250769810166 50.69903547598517 44.58274493511267
8.146312549151132 16.44470844515746 16.079349528416756
9.013082031200625 18.516246496950966 16.66960279618859
10.306715561700521 19.22309875280714 18.725863959155753
10.931683195203222 18.518285811406336 20.828086598140285
7.0495385337456105 26.1765423470328 36.525312634804415
8.919716221210992 28.174342112012365 37.28881492867908
11.187247459912225 27.662889425088476 38.14585683838523
12.170999544083008 25.71478805639577 39.279273927762
32.555315362897744 8.473291462215668 33.17291884114873
32.80819397359203 10.904056028365677 33.475724193179566
32.429089481180476 12.428709521417929 35.89373336021562
33.17141445661532 11.818386293952058 37.59281659928823
34.84881032317501 56.28299380134658 50.02487802435963
36.26569551048827 57.96095809802049 49.682112382962664
38.85382683025383 58.428810791972495 50.40911533378081
40.42392615123604 56.97752236336912 51.86847957358671
59.97324280791531 1.268636377506089 61.94474922943609
58.9939038746761 1.5859526227596887 60.22821371486459
51.206120685984494 2.602344829255804 39.422818921813295
52.883750354757055 3.364779013684643 37.9041140177147
55.439342339030794 3.0798337874214234 38.68753044871298
55.96477263653269 2.1800758783564813 40.69363788139843
53.48651194724939 0.11934102926079615 36.28581767962097
7.531018292014864 0.4120666268404334 15.579709543795103
59.35515006772711 4.801809516845245 56.766366003795284
59.13141601684441 4.366759130288851 59.2734449001334
59.42736176999633 6.031977938316856 61.511557273545755
59.00609336654303 8.606876795936609 60.94666594159195
15.181475174191167 1.7558311612884847 24.0577747748295
13.578896013992368 0.45848706432328407 29.222059626748674
52.461875749687565 2.301777745709097 51.02813717345295
54.417220362580565 1.398162971456628 50.54675974258149
56.76806169036648 1.6284847503742041 51.94046336579784
57.54019867761058 3.1778016439965167 53.47583366189556
49.88921250677302 1.8901633394993256 34.27187560490724
51.279757212162565 1.969303840182131 36.05955877946976
49.79310228523046 0.47735982797170073 37.97901085604586
5.804755752492894 0.046245448366110116 11.243629459376105
5.684314218043226 0.7198765141055999 8.985703045262335
7.3726905819580555 0.9514924271761451 6.946807408912147
50.59886038027837 2.6108505948556378 43.42439451175256
52.16160698936745 1.134778347845095 44.38059789276095
52.530365566873535 0.12237901670136558 46.66464430201876
51.92420228206422 0.49118899837709384 48.85125395088408
51.0894211210354 0.5387477553378885 41.51519506591703
58.75745629312494 0.13815478107200987 51.42729882745766
27.181083963248597 4.065735898836386 19.614894456735602
47.73630580617027 0.44623633424117476 33.35541085745889
32.0010438857259 6.076752393616414 24.73939855759758
38.164264777457674 0.9802005027391925 61.77897449910744
58.27251198274398 1.1534230391221565 55.348270993720796
58.28264435206281 2.034644382943462 57.68263611017922
