15.600558872681086 34.20899400643799 21.939287474369348
14.888023338263451 31.635530481063736 21.11135996825205
12.756058404689025 30.505420015145532 21.91189564067376
10.68352769358134 31.264744072542157 22.892372772085753
29.481677053765054 75.3767900598512 15.392200602474134
29.730499156357237 73.07375241734496 14.946716740403364
31.998564123292603 71.61295476048318 14.073864313291104
34.368970923974686 72.45018611600469 14.191354366079535
21.6235082506737 34.350193765777085 6.107466462880803
23.496774305012792 34.705001538976724 6.617866037655073
6.778321137231755 49.10671267261933 35.6820017393352
8.821525914044724 48.81412329462637 37.81134468946456
10.751524639542588 47.12527051536897 37.70650034983815
11.934419532296149 46.06347837598069 35.83472392389005
13.420176025384746 55.4037426661736 11.320745006621308
12.878508225225263 53.39161099681624 12.332101404297086
11.111701388512536 52.375217378926614 14.049850437159371
9.275844410802543 53.306262634689595 15.01882415012221
22.18794604020322 90.95886425420932 30.07771049437508
23.768510278259722 92.23924138404995 30.06740199711277
26.34750015920153 91.56554758570438 29.832620139573148
27.61252042216226 89.71635774423137 30.338042949968322
10.516217815609863 38.07276756649029 61.95023839110638
24.627001643169248 44.850569126384634 51.148573515402695
25.66663001689904 45.424225100281674 49.36112303921281
26.04209899589216 48.0073832320207 48.92312951490518
25.770007490100284 50.05603951264701 50.61214936087956
25.1514387301258 95.50122522088742 33.4169662055779
24.212850902689006 94.46284373562798 31.50676400252234
22.649665310359175 95.08555309218563 29.8825144757968
48.322236576084364 47.776774937638464 50.006982258096286
46.018262688672394 84.72350691342689 41.610358370329145
46.426586874404 86.88036392594596 41.45256489237902
40.45154745152131 45.23291574814151 28.316598359182244
42.041470315192846 45.57609043162724 26.624055816115867
44.539200878415876 45.60621544838399 26.49737581928882
46.29311182516857 45.83537348084787 28.650968025058607
35.7235587038395 36.46376496214159 11.253202952962427
5.884737862342876 46.246526612782674 35.13384731225185
3.98661708126191 47.669975212965134 35.68359740531697
1.7793234578640877 47.89241529152177 34.7162510891161
1.037214141988987 48.306031402152556 32.574081337261305
36.47205513523189 80.40670239346167 59.79159344624484
37.49937689841928 81.86780172212355 62.02631714930365
42.12436858774513 81.84661695432521 61.31639401565469
24.64251494921341 26.095827085798856 21.134558073667264
24.731276283266357 24.324327774299295 22.22588059017367
0.7107795370903641 74.76461480246407 5.227123677081695
23.703200764257875 75.84147040510021 12.655034581582752
24.407796428142078 74.45582867930702 11.008225193775086
24.972031351897293 72.86600999994553 12.660589664736632
26.81707734434864 72.58680968368589 14.418839939911573
9.402781528085548 66.03505192828003 56.6162198168114
7.415251816249852 64.20661995525447 56.463197912597
5.50850908253143 64.00182420627797 55.36935395500471
4.260254066379583 65.95423587892036 53.68701582501871
10.836841776919414 49.324602861371716 39.784842832261724
11.503539076324618 46.8517259189056 40.29042403800769
13.486992725707484 45.86837892558878 41.239279050129205
15.436167362847222 46.71937933027155 41.89602783510164
3.5313458575492485 67.64209196766807 33.908127453381645
5.170846076179457 67.03679019659958 32.577386659529246
4.82624754610407 67.35039519737586 30.161662466419486
2.082534354588837 67.40730091472518 29.28680340557837
27.201472289255662 95.88095433397054 31.629018643320936
26.625746379854746 93.29241224575802 31.924231753535988
27.97063885838576 91.55848229687183 32.82216098443125
30.469619558976085 91.30556062478372 33.23479425827142
41.04461779448328 74.02671829787117 46.82101817916646
43.56997926491778 73.72425240907928 47.63843787894956
44.602670509299415 71.63742563985619 46.77871254500059
43.611761924031875 70.07554168367346 44.75422328478938
32.42258636875898 73.20515857378047 18.34746024748668
34.086354714041704 72.19710319325381 17.029421141148113
36.53475575578962 71.20733908457066 17.461594543480665
37.835073478268555 71.76783927441012 19.442405998877014
31.827509949552105 87.18612885200902 34.52672962408786
31.518494258936197 88.63126122875627 33.0264331644647
31.260760906648823 87.60634080467392 30.547783928923955
30.531822856769114 84.97215662787184 30.321626446563588
36.8738836816321 89.63877646777294 39.73998873491433
35.82619862922961 87.6677410968774 38.65685851735688
34.80460077877873 87.29287106106015 36.312936935431495
33.91916392271996 88.83679133629232 34.87245367835098
44.546990007528464 73.33005490988302 50.818082465762544
45.20888637976894 71.3165913314962 49.46485407581176
47.60273201092915 70.74099925113873 48.6331076172803
49.22027076473845 71.91117888469375 47.45792197448708
1.057090471941771 36.888318796412904 58.15334374313606
2.1194763458550567 34.62696094584919 57.15228632181316
8.17832010637704 77.52944209550083 11.363767775689066
9.594220368316552 75.70685579480758 11.647765102307961
8.912372251355164 73.56228065466621 10.459630404204773
7.68749504959163 73.24919583739191 8.589658317597204
36.45163276581065 41.32124910593437 24.401502904828885
37.289760921728366 42.32870412034115 22.420072653847583
34.84486550929065 42.38751190684072 20.369943396811262
32.611256664717466 41.23436138357907 21.30061054283065
9.252383684758069 63.23124227492304 60.520988617496464
7.586537763207374 62.34580844416431 58.88594919696433
5.2989804076895854 62.88278369882067 58.19141416187877
3.592854193087474 63.616155458789436 59.509790259204685
33.628195854636495 44.88373570007932 20.8113782587153
32.01614874809724 43.75260629726505 21.70311336594534
29.91212136554323 44.982685569758445 23.10046769927986
28.69940946155019 46.91869185012206 22.74171305359791
44.27114114257558 67.53809322397535 42.789381832110955
41.64758797843254 68.40533771383288 42.473245492660524
40.5299775019622 65.96822611696636 42.79368433193783
42.00377818740012 63.50488439330223 42.26637679178055
19.546588262946255 62.0065256052676 61.312114761840085
17.2345330050253 62.10671326472127 60.02092276539809
15.38555068864343 63.0513423280619 59.91914873212816
12.916030002313107 67.94455490494839 27.87651448749772
12.439204508851828 68.28791091336103 30.126981225322165
12.672718105940396 70.3452855877749 31.69606596581649
13.505596109260045 72.34487213317455 31.590762478007903
46.751537654424794 64.39093839182837 47.358778492913494
48.17031904606262 65.0432276871191 49.02804514355131
49.16155864406699 63.40591818611895 51.02770676866444
47.575061185299894 61.374150135038995 51.612487944036324
0.6926226542940389 45.64012533441742 61.10310007996264
2.486289568438078 45.14592018668744 59.82114282982938
2.2309948790045997 44.3355483643111 57.37430451673475
19.11579344456069 57.15969317515062 56.86084377337022
18.376304615778345 57.8723703205967 58.689401076358465
16.401896608352896 59.89613433061003 59.27344026320387
14.74651180360429 60.573259163453294 58.331119153138935
0.9488931525195676 34.957212766499765 0.7688874177197774
1.2706052129483505 36.99676051849477 1.6327699694734739
3.3930149543943733 38.283114655030154 2.389482816511144
9.535336718356442 80.47311953928099 15.494162736419616
8.993979057248161 78.23634265085032 14.350528230025137
10.36979385643553 76.17414756132828 14.177723063738773
12.752471752591333 75.60427173432666 14.035542267123772
12.06220872612067 26.77716235280821 23.855440644113386
11.510715871505738 28.11862987286696 22.33420677320218
9.37901859638915 28.086827113590758 20.657553478100922
7.2940225388336275 26.226312871132084 21.12635790930564
11.656288786921152 91.08986315461802 31.23648833237467
37.76884040468214 42.023121887815876 49.262773166438436
35.50329115326173 42.507059629783356 48.2591418120608
33.223522757355056 42.716179067574345 49.33708052287627
41.494829384492306 30.748209929470523 15.633804219702844
56.9764545322371 68.632728837983 32.11610513420272
58.37091303692972 68.16504867354055 30.10402872946894
17.260029768807428 53.861320361529394 19.196962966344348
17.815533695156226 51.39869998888981 20.419398959043402
19.86423870254891 50.86570382262177 21.941652932158863
21.44598724094671 50.70664490278168 20.506579447262585
52.435205320951624 46.925251246276325 35.76102286297748
53.095571533590736 47.8328010870008 33.370183852645916
54.978410259693796 47.77859062535485 32.2095343844993
57.00261925604031 46.63177794697257 32.471950211791544
30.374364232683696 68.61494858908996 47.43526565663084
32.06120779100611 67.88808052413675 46.883934802311295
33.95681183415594 69.71034372194951 46.79434394612926
33.67315181021939 72.00433471555405 48.50264580917482
0.09020950705787577 68.78639683803165 26.685772994850808
2.4903476047742243 70.00374371038943 27.239664015938644
4.555890240750319 69.72551224943928 25.943361781403265
41.15353428822991 43.29594233961273 50.30084420778239
15.706477099775567 92.12184563876436 28.478239972093068
18.36219782986194 92.0086199923334 28.377775976640702
20.0792812253708 93.00211352689797 29.77322831423468
44.53130057728443 92.19031998246253 13.717988125336893
45.36573613091439 92.12842108765155 15.675842150601094
47.952574570070645 91.97367515056852 16.72376124309248
50.032081646574476 92.14621243514794 15.015837414343892
4.454569907238224 48.869844612008556 17.99107142861846
4.64226780824716 50.114777521486396 15.839014894632456
6.697670075701143 50.45865444411649 14.44611260504438
9.369306692987362 50.258168970838675 15.344640019086464
16.807526697044025 48.850933607339584 20.021423412743687
18.691145250679728 48.51903865354938 21.311017799183308
18.975774453995065 47.59055199059557 23.797278854778824
17.506406688550438 47.87055482794856 25.607908487514656
29.69097237566654 78.53774129809673 59.65750253118916
30.806224495847232 80.69176255670882 60.27047578169547
32.97930116339713 81.25218270343244 61.46573384563099
5.599594979254784 48.11812406053588 11.625355215030055
6.9434164541581715 50.17491824143936 11.768417626013576
9.056656052075507 50.9113871956916 11.826437948162015
11.410657367154124 49.86605432966183 11.243382815297018
15.771810451027147 55.94383056964525 12.754190893394052
15.016621575965578 54.31123537947193 14.543365808649664
16.492530106806345 53.11695399535217 16.344524935778473
18.599760844976103 52.838497844137834 16.595085730324605
18.532101395056422 30.387762834409408 20.898269991980214
19.38890216421362 30.48406737812268 23.246196937858212
20.38768417296381 32.28396318054842 24.59449483958236
22.429063422108538 33.59454192769699 24.280525503112266
0.3029089086123139 69.25185748946951 4.640237538917503
33.13321734289674 84.54043161206167 35.90422064196095
32.81247105758982 84.5971939017153 33.69639633839671
34.926075410607986 84.73603095667295 32.32746743019253
36.434911722998066 83.35249891144514 32.20623126523155
59.86675465243035 70.44561932424502 30.379585078904668
1.4891420789564913 25.73758083971064 43.01824666798149
18.6144902343184 73.62699811526772 11.594029219086378
20.406094356745797 72.0048423787214 12.857784236021814
22.548457105287252 71.54732804470582 12.470804216634619
23.98531159947279 71.77639253705254 9.971242169862657
58.3657268774173 47.809020011633834 28.597078671544924
56.685400554399465 46.54470086583859 29.46801271210333
54.15061013268281 46.65317580090585 29.631246834764166
52.469022881957386 48.21405883461729 29.043957069971803
6.514587402388223 75.30997538761012 17.072865051137946
6.994900549739211 75.98433411269937 14.719661446392841
5.292744239033414 75.68407904101846 13.103179978427912
2.8177874381305483 75.68512637287452 13.004767873188108
3.576332624493576 93.0039000228858 50.91217154319076
3.6939779453444936 90.50614426535128 50.516587623879566
2.805935156821096 89.25782539022832 48.35107196205078
0.5970121902489726 89.67337387670541 47.037982789463285
5.477663154334992 13.204539338358869 2.1344675597754734
3.968119232120215 11.680564077316562 3.397158543211378
4.306783951013805 9.804225072083383 5.217068142082205
6.40527969018342 8.725477139713798 5.861245517077742
2.6088038965817537 51.13583881959248 33.15251254052518
0.5817553917733399 52.43816463528765 34.61671328042113
0.5401187353999239 51.09537021135834 37.016333553904154
2.017394049272785 49.07773951949735 37.338687072997
50.288197198958905 90.07674272403955 20.065399044201218
49.16096146293825 92.47454365238427 20.201829678146154
46.883933626790956 93.1755337414647 20.23988525631258
44.43089228610814 91.67353056669167 19.262680313171444
21.242921419824288 75.23745923363296 41.09964853234922
20.49022738808853 73.10954053720438 39.55249590926939
22.095440296261007 70.80649858468077 40.33654250701767
24.208792394470272 71.12173297980056 41.86608013868375
22.862097164602282 41.920165523666256 49.863728305605164
24.209048690458033 41.38150078649706 48.27440407013815
23.85718980012242 40.310214476401484 45.73798924173832
21.59747972741369 40.314378405078315 44.60349677580328
17.718859833537397 39.28150573628314 5.549623198617138
18.28222011449106 37.22877782022507 4.450950586153241
20.633963438324074 35.762345637569084 4.183284994167496
34.785424515155434 70.71787583013402 11.965514599207388
34.6815232317709 68.5975440621779 13.261873659773315
36.255296620016885 67.26149746424944 14.876980726329883
38.63141480231473 67.82161586975766 15.164786566884661
33.23728287492638 82.05106156282618 57.90315725564961
30.83657247273419 81.61763818125173 57.94278497965453
29.034544419156806 83.08141896159862 56.88655567141419
29.378599674166974 84.97978014432402 54.95927118142539
18.860256353081425 73.05291178679154 37.25996232370615
18.971828936407096 70.43048924431923 37.75646173071491
17.743644117772966 68.43102090734791 37.1710865765905
15.786107750298026 68.95002831140647 38.89105049894265
9.717364555093532 57.582883858496956 60.46331409445871
9.296728863966404 59.91718796218998 59.877122198587095
11.646292681997554 61.47439055481481 59.522997086898826
13.8828751996501 61.10838791398297 60.71739631974735
23.491585743889235 85.14934905449691 50.38869812776303
22.87351923682617 83.83823067411691 52.37712365408768
24.106859111085175 83.19885631785641 54.304935935948635
25.9462205413703 84.3658593688884 55.557173185337504
12.519150183115155 88.1412168176559 23.555285551924015
13.915246537117401 89.61925440832465 24.63051426712946
16.38812652345102 89.4269739328435 25.370310674727328
18.26244564060316 88.08078477487905 24.376916215190356
1.2157294756470567 55.147535974460844 9.393258291317629
2.1878158153916107 53.53739321379615 10.658356829587204
4.841293336738419 53.5196915545016 11.685566334852668
6.651607102001165 54.78908953719154 11.161018437098756
39.61538037018889 85.80725601451556 33.04870350463824
41.19739206903536 86.34496252115292 34.6395012289614
41.39426044857555 88.97746719205603 34.15827039777119
42.72208032729891 89.9222562681034 32.14217597099226
6.49718422521837 92.32434930315362 49.45320213023655
6.39844230499241 90.4322866190813 49.94097335009307
7.618629862721532 88.53594663662099 51.57011256676328
10.105668846370637 88.79752841933585 52.43080930352357
2.796059033814129 28.003099955135426 24.016647011146617
3.5694551703097708 26.682446578939732 22.004793775557125
4.658379958116463 24.799889716537038 21.64176097918965
6.265087679514368 23.08419378259413 23.190791106468236
50.62579125365052 76.11975152747193 29.073041340753065
50.58746333508263 73.83268664412543 27.996006975378414
51.98230370931952 71.59662943217558 28.612164865534094
52.958954514791394 70.81416316431115 30.429456652197818
1.1403648504777741 45.258453870472174 39.00490440144866
3.222923439252556 45.68097231570012 38.214253546611815
5.690373916593578 45.25095668168892 38.90779389774833
6.895051724606813 43.57210224112117 40.528685468602475
14.302419302104598 66.53939171657008 30.332648327134454
14.76807782991592 66.54337760226183 32.40449709622541
12.603027114679755 65.93107960004535 34.00168564592726
10.88151201826292 64.42362245395792 33.70345966988706
15.712629644671042 38.86478861979144 2.8965919155342004
14.79571077731091 37.35033156386728 1.9738536564210432
14.344494242654346 34.94016570300864 2.642299698138051
14.316318251388052 34.07045525984294 5.018963585669891
43.7759681687579 94.31415190590019 20.68035255476973
43.556426329729774 95.51190939270943 18.602117300863522
41.447481048916934 95.28387754037331 17.235854028431767
39.01587779320028 94.57514076274641 17.58674195063614
8.145446082821504 23.325916951509686 40.823398132424
8.869120449307704 24.209873489803805 43.34897079327467
1.4891413453600728 83.89470659435348 52.15255918540724
2.354452146407272 85.40898955170788 50.83822515399494
1.6835252589386713 87.3522295161547 49.49702947749205
30.952998396381908 66.8918297965348 8.639017669899523
30.7755715230018 67.48205794902978 11.000149057162696
31.543372455280213 69.80577740884156 12.17438040147414
31.03964457505992 71.5898421926382 11.395767061504797
43.36120529498482 91.93389543236191 40.67061714877955
43.43929106847308 90.06981291233953 39.11823703799119
42.04446115448887 89.1045826749773 37.24215610663857
39.18177741624077 90.4506311948037 37.360657022626306
8.538926179211105 85.89877862072605 56.053008930161404
8.399979213698469 84.93578277029744 53.82959057187283
9.863941198431817 85.21231571449958 51.99181964822461
12.305457759934065 84.4935527220053 52.62088423636147
18.496405226454613 46.38579202904378 41.023693502788994
16.83646584745737 46.25504283833209 39.71333974409484
16.921621561752485 46.57456788944613 36.75698248035308
18.873625571956683 46.33992832609784 35.66612030004908
26.730423184756734 46.32961116758045 46.462125350168606
25.77704292201489 44.64561695018093 45.432166229645055
23.280395119415868 44.16405415602717 46.30313430244817
21.848931987976684 45.48314848373918 47.43394092041056
35.876084488605194 91.53140728274185 12.68025821579805
34.996564456978426 93.66205704955789 11.92665099664198
32.6397065422923 94.43295022616473 11.511672701570168
30.677955587622346 93.48166680440266 11.767982447982163
4.628573600812232 87.33221507341842 43.49430675978667
3.727059568100186 87.71173161242437 46.07485430141111
1.879394672876015 86.01946399492812 47.230920401600024
3.1345151886640226 9.8587668277551 7.431744793455142
1.862970263505222 11.737895715042676 6.376702863612777
5.680165109966967 29.735654708637036 16.409023272989522
5.39370910136495 31.143830861055896 17.473706212298868
4.107285816870918 30.966505277180474 19.684096239184736
2.6779028956253343 28.70701488277418 20.13412659379037
6.5794343827742825 63.365120974547665 34.431885687207746
7.185386309304467 65.53804466660773 34.03043814942105
8.449273442458983 67.49558403898283 35.15975781319092
9.77897398298499 67.48764556731275 37.440553565076335
48.43451617906028 94.48720936012779 11.355218577662532
47.89376248402859 95.1443322376386 13.580768136154262
0.6375035719313122 32.29087250737555 18.560548424730094
26.831180004815348 72.83612828869131 43.47399027075067
28.17686561346756 70.77988235360114 43.2047971009924
28.64916807044915 69.65701108654265 45.61545799772394
28.864927054661976 70.85090900411852 47.89277217760824
44.60174306015452 88.7035254074413 37.006443448093535
46.049816770672415 88.63341007904117 39.10372212519797
22.751263430504768 45.7170180877424 29.313431892815686
22.246378860517144 44.948997923864454 27.18265264425121
23.860895615813916 43.60996508118316 25.565174325767543
25.783195353273268 42.51781604310073 25.655415412467992
6.2825719494922705 75.35957669863699 5.454606344442794
4.183183277062144 74.7382921785565 6.878729023506237
2.400387650516735 72.97197866037092 6.328685261259528
2.234341071485953 71.08647096244992 4.3390989923719445
7.506449814763988 59.300424206126365 53.480174014132956
6.500925299158069 61.3956790275417 53.88522905554932
4.339201468300763 62.68419231438067 53.19391451473608
2.181907509915801 61.7457155012311 52.118309088032
38.06776879503316 85.92600937741537 35.71238470622359
38.727364062191185 87.89438593464803 37.40747308545046
39.64571289571282 87.92430037844815 39.41781645128125
40.986373271345585 86.1720861074029 40.8696426683401
5.829720017925798 39.1377402946707 61.23416580074217
4.153174180166232 40.69262921210852 61.40160052571622
1.3244034202467359 40.434260280881155 61.55486566029849
0.033033764190637235 38.67476334346115 60.87523383155847
39.91867241560022 72.18375998017416 28.049404940912666
42.028758439137654 71.01125818670607 28.1775929099867
44.015460213279944 70.82091065380683 30.097135087350157
43.47053037385729 69.37810701452607 31.322245646212576
49.08618590024725 66.90286865711934 30.10444167922066
47.92065701017628 68.81983742979365 29.914544700372637
46.336287888502035 70.37723311217637 31.542721874436715
45.2186798300736 69.4322052109205 33.62463615597582
2.7398119366796085 61.090629081868435 57.49939135247399
4.768278534003066 60.6654115957467 56.199037130093096
6.789572480922604 59.128749012834014 56.27880297446986
7.3485260384514834 57.362272957822505 57.461694152801485
10.110354714924323 20.240832984159503 20.8170294958182
8.93185234891328 21.816240103395415 22.018606696615464
9.48985354638455 24.220191962990516 20.669628039584264
8.158976701669673 24.62646318775365 18.992986299708583
21.13786026211162 77.25580831516692 13.586029219972044
18.959863702469374 76.07047460123302 12.813009537075917
16.401039848431125 76.86222079326652 13.006180000690554
15.423517334827485 78.7636246803991 13.505180908522023
6.756685842122418 70.15067636665407 10.868019126038618
8.260266741287298 70.5241431764676 8.85834738531416
10.947338710526905 70.27868173422469 8.644068916666159
12.486683484570479 69.91434566666291 10.24413806238442
17.44410584538239 66.45316110144206 40.834157504558405
17.65877734143697 68.71230929898233 41.76491636910458
20.178244698511918 69.78052378431474 42.26656837209157
22.125167194826837 68.7680986364723 43.587602523531054
44.5588486178315 64.53425773136519 51.23594197007962
43.316489641312245 65.0063961434759 49.158724082095006
41.31135751878649 66.87253725299234 48.87821677108619
40.516284185115055 68.26721153234215 50.05214350229048
41.71089183004649 89.09838844416964 41.252599012482996
44.09133711719902 89.66361899583121 42.03996403483772
45.08333581135305 86.29083381335096 45.272579533485555
37.78786083246533 91.34021190755439 10.72758168155569
36.25776446122574 91.63672595082224 9.11470405308287
35.90770403557007 90.5457719044614 6.554370892470623
37.97320399850688 89.65513784652597 5.132089156486468
9.861048820541999 31.214170352992777 18.37476661227876
7.84626267445863 30.062730431873867 18.311375423124872
7.5605965767961765 27.401572069180173 18.11911115927016
8.246565529207285 26.0015682692897 16.48817695023815
4.213658651852946 7.916150819828627 2.3878648463140904
2.4035015431087676 8.111121443981032 4.021691697164794
0.06240489424459088 7.820998866722032 3.98840542163471
51.00664395760575 91.92838695374282 17.93673426662119
11.44977699992124 91.94558129545715 46.978398297839014
10.311286721765633 90.19235813770625 48.07264697182394
10.924787679080799 88.1298500688681 49.5898888112134
13.262562971463847 87.87577323051707 50.68334226375106
31.659195939278824 51.590217459799945 29.871629325884452
31.727445124647343 49.2428228186817 29.091359526148533
33.18292900919711 48.3526497566507 27.322972824788742
35.987614785117486 48.437830493150464 27.48580780614054
43.55744048474015 95.69264338211394 14.64069911657058
1.437839426212616 69.6859010209375 32.96846205947449
0.3823760461281712 69.4182765105513 30.62742230968194
1.322447657829975 72.05712104968501 30.629193741770752
3.2269837162621484 70.9411917527009 31.14190560832098
5.51439723948021 71.07551220613242 29.793500515126883
6.256007275525345 72.44023406262644 27.883224127756918
22.986501765339966 74.59297318636054 37.978593223461175
22.32488880127004 72.52079058266774 37.35701209182591
21.506309635437866 71.38035194155292 35.09868469797496
21.683720043694148 72.0322503444144 33.020169773327545
51.35857501261907 43.24496804701904 28.982867468250824
51.68302198925194 45.36536658936792 29.67801873695339
50.97662242711914 46.880655943100024 31.850854281603503
50.21575532738503 46.210426598929146 33.90077115044198
36.43392981575086 69.72722351646462 44.70020779532571
36.38381409795005 67.50520801271864 44.20493611069838
33.484625022658555 66.86618776162497 43.77914251171265
31.914530136003023 68.71585580877388 44.25058057680978
24.07646997054229 42.361611855541724 22.41748449286117
23.468757908442093 44.298815743331694 23.032134920236324
21.24123436869145 45.21575069743066 23.996691265467664
19.024105675694035 44.60848230924575 23.210827467110807
34.64662458931397 31.304672633802866 12.633666192193273
38.490380584055295 65.03151689541691 47.57228142536131
37.60574099306101 67.07324282983592 47.98871881044279
35.43451582715076 67.32426863588783 46.97905418292181
33.40875880705792 65.7159104667368 46.84802464184419
16.377694783994997 89.84885661107378 49.99074507261645
16.3995396292115 87.2926547834268 49.480543618082876
18.18881556230423 85.54247006890071 49.59621595333782
20.66704932370179 85.80679203851798 50.68760479261934
12.754616841810291 42.37379291038822 39.417531172988916
14.66302212074144 43.38177025344643 38.673592637142235
17.110527643328535 43.25225633186686 39.32582746744999
17.86208512918694 41.92873147553376 41.41029564492718
59.538771033937806 75.38453840559517 3.764185421055415
58.99661454811151 77.34766671003442 2.49443414836997
59.117269460980346 53.304890795031135 11.965105375119402
57.66390152606261 55.246949285939074 10.494151301958237
27.49025256920098 57.13024771916072 1.4318569829334757
28.67395638672043 55.44587081669757 1.2934891152396815
15.637259477296288 28.780527276991982 1.8557166519701263
14.624091298619783 30.68789548523542 0.9703078274533198
16.391242035916395 32.711194626169785 1.0955112924626647
18.33055924358629 32.751347802138504 2.2395593384833594
53.40622694214488 51.000481644779825 9.53866082736406
51.707192395780595 50.07759690021542 9.48721383859948
51.481853399845434 47.829748366428426 8.025695938196796
52.867799780572426 46.142106335250375 7.31888948794417
41.946779370516616 55.580448230780505 1.279485072029742
40.04532931737604 54.17755702298765 0.8506107530597825
37.60144973597149 54.18294175756628 1.7281561365529765
36.425221630210935 55.62673348763637 3.0296812540541174
58.74679660843936 49.409963639252176 5.986460548938919
56.78939234346604 48.849089313354526 6.575382657827173
54.78904788321518 47.43267302903716 5.7858746231914235
54.579819650701886 46.13983983069752 3.812676077097466
55.740538564192384 70.55734645933875 1.154069124193971
53.77513889886795 72.01565607748788 1.166313241955249
44.60312686780858 51.38191413782711 9.006256647959027
46.80081210411989 51.282948806222606 8.208126872277793
48.877466759503946 49.60757690495363 8.890920106180674
48.469602767671624 47.3351020598442 10.352686730045411
51.67619814402427 48.60051174198168 3.7254617793025027
50.29525249825652 50.79123499834211 3.2132765568576116
47.60331840375275 50.236019752287625 3.363711005254937
46.81067009945331 47.67827664942464 3.4937193386192376
54.64982988062644 52.99465717896638 7.945804247138055
55.03821775851885 50.97412624506513 7.217466583736248
53.72016988275682 49.81802854029278 5.054043786347859
52.89910336696228 51.46281959595724 3.1326178501941984
33.50619244691685 33.39052293810775 2.5442929845988744
35.3412049874416 32.68966166253374 4.010125049459273
35.162803826968464 34.34507622894686 6.44064483373479
33.89657507048404 36.44957095338118 6.322317703565326
57.848134174921654 78.95871033570859 6.334352752094677
57.763354813889336 76.23440223571275 5.564667238167164
56.40025034155567 75.04277915203748 4.140611897255174
53.82270107670922 75.18283670235822 3.802842855135025
38.400807886949586 26.682903100931785 12.5705577817045
40.187231251776375 28.293786201629974 12.01865981440576
40.485792368417265 30.988881792869872 12.282925591675735
39.13425686090494 32.62887889035516 11.96647449685931
44.75204948674821 56.053152831680826 0.5896458181254374
45.039403328966955 54.51698466564525 2.6126639805634175
45.68905372426023 52.01881253418459 2.653861134458897
47.14976575600939 50.7723349555826 0.5351973212024129
32.784993220608996 75.472710771305 1.5079212772701536
27.346904173718098 30.69574204564133 1.4566011503724392
29.474918087746655 31.71946941907414 2.76145925779556
30.49961185086198 34.07173862807922 2.4144322810555328
57.30188208360809 52.325142183683106 14.488303134516595
59.40350934470412 51.21389577294028 13.889323296592753
46.14066421131744 30.805924832724504 12.168494927343605
35.87807936136477 27.89901418151567 3.569183254805673
34.441415665838235 29.871146180142315 4.2418091700617655
32.34999752611006 30.675390626657087 2.878505470665132
31.59418987184465 29.916928924166367 0.3303114591701892
30.620919492541113 36.459224448052495 5.950279280988755
31.658584575801683 35.37856220505267 7.834377971619678
30.126074548025564 33.5047403663636 8.566500254429862
20.807826597840826 55.50662127066392 0.21348525939731236
47.67395756678747 45.00975512939678 9.107746257778533
48.24123638759272 46.66559831878161 7.548265363590561
50.07616495498236 46.98406092529842 5.568174489672563
51.26557145671078 45.33503469013192 4.310884140718268
23.83721313563001 32.68270767161448 0.5840583874759474
23.3572537455825 34.72087937943447 1.428522998196024
45.94614610655671 46.34860520374243 5.701176039744204
46.134152350375786 48.988452138637946 5.928161747359605
44.71081578682572 50.659461673344474 6.566633522910463
42.04365830229806 51.1019314874297 6.522642782803142
51.66677953704102 52.36651136841221 7.9340172600690675
50.01608432635895 51.08683757446122 6.5569151574823055
48.19882284084877 51.83494378948805 5.434147761179133
47.574487021978086 54.374556587411284 4.204176315806921
42.86514651271356 26.557227157767656 7.702827989850001
44.19124867967459 28.356633346014 8.649886287660129
48.70575353863275 79.91286552991637 2.1837351762561896
48.73347649843867 78.32103207137328 4.254931862670824
51.06838815728799 76.6964231508502 4.159435161162568
52.73505110679512 76.81641095260011 1.9382684313769099
34.605805110178466 52.21079547912208 0.9267051319136537
35.94871637918576 50.029736956139075 1.7484919647540993
36.72596893305966 37.41137796754447 6.965413845493342
38.305942854839714 37.50706586335355 8.64311626611126
38.01722427017017 35.19508106894395 9.981690604356396
38.11573497003861 32.84529455126523 9.223727777384473
50.81685400151547 74.40208369134736 5.917265858637976
51.211713660733075 73.99478702315885 3.6297519513254546
51.56740665883758 71.59419558284829 2.5929475499675383
51.09783355640655 69.63548167534462 3.2626914844744634
41.64160676110845 33.7810453989308 12.60971379990592
40.95473389333925 35.0845156650976 10.724722362304906
40.285885247445194 37.68192413113081 10.579697731110361
39.175383571554164 39.100438452406166 12.084250240404964
50.071812950062316 70.70065116039557 0.5759746239901068
48.14371703237119 74.42959411604248 0.9772828840763179
48.19220466928121 74.53459926930749 3.1149041500361636
43.72287577071035 32.601125619759344 11.53605964313147
43.089825225596186 30.46451121239517 11.144273286570115
41.51199929952765 29.519931478863374 9.010050271893187
40.334854773778034 30.912072575392383 7.421784795729847
25.578103834512827 34.09274040113338 4.938127083192514
25.722410177097398 32.76141326456045 2.9821883374096014
38.06544898317575 25.818432464531874 9.90762387252269
39.238407997059326 28.030590563331785 9.42456543732247
37.74112535511933 29.922316524071878 8.059259341781036
36.49297003386887 29.255775538123668 6.293510126842505
57.792062920178616 74.09490253161854 10.635131149705133
56.86282481936427 74.7050724314559 8.407929683142006
55.38809435326058 73.14018346863898 6.819217579082229
54.621469168693984 71.04220947522154 7.001135839737508
36.67910678545218 40.215067377528214 9.007845520042869
36.824552570133115 38.4607641480226 10.757261425575562
33.70581543957862 35.36489752367644 9.79097310935706
35.379533746344556 57.218059899913406 0.9594915525475273
33.39200403450886 55.389627926887854 0.8064696483331237
24.964897203038333 29.574709222908936 1.4154477659748337
27.03384269020078 28.071326768046283 2.496615478872186
28.096228564114064 25.80996891748257 1.4955580575492786
57.682747766577045 78.09595384753592 9.327064278795893
58.842779120066396 76.52951647893181 7.941523158309856
35.229135903017074 54.41425024655642 4.864260353232586
33.56328998146638 53.52881641579769 3.229220932700457
31.275732625948592 54.06579167045405 2.5346858976148936
29.56960641134648 54.799163430422816 3.8530619949408047
46.11787411857113 54.03828872007385 7.653561358805203
45.52334048120527 53.18953357690098 5.655386497576207
43.21128522328431 53.28972123635465 4.364194501134214
41.362302906902435 54.23435029969528 4.26242046786428
26.669374872553046 36.8231333060508 5.44637181569876
28.463041786697087 36.32892815832082 4.164414565565501
28.207747097263606 35.51855633594448 1.7175762524708782
25.802389673979167 35.47387033050564 0.3567263504709994
45.092545662819695 48.342701146784 1.204115509106347
44.35305683403735 49.05537829223008 3.0326728120945874
42.3786488266119 51.07914230224341 3.6167119989399894
40.7232640218633 51.756267135086674 2.674390888875056
42.567697603273196 29.589936609678766 13.64680862311174
55.66772459392555 69.72074926973012 4.000774266925283
56.78297671410624 71.8747705283422 4.613747517431587
58.95605338165614 72.43519067506583 5.809005581367118
19.982653731748815 26.15130710162221 2.114101384630826
18.018712844225295 27.893954194478034 2.1265781757809004
19.624024216309216 30.462751902810357 1.3997258979404368
22.01743546115327 30.45823321684695 1.6969781686374485
58.30340864962208 47.20394735227861 8.333083115298333
60.17702701428364 47.991472565705685 9.804118012125421
60.04667961184093 50.848463953465334 10.339778212598482
58.22804223195751 52.00667865002758 9.531574713439834
17.693384858152292 37.09940181736499 1.7884996324106737
19.159146792907094 35.46748731722983 2.0633347378596163
23.151006514517622 36.516004701988585 4.653367496060237
59.21403509318539 73.23406953445955 2.246428991385735
56.8133246909932 72.80064615288512 2.286056715390653
55.01129663741582 74.26442693323199 1.2298274071503157
35.69411677335254 48.765891830130336 4.806585830194835
35.273481082225416 51.10019593382336 4.220393934323215
37.62304490025656 52.65739852644819 3.866268822634951
39.85962741790911 52.29139588561635 5.060668055483477
34.51567839747011 77.08178659235942 0.39628066589752725
31.806472236184806 30.320748266304083 5.577437536478292
30.12992639842524 31.8756371837419 5.744872261452345
27.301155638505744 31.617268252514535 5.898137396034612
26.009785982449646 29.857771315094528 5.218505567294595
28.716564154938617 52.273637053501815 1.8426630882101125
30.745030752262075 51.84841956738008 0.5423088658292227
32.76632469918161 50.311756984467394 0.6220747102059816
33.32527825671049 48.545280929455885 1.8049658885376085
35.81941568521334 31.73371905295904 10.757357928712974
35.26600020593337 32.05768365564177 8.118772022937279
33.27073424880988 32.16625539845062 7.125731456841125
29.822849682080065 1.0784031326510937 31.616066152203153
31.901833389425708 1.4221447446577726 30.15057967641705
32.34964059060439 0.8140079594405946 28.03108414038552
25.366793495169073 0.1851502583501269 54.45130662849878
25.351204278389044 1.4164259395043486 52.60342985955296
3.679710696432496 3.8619983590645273 49.547454079356534
5.141123888807282 3.2665538765436506 51.481107479144
7.448226045479784 2.455805900590648 51.807821889004856
9.51634585588756 2.8599098947706816 50.84945978676161
52.696930792605016 45.39192608340441 49.5736422044176
54.31111900106638 43.76335001243455 49.0688060713783
53.721425386804256 42.40689178082828 46.58362325878173
52.27102975012621 43.45088812916934 44.80033868862287
33.979007149250684 4.3957065657663055 34.3325288308126
32.36194388868581 2.607090482861208 34.599184533067714
30.108212475702558 2.4725466964199683 35.082605942418304
28.369297098275958 3.8555367953874464 35.82900959641208
47.87917687785691 20.92733617010777 36.454277448699266
49.85137000821282 21.375914059483904 35.58010958546546
52.097369444362485 20.16545015077135 35.257099151099546
53.111677724237495 20.136675343515105 37.647068960921864
11.609886776002938 5.077660069781157 31.893681029229672
13.446459290327537 4.653314521444934 30.64075159342828
15.760997814306595 4.746042506299842 32.40646639852351
15.97853681326308 5.752101990662084 34.41670418809129
20.993217552701797 22.744053077021263 50.72935385783815
19.61599461942857 22.547515866236562 49.05522126269549
17.711434399946825 20.94688485398273 48.881428304417234
16.52261723060721 19.542669440755965 50.55021094712605
20.682574798251014 6.866636748326697 33.710928036317064
18.74681005700013 5.493240565244234 34.18113378768715
18.53799537771518 3.0445630457332085 33.00330154040175
19.15481985559377 1.9544146143825674 31.47162069957598
45.056062141308736 40.92093738109504 44.22953091526742
47.03282743063125 41.246403811695785 42.57317822234757
37.93489221465074 26.419514841568954 51.236883450856844
35.49378753227482 26.283541309397684 50.4490842957866
34.5980876059774 23.638014778763367 51.28739671696429
35.732619746684904 21.705767461822344 51.73727667271084
39.361748093812245 8.073159371173904 24.65980109537824
38.88314427334014 5.738684901563645 23.333500963495517
40.24625967905282 6.128057589527988 20.90679586917659
40.369125653636885 7.985127201554738 19.682177171613134
11.504547211451957 2.3818708491651925 25.473100666707456
9.848210564576458 4.673208470712011 25.3471226179249
6.920968746493014 4.058078965340537 24.612356320911626
6.020423618506691 2.0343233430826584 24.434596713345844
49.98966746929742 1.146589004001545 44.16169130472991
13.397813726560477 3.2764983950798765 50.55151219179661
14.421045692035873 2.76786024831282 52.44638993276488
12.920232992913665 1.9335088571919934 54.57608011741109
10.57210248411004 0.9897408458540602 54.690994029361626
30.726655671259373 23.170286020909387 33.35440411068742
32.226086045883925 23.03359295922018 31.193948785233097
31.734138847707513 22.295496962199408 28.963018862631877
29.514605880616333 20.696593306036803 28.227211174922257
19.47614512277474 3.535472057462617 39.19862637076071
20.353246536418016 3.414661642894728 36.94364275404184
22.889769681798768 2.9723406989320917 35.71366337834504
24.975146783411773 2.611391369487722 36.64381690740927
60.177239823854265 37.152499056577255 47.04551337247068
60.10761959029319 36.60843217148202 49.67121253581716
59.77749181036063 34.33684612039027 50.79118294993884
9.973598717517405 25.437982881435488 49.39142727551514
41.86520436801469 0.44900334031650463 35.55253132877275
42.22969163281679 0.2686208338834719 37.41238246853692
25.167139856246116 4.641450679372866 11.893614686910817
23.64092876340295 6.341102880986551 11.869699470447145
52.7467491444501 25.584648940984348 38.87130448799372
53.775448676824226 24.443819827894494 37.312451368251274
55.218681537852945 22.396023516265473 37.287010640464004
56.87771194412448 21.82321818626429 38.90461100554206
50.14168609110978 18.576440455189555 56.08627801820768
50.278525981595145 18.831876465244942 58.346107061286425
48.12467622214888 17.430955428213768 59.91737395512818
46.14422544631166 16.466331188380256 58.651960123883484
1.3150836929946064 5.817572370152017 48.626785027478775
38.475612714038704 36.88725834231213 46.49752236528681
39.2519719574784 39.365269814083085 47.56880379035664
40.32580690128983 40.07551887834617 49.61417710144888
42.138458865354494 38.96646252622117 50.75406997161011
0.6739572813335067 8.806142691975813 51.05155171018296
0.7207088229218417 6.331449479622991 51.782034185668785
2.6138395374683028 4.666687547633993 52.04414014777982
4.982067011891313 5.305750006850413 53.320251461298
26.912284673416703 2.532529458400831 29.798708643406165
26.07900254113951 0.9351343771527763 31.60829109197128
28.65374803365005 0.20128965660039178 33.95528494041579
22.343884666808414 0.13088457152185773 35.28022775167229
56.05029156230404 19.166233470468356 38.83454482742002
58.19018330598047 18.97505305355047 39.955006290757275
60.144153024928045 19.842416127338655 38.28801294084098
60.12634986638554 19.768887966125618 35.78289498550125
15.627659507186431 0.47207038591871014 54.11352277178529
18.015292263391547 0.7078388676157025 53.23284904183523
56.69936510174857 39.16708209811805 46.69739850335933
55.73007826324148 41.154618909216175 47.84771436767976
57.116415797272595 41.488562076139466 50.400685474119044
58.910317163627404 40.38570728193797 51.249896351095785
59.50473039680668 15.040464530914644 61.92285512114643
56.98775774380005 14.331080522093055 61.755723061037024
55.221496337088226 14.886883011225091 59.85664440776245
52.37193301940389 37.31242106729984 48.56245159427986
54.94238190281079 38.1174632636401 48.37705740925279
57.035457490732945 36.95856780670284 48.20973911982282
57.33638051387839 36.347112857438134 46.17160928755399
46.2136648403687 42.22037649325462 46.06012099195499
48.233908071049925 41.31491650840897 46.944681729080436
50.263444593780285 42.33347573758856 47.790776949073
52.80117970269369 19.83044124856346 30.085496055167003
54.963347512260086 21.003401648277507 31.486334975459638
55.75680088921693 20.810675035224456 33.72672839040866
55.06036824819925 19.39711984500476 35.72379769053314
51.69866431718099 14.442784408831931 61.440090058145174
22.8095527026086 20.284316376744762 23.657986365299283
22.60269227179897 21.326147566494246 26.135629561781364
8.623116897261148 23.073741606830122 48.65848584685582
32.09257519321578 27.199125241667637 31.228739893103434
30.614567360756784 25.283197155865565 30.85691709757724
28.544000556207255 24.819281520978933 29.40323287533294
8.203542916842133 3.256445816385336 34.72962879429111
9.76576715363308 4.2730810283091465 33.38125253306529
8.392527761157966 5.377564464787408 31.137202906405363
5.650843173625006 4.749901021738992 30.95146679394388
39.92568810256666 9.93915875626726 17.118754978347802
39.339867603109866 12.290555926669049 16.770504475409258
8.828007133908118 0.009547129668694317 30.585426948055105
8.978109172047198 2.812213053622137 30.0654448605061
10.795878170143872 4.024404010196905 29.653777583381995
52.69903666128524 20.060855378252768 55.485014292546204
51.59194753697256 20.974008767308824 57.35105129831502
52.341886254554815 21.752559996191028 59.708250532749396
54.24491984653781 21.421694407825 61.03684541906445
48.05093161814459 18.092308410794086 53.87495014648314
46.22658365269242 19.637555395928622 54.01506505433514
44.2284156336651 20.36510256937534 52.78436271693789
42.96223768488455 18.95104441629933 50.8866915495358
1.652827243488409 14.425891073490758 61.424588279583304
46.406708872218665 0.8716027968833402 45.0692999861954
36.90777442309636 19.995786246681938 57.13876214178212
38.02911315856355 18.464188090557634 55.32271776453962
39.73663345515743 18.68606228998143 54.00529308461191
41.89412460591632 19.315179938881414 54.12327121815191
23.02797752396016 25.602595301058784 47.74891563034582
22.19299222070707 24.1996592980376 49.00959714375178
24.131314950678096 22.49199317862311 49.59726071559555
25.581622646527407 23.30918819691209 51.22724644133606
41.819360601061824 0.6491062716507804 32.776921543594355
42.33634790959662 2.9041093752703917 32.749061560060134
42.68294790029598 4.609867607880008 30.931512714677424
42.19345069044592 3.762463268686789 28.193938246873092
35.10744647499189 14.515269115511451 52.30029538262087
36.06782147310118 16.298719034404666 52.906377320950625
36.64769687840026 18.713394370711583 51.38084261249159
35.333576147642894 19.971043880676053 49.796776141963136
54.79875836325234 38.91604408420866 44.58248612296589
53.1224267661076 39.517809020508885 46.17419575736192
50.60525508576901 40.28953122240659 45.986392217792286
49.30163620195561 40.608579821941824 44.50909364757036
55.913854873862384 2.201400686652765 48.80760948550487
54.67112339480214 0.6026154664797183 49.79975640176059
52.18255077543661 0.01208109514085157 48.22788691317363
50.932256447648 1.5540176705716606 47.19939292280194
38.27188091514208 23.21545715187507 29.23421165545976
38.59958577894471 24.276217033166347 31.283859067840233
40.482551022324685 25.927439750516356 31.999225975664956
42.25771027672835 27.003423386500884 30.69066429444875
4.380287561439228 8.220128872286567 26.879952594226626
5.220675732212812 5.8397511856892645 26.6403214783447
7.171506534804996 4.412874221334702 27.264038851623557
9.111455347440751 4.976714190240733 27.74680637016465
19.15443287983124 20.00642290207034 44.23881506909481
17.148946992593373 21.33571670822674 44.802414563005456
14.921068443531798 20.252000065136006 46.58878239559867
14.72956029480725 17.933509789907827 47.397364265604246
42.42450322948893 5.569510823258993 19.01293648045822
49.745391969535994 37.81298342408479 46.7867924542983
48.4854490724162 39.470974784450284 48.62180422931814
46.27960827498328 39.2075707161755 49.8336317563559
44.21379108162875 38.196005184894 48.98733402736386
12.786904634200825 7.737035835004541 5.197974924026976
13.920434531434942 7.927418285584416 7.489581590761307
16.052393012316905 7.686969330980083 8.38782778177052
24.004946331593818 18.06099606063678 18.465331269788244
23.27960765144982 20.140753110969218 19.397162716464358
24.379910569304037 21.71176084274959 21.557113245484228
26.02284693993592 21.497358129635963 22.94542117947492
39.710132107707295 5.121002462050389 36.90033037790373
39.89028623311095 2.6836794009039227 37.367181259069305
40.619133222381286 1.3007927910635835 39.46606602361358
41.84950319664295 1.7940547115612473 41.40370297187168
0.2615907789941199 4.220407817877286 54.231134255786614
14.712505567939372 8.194101983460966 11.852845899522304
14.165366774248168 9.637178331067652 10.344306790032558
1.3944333292205415 6.0891699467053435 26.65674628845523
24.531520705421663 23.58454499843837 46.191671877641404
26.692081995029778 22.957760191719164 46.957095022510586
29.11862926391359 22.42483668241203 45.43149142025435
28.895864526308316 21.396697642667526 43.23836213216849
20.39927315875428 1.953146904402151 50.329817695784094
19.040655599422085 2.86313532808727 52.07561492713476
17.493332686852728 4.439555060732376 52.28545736575302
15.629218321818094 5.372163852780372 50.571995618445925
7.741828288749677 0.24343278977470015 53.773646826255515
45.87342941130044 25.04830601901058 35.58550432926303
48.0324458387246 24.548887702654138 34.56965599056483
50.235171837187096 24.08293333079425 35.443006943924445
51.10842306372834 23.850854495156863 37.58863840907928
39.65519790502847 1.8924253383062823 29.092634581560528
38.06278653810525 2.364015804448127 30.789844398368917
35.431009463487754 3.3784845608433036 30.561381239168227
33.97567618911246 3.1802087196302575 29.023875204557616
22.371119288176907 8.669985723921345 11.953851285050456
20.505826430547582 7.621942916395705 10.628306864104156
18.46685253731363 8.356029766904507 9.720903631670991
17.122413740643747 10.27998476321703 10.0484276637834
26.46022045712743 0.41199919007680597 37.378778716444984
28.433854277021926 1.7241843992456996 37.33172276926032
6.390359115232666 1.6292431058043388 30.673890421733027
6.018232455993644 1.8352929072494504 28.078397820529894
6.141524883895721 15.303114071163517 60.013735115247194
6.398637455862051 16.35968445095836 61.87724175202204
0.3097591169418436 5.460537363373994 23.940072477360125
17.15627336251604 25.596823417326032 42.96242330299044
17.41800294914067 23.61583340489942 43.83654737044118
18.360101749216398 23.78743757496361 46.180024233311535
20.393944581984886 24.537535355444952 47.03943995686039
9.153260138300602 1.2159781085486439 32.8293666754151
11.736401227017039 1.7301054946231835 32.859867429457054
13.28555380984517 1.0643422785451153 33.9782385474748
32.90942219773895 23.28683915533536 35.10055251250948
34.00696244056933 21.878629312376827 33.552640587809016
36.84405653785737 22.679221288227808 33.266081321792235
38.14180574244147 23.291164089228975 34.585351072583194
13.284017943054556 1.6615814629628014 7.467186010843045
