15.784835165015986 61.831390656198906 49.813295039435886
15.936143985751746 60.182569589679495 45.39454102159379
15.22391475099976 58.96558918425938 51.13653592411868
17.22606860420496 59.10326161147687 50.611588015443814
18.02740403183084 58.21513259262197 48.03830496244652
16.39863296128486 57.51478630542819 46.36881181966382
16.136081273516478 64.09522308170943 25.733690638981695
35.57822575302884 60.63617737185256 41.537062471367
34.33337694950275 58.59543500779486 40.68116649433882
17.294154128135233 82.70767288867403 33.965640006271336
15.473875299923888 81.5840032380926 35.60004504170396
14.139216329003785 82.4914699791431 37.20273919502224
14.336374949303025 85.34068692634061 38.10507267484039
9.842619191963452 62.499107410072504 46.18177987095738
10.171226594501816 64.41840858328548 47.49644095169684
52.25741701578666 73.88252663604322 57.011009980408595
52.92200833297889 71.85843636160271 58.000804202154676
55.09837719379431 70.87267633292484 58.77026019732401
28.419154664317684 86.36328551132578 44.97457282583397
25.873088909700762 85.50734770070724 45.75940945718661
24.435938082966963 86.57459071637425 46.934837348206116
23.020716633967833 84.2674965357385 45.22192966062026
24.489087360799978 83.46737123283894 43.29409612566971
24.821514031693148 84.0065070061949 41.10200332587206
24.70246831966059 86.6911416466557 39.832547979790014
59.62818543073181 73.31947612232013 33.40925417218518
40.16496479705724 76.29756604798074 11.32023099440537
42.15107818509691 78.06938559370617 11.566585590161825
2.9954976059251126 94.26884191211313 53.71071851885818
16.114207619955366 78.29261357036765 35.57872178948803
14.92041334279901 79.78404377018404 37.46797058259699
12.521346519390221 79.22471938405316 38.71751783247142
10.955622825823625 78.17568114922803 37.95789838320902
55.92610192961956 73.64048157375855 33.25499663337378
57.28453692905168 71.91281183803719 32.43805193100566
7.927992099904471 75.48443336316112 56.23849659021914
8.749796861182038 75.97030692530038 58.13398736900039
11.441277796134635 76.5278645756182 58.647367963040686
13.34934488565237 76.89948290780004 57.03332152760728
4.674705310182855 75.67689021671339 61.97409879264027
2.197991108258254 75.52492105376432 61.301671874826646
38.384181083464114 60.07390824390321 43.5625604312846
26.83740650758432 88.27134856631233 41.03703689955555
27.975647873508372 86.31001837739234 42.10290455634062
30.417815408827373 85.04216155973118 41.57963843316969
31.0037623622176 84.61018934270507 39.283734991813716
8.55450210824157 80.95687633724519 43.960564766332396
6.16818514975628 80.55216510041743 43.61274741097757
38.24847236727036 50.59684628515977 61.276607249074914
40.4693185660909 49.92400944382428 60.45675613415274
42.490745811892026 51.06628340332896 59.869122056299474
29.906864597550125 76.63413325584949 56.31777870633174
32.41837519286917 75.85595892502793 56.89280990452513
33.82498262810873 74.39566801543425 55.13793289531593
48.29481555422007 62.759046665885094 51.40638615284638
2.009377945020359 69.71006706013624 60.290103889665595
42.772575802434204 77.61126450303071 57.06674466698955
42.13934525709651 75.57155706444992 57.43604425053688
41.65472820542974 74.5581802961291 59.64072501463864
7.026740051645731 93.43406938327527 59.60577835913868
5.91052854979268 93.47727301325797 57.00549822587274
3.913797956010069 95.29386417572766 56.910379303981316
42.84317818266269 80.81020053070822 14.579491019091224
36.02662380795769 82.54119323609073 45.761052773255344
33.666678350492454 83.005460690317 45.517497795094236
31.6156880954694 81.45425100143638 44.26083950522019
36.16435942281146 59.443447838006186 45.66554966176453
34.76115259390755 58.40879018715256 44.46180262692609
8.30973922080122 94.05592515071383 55.79060320059719
8.335413904857594 95.12383541064632 57.75694154480811
10.33764145915739 95.06693480916283 59.72089578808498
18.965547342305538 76.30540275489423 61.846931747535365
21.457142307795504 75.24730569541045 61.497391556580354
46.6565596639787 65.04185542515621 47.11582586378819
17.84338060165117 81.9652557816812 58.66545690560799
17.021911875021864 79.84931363422996 58.95971156062171
14.41187744590956 78.70060088144557 58.93555420323996
12.287667828286104 79.99894946305551 58.10959649566057
51.658482909657884 76.76481900767024 36.17011135869318
36.27993607180171 84.43614957186135 39.777511318363146
33.5309970059944 84.47575820304395 40.55913436839975
32.327288348820055 82.65763633609595 41.84997790668904
32.43932282463078 80.29917306885936 41.408798241763044
32.08420837147816 71.81922911576433 55.270753642912325
33.51674466397635 71.903770664324 56.75193754571723
36.235086161415474 71.31019484801736 57.006406986887775
37.57727135715242 70.6237861922729 55.69400096412152
35.17958526074601 84.08237585869665 48.46970488911387
29.956496457223505 85.11073269423699 47.29804978607154
46.571336146797435 76.11487515576647 59.117263480302896
47.04003261717201 75.49684045385965 57.021805647096535
47.33413966444658 72.86309986034581 56.77348668404496
48.67706983516449 71.2697587707112 57.98530502679413
54.152170980322495 72.23304582688311 61.43788297672642
52.34685582563474 73.32251532257219 60.31161768049218
13.52303097924714 79.82066343629216 61.81640673961357
15.002571716756421 78.23934505111791 61.81125693783016
21.606642654933925 77.79123148071785 35.86119951426435
18.981718808625725 78.02791628792107 35.90585675222174
18.140457776938668 80.69406621876772 35.80929781608815
19.44229804435216 82.58768507887562 35.56181641912218
47.33539944435997 75.71822473664196 54.39361864200209
45.00908178329642 75.20702753609268 55.1684194478999
42.91930675085751 76.2554283666183 54.91911282429183
59.487831210927915 57.5239184364926 53.4306040362886
57.77007781176173 59.805680840608815 52.742148702255655
57.74484371683389 59.76262020340999 50.397198109797
15.496347644899496 82.99867381322669 40.25909674681867
13.277591193315972 81.87139568401528 39.70518550354492
10.835453549617444 81.93301481989027 40.916444538424855
10.02235916675145 83.01096598388303 42.697187292716954
25.963528469792916 74.13061274669239 57.948970544107915
53.74592428454279 56.646278916522284 52.90165648373406
53.31532486202644 58.84300807722007 53.94328044211999
51.07036794298109 59.6659910040171 54.989980783414325
54.882376132312 68.33340614175074 61.96373360147771
54.480422734404534 68.24369185068214 59.845216749559
57.436188750700296 68.44928321460044 58.68925865629952
59.31688512916084 68.18576467613089 60.383894358187895
25.263630152668984 80.13294274543499 42.959055671025645
24.02287953518497 81.33705345513631 41.48132406999381
21.551812040577516 81.74804549477983 41.16531890080551
19.541872803285532 81.28885107884086 42.665695368434115
41.33306307799339 47.94878361163411 58.76147755195111
42.897363993310925 47.27531757500766 59.93749159763376
45.52846779994418 47.035485072698684 59.69966657541721
47.030274631788465 48.042543735210316 57.6847639899986
58.51664924266622 64.4060273194503 52.35440641829473
55.95954910786101 65.50081436349238 51.69136628034838
55.270230740053385 67.75796116072515 51.98038016514214
48.09803758233887 66.67086187440526 49.200204869055874
50.86077685377291 65.38651294927311 52.657571654206635
53.32604076143311 65.71521661162349 51.99186731556543
10.480129020341007 79.09061166740157 40.57125337163864
8.613882414976436 80.15658298968032 40.61319992949903
5.248886053164619 77.16130628693244 41.746165676820176
3.3707583588235885 82.41339557421534 46.267596774594004
3.457150954173417 78.26800254263948 44.292720351074486
3.5250914721047817 76.61629820262233 45.437491322011944
58.43665206123873 70.48760227271885 28.846621109564524
57.90104020530571 72.99366901407791 30.010064727123346
46.46489197355941 80.28210959471795 16.753418155695126
47.923142751538634 79.03508517075862 17.621192456154734
27.54257123021862 82.46791542456884 47.82312013243955
26.51288656406947 82.77055059204136 45.96944344472754
27.34227104903176 83.46340139339493 43.85838454750718
28.95868719299762 82.7649085688556 42.19648758507543
58.07366594249748 63.174446678561246 49.58129558947464
56.63950908672454 61.69682297997075 48.57548420055507
55.16231821232177 61.471765675015554 50.26144377530433
52.84250919769823 62.644619058491635 50.60429763043522
59.29527501247062 54.67284714218709 35.331742592293615
10.633710008004423 79.69805909911936 60.37444917098918
11.209982155496101 78.05878604445634 61.701362184208534
8.15287512603738 74.44805384212141 61.79106793048595
58.01653492218692 62.2925026277347 54.11414481944041
56.342548150870456 61.493429215350474 55.46872174421318
56.511678656109126 60.34148378351999 57.94656548008364
41.7939486640435 73.73856907000227 54.44884264230965
42.00245622415304 72.7520279255506 56.163386897800606
44.18812469018349 70.8394560827911 57.18178090691339
46.171854623543354 70.34233673865295 55.937695831080454
7.637976177409798 70.1374374941156 59.10090938572107
7.828574434391555 72.37330324503739 59.725608122887
10.134560283096281 74.0117788525227 59.231073767735275
12.07914605863884 73.79850376686791 58.6710912734767
15.249737514187402 63.75900477058994 43.39129470280862
39.35347120797445 61.93946236068366 16.9893320985845
39.779459399829065 59.525769290018516 16.833094398323418
38.534610596302976 57.485026925960824 15.97719842129524
21.01209027563745 71.54192892268979 60.72955229782503
22.507667522748438 73.08283949481017 60.38420789606775
25.259752375463332 73.1628906329878 60.63126468804831
23.599503829640614 75.6547050706423 57.12806771567793
21.678286452654657 75.11766156476028 57.968406485847424
21.321265781742444 73.00857059522734 59.64434400986901
25.63811353330089 76.77906113476074 58.54270947582662
41.74059287304333 83.83003038863177 13.438582833120583
30.491486694511504 75.23639161059083 61.22920961758144
28.334429830680758 74.0085261360647 60.44951582718202
28.03897637272056 71.92597921257673 58.756767428934175
29.790651887046682 70.29394011267607 58.10067216172856
54.82419473814989 66.07806450287599 54.549307764383954
55.93444794599152 64.20428233818285 54.225723304513686
54.84515960907104 62.11109706850962 52.92776131013411
52.60832707492652 61.27520151994626 52.82800655321641
19.897354379334367 79.14526982251321 53.92960839487339
18.906369825206365 79.19204269096447 56.49189096704423
20.715490367902934 78.2389408970706 58.576625320902885
23.08826282356843 78.01112673439903 58.18640271226486
40.3188215933093 81.31631352107006 13.138962070729837
38.90959057029234 82.4144089379239 14.96322337560347
42.189683774795014 83.05810263983966 16.414949901392067
44.58324418993189 82.56944386653777 15.6192517816383
3.2290188222830123 0.5518356347433419 7.037846725040301
25.007660883356973 77.68122302002087 61.230185192339704
24.493867564327196 75.88145963800827 59.74537259509652
54.02345767180075 58.9149161230384 47.12431480949683
54.215687368303186 59.19088383534216 49.29676599284784
55.56938138625023 57.98652582236689 51.19791253374051
56.4138367890603 55.85770421225076 51.25428540332157
48.421701921674895 70.54160860638841 61.26694187433654
51.08646600534567 70.77923067591473 61.22623085613282
59.624340532849935 69.32645253381251 32.245729343440864
31.32580843623305 64.43188906834997 18.55029050780335
49.84439295391186 69.51293940099069 55.089779827034775
51.22917657061292 70.53857181035086 56.4157512888774
52.08641585858808 69.42247617665252 59.086243397880715
51.868576815314896 66.91757749573078 59.82291642190635
58.094050035921235 55.327275324669 55.40198298387953
57.25607461753175 56.49593783548309 53.91013583455192
56.0174007946361 58.339623516803215 54.84747532940055
54.49584634520422 58.811436311263364 57.033976721238595
18.670077465853982 73.92083409399292 56.694392845081325
19.045008265221636 75.86202088391192 57.96796528260564
17.272722730451616 77.13088719785841 59.83893532495019
14.784634106665614 76.13977659637504 60.236103652875464
38.165389638861846 69.33217485661501 57.91929204230764
40.287838032009105 70.92718862764542 57.1909245576247
42.14696951108359 71.79289574819593 58.637959056036635
43.159825900839685 71.1287213999365 60.46081031637441
11.006533743061723 72.92393571827606 61.686240506842246
13.63103327842653 73.08463447387807 60.862320765944226
15.671931019383965 72.59585533122127 62.019152575787274
46.413467472409415 44.458285441567426 59.34458508574863
48.226423306427215 46.11779147091592 59.04956281400758
50.70841622716557 45.18049107455618 60.08578866561648
51.16390587497275 43.26962326545511 61.03827071781554
25.52655607980959 84.6730770294355 38.29853240433988
22.978961404795093 84.45714797666048 38.58280779416594
21.93811338297748 82.21209554050648 38.64323723747971
22.573321618034647 80.09098227374584 37.419005014205766
30.805091548090026 80.9164994188592 39.102346122222905
28.82481943263286 82.5766469845526 39.45657193476254
26.449902365336 82.52343868764008 39.48059765666217
24.79920631663358 79.9716677591787 39.547326481093705
32.708598021537995 60.32985166053309 45.96681047691208
34.528022153033824 61.72965392141157 44.51328308415471
36.05911284493468 63.441798893212365 45.15646145721763
37.090456015035016 63.68668142758821 47.64077204665663
30.24792855409843 76.98809670041882 59.22060051786781
27.79536190375656 76.27527424349682 59.28388810057355
43.672299147383306 68.3976547261503 59.10682837037994
45.55736258639897 69.13299662955977 60.48338878543643
47.760344569490975 69.03128826039143 58.78758270677322
47.58245585021186 68.18394666332738 56.3140289729906
47.542534844936384 41.440870960442396 61.968010010215465
16.019489039582638 79.84454249626462 39.91830890249674
18.010028915322167 80.6857221210083 39.25825349522122
20.457283514732335 79.81994856589768 39.46301561984525
21.481520905968132 77.90257287688375 39.890728959578794
22.182458524863517 87.30439141240598 37.89890914362338
21.124684330528904 85.62759634825177 36.85074412906052
19.96883112283623 83.90901838285507 38.08606948608171
18.17647382395893 83.62679260156992 39.49470645664528
45.848367308328925 73.69320350364431 61.07258862584915
44.38815896860438 52.945443776673955 61.57119642222494
47.398892239632154 48.137981031733766 61.85830241835338
11.160029949068145 60.69746371304314 47.6499037201401
32.846536851560195 84.78606451187966 43.668372284901814
31.41012443220522 86.55587885471354 43.7565340688003
11.740688036187807 61.18206835315771 41.1200891162232
12.024064097416304 61.47805806102142 43.74474533600412
14.135046461884665 61.56117532246925 45.230924790947185
47.27324394765771 72.04267574503226 50.961569724414844
47.7738587237684 73.21267569670754 53.19808732709704
49.573933613860184 73.41761848793762 54.713548221479144
51.94815375220883 72.40205231405433 54.66035346912079
40.086812881607194 77.28513084475935 57.47901149986366
38.482337664051336 75.57652122220824 58.3907929094644
38.90695355077258 73.29553861506615 57.08979581116058
39.29638867319834 72.85968098749848 54.647792255694334
0.8458284703571444 72.94048869746537 58.86107042278472
2.931290423908288 73.16971841401137 60.40919099443915
5.1965234083960175 74.20723692517929 59.92203804245657
6.465390371614111 74.34935941592026 58.42456943549388
42.58541473026434 58.963500162069174 18.85859235824101
33.01640863530228 75.90550724056253 29.6670475134701
34.108098244350366 75.52372517401544 31.61381063328815
36.619608839669404 74.7455508431939 32.18884183148155
38.02621627490896 73.28525993360023 30.43396482227234
49.1169580217273 77.35057127934023 32.55227542783621
46.973809449234444 76.50085642119666 32.36277659394596
46.34057890389673 74.46114898261587 32.73207617749329
45.855961852229974 73.44777221429504 34.936756941595064
40.36559306961169 58.33303975617214 20.961581588720957
38.96238624070778 57.29838210531852 19.757834553882503
36.28544201827839 70.70882103393029 30.566785569868742
37.71797831077659 70.79336258248996 32.04796947267366
40.436319808215714 70.19978676618331 32.30243891384419
41.77850500395267 69.51337811043885 30.990032891077938
50.772569793597675 75.00446707393243 34.41329540725932
51.24126626397224 74.38643237202561 32.31783757405296
51.53537331124682 71.75269177851177 32.06951861100137
52.52678956607327 76.77683552714741 28.412280217049148
51.53663309116021 74.60781665480792 29.689650568958516
49.21031543009666 74.09661945425866 30.464451374856313
47.12054039765774 75.14502028478427 30.215144751248246
30.391292238291356 74.7783616791221 29.348465490550062
31.70081238496416 73.97904674535272 31.09118752347526
45.99518231084373 72.62816098816823 29.744874569266063
46.203689870953276 71.64161984371657 31.459418824757027
48.389358336983726 69.72904800095706 32.47781283386981
50.37308827034359 69.23192865681891 31.233727758036867
43.99600998071253 57.12875528656227 20.52065948596171
32.24021001952079 70.81557113074268 34.05279935589059
33.99188553384691 69.18353203084202 33.39670408868498
42.36662328566209 68.22176677478096 33.21532396926406
44.489071678809346 69.8167805458114 32.48695648458111
46.34820315788381 70.6824876663619 33.933990982993045
47.36105954763993 70.01831331810246 35.75684224333084
36.90983166833823 59.21944357869905 21.26284240386849
38.729255799834064 60.61924583957754 19.80931501111112
40.260346491734914 62.33139081137834 20.452493384174055
41.29168966183526 62.576273345754174 22.936803973613046
51.474477594457944 70.9322676631982 26.257601651371264
51.97509237056864 72.10226761487348 28.494119254053455
53.77516726066043 72.3072104061036 30.009580148435557
44.288046528407435 76.17472276292531 32.775043426820076
42.68357131085157 74.4661131403742 33.686824836420804
43.10818719757281 72.18513053323211 32.385827738117
43.49762231999857 71.74927290566444 29.943824182650754
39.7374379584715 75.32396226065272 8.984461138035
43.89771943295535 65.17540569448971 0.025126238034431505
40.99200978508854 78.78759456366541 7.566368712099434
41.153082921355114 80.67620408275641 8.472875568279045
43.340155179788674 81.39533888706194 7.905476706821883
43.71368077923997 82.06700303516209 9.838244421047069
15.153014705603125 41.17157338518876 3.77459667376491
14.25487278366206 40.254105679834446 5.559459504730506
11.540958429784801 39.52300749676383 6.19930662638857
9.543732284898871 40.32039270999433 5.454726756846721
14.503338165611334 62.66410029935157 15.3324090794071
13.251996364873614 62.40604398166416 13.53691046804084
14.475668193961335 61.546430095425286 11.48730312240718
16.47295731492817 59.72863614824299 11.568026719743912
4.364622870040265 19.35203172292026 5.015375988349301
5.186427631317846 19.83790528505952 6.91086676713056
15.330484694287987 82.97105705239312 7.751569919878626
13.267344682021307 83.05819386493019 9.473957445104803
11.965647787601604 85.15032308469264 10.43870002237948
3.4633708217815364 37.30166774303443 8.382657757268854
2.347159319928486 37.34487137301713 5.782377624002914
0.3504287261458731 39.161462535486805 5.687258702111485
0.37495176492727494 79.04980502921894 2.8786133792936592
4.7463699909370165 37.923523510472975 4.567482598727358
4.772044674993391 38.99143377040546 6.533820942938277
6.774272229293192 38.93453316892198 8.497775186215149
8.854564129921016 39.022742788123914 7.84170005198035
10.108481170287858 85.5385620559628 7.466106171863932
21.356295095292737 64.83527343733334 11.796715442023707
19.58380610983839 63.98852133288401 11.136275048372356
17.47162935355406 63.47996078474434 12.599298530172566
16.47751067655361 64.52080387122282 14.44328842509535
1.2634577790608752 67.12656417353126 6.836533833596075
14.280127635038522 42.87071898432821 6.456940900627867
13.884241872026704 41.76212745732637 8.252148261475455
13.776499503280062 42.64789654657273 10.781562191518544
14.739323367687538 45.23702337795128 11.266355388078331
13.717398593996842 63.886767965138844 6.418209805138289
14.760480771450233 62.85240589174341 7.745345502705114
15.96859168816994 63.98451539838218 10.226036924552513
16.050984620172553 65.875522622538 11.012517517268533
23.71577338062919 66.07728898333572 13.985377030190385
23.889327883454747 63.768801649446516 13.800742319067195
19.271689186652402 37.555423625008395 5.0784676033276135
18.045836381769423 38.94962552322728 4.320765167423697
16.88539152282432 41.08210105927709 6.006578356904158
16.3640715087931 41.036774114615845 8.27949707130902
11.759992003806332 66.27175752347745 6.80401269727305
11.307161240571666 64.30731277444093 6.88122265407461
8.741664515182666 63.11311285481065 7.3927589307372665
7.042681154720288 63.817049037820375 8.878375138941385
9.466418759239533 40.81849405515917 11.940182692722347
10.055020417427627 40.637692866586846 9.918315501643226
12.310070636856336 39.634069571144984 8.688387205611903
13.91429466792309 38.54197032939164 9.166942496762147
22.724920611998346 64.12969154881725 8.141172821491047
23.020518365632036 63.071395002091336 10.506539379748915
25.23258671213459 61.957642556384485 11.63270456583089
27.384147921137693 61.19985967942644 10.694462169303359
2.9901575513012877 43.548256276921684 5.766617003181362
4.221840829265147 42.10532502770705 7.370821112058779
6.6374842389851585 41.77410486344826 7.79963189349355
8.817737636373018 42.53618042993123 6.554074670956564
2.5640281194769052 39.57134939196019 10.086575541714685
4.022278897456129 38.32432496800089 10.954349842174286
6.243015433791609 39.751914244554456 11.414367370609924
6.507599156641178 41.436087930067444 12.779214492807352
15.3857165251707 61.768983118669766 5.210952193183999
14.012129532510762 60.18434172728764 4.767027727668801
11.297135644923955 61.051775529967806 4.968804058662613
10.348982603876012 63.0059866700207 4.4476662460406695
8.163695596330054 59.70413330686519 7.545775161836384
8.059672272204446 60.50539416864311 9.60893142526345
6.631535412384524 59.7756131384629 11.831057421339818
4.220106542887173 58.70300396039347 11.760238736686226
7.662863671349622 60.36720231981021 4.797755887023503
6.473279592332216 61.6838799835256 6.271599260677785
5.109300159904822 63.899049246890414 5.756592571137226
4.7573626466384935 64.98197641309098 3.9642347612555198
6.803522935603506 67.31039609866775 10.392152106909839
4.796858761969795 66.2144919092703 9.06326879418359
7.99373841219875 61.628667659973864 13.313296790765051
7.175916479551496 63.08166304980387 11.488622901638653
5.225656648713414 64.7227609306533 11.138037457712995
3.0239160090346044 63.81504213633648 9.646414691784182
4.741869680812357 62.32364975994442 9.564362965737573
0.32215041399546057 43.92918473223451 6.8948736730632145
3.4946731707719554 70.85598561408348 21.39174169255347
8.568877594561846 67.71246044144179 19.923994797300804
1.6387228928762556 74.49811664382526 22.929707470451405
0.6823803358493818 41.858683663780006 8.95240916765785
3.100003952450286 42.828134634511514 10.037052105192002
3.7476882118893022 44.200864449790494 11.386427472649325
11.419940560115652 44.7397617862649 12.920111123329495
10.934977325092001 42.954345228974475 11.266278986197984
8.696128399482555 42.737546112877915 9.50471083651546
6.829480058771448 43.88382425913732 9.546868016216283
12.88386860768424 65.05825765334626 15.018267200093305
13.172654225182638 65.17835005877168 12.48269908040244
11.056937377261916 65.38257298412496 10.908591626476035
8.378423001119812 65.60801112064897 11.7453337032417
10.711856469321035 60.48490786686269 7.7753925153406165
12.114572315232692 61.888086737157955 8.485013351683792
11.968403565558038 62.60144346762428 11.109469191830495
10.791027487999791 61.98832231599355 12.739028827136515
18.693590025678557 42.85152290143871 8.577683485521872
2.1697153563390716 41.051419951896285 4.765585905246017
4.314215215109289 40.74392689994315 3.9886122569253137
21.631229329902013 60.7601076958783 15.768873297083548
23.008411440027796 60.963238580633956 14.044046236967196
21.399912912223872 61.156405550162106 11.510677702839661
18.789895647562876 61.16896102802667 11.795714262052226
15.56806498179752 59.75484132820405 7.282427073585865
16.1761914743441 60.98212678227623 8.9310664085829
18.07647063161955 62.390838375887014 9.375638555150909
20.616622228030597 62.224343348443234 8.529837646591835
0.5159186281736725 53.366152731453724 20.100895386086986
10.575984429398599 82.46472924396353 9.115785614223201
10.242378255991348 64.20615407703797 24.586308632488144
9.463734340113898 66.04688785872146 23.289485226508663
2.8417878752136856 70.50343940049895 17.596851206774218
2.1998378818920945 72.10170381531027 19.257055209636214
0.004522230744971805 73.37706285997909 19.654162854316546
1.6331541785318213 18.074835284938437 8.698917440586742
2.9020211417499224 18.216957775679415 7.201448833624052
0.9899658918583631 52.87573717067087 17.561367145183407
3.9556564934170955 43.42777165640673 20.90099951119731
6.028156747529791 48.46083833909553 22.305228780530804
8.753893000861563 50.173472696553 20.55464371270167
1.8778478781078092 46.31221580171068 20.511710329975298
2.518883682175555 47.07067750570487 22.755262227939888
1.0453119841806424 47.44354634477777 15.959022360623793
1.217471083699267 44.645143080808936 16.859597994577985
3.2015152349314784 44.79872645258099 18.760358618004066
5.1494116165755965 45.71804463968324 18.771410031705432
4.98949259970361 51.608601439068124 21.245289563029594
3.2780467822394193 49.8650022983236 21.728772026202027
0.758292469424031 50.94395772414812 20.654425068544
12.187504524615873 62.10512448125355 24.065400248913345
2.537645795065102 50.631874474831534 17.340128031098004
3.793521773327276 49.06106678583924 19.276762716864397
6.050284303054998 48.233958277616686 19.30702332050882
18.522627854605194 68.59609383757287 23.657136293987026
13.992951556703817 63.41750118951899 23.517873370101395
15.859179153270764 66.20211557874647 24.33286005413853
18.793645635537032 95.38856794811927 17.41767673926622
31.842865305549303 83.27166721873172 8.552078031194412
33.27208660359355 83.85514349071602 10.667972190641533
34.36966469759889 82.79150313039823 12.47467324990695
34.981639068782904 80.65971234510717 13.122241132162893
37.2789233713094 85.47947464105228 16.056618763369
35.47215684410678 85.39534485519506 15.392645340745112
33.781826079168944 83.29977210993749 14.958691907889488
33.58526344494968 81.11574390669111 15.818754045095506
2.0794495252068317 84.58979985909765 2.209976973226809
5.034673224730359 82.4759717127177 42.482824209706
5.259503522086637 84.8780215511262 42.951637535462076
1.137056094592957 77.378804663803 20.91336263871939
1.943740809013081 75.11273790035422 19.924023791017124
4.164587007833618 74.43990105901872 19.104172676094958
6.186014253634743 75.5821750185234 18.516538598241688
26.286408771987166 91.81102234750045 22.508305407810433
25.05761649477009 90.40849161318245 21.14643389538013
11.990083995962799 87.27493828107954 10.053802694788592
10.351828105721424 89.55774704035065 5.763242405730402
11.837502429661205 87.55386764144455 40.57547839181198
10.265606085552646 85.5955440423904 41.0988102706101
7.743930169320309 85.40600983680288 41.61147119089934
6.328437407965503 87.2718481904916 42.01465687180991
1.2725397988951481 95.13967780746734 14.341417506063728
12.372338276907215 95.78565038590564 16.632721568736347
25.38707679656951 82.38501980477118 10.773034490234538
23.183099652670645 82.03981005168703 12.078020578230811
21.465346253504457 84.32157245580325 11.389565244197865
21.440112158576603 84.27851181860444 9.044614651739215
17.441192726285504 81.16217053171673 11.549073025676272
17.010593303769166 83.35889969241451 12.590696984062202
14.765636384723814 84.18188261921154 13.637397325356531
18.577644574054723 92.84929775694518 20.611150143419923
18.175691176147247 92.75958346587659 18.49263329150121
21.13145719244302 92.96517482979489 17.33667519824174
23.012153570903553 92.70165629132534 19.031310900130105
5.028331519736112 72.46467522682856 17.408894093893327
6.592632435053645 71.7912091902021 18.58490813957597
9.223736241686899 71.55137668789312 18.347083117359418
10.72554307353119 72.55843535040475 16.33218053194081
24.261144121557454 89.7792092005836 11.546669036934547
22.211917684408938 88.92191893464475 11.001822960236945
19.654817549603735 90.01670597868682 10.338782822290595
18.965499181796105 92.2738527759196 10.627796707084354
9.896697408621188 79.5230229381144 36.19737906232193
8.661336353687071 80.81652489205443 37.96959943610743
9.142351139380166 83.16123917350095 39.12564370204102
10.874196181847505 84.85590693752692 38.63496197166218
23.26127762318967 88.84101743900212 27.483840067467657
22.230773977447345 91.46627431842258 27.500613311482518
23.440700693130914 92.50361604256919 25.316176065234746
23.231714350560562 92.07510744317617 23.218705864700397
11.793306024081595 91.18675348959971 7.847621410998083
14.556045295515624 89.90240456446755 11.304988196148846
17.021309203175832 90.23110822681794 10.639283857507642
6.286599132556262 79.70363069599306 41.129052215019065
3.560224808737038 80.5970471319728 44.58140422592381
0.6545151608702259 94.20923600114851 52.12264669998882
38.99878097431372 81.52033004215728 9.995281714248408
36.42743933461668 81.18124343469457 9.344633395171844
21.76893438424019 87.69033829375569 8.228712131416852
20.334777528467257 86.2127145951652 7.222900742497282
18.8575866540645 85.98765729020998 8.908860317246544
16.537777639440954 87.16051067368608 9.251714172377422
30.14752561632454 81.07442322833627 13.40745420855032
28.50762890108959 82.76732798961739 12.91967610654424
26.121111844967114 83.15309372158222 13.565390188935076
24.313140483737982 81.37916483577517 14.490157463584694
0.4642395928918035 79.91045371554654 43.22745439029692
1.9463332937549964 81.25348770358201 42.10095839819323
0.4184212805548989 83.10900837010323 41.82551424760535
28.470927717717604 90.77710804164239 24.87355107213039
24.565791457851454 87.69397648642345 13.337295878508398
21.711803363929636 86.80839424292914 12.761561361382626
20.037816592613186 86.00932083054491 14.116138286155383
20.206947097851856 84.85737539871442 16.593982022025852
7.883393131926213 95.35534769798554 15.8291974488556
9.867123065286071 94.8582283538474 14.585112373022664
3.5614917263721457 79.08415217560285 39.08270192263566
3.8456215296767446 80.99217615461501 40.09044650115426
5.121771079124339 83.45281313398905 39.793611594682396
6.487104284564621 84.09482664470957 38.29507777883316
18.331258829203964 72.68987422628102 22.16559857813364
16.22876921499562 68.91919814203365 24.816288597772964
41.198335094154665 83.57353915814187 9.30456991015171
40.26739058097303 83.68080767490665 10.984621663954504
25.44863141282098 88.45682950655876 9.281111880058914
25.55019752636164 86.16153345443226 10.61045942698586
27.21261176917565 84.46625803918737 10.910224452064348
29.571668126905298 84.4275002301116 10.205852797099919
4.991599583748613 86.69661830403166 39.46597216782679
3.5248655668199254 86.51017439280439 41.07318533145471
1.0250094156545433 85.9305639974411 40.81513576193624
5.810071142980733 71.39163991961495 21.117818128347935
8.315004322033243 70.01869658131005 20.795838372867397
7.189034064012544 74.97716030402785 25.112145790251603
6.417066762743604 74.16299947322594 22.89616397496076
4.0482011761504335 73.94315695053723 21.801532780948538
18.519463179892618 90.59395611807044 13.19672430632617
19.629716387734245 88.7201739533773 12.873139846455896
18.540428050813762 86.62698868370406 11.575177852076315
16.30359551666924 85.79109313514068 11.475423095158625
37.98667596242515 77.83037731223538 11.63248127835453
39.70405909899575 79.16575078415883 11.678054679241729
20.30973124568805 93.19589901659201 22.838787390419856
18.27205020799438 93.15076181160651 23.34884457256998
17.718726113543468 83.43080773823283 5.771731351439043
17.91095581004591 83.7067754505366 7.94418253479005
19.264649827992958 82.50241743756133 9.84532907568272
20.109105230803017 80.3735958274452 9.901701945263774
10.611478448677861 93.61644430720067 21.32364712077079
12.116970363417614 95.05750022158286 19.91435841627876
14.7817344470884 95.29512229110918 19.873647398075036
16.425565360934097 94.42779032008306 21.113430417647162
11.483867896170043 64.36629717992527 27.857832640273337
12.376474219197265 64.19039853957653 25.97280647484375
13.341498622195227 66.08397274174764 24.627275506158572
13.597264153284154 68.3691472072226 25.434389988701877
13.539661395654575 94.02883101618512 13.737196368976985
14.92444501235565 95.05446342554531 15.06316783081961
15.781684300330802 93.93836779184696 17.733659939822925
15.56384525705762 91.43346911092522 18.470332963848556
21.789318477663954 79.84316693986344 14.04939952582174
20.95134305927447 81.01182945067754 12.557552376494135
19.71266923637882 82.85551513199765 13.494891871342764
18.191114786946937 83.32732792645781 15.681393263180796
1.860658080604572 93.84806647180946 16.56670858424985
3.983106473751826 95.44308024283987 15.838341099566906
6.85509434258241 95.64461301513094 19.10822685831663
10.108735914152133 68.97417705676187 17.99200162769084
11.92169174816993 70.63368308611037 17.696979355949797
14.403684668908296 69.6963826897506 18.733205207558687
14.859174316715478 67.78551488064954 19.685687259757753
0.7857244567777385 88.20257304278266 6.288188588598835
2.6411814415045236 88.33461974261297 42.51932317654808
0.5137648149110807 87.76836412169652 43.703097436122334
1.076503341943791 83.531325741352 44.38301175147002
15.693509369847531 71.28697555158655 22.294801008152454
14.860352155358846 69.13438770495023 22.23017129894457
12.194142459580995 68.06491602849721 22.86010496355344
10.326840334673063 69.06919984711445 22.824858002852945
7.367567589126026 92.91354634134474 17.754244912322143
9.252631028141685 93.6488882447542 19.130805327378642
11.4556130112337 93.54717987558588 17.43499924871543
11.277724291954582 92.69983827852182 14.961445514932809
37.62055505138673 85.83025140547143 7.96923469342118
36.425208757746326 83.94687821860705 9.133599547518031
36.853430909633396 83.32575453698277 11.570477389007467
37.56317127943702 84.5066979540376 13.456452521745822
13.39394133765568 65.65328542428675 21.770393088452632
11.237803286679107 65.95676257563683 20.615426552157675
30.014129073743252 88.83688010008183 13.203642961977772
30.106550923651874 86.2647333684131 12.072979583114737
30.759407750321483 84.36782381146695 12.697753439789036
31.20013465287834 83.12729975546941 15.147914177259517
8.451181552293406 94.7026254183168 22.771868259548405
10.091404475675935 95.38072903434079 23.182528348550747
8.083427410347097 77.46133539186839 20.21861296416715
7.3730866909874875 75.78337623939348 21.091475119155138
8.402729676379197 73.32695494540309 20.76322941864107
11.094160681374877 72.6538726469282 20.505718960295596
8.881333852103138 68.15968230010299 24.695686000469795
8.015509384055987 68.62054906386146 26.82381480484561
1.5000364941338702 78.229306088869 25.338518803669892
0.5515147379448402 76.89174470550442 23.740352801945217
50.698783205788054 90.72649478763655 5.974082630677018
51.027390608326414 92.64579596084955 7.288743711416477
56.105901528012005 91.98639214815401 3.1835974625282586
21.12481356387524 95.935752865116 16.580936309941023
28.50708807928282 94.88273090097601 25.389689247990482
26.579795832518293 94.71922061797599 23.275231840543675
24.630198234623954 95.75787918360835 22.80392357720828
22.406952015896177 95.20839444284928 20.612749430641784
24.667371168098732 94.4283187029093 20.566691615138552
30.017903772445653 94.1292778917591 28.364185695115818
32.07634342671491 93.80789669131502 26.856205689931624
30.200817474365017 90.04197600960848 26.112835709963903
26.384034469071004 92.69329082800922 25.71278002106538
25.17389794156484 92.90903675385884 27.367078470364586
22.40810234523271 94.8186967125315 23.90651718941423
50.03551645652831 2.0593796332387337 24.095102862459296
48.21523762831697 0.9357099826573075 25.729507897891917
46.88057865739687 1.843176723707818 27.332202051210196
47.0777372776961 4.692393670905308 28.234535531028353
26.249110895449416 42.28026660130844 6.156243949030367
25.565782029185666 40.763644319769895 7.8720450270006035
26.74866991560026 39.678652667521675 9.99734306583691
29.10177175815944 38.69102043412172 9.939744595336027
48.69404778592246 17.75012499580237 5.787889378538763
49.3586391031147 15.726034721361861 6.777683600284846
51.53500796393012 14.740274692683991 7.547139595454181
53.86617589226832 15.287459609680687 6.71039916612898
58.61445123809384 4.85905444527195 35.88887231337456
57.17730041136003 5.9262974609389465 37.06430020439406
51.1650261485106 44.098558914347194 0.670922135759245
48.580882625095505 44.90130215681337 1.210300286315855
46.480560095263506 44.014162019665896 0.39804292298694827
59.11330599412764 34.94701656275898 7.5193569145180135
58.61598157834889 35.72013781774036 9.606277308593876
60.12482396087682 36.81300610572791 11.520987636808844
55.7620789623609 3.6192032803031884 35.35139251680822
57.23044968919306 2.8190779774036554 33.42355898185767
57.56287636008623 3.3582137507596133 31.231466182060018
57.44383064805367 6.042848391220395 29.96201083597797
49.61795370885539 28.134285637917234 34.2264691821152
50.72485838615033 28.328063961081334 31.808397354785484
52.499214525239594 29.234958320127326 31.023031235904647
59.57876883597739 7.623055310877052 31.166499755743512
41.29586443663466 0.30858308180989946 34.09002762252036
37.77603555312344 1.8276784572824003 32.61228706589396
59.02777110038026 11.162729092065167 12.637768263998387
57.798978823163175 9.76019835774715 11.275896751568084
21.634828202666903 38.770307360777025 5.755063716914911
40.42470947644908 53.051712780100665 16.443318543296996
38.132630360787054 53.48601884747073 15.493024943381208
37.19857696368058 54.79241710207188 13.846991265858138
31.473157521334567 34.10739614832509 13.377309268200287
19.81814423805409 20.17491619813817 9.807009229756819
44.578864758054294 6.90557438600927 30.704941247999933
43.00696841394572 4.9472507869551094 31.228273126798058
40.485292497713395 4.757716581367573 31.740934047087293
39.06979973635858 6.623554935056291 32.14411972799787
58.65882443902485 37.949585197090634 21.526157566521622
57.145966092885146 38.20837917404631 19.20926982055557
58.538343163982375 36.379539707272116 17.60284304314609
60.09256744492288 34.39813310602998 18.38339315182227
49.48353375181175 24.99870974042877 34.406615955112855
52.1535489906993 24.896519827113945 34.90636539860306
53.204454302514414 23.876965185293734 36.36267050694624
19.537802213056327 11.03260906007745 9.567985678454225
20.80684756560765 12.711656935631769 8.94012057000585
22.92245045067384 14.164864178334005 10.15288787108564
40.25648239937662 33.10779545789515 13.573744256754948
42.43053025398843 32.52242301966463 12.491836522353182
57.07022006222444 23.145439613821804 32.69592876412185
54.94882368820501 24.114953005830237 33.597414221184
52.70806449191868 24.353213850009563 32.45816325707242
51.578280141465825 22.585889571329716 31.054460760834836
51.16986079418394 33.67843624397367 12.416997408985836
52.578983644951535 33.005816014723386 10.380823946413965
58.8990405963062 39.100845209955516 12.570875712409244
56.532764866295686 38.0969856903076 12.035917673655367
45.1137006053003 15.137357130470352 6.762184424924307
57.02418281925912 46.462732153145794 32.84075891631814
57.449764355485435 48.397095088227914 33.65075653349645
59.5688702603074 50.183590768616355 33.11247614755609
51.73794296969407 19.258362381095267 13.066801355866144
52.000832986128245 17.01974753417553 12.454589254032182
50.58880175045829 16.100644186642256 10.21476237485659
48.783486595770555 17.19011368233134 9.088497078622355
57.09492925804201 31.222148738080882 30.04707137611117
57.58165071796446 29.09311074730114 29.135191284495043
59.057479101169676 28.615732357046756 27.003643679858083
59.73262412440759 30.770851090656272 25.210820390524162
50.88182010533175 0.045772963332425254 25.938760672276107
52.18366037274524 1.9393918234403265 25.69127927531013
38.08038392490406 35.769194672135654 13.874438644268317
39.287865749734685 35.01247981970181 12.071150624517527
30.6121177296903 40.69060344469867 12.61493096046453
32.09315890823303 40.154850336649325 14.374768262810814
54.83660389637828 14.275646063742748 2.8933752964716386
56.210301310947116 14.80388753639635 4.907964647132123
56.87332707715349 13.458868973972342 6.87575928058739
58.04256102513508 10.628877133052297 6.481804381696706
59.321158160911374 14.070927362540695 13.404694696731637
57.37156056301703 15.10958592817305 12.933386433396233
56.52946048885056 17.594559367281462 13.79508342280007
55.93048398433628 35.214249012612164 17.195735802670786
57.049307704687294 35.03613836356304 15.388796197711459
56.253239932863686 34.73854678888629 12.887955157506669
54.2815354497169 34.49633747184602 12.097712273755173
48.23770997329258 2.3503805577913908 30.388559603006623
46.01895352170906 1.2231024285800047 29.834648359732885
43.57681587801053 1.2847215644549896 31.045907394612826
42.76372149514454 2.362672728447735 32.82665014890491
51.3190069024478 12.201004501509884 10.740612999607889
50.917053504540334 12.111290210441284 8.622096147689167
53.872819520836096 12.316881574359586 7.466138054429691
55.75351589929664 12.053363035890044 9.16077375631806
56.76424186357804 0.6887601997010182 31.610786926181774
54.2931743689706 1.0997522393445416 31.294781756993466
52.283235131678616 0.640557823405564 32.79515822462207
40.54971532247471 22.00127942341563 26.862163583158722
43.7925586069161 21.960490012687778 31.72690856437615
27.89591282148293 19.38829313398118 10.963460909321212
41.40269868208016 0.1682316366191428 28.099062292295393
41.883713467773255 2.5129459180656655 29.255106558228974
43.61555851024058 4.207613682091642 28.764424827850142
45.18722396787618 30.18111259968911 29.56056868844461
46.659795070048 28.2685070097088 29.672552076965925
49.057391988039626 27.875642451088407 29.205062141705785
50.92935570636127 29.38194822395637 28.815398583685965
51.76026748935968 26.494197536980863 28.715873158807455
53.26126308037219 25.97690662359551 30.150258664332327
56.04404056933587 25.252413836467372 29.92143861415269
57.50280359961177 25.702600099951514 28.084496301900796
56.00263995158276 8.19272418356682 17.613302923655617
54.97213630584042 10.817981062987293 17.630076167670477
56.182063021523994 11.855322787133884 15.445638921422702
55.97307667895364 11.426814187740872 13.34816872088836
56.01483794627687 36.87317872790377 9.238966358367438
54.064725682404145 36.53124086523427 10.153477144724521
53.7548691126683 16.45390898328969 9.871591213599068
55.14831434428926 14.560101187413979 10.742212286829739
57.40873349649181 13.780025447473987 10.696154471326505
59.30805438814464 14.96134078412432 8.722395285325906
36.28468238689348 38.072109886445574 13.904457162916852
33.87748369237827 37.56399994947591 13.63881041020876
32.05382951830317 37.88781086772974 12.402172693189838
31.832723571410803 38.19288859510416 9.898850585423466
25.11064307202825 16.798674590524257 10.473465758099298
22.850484041990182 16.84090216463953 9.511442634178778
20.750221644856875 17.82971009621138 10.508342995522286
44.5972603707033 25.237298299112442 27.228352997725164
45.57553385090532 24.942760476085766 29.443424508010835
48.0811065556441 24.39855479358508 30.16495185706824
50.01029925774557 24.156803661407714 29.374185228010074
59.25424889246255 2.1222573366060686 36.09890630091549
60.08363337742483 2.815108137959639 33.987847403695135
59.1253967974641 12.044997572573942 15.842242877253346
57.91526026995792 12.260743498423537 17.496541326552546
40.107796908083166 47.62465776697299 1.2760824306956113
47.41555174234817 28.389202734181282 32.40760059224794
47.46206856304081 25.82836658883914 32.24206757593309
45.552949695167456 24.360615360041393 31.981315326251956
36.58698385806983 0.3438828991797019 30.21990935734222
37.863133407517424 2.804519878553771 29.923074450870356
39.228466612957696 3.4465333892742627 28.424540635021113
54.071197311728014 29.895584411765793 9.580363875717886
54.731771915269974 32.18722527850104 9.110048021653487
56.53674232173677 33.6502439938847 9.823472435233192
58.596002787238625 33.38589259652633 11.467799465307904
42.73451179352637 35.268050794020006 13.160662265851045
58.28879092400537 23.445705359913347 29.940472969248546
20.0361345997764 19.522303430401426 5.9049471138080865
18.114917222790456 18.985259924519422 6.745285883977589
17.757896551878254 16.87616895498648 8.421223407999188
19.76811995631994 15.54706424637729 9.083197575110496
22.074744303436695 20.646659494519895 7.319588873956788
22.34097945155963 18.998475287845714 7.841920678353704
24.28604931395799 17.163397053640875 6.917251892502614
25.936650396351396 17.84033014298022 5.4866113428236
58.7215989565397 33.21611220603685 14.081126574192002
59.99975183460694 35.11823878623313 13.847293677878074
37.7329619121417 6.04832504859637 29.59543502401474
16.333985149470166 23.012868182272378 2.706487793003558
15.34300059534217 23.05964105072361 5.2687703651743885
17.152121138038744 22.106539256829752 7.353504719033047
19.524893593704228 21.878725094158177 6.963282110395022
50.57859770469409 51.14856293308277 26.37583289003131
51.677611328392665 50.731259355727566 28.31056999516347
44.23115078236819 27.208264128802494 29.251037918257417
54.36012147560625 16.20513226853324 14.335835491386446
55.14946467362579 14.170403457096214 14.035980045602187
53.051093574081136 12.547605761156715 12.968250246607814
51.01341253638745 12.502468556171202 13.478307428757933
58.99505911359357 48.849611393024446 36.19057422339415
43.35284077707093 12.96815105176537 11.453109976958748
44.8583326918107 14.409206966147572 10.043821272466714
47.523096775481484 14.646829035673885 10.003110254262998
49.16692768932717 13.779497064647764 11.242893273835113
59.670552898829726 37.31731642725026 15.363494494374947
57.582054131470926 37.9682681909364 14.731613443659068
17.241114765379944 12.7742517851753 9.85455035614808
16.816177284835533 10.912292349373384 7.848162484664229
18.589505853070143 11.944667122692906 7.261136069008064
38.30776145414336 32.74549768442085 9.29923567442011
38.008648352737815 32.75350532971007 11.373615988698571
36.30203011823091 33.90140247638305 13.15326991687933
34.01408492555752 34.7549587456255 12.832486320755217
23.356180642710648 41.00670401287396 6.082645523518637
46.28102372404766 13.380537760749826 3.8666592251649465
47.665807340748735 14.406170170110022 5.192630687007569
48.52304662872389 13.29007453641168 7.86312279601088
48.3052075854507 10.785175855489925 8.599795820036514
15.106708235989782 17.788432453752073 5.471272243211492
15.481639035357444 19.729619243671067 6.744844680735815
58.267918408202675 4.024783774000202 28.427995260527847
55.72032373318818 3.8088547212251735 28.7122706503539
54.67947571137056 1.5638022850712088 28.772700093667662
59.19126469372909 1.875145432204777 29.610060512850133
46.61212942271371 47.201447422840346 1.014254599670269
41.993993356534766 13.000594989318898 9.260268183566591
44.19697533962678 12.898886620150572 7.56446210490339
44.019086620347665 12.051545023086527 5.090908371120767
46.18775999211909 18.610992974451985 33.796741331903775
46.94709926433428 21.348683149770576 33.55765828415812
48.56401995029788 22.297792106971144 32.19581041551063
48.25845457046443 21.478324610471606 29.299423891129628
54.361605420072976 50.13249477984983 30.078895277277685
55.491024789516985 49.67141396168184 31.8186958288311
57.12565107440693 51.29392741234695 33.20396110766877
58.05858049827765 53.331261564267855 32.628648180307366
50.75139124371524 0.03742886557300429 29.387716351409175
54.92382085325659 6.6560981569706925 28.028371999811334
53.86604665892198 4.979303092816473 26.980206985248483
52.710193451229316 3.2607251274197773 28.215532342269668
50.91783615235201 2.9784993461346323 29.62416931283323
41.192543880686486 14.054332162881504 12.901331115736365
42.83276680406902 14.732435778905487 13.311991204738705
43.8306305906972 16.62258410067111 11.563315661637864
42.28499807846474 17.560801863403473 9.849468023979314
58.64222895831531 31.407662684882137 33.698106681436315
58.91140512411379 29.82248039948129 31.539276154112144
48.38478452234464 16.269650673813477 3.4372328672509567
53.90984472442239 27.140014348441913 34.87919000595542
