32.765019680798495 32.717774061382265 61.497995993222204
0.7078724640673911 75.95407044642606 53.38709764755525
1.4554615312586372 76.60604700076999 50.949523328595475
47.48705589842542 30.072577790634536 57.9855816456317
46.66709098580283 31.345668725560735 56.64829198403938
47.41954427932658 33.21719288256712 54.806957046882665
49.2821209018525 34.32020304216732 54.59735283796159
53.260965528006224 40.29108487033288 54.7224420551768
26.78324113178768 54.812712931076426 60.835266085774784
24.832670671831288 54.39623117375684 60.09105780454038
22.711150308355208 53.30533414637859 60.74602335807973
5.5337460299562515 73.85913137437322 49.59571954025739
9.589559578381364 71.26745075741725 48.68406834342681
9.428106178048692 68.72252992870884 48.09794215866086
25.950687326199354 60.12891862985558 61.973957461969135
24.636084632884078 57.75730678632781 61.70848070731982
22.26465010844263 57.5956821745374 61.56347909548207
24.645276872150433 79.5839174562339 58.72354945589817
25.06124636440684 80.73048636720173 61.00935225089803
18.795129370587734 56.79617375694955 57.708110906413914
20.69071402063859 56.57227801092533 59.3577626683709
23.214437420634955 57.195511907907076 58.9037756434839
24.462094266942515 56.951642033035554 56.90788060852948
53.277438687691806 51.27824184862443 56.19110188154812
53.47082319670776 53.03674778186512 57.680596097066044
51.62055269391964 54.08196544468596 59.45525545620151
49.459273139841464 53.84028285396248 59.64847885492211
26.74431539026661 58.280612518467905 60.179131808615516
25.481155058234872 58.679118060495945 58.54992510422603
26.070285205870615 58.907977107516125 55.71770976155017
27.859002552142925 58.65664180499357 54.58620475851089
38.74511799042136 31.03500651724739 57.394226186379406
38.0878331422554 32.09921301695416 59.87824069079843
36.15107662535045 32.532097949737334 60.80234553063611
34.60247787932714 30.603570081900084 61.26819837387566
56.75094917941624 55.97407341881782 56.140907919481535
55.91973415654628 57.24737869437556 54.45793586595832
57.39955495060002 59.176949912183616 52.77163131655398
58.97556039321524 60.86819341610198 53.954076689030366
18.218005603682425 80.10493057472519 60.353785196279226
33.87271231810336 37.54456839744328 60.171688795669226
35.416684866876274 37.66839173889432 61.67390244864037
38.920316492182906 34.84374485098942 60.52132719386428
31.8345356593986 40.04089004620816 59.287197795705424
31.432836296447828 40.54715317179161 61.84284413888266
42.970900292331656 56.94063685472027 60.56686919280346
44.84848181629247 55.25317233406827 60.76022441583896
1.73220508503008 76.33547948723202 60.5436048658485
0.16406786682650737 77.90433785480938 60.04623085409045
43.638017129572454 33.581338147067605 60.904342340725
45.47464655411469 33.61457316582018 58.96063274821453
47.7765234350188 34.640773746787396 58.86079962398585
20.864900978802638 50.84543391272179 60.14876168157909
20.39523296621926 53.44533994458557 59.03645585075017
18.135652326699198 54.49722016463823 58.98523043493073
16.814154343975773 53.97151154035916 57.365751959046335
26.565130605301192 62.09674272659024 49.83227942326066
25.616221300587263 59.495751705651166 50.75203183061229
24.846878169478632 58.92318388430157 52.85876083343083
23.453702124862932 60.7739891710129 54.55659065589562
38.34588696899754 50.48509665453282 44.034870469863385
36.5800436214557 50.12094701042313 45.56538384902209
34.086163149320726 50.896235351037355 44.82650685910766
33.378335865385694 51.68783432524373 42.78622943471965
52.16661425708471 41.390400259471626 49.01819430655312
52.48502463155884 39.31396706230385 50.75275379189321
51.24945180783596 37.991622565136275 52.18682367585933
48.8477161755986 38.003773677517444 52.7508471655466
0.5642314092204381 79.6945721531841 56.926964429439515
0.6575912935832795 79.13045186108073 52.284582040021
11.359631976626932 60.58326470178576 58.68316374284984
11.023070123902256 58.87175449097679 60.27144010301513
16.172867178440228 56.01537210211633 61.805195451519396
18.681253512307826 55.89487807830484 61.49464642314109
52.23922983126359 58.648864259107604 61.574738463751295
31.179699080457908 79.57188530746157 61.52202405239903
44.9739077507046 30.654117062654745 58.975279501625074
43.35483003034859 29.707454953337542 56.75618503043445
41.57785144121369 31.51121708330004 56.48261065319382
40.70377010096452 33.16307756537132 58.035492291707214
29.14819459022131 52.335348241640176 45.309278080472446
29.88014990181693 53.36783897696868 47.25421627906656
32.49386388233949 54.26906624913131 47.484345922339394
34.15666781366125 53.323793369829424 45.79258095787264
41.31195384926179 34.49136741287194 55.42927438833697
42.837632055855586 35.00878866067978 57.36645228575827
45.6438333272082 36.02585758164123 57.170827413526865
46.99213512446134 36.15263125084156 55.08594995506511
43.127066439092935 32.42645103096924 38.662300776441654
42.83144916762504 33.600333406887096 36.53192255299972
36.10056745923058 44.58924795858471 50.948578924088444
34.07539357223284 45.089326295297276 49.905705533189206
33.293997344352064 46.89618786656946 48.48766228584825
34.227895047467904 48.796539333639636 47.3269572157105
57.8822489546758 56.951390711295666 51.11046338742945
59.71324204133042 55.832694419507604 52.42608069118322
38.63532624199814 71.23012024904672 57.7368712341727
36.0592192752143 57.72074182586461 47.155540458001376
34.69254311275296 57.20901056288426 49.2146602980907
31.941068307488344 57.72553504436092 49.60327689353966
39.28347184639977 77.19135051456264 59.99780497941528
52.640219586820045 62.696933320673885 60.735005935004956
53.88539858941705 61.9488868110569 58.98407361126912
52.70177533599836 59.99349377180931 57.923164027227685
50.56537393771131 58.89411501524694 58.37557352392459
46.96535803270406 61.29635478002497 61.35357823292811
25.011473690770586 54.75828506840049 55.534372210941996
25.765187308498415 54.760426081641775 57.49906457347015
28.66309124093815 54.48961717209858 57.272580193380975
29.7042219654001 53.0558250435354 55.7897718593831
48.24492225269099 38.638275239299844 59.35015000715351
48.1925348703206 37.00804059832693 57.847857213933274
49.81330790601889 36.650850157586525 55.76994351897767
51.796228975560076 37.73988264825398 54.878314159930376
55.527769822261305 61.948257252334315 55.73772913315612
54.348043376156085 59.33641046860819 55.11640830798159
14.756864163195358 61.48118436564196 58.577271325211555
14.630235024457583 59.73134451674471 59.82393065595503
17.075310216194186 58.905515587113605 61.26157502387608
19.113750700079745 58.72334603323085 60.15380962024851
48.67893531784552 35.184848043109255 52.037284432758454
50.52696861001314 35.648969905523025 50.90060233795418
52.612984273721736 39.6641195990055 46.59458733162427
31.361638313651813 51.22663063057275 54.561584987979174
30.129253213757853 52.28959716852543 53.02223176118835
31.186023838395556 53.05001339096315 50.52417497155852
31.84747301477264 51.73186280954322 49.05516872715095
49.67717237054988 57.82715851848674 60.856374641542544
57.480041735302066 63.52716462062622 56.705721570878225
31.656727543193774 35.812290714469654 61.12330455488882
31.35132953341681 46.73652869336176 44.21714948666337
32.523374399680485 48.23659935422066 45.48563949633298
31.13567468241676 50.360806038042796 46.288065602972544
29.637587013164172 50.10483084150435 48.03017774260707
30.301901989842115 56.62404728046376 56.70676262838769
29.434005186662827 56.528840629373114 54.10896563495311
30.45515837074772 56.39328147470907 52.09950069167949
32.71614091749143 55.40985189629661 51.18811850678409
39.31971397895382 38.27974444075388 61.01374043891103
40.943366824967725 36.53235902779941 60.865927444324456
43.3093597118511 36.22329485925456 60.32791977275438
44.85332278295758 37.87235885617055 60.37900206903467
46.13377846844638 54.16686530169332 58.706796515076796
47.99516702142748 55.40413430821975 58.026877769559064
46.45364978519332 57.00508480037184 59.69082756012026
45.15208396584018 59.06863525142886 58.84796874328599
40.07042686273272 55.014725393359775 46.63213076620758
37.75318673692638 55.09967066263703 46.37811752113556
36.840285424612524 52.75381090136971 46.37363621585456
36.522074260685876 51.190965810000264 48.28677833677578
49.04623208363563 56.91881640913271 54.80679432280248
49.88488102217043 56.95984508904213 56.87931495597776
52.71169512403158 56.14786319042553 57.600573307718214
54.208351939121854 55.316109966721484 56.25873929373078
33.59147873845898 35.9393235820415 43.958475609868934
4.554552802584661 78.6268102632375 55.877329831948
5.023896821502937 79.27634054788565 54.086345528638915
4.84386044585192 77.82763519359976 51.93869367698298
5.351832332460893 75.43799358781277 51.753857107195394
3.849019560167981 74.65254427716492 55.33483384076757
2.3342198364509894 76.56054600709871 55.532976585557314
0.3599673600867461 77.2176647398204 57.01099295555799
32.68449097660829 32.58241495947889 44.461828052080236
35.524830361639516 76.71552642818615 59.62869121170743
33.49673716101097 77.66807041505261 59.815854761355915
33.710111406074894 80.01670179963939 60.66905738655213
28.663316766426274 53.739377669328114 49.67263688970932
28.467783890508173 54.273729529170645 51.90213758982296
26.60765750624523 55.557327255747104 53.27688989849931
24.13104048502014 56.422957737396004 52.44391801199587
38.565332825439114 35.93009575936137 39.55378130817363
38.51894325984941 35.39713029265052 36.99298501556475
39.90261382401894 35.9664953447731 35.205357692457135
42.65215925776758 36.59483194975088 35.36526253491016
10.117098536018645 56.056649209865434 61.32042294477681
14.090375350672636 57.303071557049236 60.82694662328313
15.45813012092307 56.06995842547912 58.73701140210328
39.4242821636587 31.200447087016556 37.43736099490669
37.5839809254501 32.52422231079341 39.02185539622679
37.019046334153 32.14817473819958 41.193686603034095
22.045395990150475 84.90599645111948 61.91258187060042
24.05881587919551 83.90694140290812 61.71721170523528
54.43631789439436 51.263237857538186 61.32559284320699
53.345310678345776 53.350098656327276 61.41866631262992
54.01027994627663 55.678840332123734 60.36540700020527
55.57660505483723 56.403612325996086 58.48560263604392
55.88745966350762 57.87332441217021 61.6627952515594
54.61007533871625 58.73436914584196 59.78187884384249
55.47211296790967 60.11905754003397 57.430572362517964
58.067747284356464 60.818324668560365 57.23679805541748
40.115509154477635 50.740872863870415 46.483967288156194
40.71930131826473 52.88137579544493 45.479806728971845
54.23507023608904 9.25449149329307 13.274722139793571
56.833262367023934 8.882475986328663 12.751923045634024
57.84354170393987 8.342815179064093 10.482211767515645
57.42394313066113 9.177454033789079 8.313223370238966
35.45563844132408 21.825185273929826 7.302404940376602
38.14516880251181 21.6364345637298 7.173781450422969
39.74864693090437 21.69128344730627 5.3946184246799005
39.80840563257209 22.057839046910118 3.229624855143368
52.233117622337424 49.40078760964566 0.6843879573678883
51.92257950810871 47.72185923405522 2.039750980726407
49.5912626554477 46.23603114851766 2.5298517591350773
47.20887542920213 47.00236274978054 2.1138290125111365
50.11483588830763 24.040546765140395 0.7452446437923623
38.677197498563736 16.898902500282222 8.348313215179356
39.36790809579551 19.202330329199764 8.301970514052023
41.85634030014289 20.124600863520765 7.6273310037819195
43.991795342864705 18.235639085802248 7.415084122483519
47.84997197983112 41.71680073652416 3.7009018920322703
49.195138452372056 43.52143772097053 3.158959052537018
49.53455930586312 45.70809598075753 5.038492529781643
48.12446086461979 45.796745004935154 7.084119048783511
51.698330163574774 27.69456403593122 17.232678479428976
53.79628586580394 27.316646180299685 18.648670959190945
33.244784648120174 30.44740269700634 14.732917509094385
33.000767381030684 29.85228198785503 12.000052856455461
33.7020932945372 27.09549220209164 11.838796949835526
35.410752282226504 25.841296805526756 13.361698955259213
51.10102732845343 42.97021995231366 0.6102233763063816
51.69379882212019 43.82681324478918 2.486366813596484
6.240755683203519 3.1665718916257477 2.454430704853914
6.222219867042409 1.5936429834815105 0.9707736123133075
40.324598263547244 37.069566256194385 8.791016075219844
41.15408500350204 38.52377238718036 10.16474063737338
43.56286267334067 40.171540708281604 9.866679269602463
45.586285438809405 39.65991668927239 8.380682358780764
34.3382167740692 23.936367894098606 8.205465201650675
35.45995445864246 23.360381969448603 10.306943289877049
34.777027008875514 23.210114950625645 12.745360044743789
32.60475466354991 23.495612370077286 13.940229282750982
40.23998690513527 7.933331806076161 1.4847768993841564
37.76204746621815 6.705135481363526 1.8756345249374078
37.312153579252964 5.252158541460704 3.801564745443194
38.228013302452894 4.58688555316211 5.797740315335057
54.3792359988614 22.876021153118987 23.09194536168436
44.409922212965505 23.081454156468 1.2685941232259799
43.57259194090328 25.025530572271872 2.524978239858759
43.06594822318868 25.438008101822433 5.078302327817162
43.62043073381785 24.208328013779724 6.9952899728314355
40.72070235774266 26.063499807186307 5.985024926497739
40.708588931345645 23.47280754975172 7.153606649488139
39.16795526693539 22.832453084797155 9.212469501078095
37.931289465503355 23.55337996333375 10.68504295386054
45.55799062297377 43.74829955781509 3.509236206690866
45.91152413333943 43.46651914185641 5.961759654889137
44.366530412545266 42.36990483692182 7.7791700731024545
42.515625963355156 41.60417694240773 7.908942687351767
44.279179180829544 27.892504952970636 1.241302558893366
24.02050883049676 3.9281743174862997 5.462154707519883
24.017208020704604 3.6744941921698433 7.549857344234886
33.3454806388737 2.077128077360111 0.48522660840864035
34.491758794279725 20.19775952092371 13.341669411941838
35.6623746126658 20.68282243806101 10.81270730324109
35.932635472740415 19.412543719839185 8.719405297055376
35.03580073732632 17.293016092760883 7.896133158558402
43.89571102299521 42.106677119791264 11.887849191962628
46.654468132618995 46.91268829095459 9.529498127465759
36.576325629618225 20.85461541150287 15.804961069074649
36.01918295757513 23.079214058719025 17.39277079566197
33.64282006762109 23.780805548577273 17.982482580142186
31.566688315239674 22.4676872260728 17.92615445140439
37.5966522269092 27.129790404258486 15.228016663124917
35.88124772528428 25.605238685952102 16.24083135132251
33.910961957671574 26.82125821909694 16.856438108179393
33.842600583328796 29.474314584178856 17.245582447703434
34.03112910188835 25.837275826985827 19.865914643314944
31.632901000944315 26.395465515619446 18.953167464149434
50.38487629072533 25.684583237896348 18.26575548959666
51.057120534499404 24.91649060056636 19.9659533994339
51.64910225748106 26.04288544930402 22.09623847990607
50.55593744782757 27.740018368175924 23.609780525896618
56.1931920018204 13.742499516837126 14.412170166163712
55.34781761400232 11.741865314106489 15.555884727607651
54.29199553885727 11.137055380479762 17.891230102181872
53.74238705466409 11.933274074707777 19.661430986603378
4.563640963063832 3.9859782929173115 0.5654769063246515
29.6637870816281 22.583618507413423 19.88261225260272
60.213143995924426 7.558944849082377 14.064137667125523
58.53181076939058 6.623615820782904 15.180784355342865
29.770206382977385 4.4072790819978325 1.2019571839435406
31.613295734308068 3.253234690405607 2.2627201557809586
33.72069554854743 3.9704547494232205 3.26206127515911
34.651546135411714 6.367563385643481 3.862621328570972
56.797288430787354 27.259496115684822 16.752353022914455
58.38773795691784 25.41180426075482 16.19555806551173
58.864193588181415 10.064171236417787 14.611199548578412
57.04606669867367 9.701142019280432 16.391390889340883
56.81248149931487 10.660824309545703 18.42198596628867
24.72972593953649 8.783635313671379 10.135476809524587
26.723151734837238 7.4208604773236315 10.191774516435311
26.808059752149656 5.229110469365736 8.376163043647722
26.24333198105627 5.2844819702681365 6.357003101279341
58.21499285959556 14.57738044547587 12.350141707574132
57.71679904115719 11.836852721347544 12.238157043394951
59.72928975292861 9.947421368802658 12.143114035657954
50.38146208594883 23.927439514562028 15.422651591971144
52.30801527217424 26.00458963120717 15.304029790807782
54.51277477109962 25.93188273293802 16.108222927269257
55.90619812445535 24.227693264712173 17.13613345203942
33.170501941312445 1.1946191626598148 7.658853601672763
33.270868028725864 3.9706224707932165 7.207454094360837
34.46946435059701 5.406178810461764 8.559686308879193
44.74418450640328 45.82456267883716 6.250258122740283
46.19779858361333 46.310822717590476 4.796632678164569
29.82885434523229 24.63170069957359 17.26580187571954
32.14096183079199 25.275934126035374 15.77787604513551
30.443785088763207 2.2803568962814627 4.897271540228702
29.168273917545786 3.7950270813912113 6.272574427183427
30.39157163864299 3.7002028257866844 8.330313206078701
51.277986896189574 12.474618694031772 19.826493322681312
40.13492425016999 2.732091558258956 3.569294287803208
40.4191824350907 4.207031102514151 1.268427804645641
44.654098626453234 3.354135324490615 0.096250770691115
32.60162842957285 0.5395408875325512 4.717312372190111
34.060837815320916 2.082749594732656 5.128111389244162
36.69650469218082 2.303041219134324 4.587869111633381
38.014432947492466 1.5877684555018718 2.767516133296681
41.12301142020227 21.277222311467415 10.54339004377839
38.61327390628054 20.629300287730505 11.093003160078048
37.249533557118504 21.002639738958806 13.003817785303752
37.80882894811302 23.18067202333327 15.012386254555269
40.8150783748273 24.412924739195976 1.71879607689387
39.318463774802396 24.95333565825751 3.5819306307274026
37.1713024350264 25.276202855606492 3.5454511242901083
35.11427699309245 3.945706471558581 0.7344321589571273
37.700191557425846 3.263442041578282 0.7748627375177373
54.82723755739263 25.879587725281645 21.349071089483402
53.64552427342277 24.19149804595729 20.917285878630086
55.99375994896807 7.034727602446481 16.938282614543333
55.85155583870604 6.883450940737501 14.580370421074239
58.94778213040718 7.29266102384219 18.700363796607697
29.64447716958446 7.129886735588971 10.167119209138502
29.602961595151946 6.344763710517131 7.98025973696998
30.971247675866845 6.40453894030001 5.804373644428361
33.557494785029185 6.493168645485439 6.23490802578481
45.97372903887874 32.91335750494761 25.437310718988343
60.176971898422934 42.781584338912445 2.817855675952376
59.009317166873686 41.082605160413095 3.6477331032852316
55.742890425038205 28.673291525364608 19.39549010255167
56.52798505339157 30.753381131522715 18.684242012518602
49.66659101740356 39.024290655964805 25.131677747780927
49.66849177413108 36.71316932286679 25.845271729931255
50.58089518589347 35.34889190508481 28.06912162723722
52.30669508420011 36.508750700711694 29.716393515711648
54.27329717437318 44.82204792070114 3.5418814240279652
56.13318391325563 44.89668975591525 2.5480580881835695
49.03239213436233 30.793529189090528 30.561471379434714
43.68549433868019 32.91860695108972 30.74618343076421
47.928774740641714 36.4518790164468 34.146697931927136
47.9102389244806 34.87895010830256 32.66304083938653
49.705805198889045 33.58486647044874 31.20017871292179
51.946447109747915 33.97864460352939 30.797641987707806
58.50220365974482 26.899089103110004 19.02525142542562
55.81587635011944 49.11007679641585 9.054146999758013
55.7522947008513 47.69900375643332 6.841054309248277
54.052375288902354 47.063352347187106 5.308153531175845
51.66513527019143 47.48773736591948 5.14212965699119
54.14035004858358 26.426147877956247 26.816076269494783
52.69780817423724 26.797933675504375 24.7088546220248
54.83660691027285 25.613921954163757 24.086619120342245
55.75019122628739 35.34470793978333 30.315369498581937
55.09467928992948 36.85018103761282 28.96800180279517
54.86822152731856 36.318444685635356 26.235534730170635
55.07103308829088 33.88437924367179 25.314232474056407
55.92012557328454 50.20825903739107 4.638839120040537
55.260486064309845 48.25749269395363 3.2245019342113213
54.763872920582514 47.7662325740045 0.6854461134598838
58.24536709399268 46.290269901007484 7.645209531648812
58.75325935034701 44.734582183678114 5.742695797912771
56.49065974475016 43.580654473128305 5.079196276034542
54.14921045611682 43.55971269507008 6.260444971513201
52.208496579329704 35.841841552150406 24.425630145836177
50.599079759558016 34.20267645433001 24.845750014936478
50.56774186350678 31.578355033584778 23.743080028629006
51.86120402603152 30.61366390801085 22.095471850678702
46.25166002050203 37.27128541773836 32.25774413339788
44.39874786253311 35.687042491656285 31.652173485494878
58.73248739270976 30.00066637168799 14.09237343961264
56.97251467681356 29.710309099320742 15.709952350831069
59.59738611294493 32.54091362660304 10.292620781354929
54.34882788569986 32.82544047686443 30.250576977352555
55.19568464443247 32.00547453741626 28.288562722293467
53.43988538854816 32.025239282447615 26.52062144237141
51.013636279577675 32.16294339278077 26.65414489703412
56.84857596720493 32.90303932276873 16.042018379199288
58.98013039965611 31.691930295433757 16.405400311714544
60.011942980444196 46.27992238408254 1.563376841867874
57.93545740289538 46.9389152010764 3.0446778820797857
57.72185428062005 48.1843140100475 5.120906783390852
56.14360013956166 30.646965744453105 25.978026456107433
54.421023697757775 29.289764153281403 26.064857859808576
53.698882152744446 29.029357959663965 23.26478512244297
54.82576523945511 28.67977078388297 21.740443747540706
58.99935752855667 25.119858155050107 21.054443926545304
57.08370655569666 25.430010729359005 22.618111100291017
47.761276411869105 33.11855491073585 27.16802822720626
48.41653504084466 34.4286222797009 29.104404918012452
47.57151135271326 36.43886359368197 29.91767329257458
36.561971984489595 74.11045845904927 52.77534527877519
38.94368092856095 74.53317875871895 53.33941446335139
41.03905565207789 74.30665799100065 51.96838976634481
41.43791532557523 74.28991726242657 49.30176073201838
26.51753989793105 79.5383689585215 36.281346638896686
25.55062609411922 76.97401968193115 35.64739031316688
23.901837878756695 76.30852008447495 34.53085835326146
22.026295171168524 76.45521730004563 35.442020262781995
59.584155250970035 80.83868266581457 31.66428097407746
57.358030826256794 81.67701585534064 32.106583167754565
44.72713036897178 64.87985806048303 11.98429188436569
46.34046558665746 66.32529943618796 12.727741812914184
47.17672402409207 67.17979193282736 15.274545794038428
46.32992738042672 67.55805859043298 17.14433342149535
0.9530096906412774 75.05813271241517 48.68995047408325
13.882255298888644 81.05522501320335 47.45754018427298
11.893633084923138 81.5584221403674 48.85765318798024
11.177153012027365 83.84298227595303 49.926396700606176
9.887389595738204 85.29316535464376 48.68431988927163
20.204888968920635 94.77975232158722 44.14665572685412
21.2685024748555 95.21343361941936 46.290110194654325
20.600839315522858 94.95689493572323 48.579235344097
18.403343099789208 94.58147737384832 49.85335989005617
59.4491665865987 62.2346617897353 8.471877536775176
58.62920167397611 63.5077527246615 7.134587875182864
59.38165496749987 65.37927688166789 5.293252938026151
51.82355937469422 86.99837409694538 44.20397481026006
50.5807141743573 85.62005849291562 43.47440097919228
47.97137850468205 84.80042369324619 44.13174878904804
46.4302441403313 85.96382419082835 45.316908898034015
58.06016494517435 93.49999594210287 19.088776830004857
55.941427962082884 93.44391699149445 19.86908656659176
54.65445031459211 91.54849182590259 18.522855783564825
55.10160412728235 89.53517096667409 18.1382868718821
43.74355356556856 60.00651143146755 44.42068708702119
43.98196502953773 58.076016382919114 42.477277272388974
44.12926254374353 55.870785359490334 43.569748501229085
43.51677438070474 55.02998349906231 45.83214172745795
34.44411333139835 78.33806949035021 28.940115536912167
35.0603541700757 75.96292702477555 29.36512385603077
33.95838453753263 74.17331313543077 31.48425638077269
33.09637016966072 74.65017464919056 33.49957748688988
16.20537080787366 91.84092044808371 16.82727908740915
18.24079993539154 92.22392505740409 16.64921687203773
20.227937237083292 90.7586913149384 16.27122049985947
20.086061101208763 88.66463145652993 15.131012711676327
45.511516475803965 95.52687335616362 20.9555881653203
45.634446412714155 93.63647746849412 19.215943692290644
39.72088861297124 76.74096415540849 57.45788025871163
40.051534664022725 78.25757304899611 55.43010574739799
41.582177239980766 77.9681606885411 53.26250918954156
43.00946128016422 76.1699863487052 52.651009609701696
19.929005327613286 94.8566680961162 17.70747576016935
17.96962057808658 95.0318612140852 17.363715256544523
34.3128079561338 71.12909872102615 27.98526025532992
35.78543823702316 72.05037620640547 26.75066516735905
38.1778795399066 73.60504425106954 27.468587063049206
39.38439281008324 73.51427984636689 29.58330637298997
53.858624775844454 57.56417064217282 36.605514077691986
53.001840716297934 55.37216404578864 35.63533769406899
52.40840953572739 53.20246522817019 36.28844991813915
51.631883803104564 52.224534548068696 38.80295908182961
55.54871328550698 78.44559788436632 44.879869327583215
53.804922133583425 76.582808544674 44.781600059289474
51.576817078192086 76.78734003926493 45.63176952952197
50.358602625615994 78.53560609274496 46.662862331473235
28.11613119922686 89.56590530296717 60.88606414750534
27.959732828776325 87.80728063690877 61.93245834570857
28.854999355563027 85.33509464750323 61.348357077755914
30.614528032821923 84.44858900794836 59.69866283092707
21.89803096832629 89.423830135857 19.31773059191377
23.10958601972517 90.36058588021326 16.824395935951664
23.856725329004938 89.2065341734856 15.140800638311868
24.454660235458334 87.18632827243566 14.633666166969698
7.82795004865487 76.01338065795728 45.38440693081015
8.879728547077839 77.48194592673097 46.98906342162412
11.25610803863566 79.19590750996021 46.538802172634455
13.209482329926882 78.81501506734746 45.17798416061841
48.16599277400384 91.91644690281306 20.53529299763984
49.197868989019646 90.19462657848892 22.54481199411114
51.816125309553485 90.47470630982384 22.569666453978236
53.26815158722783 90.69273312622784 20.42677083774614
47.33527667463801 81.1464428681487 50.625011011120925
46.43608317719449 82.41547406602386 48.53471824829766
48.31934371241672 82.71318781717959 46.12071577241909
50.14924430065508 82.33242410035122 45.89329059756672
47.77296806145165 55.19604921284897 26.232511885150824
49.08609395160114 56.61181823688579 26.548356704294132
49.60191901025269 57.26700938765949 29.402939424008686
47.6884454746694 57.22297880684946 31.03028644054467
38.745351819960966 86.97479693017719 11.32156197691827
36.79478136000457 86.5583151728576 10.577353695683861
34.67326099652849 85.46741814547936 11.232319249223222
33.48316592909377 85.07270314329907 12.90884078061107
31.880864916975394 70.26638321932275 28.245028128256457
31.4413277034764 71.98660307776278 29.57742586436159
30.40915646095219 72.48276520854199 31.755192542138698
28.56983571026813 71.4698006226532 33.14946062770745
50.253919120688344 81.92127743952565 39.71658484074803
51.20901661573782 81.61223240387736 41.90374588708287
50.56775677034997 80.47644014017901 44.01259015307123
48.46423555482086 79.18604440752169 44.58125213181432
25.221059835972678 70.12784745529179 34.81702888437828
24.838600650019117 71.35804027988283 36.8474538386117
22.895495314170926 73.19243889758124 37.40044835625353
21.279488404097158 74.16283783161391 36.15359085133434
35.4628971959393 71.95996856586056 32.09999516790988
33.13448403885343 72.08123223658308 33.3183634249269
32.29020613303322 71.76871784961942 35.383674534710956
33.095962968755224 70.3840990289763 37.32277836164609
59.07590090116734 66.790457855171 49.48366665657083
57.74034819203674 65.41912371147724 50.93232652725678
57.382749012402414 62.98391746978081 51.01369886757765
58.63341764376915 60.992634769491424 50.0698445221943
4.688273110456301 78.85215042264994 48.86668449013732
6.543243296191507 78.00209364803372 47.95966388436843
6.7433198080660155 75.47036345964577 49.44897458961021
6.953060634191013 92.54108383081362 32.15078461027277
6.340663546542705 90.52304965216796 30.421900061290035
7.559623570224613 91.31481506895929 27.8811876480906
9.763388437070212 92.34831508130254 27.869463958636274
48.13037796303551 73.80518963850399 18.11005339230826
46.602211721617465 71.94267933828782 17.796391326869877
45.25054701116753 71.09535492953785 15.461875810241267
45.52691757447907 71.66851381509078 13.231563890017695
21.92842787317387 92.3526039087833 43.588726409387114
23.506882148275714 94.0287356500557 43.55622282472285
24.85270433129107 95.23542669380035 42.035949807505155
25.46309212672068 95.00997521633757 39.54522319728331
6.6471435937807275 73.38682207543216 45.686456483049504
8.378832708084557 73.38197632130735 47.47042840665518
37.91279801437264 92.29100262895635 12.460253353112615
36.59819532105736 89.91939078542856 12.194776598463307
34.22676079661591 89.75776617363816 12.049774986625563
32.38575554742853 90.7060646788865 12.86459840169638
7.087464719294546 91.84806494207832 20.884023349939742
6.144333589064583 93.47271536122578 22.89894777589635
8.363831247061404 94.01637641380505 24.82004126839909
10.121877790900314 92.67666476769189 25.16173817495069
30.757240058761017 88.95825775605032 8.194406797557404
32.65282470881187 88.73436201002609 9.844058559514387
35.17654810880824 89.35759590700785 9.390071534627381
36.4242049551158 89.11372603213631 7.394176499672966
40.35398769216771 85.26061974065644 52.025674729429085
40.45837851524746 83.33846734679109 50.66485888273464
42.865647014572524 82.22209090479504 50.13924729457237
44.7876425382162 83.06649135454482 50.70068901380962
42.21083198000467 80.55168503113418 54.64236964814895
42.32087177659321 80.94142386309139 52.37318257520352
43.98612234977193 79.76990685777629 50.755267303035254
45.39934851601885 78.13395574247879 51.32128401128208
15.575001826149864 74.23755524602014 37.13929548648117
18.00439685741691 73.20069703432 36.58916486822234
19.766364310979483 74.3395939003526 38.38121010010634
19.847686813312926 76.44036410682098 39.09869429395507
12.867016758275472 95.78664241296528 32.04257768464829
13.562699719522392 94.41780395856941 30.11578512940298
15.775789942975909 93.27915146547993 29.18568950168186
17.908295813259144 92.96849255107483 30.18408103456226
45.53333569544691 70.68006919286812 28.7594340644095
47.21025433439047 70.84982849768167 26.109049786518863
46.90937761036221 73.66655666865245 25.594462499819027
45.4195611452181 74.923304065075 27.44030789000382
42.525255167774255 75.72951009282188 19.115465668444305
42.95518354344414 73.39337271954173 20.185106194946936
43.12440466986661 72.63861738513255 22.683730105951273
42.84574157309251 74.1978003538156 24.6706601569117
1.1769901432624075 93.7300233200075 29.56999290775511
4.0441756929482535 94.50925632912015 29.790633408338593
57.31632478979738 60.87249187209565 28.86849299407858
57.908615367352894 58.62807428330225 28.676693269447874
38.7064260784399 90.44269651756866 10.665427699758993
37.44326574640816 90.84120205959671 9.036220995369508
38.032395894043894 91.07006110661689 6.204005652693651
39.82111324031621 90.81872580409433 5.07250064965437
49.61865622602602 71.36934086163413 18.503122344660774
49.128859784232894 70.5984644085133 16.303603235076547
50.84213685664446 70.6580884767151 14.243817847706485
53.20969999819102 69.54463297478368 14.121744698304594
50.707228678594646 63.197090516348155 7.880522077522893
50.04994383042868 64.26129701605493 10.364536581941914
48.11318731352373 64.6941819488381 11.288641421779596
46.56458856750043 62.76565408100085 11.754494265019147
60.179640931078524 56.97991380613775 23.639701756907446
59.19206693868701 56.741491024344135 25.845055869573798
56.75748190983148 57.133615425150786 26.695410410921653
54.89310645073347 57.778957847679315 26.036378503891743
29.91622796633507 94.42103429330709 42.0221553425054
28.090337159748785 95.6027709526519 42.71486222863262
26.21200085678291 95.43156906783307 44.53332809639771
26.172447124259918 93.83967855394538 46.71149674946462
21.264885087166356 74.47929794214711 16.138163026108234
20.320328089843258 74.33173450291216 18.14647694221408
17.999299218723873 75.19604907995112 19.248248797765676
45.83482300627664 69.70665239654404 10.657984686812707
47.37879555504956 69.83047573799509 12.160198339783856
49.895723288069476 68.70863810367122 12.664937724142
50.88242718035619 67.00582885009018 11.007623085007761
14.466203121855152 95.20985077707613 20.150338353753998
14.429889924808919 95.45576829863893 22.765063976167177
12.73648532967822 95.65942933805734 24.706238670770304
58.47393546962973 95.84997107565397 17.666204644785594
43.79664634757188 72.20297404530892 9.773493686848907
43.394946984621114 72.70923717089237 12.329140030026148
43.620521783216574 75.04578580183036 13.505944087503346
45.305337585963876 76.81967655654427 12.866701452802632
54.93301098050494 89.10272085382103 11.053165083946935
56.81059250446575 87.41525633316903 11.246520306982449
58.21601786883703 88.03092994947578 13.362034307212516
57.74496344664729 89.12203852542615 15.042246147557456
31.327564641584726 80.5367834573595 58.463915800245005
29.678180679311907 82.01697745948549 60.02458337277222
27.026015660260157 82.4264282583071 59.48068678041652
25.77960164595775 82.08898167756615 57.62933360888436
55.918591992274365 66.40519644640995 13.828296251889553
55.60012781774574 65.74342214616837 11.390638231868484
57.43675724228798 65.77665716492095 9.446928639358015
59.738634123192085 66.80285774588816 9.347095515129334
47.20065480538184 51.0545793016344 25.921410565744722
47.09668204463396 52.596852596178636 27.641476901723113
47.445334302375606 52.630378659455126 30.29398330087746
48.530384809778496 51.15514013931987 31.75138017655396
45.93053802647852 52.60669235795505 35.79646702934309
47.23821481933159 52.56765876112504 34.097776034515476
47.16877360429018 54.67863816126959 32.52610686894687
45.77966968943201 56.32846336787879 32.90446709407188
47.442162876798754 75.82306841143233 43.04169677283139
49.72254934961048 76.87625841721098 43.70732657747986
51.97414816363648 76.40388461911027 42.7375192906985
53.15442198334859 74.47080597166573 41.578431936047515
32.82701166697592 83.00751791182255 10.635057572722566
32.357343654392544 85.60742394368634 9.522751741893655
30.097763014872484 86.659304163739 9.47152632607421
28.776265032149055 86.13359553945992 7.852047850189815
38.527241293474475 94.258826725691 0.31857531440413994
37.578331988760546 91.65783570475193 1.2383277217557735
36.80898885765191 91.08526788340234 3.345056724574315
35.41581281303622 92.93607317011366 5.0428865470391
6.826573582200232 93.89250925614205 54.780158162480205
52.51588972569874 78.0049272863876 36.500049620638045
51.194754582847935 80.24679158550177 37.764847855819156
52.74280999339895 80.37084983363243 39.674571230208
52.43104877595117 79.42046685998145 41.51746885962419
35.0106118844323 54.33707645266283 42.771019591557476
37.2526414052722 52.87449855106008 41.77498953982855
39.131330353671196 53.53501114228958 42.98397799230246
39.77041804917552 56.05085966191405 44.04134631028546
55.48339028436161 76.77049237056897 32.55584645561771
57.3543093586766 78.2962992746562 32.09485534785837
59.66996744066447 78.11361144345163 31.098742212211242
3.035121650841179 80.18616365331124 51.55302609062279
60.083789927765785 87.74963254760571 61.16597813067302
23.321742664800215 92.74534870088652 9.169459633993329
22.98518081207554 91.03383849007756 10.757735994158613
21.980000806945178 91.06572660433649 13.32300476978674
21.59128015128597 92.80109405088687 14.656837264913023
26.67396778425435 88.60626543332089 14.191722243487012
28.13497786661351 88.1774561012171 12.291491342662876
30.64336420048111 88.05696207740561 11.980942314284578
32.55296505653486 87.57076323821569 13.223911311916401
25.12794129812985 75.52046097496276 32.18722172471056
26.775975512399743 76.46998694088197 33.227696861610205
29.36265583412114 76.83682596530306 32.65279475001676
30.838557895542632 75.32436261744358 30.82363595604428
56.93601843887788 62.81620106175551 9.461575392768555
55.31694071852187 61.869538952438305 7.2424809215779336
53.53996212938697 63.673301082400805 6.9689065443372975
52.6658807891378 65.32516156447208 8.521788182850697
53.27406453743507 66.6534514119727 5.915570279480457
54.79974274402887 67.17087265978054 7.852748176901755
57.60594401538148 68.18794158074199 7.657123304670346
58.954245812634625 68.31471524994232 5.572245846208591
50.53626139711524 64.67947442081639 20.114742454000307
49.622053213446 65.45690353513692 17.959434513842744
48.85862839882494 68.01892743369997 17.68839170378951
47.791801355966996 69.4882194324637 19.52993664127958
36.214519331471315 95.56469178747469 40.99432779562301
32.16752962249668 95.22921726738623 40.53600232047687
32.26671845679462 92.8998145180143 39.177062608986084
13.242443452262796 95.90289015893576 28.080615538680544
51.725755711640396 95.09311170919585 18.766023353323906
53.70536300500977 93.66639665138469 17.374625521632368
55.99689123100849 94.75722664234563 16.42366993212071
57.11066465044517 73.81550840459111 44.1854334486484
55.40189967282586 74.38461432167108 43.15312260989724
55.137897776474404 76.71859157794859 41.93601691356635
56.83858163221704 77.91622334015116 40.90804416258038
9.76462324812441 95.34027849821965 32.177214581337935
7.138626825307266 95.47167520149215 31.595294316210936
5.844002079356131 81.40743361354795 52.56866360613677
7.528440001646413 79.74455543679056 51.88209161279784
10.090522709447109 79.63338586224393 51.64775205599863
11.492902055229653 81.5471986242362 51.58353525232416
45.536277855643384 93.47193379548953 23.14781902146621
45.05058997208287 95.17604850308433 24.39533649252429
43.91646153686566 95.70098602192321 26.447928994650855
42.684720641395536 93.83163622258391 28.55326604549421
3.0547711942058418 89.45487096006198 29.28947806378215
4.218678658485002 91.51869544174367 28.788151393612342
4.997729580184565 92.55792839816318 26.732607775171054
4.068075063628118 93.15080708700437 24.44882303077944
48.062678147403865 76.75133195768547 1.4348748152319364
46.03750426040612 77.25141029439804 0.3920014243326874
15.139817313885173 75.98669686143823 24.15668831946197
21.587770009841957 75.30254375715157 48.53042216639946
20.742397467909928 74.21387165215755 46.23567235182668
21.64407095100334 74.29777883145188 44.21944957760042
22.231225058890207 75.79006836634785 42.790218137908184
9.485876189986586 81.64063231185 46.24884761261428
8.651163378875365 80.46324039083201 47.57704793202477
6.691151532227084 80.45917946041624 49.282381970701955
4.597291499858396 82.2789599743531 49.54977538002437
57.988296538103334 58.23906231277516 49.389503911518
48.81257343198339 76.3167919527481 47.41650030871928
47.71778883366636 78.45278702882892 49.03708438932577
45.655167169390985 79.7786793369021 48.32934464524933
44.029292834790745 79.68384082658244 46.71058610131074
52.38082557221706 83.84396408784117 44.804492626078066
53.14327177697248 81.3221807349353 44.77415361425979
54.43409502195498 80.2274817671698 42.71052516855375
55.98538457160697 81.19108337703543 41.243807258660134
35.863228046640394 76.71738552979166 52.47974554445355
37.530441215950496 77.78162991939978 54.48267400771962
36.78506730984374 78.28831107213206 56.67938125217023
34.9310007960432 79.06183959929241 57.75956012330805
38.638187558423056 72.45929955862495 55.62570224505596
37.75526415229365 74.98866141175088 56.23532792127216
35.937251458916776 75.47476377594725 57.43682108331745
35.74958330158382 59.06833830298432 45.23316048250948
43.90317899566163 89.88761904346168 0.08957278468314095
31.518646911859815 47.67577541669815 30.934324712827927
37.57056293823673 78.63076163674292 59.67215462544068
38.28584271187104 80.71346355993711 57.80084715144384
40.45128389958366 80.62430146381425 56.86690805175473
58.92746872087734 93.45843877912573 11.839874124071594
57.6282267840479 91.88989745481311 13.097426636144164
57.93268397712706 91.97410264088158 15.723509233069027
59.70468253739667 92.84540009924356 16.841666557612093
50.14452676658137 53.95500321121084 25.528474581218028
52.2377024288183 53.57791384017068 25.176024038358563
53.76899748519067 55.819519313911435 24.032128645847404
52.743852928852114 57.7380544887008 23.34800582190001
27.42483220778411 76.36789704092124 40.919916760792006
26.664124376910944 75.19311814773782 39.08000897784805
24.381533047479472 75.26413586852058 37.66339462782304
22.374716694793037 76.50016859291873 38.13960816021699
36.97358437894387 86.92036906750126 6.020668102085482
37.7272979966717 86.92251008074254 7.985360464613634
40.625201929111434 86.65170117119935 7.758876084524462
41.666332653573384 85.21790904263617 6.276067750526582
16.37697025122713 76.74771060013303 48.752890621133716
14.261977682530839 77.53042036242442 48.23812531738195
12.446539171106084 78.58590264311 49.98163588763823
12.483678903066927 78.91241738654533 52.587382363292214
46.33623142649219 39.22804060067135 33.62342238286314
42.000271541764 35.78646210638708 31.503521623596516
50.99219051416869 50.53418374418151 35.3385189700148
49.790108015946174 52.34729608285156 36.544597927719025
47.7496839360333 52.10433467510554 38.038825134994944
46.39816564374906 50.47909477975218 39.144716591207505
48.573340196143384 63.53196760314204 13.671965419927059
49.20033027147442 65.22222443533163 15.201197393538385
50.99046570820018 66.76693931210777 14.45070051266366
53.158312282318214 66.6242032556171 13.618814527980918
37.376521828591244 93.80912397583782 33.006225099460124
36.862586171346045 95.4669442172814 31.232348669483553
40.26159303182389 95.8051990562908 28.303232315191718
42.33582976677967 79.00664257102216 48.82904500617716
41.46175070266009 76.93466108258009 50.167682384979734
39.20340601756518 77.25696712766643 51.83651928419352
37.30695802048128 78.89566464130041 51.49012872271257
7.910071427311819 95.93661716915952 27.247402032253575
5.3728870222098015 95.22508963834997 26.797629495874737
27.90260478367828 69.16520367839446 35.03789218256726
29.80503034409464 70.21925710376685 35.07986680707119
29.88861945960972 71.54026982479003 37.69798043634258
28.412635711358725 70.85341902889866 39.671693487133695
58.1939261609944 77.66317776126019 34.997482652749994
55.801459393317714 77.45530672599534 35.24198013502845
54.332727998696754 76.41290902535019 37.01569572120692
54.52071105559685 75.96075960357516 39.33824244314622
60.20703294086427 70.8003592384006 9.836445898296995
60.15464555849388 69.17012459742769 8.33415310507676
47.636640719110666 71.0461299533999 23.198119425402915
45.783695252711986 71.75674430522814 22.120693747668714
45.65103959076887 73.37828610585208 20.147699200917902
46.41770922532794 75.59488782019815 19.7323710520054
21.368667221325246 91.32842881224734 51.769711288628194
19.499747858785543 92.23011940960126 51.13131028787847
17.97704107144771 94.34005934506904 52.61577012256394
18.372294160626407 95.47260257409057 54.538269141635446
39.12333519465021 70.30038481522212 26.880251507359432
40.47607693602815 72.078209156649 26.40545481908631
43.04823143475296 72.41522858405685 26.37829339061477
44.6409037360142 70.38629279927204 25.294288004405463
54.63088721967392 94.86794940605616 21.503122322528753
52.91999544003389 93.6741544769902 20.56497578437425
50.5574878466649 93.51037559784616 20.66893576707833
48.990652684450524 93.6402371290784 22.366444588102503
54.79365579916562 64.26835739413679 51.881952839111975
55.57352941657234 63.83773217719299 54.237379301314206
36.15135445470944 74.89215035195963 24.163808490235922
35.43771653783085 74.56488837259405 26.450639090255486
33.3942175432678 74.4670983622625 27.686801066732578
31.092676830675273 75.00719859274476 27.570411622724762
18.895122836673817 78.29808743655909 41.33938688591217
18.403613915721397 76.3469998304877 41.76978855944785
17.66609069975522 75.50091907684556 44.71516660589018
16.61870237803353 76.45195104405192 45.88896533718586
50.82277500972335 52.5808489736295 32.09612861245966
49.989267753704965 54.09178173821485 30.096102084868335
51.64599109166698 55.17678192938936 28.049940980959498
53.536152211637734 54.66358973051776 27.265601278064818
26.718974851368642 93.64326836474272 9.063567216355041
26.592345712630863 91.89342851584547 10.310226547098518
29.037420904367465 91.06759958621437 11.747870915019563
31.075861388253028 90.88543003233161 10.640105511391996
43.3237490018251 83.38871462967352 5.047880879122655
42.09136390193114 84.45168116762619 3.5085276523318414
43.14813452656884 85.21209739006392 1.0104708627020134
60.18362451476869 89.9162826468429 13.087378369839321
44.741153114480845 55.091503171452764 37.018519211558726
43.900050187662195 53.11010122685607 38.29499283595487
41.99482973572499 52.70448600514714 40.07393269318523
40.95749987151223 54.762917305004656 41.47916375348305
60.0627224624774 68.05325753762222 53.852909092103125
59.558739584703666 65.67539455976333 52.9153741385108
58.37922529312515 63.63606036683815 54.14181161738176
34.92499235230137 95.97233349399805 28.984025072548206
40.88793792974491 71.67054660005094 13.824005438019059
40.73000773322799 69.60197647937294 14.606652885069936
42.56791835513957 68.05887786500857 13.794059003358784
43.61883823136706 67.97437471357041 11.609600446032305
17.544865010312677 72.81925963515684 43.37590124693204
19.378393394083346 74.17659954060908 43.01179704007386
21.478035709007383 73.90347741605581 41.03604939767845
22.216832287800354 71.85952062774952 39.75181485392631
59.00609729962387 81.05462307317356 34.43769283190281
57.03551703422063 80.25012596698768 35.08277343102033
55.12286272390829 80.82878749586357 36.90674322447337
55.25638288515666 81.9787428231214 38.64226906518087
42.2640126780154 88.78613127956453 7.193058519531175
41.39611587483611 88.69092462847388 4.595261526096589
42.41726905892101 88.55536547380983 2.585796582822969
44.67825160566471 87.57193589539736 1.6744143979275785
51.281824667127104 70.44182843985465 11.50003633005451
52.90547751314101 68.69444302690017 11.352223335467942
55.271470400024384 68.38537885835532 10.81421566389786
56.815433471130866 70.03444285527132 10.865297960178149
50.06640903640337 69.95567330484911 46.323791168367684
48.123033976018526 71.67006085255157 45.64049367312803
49.86763567317648 73.8377494928774 45.63284060155048
52.47480433801238 73.98067036425066 46.3664968954961
51.125549093993456 81.68772943680762 35.107082783450096
52.95435395101244 80.55099260139636 35.12686467006202
54.87134312391534 80.2224306471076 33.876415397929094
55.169576348631054 80.0781911803985 31.199993933403704
44.28513553154794 82.62905983945883 41.75167073681718
45.835998825789254 82.35682030755336 43.29271615689172
45.51600364534681 82.32007561727484 45.99597232700689
43.216891207903686 83.59993675109268 47.14544288453005
51.809599960846505 83.95092287978059 36.61345601393646
52.66038512434979 83.0705259550874 38.57462498209578
52.69485584841513 83.77997058849165 40.98923852713089
52.87479256537388 85.62816019788814 41.91080074561543
14.87300607820442 60.25895796641597 38.645165070979964
58.09588915661967 86.32894930079408 9.193092406220279
59.95727770960077 87.56621830732051 8.51317366070255
58.4157604733666 89.1671687994726 10.177123451263743
57.11419465401347 91.23071925052962 9.334264634429474
23.058572465031002 91.17807172044576 23.559057490634935
21.043356561426393 90.77660249802037 22.386801789488842
18.991153049014002 89.44645162777442 22.74371935931378
17.776615712756502 88.91746440646051 24.70307013635757
22.828257933310887 71.45392070663348 44.42489502737454
24.60790285158479 73.16684578308742 43.934428116351235
25.766208422500828 73.67516270369082 41.67918174414689
25.65838242721359 72.43409783598293 39.451462075248365
