13.33914235942783 88.8129361950497 25.849446010124865
2.0338041823477577 93.60793893903714 55.08056340104891
1.1568479719425109 95.88364381308193 55.24798961278435
14.604477415661384 90.14043055749673 34.31152353018445
12.107139360934577 89.52368281420823 33.90508441532048
10.763153195883845 88.76262076162652 31.695908239229645
12.065833055531588 86.98353367468707 30.055785465878603
9.92261347604284 89.39106081336853 38.578061026765454
9.019653979770371 87.34396485709796 37.07317214887717
8.509280649340525 87.34374703615559 34.64070632966387
8.04722178192201 88.71915673798908 32.763945475693426
1.9115947840647758 84.36880136584693 44.65296183604788
19.540011273290148 95.70409311858944 53.818775976900945
15.005723713115414 92.13524559377946 41.43160493473602
13.174513947828741 93.8928592510466 41.884478841061586
10.866473727649277 92.78944830786443 40.906741296957975
10.29846844789477 90.5721333768506 40.90904523882745
19.068781473821296 95.1099390986976 23.517666004420892
17.993572592264865 92.98734483719531 22.440658188280263
12.293282625400735 14.9282841473158 60.081930058482094
34.21225041264931 1.9051766712269236 61.741362266164565
16.027847695985177 12.457143311228368 60.15806197040287
14.488423134549153 12.467578919065827 61.55768210026385
14.681582732530487 8.075113856621915 61.732786142780164
12.417235029389609 35.78026119438355 60.21693224047083
13.630839512008137 37.23053021541919 58.30467403501183
15.682681282334897 38.684152668565666 58.71067570096532
3.7461494201578227 71.58744640858811 61.35184390605406
2.822128601989624 73.95042536674023 60.040138590548
4.327936290019736 76.05321726673075 59.71355042637396
5.951882318165928 41.44697049564299 52.16981352228864
5.939385505984657 39.37756144627215 54.06733614685452
6.321895836051309 39.787271682122736 56.39296943543872
9.727344158930384 55.19437521179334 54.515292959199606
10.512424408570595 53.75199406173008 56.14054638160613
12.638704779055338 52.78508353617717 57.02423317005807
16.911119230424383 34.7566091713784 58.512930773029616
14.99176735662417 34.10370971646749 60.0936264078078
14.497200112824542 32.5437261059053 61.821520147290656
1.823823670191271 73.80752251692829 52.15772776951748
6.434168474925824 36.129165537036585 52.392443737033126
5.947582718199276 38.267298778578095 50.966091653148936
13.119309750297239 38.74091502292292 50.74892378525903
11.581467775279608 39.99662964823414 50.451003331346136
9.409274054465932 40.70335367540351 51.97814748430488
8.661659077715136 39.70173803763572 53.865253011179654
3.9741576384379655 71.96553680236286 57.47359689063864
2.2422208085188733 74.05198384349808 57.281190801054294
0.2015162965047579 74.54837429295462 56.17260390014329
10.042486860281096 35.39915036859233 61.104399363180875
9.531863856705412 37.66579739009177 59.86023535251067
4.781215209285794 55.62616345458988 54.14228327193514
6.686046690691712 54.77038313709104 52.66405787441072
6.970785660436491 54.68509996750146 50.449593446332884
6.184173602068642 55.59975657743717 48.268374315638994
5.525617362018978 33.796932603715 60.017071269157576
7.272993132827988 35.223045803162044 59.24692466486705
8.067023571271747 36.55089270860303 57.34177300945011
6.765554235582949 37.188153309153826 55.10917147418828
12.317984934374193 43.18053569785768 53.903019278824345
9.79305377015928 43.00044475352775 54.158102518909004
8.584556457133152 43.23349299589791 51.76526829644724
9.417362648615336 43.998368287036506 49.59111728856764
12.924928372232262 39.99901333743922 59.62903551228018
11.505507609715094 38.85665554380425 58.51482227410842
9.34604390374346 39.523783512357895 56.726656376152306
8.562661628999171 41.75809447272603 56.194795046961154
7.8353657855902785 57.49209317842302 52.71020852967817
7.077129009203824 58.21347221233178 55.1633859776261
10.813023490483785 55.19619119780821 59.485749839451046
10.470373958308937 56.72094371281995 58.17310877182543
1.5147027475398533 76.47096202032368 61.32688672003692
1.9449184306915002 77.7745580574926 59.25930968289321
1.084674899195911 77.05176985283157 56.85618306438659
5.337719562738466 76.87922333633888 61.9851688731832
1.6038219498703041 80.20330206112257 56.98567599207462
8.425898605489778 51.79407848422828 61.33860956416725
8.856518091059117 51.886469561100725 59.31780303233965
15.353000371098311 38.99943858170534 52.67993890859832
13.837533477221506 38.771955780628176 54.21055935951124
13.087424433221626 40.6630451559107 55.408886822050725
14.990222419907619 43.08185555208413 55.45892286983073
3.7130017144862006 79.55902310961406 60.77372953003388
2.976074631891387 80.99165917060944 59.064925083912364
7.180444960732585 49.898591593327055 57.20465752010322
8.96761122163196 51.103461437088775 56.25698337741805
9.722793962248184 52.02015446550143 53.58145938958901
7.85620755737605 52.41711989853349 51.96658736142162
7.480363761429253 40.28435404892839 49.73371191860579
8.983959713280143 41.42562190511545 49.47664916958711
10.960118384268267 40.95700680904166 47.92895720238307
7.429812632802231 32.04217482203054 58.75215879792464
9.490629696881083 33.42036383047189 59.22501890430599
11.880886633625881 32.69746552711135 60.59465227211298
12.484568862609914 30.862590527241 61.649992555244346
2.693766952054052 51.465929010118565 61.219183534149145
5.026141446257539 50.160477475637855 60.56512096178157
3.9979217963740865 49.1514051368712 59.15399851905045
5.7272256910018156 51.73099065047608 57.92960301781393
6.547377727639934 53.23940642080508 59.79344362240701
8.05062456481525 55.58488610465416 58.838759674107074
8.258950601340313 56.21715862209187 56.39742588568126
13.455907095767573 32.461477381277575 58.11045794975705
14.563417900566275 34.246016631556344 56.88545962265787
13.682578601759483 36.30932873052595 55.79933983594826
11.571952835638738 37.21097711637019 55.09280842502897
6.340211907026574 44.071230424849645 52.94367716974606
52.498914741231324 17.6381344144285 25.94085277488592
51.82233033014428 17.555507070029574 23.842963147968288
49.366384464924785 17.818670811096652 23.450811395444152
47.73949215640779 19.04505515172603 24.998933298613718
33.87503370955781 0.4017828645288474 0.675410277402857
54.753633477508956 11.174328261379856 11.96039788036482
55.3876529124682 12.05618861103204 10.13675983720151
44.35021411013902 10.892005741868559 30.171842822391465
45.787247233564045 11.441837122447879 28.805539164200503
46.054688486920476 14.221070107563255 28.829994505773485
44.65233741711058 15.356599243604476 29.956694975211587
35.14399522270144 8.080223798928177 1.0899838695310908
35.24852603062559 5.495011642710989 1.1893632328267467
19.624066975310477 4.946914490466327 5.385527152281191
18.929079959030044 6.879791878381172 4.503010759124336
19.856714392140006 9.33024355982589 3.881881624953154
22.184784105501425 10.412907412377864 4.626719822510957
38.257869704977864 4.820354249128975 52.05125954803525
36.32184544048058 5.330548029875681 50.333182357170564
12.382625567613088 5.04021670924367 19.86369791095428
12.787998334470727 3.798863220476154 17.49107294463544
12.558940390711841 1.1777517976850194 17.5041136061907
46.40939762621338 11.375243065827291 24.7428248964203
47.86929370628074 11.415895899648774 26.786169502132957
49.29810124598422 9.327708096318368 27.95746675801818
49.19821202568541 7.1443514532933445 27.543501410996473
22.34659532372522 21.985091713749046 41.789813777923996
22.84239689762101 19.781592547351284 41.54853086130471
24.381426445630854 18.079334314866546 42.70689401620648
26.27045556914173 18.291923098948825 43.99403203328368
27.418696435765717 16.482105581633768 41.74208780285172
27.128070062382836 15.83564787770896 39.574256885400914
27.97929256999958 13.710753056539744 38.11018506554992
29.907503430092888 12.171557292514 38.63288318186836
34.25093666729003 4.3118648559359265 4.385305806609211
34.01232577806945 3.0545945732964106 2.043925808052916
36.559857503102805 2.054251798911987 2.033046820135058
37.71509611832625 0.6049331982069518 3.5385633331782245
17.74479467247052 9.650240960350416 6.992105937068997
16.052569544968005 8.122683310335951 7.652405251510688
14.116091331537833 8.093632416504683 9.524944217116927
13.631821330912363 9.742029628167016 11.331010873133495
30.546519432365024 19.45942249335126 17.36880858826047
31.33041613685238 17.126428181059516 18.72035985554255
33.52924750219775 16.321353422828306 19.358283460944968
24.362459179155852 19.58371959467268 34.78923207959125
23.064999452181638 19.1476086025445 36.63082761100751
23.63664822564447 18.84982077690588 39.2544748284032
25.523579253034253 18.328967377818145 40.35630740692443
36.9187788630364 10.533816285337085 44.42800563361679
37.563179989167544 10.98732729812319 46.38376035035973
40.12935182345819 11.48114523754612 46.659287937157615
41.6868297030461 12.461621819825911 45.296476436418004
41.872738896476754 13.709620092560682 16.604501621230128
40.218880788774214 15.454613589313832 16.605342181923355
37.90259550526514 15.467321143260158 17.66654568089185
36.60682105179352 14.019659517787646 19.295891712601996
40.9500296077125 0.4333647690316706 5.0016722323145535
53.27867877047855 13.959227495730303 27.858376515024055
50.97842563195833 13.499903194142904 26.83940838430085
50.080948832211824 12.175250297967718 25.14012035549571
50.84684778539544 10.344457781110506 24.171489109572295
50.83239083653126 11.695342402425872 5.633222876465375
52.469930460176286 10.760088026437991 5.451068441217743
53.595442977509485 10.648415247690128 3.057362816076846
52.71695516859676 9.515003981433415 1.0423960737135713
10.515159529479924 7.064578075620847 10.740506434354312
9.4681942959669 7.00655127877071 12.900062343316021
46.07366634039227 9.50723180510251 34.43952877997472
46.42919098164257 10.603719138266253 32.20406179739354
47.215774941569784 9.46341029948052 29.732778797551116
46.78596720636641 7.406928874577379 28.97374070917885
39.98947134231998 6.445667353207345 51.1726125729347
39.24334120819071 10.952426236796656 36.442420386304235
41.70714308908993 9.85881725386592 36.29545748168648
43.600786799407835 10.860965852141383 34.52956014136479
42.779711311539394 12.04105620925048 32.17277842612761
44.857410792804245 14.29496317795284 38.023971178888445
44.07573906203013 13.366988537054684 35.63705095537991
44.76057955144757 14.016141719001567 33.19739396032661
46.186887096039705 16.10350283394921 32.49995258685933
18.493908699954698 15.333063717130347 39.20041999691254
19.162989360356015 15.131357451115795 36.98015791552429
54.3515270231314 19.050486554762365 21.409741158561513
52.2349784437497 18.01208663899329 20.847419343188744
51.3544997389786 16.79626270481914 18.785491025080923
53.62786083102059 7.377677628015489 15.88412504203949
54.83103101376717 8.719359668242289 14.143785729215745
57.232982021506466 8.481002898831653 13.13461254325426
27.784790629456683 16.10685583950358 22.48996379533237
27.50990317276982 14.479030492263627 21.077157716134028
26.693227317617037 12.224887591166112 21.695425713957004
25.382738670536796 11.639337955694414 23.806729108737574
23.257717630207498 11.686554741275954 2.3480681093907663
20.988329091999425 11.301732585760714 2.2814573407980085
20.819848934893606 11.357800831276247 27.6966762783447
58.45591460388875 34.56230338706392 18.699676607582493
48.278998356019756 17.919663118034443 19.61340025006704
31.95325810837551 15.269619057500963 16.597630296492394
33.72184539805803 13.986747532670337 18.037260836051132
32.597847007507006 13.036106354421428 20.46596314917134
30.22133067736455 12.642683568629844 20.94987699037749
13.73971004009807 7.883840367605618 12.904636613208078
11.833352491401866 6.486648038620357 13.837013976150446
10.47195459796418 6.450538765248014 15.822988637518163
10.392495761556903 8.575418090618637 17.14045664743535
22.777150855731723 14.903368685756616 41.73986218890566
21.017425436135785 15.381293052677293 40.106919559418124
19.855833696946586 17.655030616961934 40.53220147901135
20.22451017076464 19.169477127167408 42.35062232663069
37.877624044347876 7.912805935161348 42.77471296867404
38.88493891426376 9.828293501285847 42.41274918738717
38.87049422908776 11.658438588129309 40.07350531963596
37.692055248371545 11.632800606412905 38.36776800435169
52.09868593118143 16.315369501370196 29.318397860887295
50.456351572103195 16.242656510121012 27.221111620698704
47.99529976445656 16.626500204204774 27.041451916812417
45.94454397924249 17.141780615444173 28.40499309981875
24.003142906403454 16.987307831678912 33.380414752739455
23.45830448723724 18.80668151591138 31.8071948800743
25.566000776372945 12.771587547498413 39.21147581443034
24.645397500589116 14.74220949275622 39.71283296790559
22.836499442731917 16.276699858226916 38.424687564374665
22.10405969225588 16.24345372370489 36.088840325853816
50.86120710886776 11.43653327860629 28.842521639446346
49.14799089866353 13.214045097502785 28.987257342378772
47.591167705899515 14.198503309892715 30.998670941978876
47.33670003815715 12.849887739977648 33.35012522725081
39.16207302837572 2.9352738131557556 2.050027054335661
30.560769905883284 18.492719639901612 20.643282054664315
30.17141143622651 16.383313911738938 21.03718320373682
36.139801793420304 13.531456198450217 49.157245311794284
36.81647361959377 11.252698697657609 48.93789140974885
36.444588952435076 9.106503006037475 50.18576765006839
34.76651443003613 8.612630491393263 51.940687660756005
35.12023620239567 21.14767268688973 13.561423423819205
56.144860614615794 11.762028848621917 6.418545316197444
56.061627791286384 11.256276347217458 4.349991061949724
56.54753135610869 12.750009357360293 2.0337098792948174
58.306899618109526 14.28390516976457 1.5323545560242908
17.57228224274502 16.767718223826478 41.58393450288774
17.25929510230315 17.977288297624927 39.499963014672154
54.313295352146156 15.056095139374133 11.885854800527397
52.115781441556244 15.45992490257103 10.207922332324046
53.17857139567701 19.267400545420756 0.36712127696615804
17.55041496733515 18.134432346660503 36.29825730222633
19.768106738263917 17.540685470731052 36.03579334092898
21.3326529140589 18.111463369480493 34.08691746219386
25.488590643433756 15.445713993355728 43.645558846818176
26.194670765358644 16.570016828906798 46.009449742081756
23.610372269900648 17.363611567322177 46.96819452856013
21.579635645458968 17.309268036403914 45.87526837456838
36.318043161713184 7.867020550695542 44.95095666901548
38.47267744328382 8.449516417182531 46.24549232843271
39.18058619282535 7.513746930610464 48.36630071358865
39.98762727903335 5.455675829118257 48.80034444281047
16.384313420372408 7.8345026947763365 0.774945406338365
16.701060632981346 6.723094826351434 2.797993989380902
16.934159952864864 8.617721159925276 4.771247010510541
44.922274133012614 11.616926656785237 46.28052227199735
43.34665196208407 10.291083881465367 48.22547398292963
51.00885601442595 13.720299705378606 18.942591170071303
50.314474827604705 11.923747238187632 20.503836712970205
49.58649560054512 13.459025781116933 22.63574906555076
51.10573199006137 14.550166406679965 23.669848256649367
17.559079478054233 3.020757336706654 2.4989819282673706
17.440709485958163 3.7640602183154312 0.3013232835671996
19.75469061733578 7.429670174936298 1.0954176682985892
55.88524833504099 14.505251376276863 0.009136170076700636
54.29239342343524 14.430621172727289 2.139315758653371
35.287624547135934 20.099193069019385 9.235876637175737
54.836468479563685 8.737746285417753 5.2548418419653595
53.28716827455897 8.554018414351232 6.732335330219007
53.17327045485847 9.34564761185421 8.952570464392679
54.38615028065381 8.538782142968053 10.895110325910883
14.01870137634153 1.8647219338355874 15.242128759900076
13.187671007940684 3.812298052660333 13.739891356948629
14.127378955873603 5.034530698415338 11.656407763735155
16.455042372280634 5.413236194600702 10.805585629085739
33.19611639244332 16.83068358297917 12.631535976859682
32.39608731493615 17.328366755320662 14.594021164855576
29.652625494488817 17.865428332509488 15.48766027864783
41.91713453067447 10.156378606507287 39.028315906932065
41.7648355746049 11.095554982627128 41.46232109872819
42.853492687793 10.472724831359663 43.75489575432081
44.69873626142748 9.261094281111456 44.33953134681813
23.12007713923323 20.2144998219338 47.72430068951327
21.383604171189802 20.337568181198403 49.1671371580628
27.245797887427294 9.700861450631361 24.557692393964977
13.468303998468427 0.8887409530992315 22.786457264097432
37.82806728048227 5.375575655944231 0.9432769335130181
44.685428191426645 15.613643625209443 26.70255543836604
45.94320187618558 14.3282376542211 25.951811226894087
47.70943900720999 14.538981177278048 24.026475202858716
47.71118024999097 16.456028630201654 21.996980284856207
50.01873305586274 4.657136677599221 11.56327096988472
51.02625581455786 6.669186100564511 10.696790186324918
51.81758385258172 8.83157783718236 11.643076069552322
52.05538355702959 9.841518553471149 14.135912632607873
10.25018884420354 3.5250586122959593 17.086969499355316
10.662747817503675 1.6674292381565092 15.56045466381271
39.25356746675503 14.263964919368577 36.74910016633595
40.59991436831593 12.645074536065426 38.11601482358978
42.874927529695746 13.266679546531961 39.67427248455889
43.3597974915525 15.339501279606107 41.04346264076213
20.595523701904284 19.871628110662392 37.11917053546372
19.368139598372824 19.60267843532384 38.84678692751185
56.632998090649146 9.416272384853814 2.438950695728504
57.85681032147523 10.719179717010734 0.6117470248930661
48.99215460695871 12.742257442735546 13.270695467592477
51.34287969725271 12.528609221605802 12.55127267705752
52.62422746598297 12.28747447799331 10.178452385006608
52.13232989881189 11.739801123958442 8.109683063317377
27.529974618769476 15.564833690132053 14.108422351866796
28.07792452517364 15.417459016028747 16.622510661153807
26.886911189648394 15.01776310366217 18.48421492550281
25.174655604717575 12.778007588426412 19.070315735735083
42.46690499215672 6.81655784716259 48.67092812692546
41.548733577014666 8.615978310875711 47.052294499695556
41.00471361055876 8.563868160456854 44.63531530468152
40.67138874715249 6.853362988265944 43.00795831380068
8.62265821352968 4.42272219187879 13.171525384417658
10.11651831299429 2.4842427804059373 13.047954745175346
12.025384154361054 2.741205580850395 11.472094364280807
12.213699333421557 4.456370311811549 9.417537890227951
14.967437205360394 2.4580718111511266 9.38234069606045
14.84632160356376 4.444876942237031 8.435944704996698
16.203577646923247 5.6811680851486095 6.514059042902917
16.913168177352645 4.925364241313328 4.569943597083011
22.036928618509204 22.275920434908315 45.98530282021057
20.904169019330965 19.87862296978963 45.39158825280054
40.2584453028872 14.254718310771416 47.7139877507369
10.544012834255126 5.251797024992896 5.65310116959737
13.263806073425783 5.71638918373022 5.648688902103807
14.427643476259137 7.459585922755003 5.851459802695719
35.29355014878183 18.593188438266626 11.883224230962954
34.81430142031634 18.778526953398586 14.644665795108638
35.88442275450029 17.739208558960076 16.4496343202414
35.77999585784172 15.172968322300182 16.329303169901266
50.21025091344754 22.071444523070834 16.699553373156355
50.65173812575186 20.275483852052375 18.020847384818456
49.82212257159251 19.891506066670008 20.733712982931813
49.296553472373155 21.324506560533 22.32235157952925
27.696066035470714 19.15573292516038 20.193225703540158
26.87310927279103 17.490189941128936 18.37631736895054
46.5623824389426 11.257542045431894 43.781019181624075
46.00151891875197 11.53317245497569 41.27027274488471
45.73820175614671 14.258874761083637 40.68676504014696
46.54049315379399 16.070551414224305 42.2909606826355
42.7851780021727 3.7577562794626678 51.62095982893714
40.400937436065654 3.577095238244114 51.283204389604926
38.71238826250491 1.8508008911035276 51.613289565564976
51.80526158534981 17.436162125890778 4.115046591793847
52.20145517965761 14.7271280133811 4.004604965322123
53.85976445545404 13.290086890930352 5.53830709211788
54.37345357886324 13.424309571053772 7.961570980540838
42.546294203324614 15.349871475361391 43.556001735300555
43.19115289865311 14.831326316015764 46.34882941811268
52.13945449958847 19.506927588361627 15.17960624565367
50.51327021634462 17.862769807194805 14.452466855674087
24.388881940733643 1.8591241311318507 35.575379519255634
20.79600545027855 1.8922942271030956 33.28538157673771
22.59651287239977 1.9906127961360218 33.15475579863807
24.484444942513484 2.690204463278229 31.210912760307068
52.166502413042465 16.559383763723755 16.669604178822667
48.72215042347517 12.766795226823806 17.426210005576625
20.232828702952453 16.04880178274995 27.45740189415003
46.093635607575955 20.52224866912379 15.141434846412041
48.513926008188655 19.68045966049457 15.73860813288687
49.2216343311933 17.976883363243093 17.369511737218087
22.91614363799089 18.961890923505763 29.330881662343554
22.288995245420214 17.29392993048223 27.63787110769276
29.364916537532963 2.6584446435230844 32.9277060944978
28.57772028845228 1.8039333718092248 30.916396147067907
28.173970941327923 0.16105537477355727 34.05857746360611
26.645751073834433 0.3486803230004011 35.36646313264446
47.85069120232843 23.4689819996071 15.970395897149903
48.9926679383271 22.34837574837708 14.094554002993442
26.027469459900146 0.7377096758832755 32.477086165522046
27.177367273402982 18.302759952213837 25.128231232176454
24.89579965234559 19.97156766502697 28.069679702546647
26.12263752451895 18.108694621586228 28.015080806186518
6.502089358805116 30.845777427414074 12.31569650450856
7.478344396276391 28.873975760790337 10.970376487966545
9.95529579566952 27.708859447629568 11.180634948893546
9.06652233048486 26.55209017224484 12.458153192173642
33.06745714538062 83.166935410857 18.64821797081756
40.91195814079518 62.5531285857382 14.187252314676368
41.26138452919592 64.27319687049248 12.020350957104561
42.861977213317665 66.60140366993798 12.259701980432974
24.470837930650653 71.33271432063874 12.46786482436035
23.794253519563615 71.25008697623983 10.369975197442718
21.338307654344113 71.5132507173069 9.977823444918585
19.71141534582712 72.73963505793628 11.525945348088149
9.574654539444344 18.492219012529436 23.51227972813068
7.3425616893404095 18.424963865505212 24.083554155835824
2.4080241354878575 22.763447683638404 11.937382039291702
3.498996672529914 25.70688049531071 12.013582552087087
6.035882555505354 25.126851933470856 12.447852435499668
7.4565487230190515 23.12660923515587 11.855311545155018
32.408392728638205 48.5875637762379 0.1501155610839893
13.404901973625524 35.916717554203174 0.4800283078158582
16.322137299558346 64.58658564807881 16.698854871865894
17.75917042298337 65.13641702865813 15.332551213674932
18.026611676339805 67.9156500137735 15.357006555247914
16.624260606529912 69.05117914981473 16.48370702468602
12.517741051311605 34.47617126330625 40.032664618500476
14.238304939406778 36.218015987110356 38.876984791849225
16.126567486392844 35.53887606069947 37.05693000343379
14.144536139196243 36.522842581952986 36.33946263582177
44.028212693700404 49.41348629646838 12.019368887182486
43.791480183187325 47.93548866506945 14.394638751876702
41.089016378566214 46.48872406619952 14.899531240740199
9.524175702486868 44.66230668180821 3.5172724584928896
10.860585557723041 46.075117920372385 2.322063423121268
13.691486635504937 45.517554589778186 3.1892407876761064
14.346910714611855 43.505609679648614 4.299301458349285
10.229792894397189 58.514934155339226 38.57827159750968
8.293768629899905 59.02512793608593 36.86019440664499
12.372385565214692 25.433950789349403 10.184239044037861
14.434126334942398 26.00013328119106 9.163952851576742
16.672653552971706 24.774606126876527 9.13235546042166
17.25738004922436 22.755234413848942 9.289749878595606
18.381320815632705 65.06982297203754 11.26983694589473
19.841216895700068 65.11047580585902 13.313181551607387
21.270024435403545 63.02228800252862 14.48447880749261
21.170135215104732 60.83893135950359 14.070513460470904
1.8794266195122145 65.86613719872425 25.15989523134279
14.562469042850498 43.46909369501688 34.73198880384962
14.763566007665645 42.284121824707526 32.68918589709771
13.948241420401416 42.97556724553129 29.961252338217555
13.471697137934797 44.915321446323304 29.08849865615075
36.903303162226884 59.943417862959606 22.465240285008026
12.832922461019784 32.087386961085755 2.0024739129120905
11.454130973526352 33.701129391258775 2.9982868872713286
31.983525926404514 21.051424168175373 16.24018000732947
2.5184426217843514 73.1540023995615 3.8958206377349027
3.302339326271711 70.82100808726976 5.247371905016981
5.501170691617076 70.01593332903856 5.8852955104193985
38.33469394812246 60.53212405563382 13.1488446576065
41.64711669007396 63.14228931853857 9.607666026282333
7.650956585656624 22.66807893423873 19.00297712294123
6.651068185830916 23.869099625897675 17.742349627809666
6.490632457864436 23.631964293882618 15.42431044272352
8.431634929123259 24.276928553951002 14.037587982588354
2.245858727606605 49.539656735596 17.785444269072325
2.0182490510331994 49.69356195886065 15.376433850326661
8.890702052455731 64.22839619154733 30.955017683091224
9.53510317858687 64.68190720433344 32.91077239983416
12.101275012877514 65.17572514375637 33.186299986632044
13.658752892465431 66.15620172603616 31.823488485892437
13.844662085896086 67.40419999877093 3.131513670704557
12.190803978193541 69.14919349552407 3.1323542313977866
9.874518694684467 69.1619010494704 4.193557730366283
8.578744241212842 67.7142394239979 5.822903762076427
13.341904698071133 49.54564376441818 4.045635368389
12.863213846910918 48.17736670992583 2.0755377671923467
25.250601959897875 67.65380740194055 14.385388564498488
22.95034882137766 67.19448310035315 13.36642043377528
22.05287202163115 65.86983020417797 11.667132404970143
22.818770974814765 64.03903768732076 10.698501159046726
12.703579227504454 27.83873392501035 12.848739466888485
12.043099196365134 28.912145584077994 10.337920986398156
13.235791834634759 30.51234719523384 8.97262029311178
15.606269993615271 31.18667224930858 8.726569900154585
54.73917382932463 61.151861683852275 0.9004884867897579
52.750832925253874 59.67078908567912 1.1040905415558504
43.98070092400842 69.45534949872847 1.0257023343997393
11.1580110392625 8.56374343691926 8.940029995829937
8.726468526457419 9.029512526635934 14.67250436656291
37.367202560077935 89.32106516542511 8.608604609783212
36.5589091968443 87.01791780523465 9.204647388111098
36.51493764951076 85.71681367256357 11.75329683450591
37.437663072970054 86.25334619847615 13.870380553821706
36.606568875053725 86.94505472477799 6.567001148351566
45.4907611379186 40.53505524333855 29.829532519073112
43.183989221075265 39.30591250821495 29.454040078769182
41.935841490364645 38.906303327825015 27.426379597080754
42.186338713039675 38.52575555396032 25.068464330831297
18.090392165017853 36.67321355733022 33.0839705776018
16.44246309993123 36.84631305307094 34.676881639964215
15.230308090592967 39.128007858008424 35.35607784848662
15.685346498478983 41.18184303318119 35.324691882869104
36.56368106433343 65.64492790898052 15.311660220304933
36.44961318860407 65.46052882943468 12.99122823395141
39.08441501001183 65.76144212173 12.10774852838019
40.44049109868955 67.39669483779377 13.169482045449199
18.0455895298116 63.20181171131276 20.966540829449155
18.401114171061902 64.29829904447651 18.73107384686797
19.187698130989112 63.157990205690766 16.259790847025545
18.75789039578574 61.101508780787626 15.500752758653277
11.96139453173931 60.14024725941759 37.69962462240913
11.215264397610035 64.6470061430069 22.969432435778664
13.679066278509262 63.553397160076166 22.822469531160916
15.572709988827164 64.55554575835163 21.05657219083922
14.751634500958723 65.73563611546072 18.69979047560204
1.1592428346880632 45.24621622008961 14.948144079219993
3.0333768620189567 47.366770792291014 14.465425032022887
2.9976519425308887 48.75940774331919 12.948383060826838
36.86359120201204 83.38925821304873 3.993235789551944
37.84757722263878 85.51255092219802 3.6268402480366775
38.839887948699584 39.24943844834632 23.944477003403854
39.531245020299835 36.86339112105778 23.86852449247252
40.44825815979611 35.95228574815051 26.048397716063885
40.075916013901164 36.80105195501465 28.232724864914978
16.829333982223577 67.98954308416309 24.550983228362877
16.047662251449456 67.06156844326493 22.164063004854345
16.7325027408669 67.71072162521182 19.72440600980104
18.158810285459033 69.79808274015946 19.02696463633376
14.955834288791952 40.04703743840545 42.818506687145465
14.23250623909751 41.43044745105286 44.75420484100843
26.323450212550735 72.74506646097261 7.936753208035943
24.206901633169025 71.70666654520353 7.374431392663174
23.32642292839793 70.4908426110294 5.312503074555354
43.80737187143248 65.25574454642802 3.931198554375648
44.782800799757034 65.10925110120415 5.755185012869595
44.43453736909384 65.32794490455201 8.394053257524803
42.831655720669474 66.44565376497549 9.4410077489339
25.59978402043992 61.072257534225734 2.41113709151392
26.802954203186502 62.413939574452534 0.6707977786901758
6.622032984431419 46.10662302581142 15.771549003947598
5.791371904071403 46.228480764075606 13.456477486192284
6.728879761336121 47.53059791634656 11.556348976957672
8.524333075459325 48.26134183357632 10.896292384144763
38.38887837258957 29.62418476656555 37.08831064857805
38.00654837292674 32.121957035615004 37.14830834149347
38.775966967284944 34.121055112019555 38.52904873403562
32.45809856211094 22.51158151533987 8.171570619437503
33.90067506100251 24.413636449646734 7.5696394884999805
33.93778397561995 26.39399081699064 6.356910865884539
32.12293498948067 27.83147316248265 5.59744308769113
6.0473369205406025 50.7876557590126 8.605000431941559
7.395051172119088 49.129919908477724 8.667154160411892
9.189859169046391 48.15776455699237 6.88661149076193
10.001909032977572 49.02221112616969 4.5887466217605235
45.43223125973672 66.46467727516932 0.10072949123923748
43.28407393912202 66.73149393001889 1.985182331220803
33.20299626668452 46.56792308769333 0.28116192798869893
31.99712086510626 46.19779228938171 2.4673825037944406
46.801335972799606 37.430340505451674 20.43595618604676
45.393528116126355 38.495097061469295 19.051066937894287
44.72729724842736 38.252781216087676 16.774148974231064
44.66202890577166 36.58490196834264 15.187301333756876
19.326269136501114 10.30441241414275 0.28573007321168614
36.759670829031705 37.99936281598498 37.88764957943646
14.623306948582256 39.76915962945516 29.38922398061858
14.5840691200051 38.73506969887208 31.600060259858736
14.112022144108332 36.54289063003059 32.715367275901556
49.66732104897323 39.71613219829127 3.092149124277953
30.108547057149778 40.61026282797745 7.978577280046798
29.43767638952479 41.613625710369334 10.233935077977357
27.408036513532934 41.04862212288006 11.705545034227285
24.914689452762456 40.60433288452826 10.956284408011442
51.48270072355806 78.33124463374006 6.655849179504933
38.4418884826867 30.315740108968523 31.256817292666863
38.50178119194752 31.940449707764845 33.09929724664547
40.130890521676434 32.472255818836054 34.74904274924418
42.31635274548066 31.739308480510246 35.569225181083986
39.39254090065302 84.81360383406737 14.72612645569847
41.12199628360521 86.20079999831113 13.193690437160067
43.269308127707625 36.97899675017369 20.212477877822497
43.444700784846866 38.994637198001925 21.747410880860127
41.713644717012734 40.577027134247665 22.58187520810854
39.3424995472321 41.337260589824595 21.55893034425147
38.15893768394127 32.92955487060695 23.42574000202981
39.49500045483336 33.42253651009515 25.449183716049543
39.33624692087095 32.565629288465296 27.625984003461255
37.27728968685691 31.865910946324473 28.809030172391097
34.56871768612735 28.858836137240313 9.755113581545661
35.36875809942659 27.052615775343867 8.64154772680495
37.417282632861216 26.83371859537281 7.0254678034629805
39.3058869282517 28.11364428544123 6.646145851526986
18.02224331803528 39.473536157402634 38.35457832851866
16.813389771692012 39.6026352049084 40.157987013552294
14.600935909976002 41.62427267709794 40.27539903595478
14.400987482754624 43.36290310210389 38.73071268813534
45.84946245997086 38.10311025883282 31.19159766522209
44.5043996121586 36.75036285979384 29.98508941933864
42.62497461466025 35.40913095435399 31.731594576044525
42.87971624754633 34.32703567736022 33.601310002379456
30.427837793308075 88.25688329327417 5.226688657056922
32.299560287413755 87.32354513122462 4.672132090997924
33.84575253751837 87.03708192607921 2.702614842695305
33.481786231565806 87.63217837363125 0.30834196744362735
39.09271371583961 85.92089043285705 6.861086954415196
38.32624089388385 84.77510336503545 9.087049106354135
40.17011208810971 84.90283857075515 10.594794252749688
20.250921545439084 71.61424302424469 6.140412299541472
0.5882615958786644 41.1045401600078 12.363230386940957
0.8373615000290018 38.85440851003239 11.883347398285238
10.083779185294244 26.53352508746319 5.808080451256033
10.60828244758969 26.17964496034171 8.318571301826708
8.457115333233201 25.272084697393378 10.178648907617692
6.171958128399788 26.36243064938118 10.031374843681336
3.925181297794839 68.96419896371121 3.124642345966826
5.693768587477357 67.68132743888059 4.564272885525565
4.569770196926338 66.73068626063167 6.99297519864577
2.193253866783877 66.33726347484009 7.476889039851921
45.53593449269106 70.23610288714079 9.436958001453391
47.06846475577225 69.4582456497451 8.32206337958648
47.16086272522847 66.57494612140636 8.757990924406275
45.63762288673001 65.61599280503246 10.963500440806941
23.471469318234874 25.766059347217695 30.35977166575227
21.24508361909756 24.57897906852902 31.212098666773798
21.616295086199038 22.578194938487446 33.09401767606189
23.357656377251768 22.386451672574054 34.862907747862046
9.849547233767206 61.607385841371595 29.301725018148467
10.856862103683088 63.52287340749609 28.939761236861603
10.84241741850709 65.35301849433955 26.600517369110392
9.663978437790876 65.32738051262315 24.89478005382612
24.070609120600757 70.00994940758045 15.845409910361726
22.42827476152252 69.93723641633126 13.748123670173136
19.967222953875886 70.32108011041502 13.56846396628685
17.91646716866182 70.83636052165443 14.932005149293179
5.312892135500182 41.566809383414636 11.334613381665742
4.940651880108417 43.4391834649947 12.503222935382386
2.772857030827568 43.284866179923206 14.713261654768443
1.701038810832553 40.848907435111755 14.85117408688531
22.833130298287085 65.13111318481654 15.369533688920777
21.119914088082854 66.90862500371303 15.514269391853205
19.56309089531884 67.89308321610297 17.525682991453305
19.308623227576476 66.5444676461879 19.877137276725236
35.48795300901317 31.841614455634744 31.40043384814484
36.06170406762531 32.63369152165065 33.521745827856044
35.90148658100145 31.369395964915565 36.05362691087355
35.871466597396775 29.04331860869327 36.6862937223692
5.522789090206975 49.68529809610849 15.129809228439655
3.7459310880164125 51.665918648032275 15.102717918007446
35.94698929374719 30.96961544104942 41.26053242368956
34.22018753355163 30.57666326439444 39.71150847227541
38.58209545797512 81.02728412268893 10.455478280844526
39.05892554770253 81.81502765152003 12.455872106811546
39.071543504350444 80.69978641982131 14.934654790045368
37.74873180585672 78.65249399808835 15.681783061533432
16.583895873248252 28.275301070206567 7.8724888326158355
16.340491762189696 29.856668763620846 6.443619200826561
16.626154739884377 29.070932037028502 3.6686786504064592
18.230018083354974 27.565816341381026 2.7442946722853523
5.823632452040295 23.26492945223846 21.43431336197788
5.510833069106032 21.508893781044268 22.92701686094131
2.5326930953026103 72.18729954611186 7.170294104138747
2.143334625645837 70.07789381794919 7.56419525321125
8.111724982839633 67.22603610466047 35.68425736126871
8.788396809013102 64.94727860386786 35.46490345922328
8.416512141854403 62.80108291224772 36.71277969954283
6.73843761945546 62.30721039760351 38.467699710230434
48.052689898580006 43.17520914302741 13.375519104318133
45.74859747442219 43.0814987895112 13.700937109170214
44.30144140979264 42.518756485806996 15.947465780589887
44.80516273500909 40.884934750858655 17.694167801416004
33.63488982760437 25.599656362231364 10.431821131984831
34.60203276546733 23.7172752250748 9.951502451563167
35.55056505155156 21.648880762120935 11.561684945545696
7.092159391814997 74.84225259309999 0.0884354732936358
33.26593582692274 24.785332750729925 1.549391265020549
9.015200762425659 44.632011613694104 6.197052645399797
7.609001542248998 45.77038008607354 6.230433884332892
6.184219726450411 46.88161687310619 7.979360707439019
4.810119752171483 46.05867717972399 9.472848138370905
37.652750821722165 25.04317608910999 0.0597784261150917
36.7156048720741 24.111112807364112 1.761543136901764
35.196855831962715 25.527795187034513 3.642631792248966
35.10160525328988 27.462890554130475 4.100881949793411
2.817401546573475 42.82944743401407 17.814486990000457
4.554444249979207 44.298231133433504 16.349825071566077
4.181530032986676 46.79742137440302 17.125518733555978
42.42867439895094 48.73107578239936 17.744680572001165
42.92522626696934 46.17437948461697 17.65353879038061
45.00897506456037 44.785933930537546 17.577839027547483
47.45346849560264 45.495096511653394 17.726035294738164
17.57849685753116 39.44999793413822 31.481813866391
17.458851675363725 41.86581491460987 31.18218470680998
16.63316457910754 43.2884729802245 29.02825086159851
46.822868647198725 40.295145195810946 21.033798374192976
44.29851565983965 41.38571468856811 20.350196812093916
43.184642310707744 43.16631371951152 21.18484661230212
43.81797985713985 45.25464862474733 22.37449201582305
33.055297807923104 84.37965858219319 5.69114674740097
35.40536660184001 84.2962267941162 6.386711404474847
36.62082506567698 82.64246181113516 7.998363358082203
36.322986983529894 82.7032196642875 10.050825654631803
38.79830262271776 70.95715461469551 11.253201534829387
40.836810613465886 70.30265420904735 12.169956716748567
42.97636672425252 69.20522523049198 10.681881202314207
43.55421987651495 69.13917735836844 8.746169208777651
1.683736059682191 50.106014438021994 8.52052908366315
3.918203155666544 49.73429590790147 7.694689130585859
4.864382708386758 48.34135123704054 6.121821156245538
5.03459472669156 48.956712479402384 4.3633480541878376
8.289966351132515 61.56160045690579 31.477968718489915
10.444600632703152 62.14409632339278 32.77250437790714
11.15250938224468 61.20832683682071 34.89331276306308
11.959550468452674 59.15025573532851 35.3273564922849
16.831581869059164 10.94584222675954 4.36862403852036
16.89419732243194 65.31150656299549 32.80753432147178
15.318575151503394 63.98566378767561 34.752486032404065
8.991452109465268 48.04403576436926 1.4928746510634519
8.179659514799594 47.25961360674138 3.87565470589593
5.701331598992671 46.27085455030893 4.385113068266674
42.12195015421672 44.777311417353495 24.331023266733254
42.354422526424635 42.36761865765758 24.820072587340128
40.698999925330526 40.67028928449872 25.85288651581045
38.69444317127011 41.03159400028762 26.887224823095387
31.548855734783988 33.68234649982814 34.908946272106284
34.245514814585235 34.4618602103583 34.40033406778889
35.917264597659475 35.54775264680846 36.04496121935747
36.198072193013886 35.21292208474976 38.50569992158929
15.974199583718462 28.83629488389695 0.1588177277829998
38.83143081662714 45.37849331652645 16.21678487265673
40.43720229156122 44.0675943548015 17.163876237330935
41.15151042774618 42.927898953718575 19.239182136312817
40.61655662242652 43.55453734273955 21.7937043497091
35.789399743078555 60.31971176584772 15.2320973609489
36.846692288886 62.63260346204097 14.738049902418085
39.11599548385971 63.472809921174246 16.12364139671357
39.9910275961105 62.683734832140566 18.231334437789467
45.9271548073845 83.46334317722271 2.321941829918737
41.22030518187115 31.900373622521325 23.309335184805047
42.06754371992655 33.419099066596125 24.948741089923118
43.18286153719329 35.60030927713729 25.10818792307479
44.110010454207526 37.067588390539086 23.512886104669434
17.91674137944872 30.589026741950402 0.2480990336679709
16.444002212074583 31.43246564382708 2.438025057745558
15.354530113538832 33.622254728055346 2.3586407009813026
22.980779203845277 67.41487961158886 5.469603219545735
22.286398017024034 65.61832714439788 7.030848762444634
21.558418789964445 67.15360568732719 9.16276111502519
23.0776551794807 68.24474631289021 10.196860306123797
40.788655322169106 57.95967219313987 24.284440410197018
13.939810673296643 24.5091148668085 6.181558328658286
13.085714327912264 26.488331831106606 6.946790655254952
12.837765382024902 28.809890040027714 6.267415431147011
12.837007083230178 29.969939372085108 4.0944601407371035
12.458266654778546 41.05429776179715 31.14037388499596
31.170135397758617 29.194541575973705 3.1688594638317404
33.78157335039699 28.873513524098765 1.72341796922506
45.0322190635503 68.76732492405968 6.590230578406894
46.63691349832016 66.85278799091873 5.885811434094727
48.27032009108839 66.63561955402363 3.708459052514813
35.85915174625307 33.857770629212524 29.795110539021216
37.90717530941998 34.41491068632568 29.94004453348261
38.88066433295115 34.299342194298625 32.11776005429954
38.568461737963375 35.48885003182573 34.40217850563827
2.506183431105182 45.91053733537085 7.668205516461699
2.2252391647257657 45.185499407208745 10.195831961912097
2.385633761848822 43.151049864868284 11.282781643920286
2.9593803038021154 40.86825848474242 10.446884807355314
37.57393687317161 24.33400777857445 5.655111707656402
35.51527588021234 23.25066660650445 5.645435119375137
34.52170090485581 20.977622941299607 7.021939707776093
33.91069733528906 84.29531757732377 12.026320178048946
36.36013818470882 83.1034584471006 12.92657963391599
37.30532289499839 82.74829696882112 14.820223009944836
36.31273286645006 81.32680390409458 16.305385583014914
42.93106118035377 31.152933434933818 25.98713483570953
45.05685337055048 32.28522416595252 26.698970725559025
44.132415791562394 34.84890274681554 27.942518536721824
42.19163986072134 35.304251747862786 28.87127271041617
41.3324361560775 33.98606770054724 37.55547644760355
41.51469637841064 35.714120956457364 35.2774277556974
42.6795892064953 37.78734323153013 35.10378974011428
4.368010504355478 71.02294666153091 1.1210332143300072
1.6245486839081458 71.56000823871973 2.014672328122261
29.28088973326115 19.810087702205674 14.897792540596733
13.889057720093792 63.85095851271753 25.555327956406494
13.736758764024234 64.79013488883737 27.989333148202622
14.82541587721233 64.1673047375699 30.281907803795246
16.670659450846802 62.955674187321705 30.866543396292556
38.38901870586619 56.205266013920074 28.46705290740293
17.382798522065467 32.44856216508141 7.294032889546776
17.103778843807273 32.020405521845 5.322801275979726
14.35275955687464 31.88948251746092 4.510867735919168
12.671305882958958 33.086963526286596 5.491304709328635
42.31089522155204 40.29940063893343 16.608797773132885
40.52287759946085 40.3097780524469 17.774299814008618
20.61738973286816 46.63495113333278 23.96080714392881
15.69038879845007 45.473583879080635 27.17097204698718
49.87569772430428 48.08383542577866 10.419716112271143
47.96556123844085 47.05964416837513 10.025426893981818
46.07767868477281 46.18502238379104 11.512609034222477
45.69990845770155 46.152983518212025 13.86814811192172
26.916853810189917 22.436615807277434 31.496744616642772
24.925839933843974 22.001767216726265 29.7996562863095
16.657351380845974 69.30822353141969 13.229567487840471
17.915125065604915 68.02281756043135 12.478823276368518
19.681362196629312 68.2335610834883 10.553487252333149
19.683103439410296 70.1506085364119 8.523992334330638
24.027306746448925 63.5360984596814 0.6629246820823038
27.034743143965212 43.870642060140575 7.590009643583083
28.351710153171826 44.10407037782792 9.520789693361728
11.225490656174358 67.95854482557883 23.27611221581038
12.57183755773526 66.33965444227567 24.64302687306421
14.846850719115077 66.96125945274221 26.201284534033324
15.331720680971827 69.03408118581636 27.570474690236562
20.463415461574325 21.955122259314113 35.51945896011653
18.614413714107414 20.91720187509721 40.92358868668273
1.605722685445357 29.16665481732956 9.378833972752386
3.9566610023507787 28.520145681265266 9.718365319096206
6.071385744681452 29.8071258980075 8.805232523481346
15.193902522456508 47.89981011902345 33.21381665750986
10.270518508846829 42.81679504823477 45.34584207495348
3.6028947683139503 23.23496133145533 17.48371351765948
4.926198888050735 21.352095222333435 18.396253691318122
4.5841510043778575 19.904652410295622 20.526464732815043
47.2296755015095 42.12967804127464 1.2119550545367452
49.357477919145325 42.11445908353284 0.3992478473363913
3.5848775081271325 29.78718318315839 12.235083616240882
5.297986287575541 27.934743779169885 12.668507291783929
6.348174937263682 27.1740132988452 15.176867316795967
4.903309705149423 25.682439967468962 16.2837349826112
9.447719615048886 16.250228320183073 17.131656895771027
8.570763404643646 18.525933194227875 17.299083107506462
7.580464665786517 19.895652398532086 18.98060110943591
7.311176226505628 19.427208932765563 21.6571760394614
0.049847714592965595 69.112038922239 3.1495227106282395
33.354641588582936 59.52889963891963 29.1508990901104
11.62306908276291 47.60125214109014 10.647133100471349
10.505647402997148 47.153951844946675 8.927323420974892
11.374244346780864 45.60715981836581 6.879199991708776
13.846669702049537 44.84680102477269 6.677442605401611
5.689490750135947 19.582341603673544 16.219842067562634
5.930111688493771 20.44845454959082 14.15604828194687
3.951809961470407 22.17969148651476 14.508069875099107
1.404635892870162 21.778919385157824 14.489687435160791
15.388110321352416 46.572932863707166 1.2717617003856172
14.438828181576051 60.511137753372836 35.19794017639989
13.520656766433996 62.31055821708596 33.579306549169985
12.976636799978087 62.2584480666671 31.162327354155952
12.64331193657182 60.54794289447619 29.53497036327511
36.41341486834997 59.87872354531407 19.710927670580272
34.296234357898626 48.88246884185491 1.324820528831736
17.336528908743972 12.033350194514464 0.629154521487555
0.6682323756708132 44.511848421102314 19.255636683009058
0.24255568932886679 43.53428284851738 17.046404943682006
11.560828153496429 37.98225560544639 33.24480227638367
13.195222236456553 39.77074165332235 33.93578162160668
13.230515153678265 41.40512486290751 36.23248528854421
12.152244993507047 41.743983745317145 37.83131064765287
32.47724420563816 59.09669430076014 26.5211704169698
36.861361461390224 56.498256171093274 25.676443858282465
12.23036849230653 67.94929821698166 34.24099980021133
9.325510216765908 7.011090746992874 6.704055330769994
11.192060489651084 41.81029861781864 42.77798351293018
12.162098637844116 39.690970562863974 42.9155112287013
12.292364355793321 37.65673087295554 41.058969321301284
11.169742920078226 37.49890486543927 38.741608959904646
2.44897404468849 51.53169444559259 12.678634209348186
3.1071447076136938 50.51463842255577 10.869672426632357
5.653085461281308 49.944531467479926 11.116975407316028
7.209211207564621 51.23021312357315 12.982700936941255
6.786224609735669 72.47310685960883 1.1716778445830693
7.856345943919623 71.43378846517032 2.976646369715833
7.751919047261047 68.86754822851043 2.8563152193756975
42.59098595135878 82.56796963185042 14.943904868366198
41.150626321349456 82.91142931912192 13.276510368493234
41.34619994736742 82.07327981953384 10.663228391977944
43.03126543406721 80.48345605386238 9.824353496133831
22.182174102866863 75.76602442928107 3.2265654226307867
22.62366131517119 73.97006375826263 4.547859434292888
21.794045761011834 73.58608597288026 7.260725032406244
21.268476661792484 75.01908646674325 8.849363629003681
29.04124156537401 20.758060511912646 19.640885638697597
26.953926705991282 18.346382499735373 15.869869471623055
