24.99233660343576 39.85540749608437 21.12546165401805
26.219777921195934 41.160363597690534 19.572124492307125
27.244855293778038 43.73425352997194 19.95299961100344
27.176864216734703 45.07853084805296 21.797921540135654
39.32180120426309 28.107817092524233 35.011416738789364
41.00528169507119 29.382477684754075 34.875390009203976
43.845949662355565 29.017648506110895 34.81030143255638
45.172661508377 27.421897930808655 34.494986404341134
38.10546412771949 26.197129050684048 0.326675477776853
38.400415537125944 24.46698962312149 1.8560559081285082
38.76448672402539 21.682717461375255 1.1904131088685395
43.493599866370424 51.39970297228017 60.70286506952747
42.08308135380834 51.74067121222771 59.235398627805296
8.912327177068471 50.72867340114655 32.92696157328585
9.7435066776805 49.49758574244616 34.957812905463975
11.712407247217689 48.235407595562336 35.607015619354065
13.76799532995666 47.696701126531515 34.184445834595955
17.89623734385899 37.7057901056296 34.69637791044548
16.401271722259413 38.471894865465146 35.75220216902965
54.897743821026566 35.75614163528548 21.23510652231059
54.67975687810363 33.8825393201163 20.467624234713526
56.47588042839353 31.62834188877791 20.163075457061606
57.551329311581824 32.18527558337755 17.94298441583258
45.228271143110845 1.5439372888795617 12.813607725840091
44.13764637482254 0.7627644537717686 14.525463889740328
38.18545036171002 50.63053195127862 46.03451875608673
36.79484979699227 50.70318895603734 44.00830848497425
37.163630845015 49.50776468340555 41.4180487801476
37.96210884273818 47.35414537807284 41.204008266502434
30.491169597529286 73.92238900393028 26.020600903752822
59.38311285402564 66.28700557447479 10.40798117399561
57.975695318274276 65.12114285285406 8.473360234613061
56.06316917442057 63.82842679112161 9.09967306503782
42.111146040254965 65.99439375776993 27.2201376395115
44.075489957918464 65.72434859083683 26.95625050220122
45.1719746934305 63.15490841559068 25.91866328259549
44.237469180861275 61.212325249946765 25.203854972350033
37.18341520987546 13.733849700351346 23.29707275002553
38.96982354041603 13.607331962883856 22.374568656414606
41.14270494414681 12.048381355998261 23.084120186586336
41.91850138231348 11.648499686499017 25.58940163966354
23.016403831211253 73.17403141455767 41.853228720997045
22.11812814933002 74.9412966940177 42.13717598791504
20.397651736516778 75.45789965594258 40.01488300025324
20.509372442007088 75.32221900328818 37.84698214918472
15.95250293644093 46.54710442689508 35.41770987337934
15.425473731911456 44.43035893198439 36.412480885507954
13.585540795269127 44.03635712574874 38.47666688470557
51.107130980665346 51.9620429701334 23.610196959733212
49.796217131531705 50.38467218606023 24.52772121373826
48.5967420996324 49.864245503991945 26.88370627897909
48.01234215220678 51.372850084185494 28.73892380070786
20.73031666129138 55.86133983205678 22.031850002237064
57.032289773713 28.53820371355105 58.71641950211083
57.84833600069888 27.275709479473043 56.42655386201621
59.15839148656553 25.045511889170022 56.48847455832743
18.283816894431478 28.859684817635276 36.06436832555549
47.15465804406421 37.14729950153121 57.58006426090769
49.08254555117529 38.84330253916677 58.29128117868973
48.81451760556448 40.75313750528747 60.49771123132387
49.151477079929464 46.96322437705428 18.409876754386996
48.95676408084438 49.221644039644055 20.014991137829373
47.00712425950961 50.792233606993804 20.453423535771336
44.82401541907809 51.19490278160707 18.800194147306062
59.609006100599366 23.644899324556228 15.35102271703291
58.99061077634094 59.7982131221337 45.33829082625832
36.611196749594924 34.32311865580647 59.76774533099523
34.67484678589636 33.02255444561399 59.30984949135584
33.91602949911148 30.502440872979207 59.93395507896483
35.215872873175655 28.818156977885025 60.70619529803063
20.993581256842134 18.446626673380607 0.2651592914129693
42.35431583234054 55.519044688581324 60.846976769406055
43.10155328852689 56.47316193965754 58.77679402100362
58.89615193247069 52.32286050826453 3.7849296217543738
57.10065920315585 53.53327317778616 5.716102115775077
40.59089117231939 14.792246635386812 20.300496704028127
41.37766049276748 12.678756045812436 19.83412321483423
41.2679694633622 12.061373078160553 17.175701647992348
41.24903065102873 13.550314651806836 15.368767320857026
52.39650551665656 0.6017268218455971 31.33287682149526
52.52592135166892 2.6828903749150115 30.03645566748678
52.90974911304114 4.800206302029876 31.126630095363495
52.519838729034745 5.867563230675354 33.474014094782426
57.884083118930185 31.373736539845375 57.762872718763866
55.385643677782745 31.962224160952967 58.03669460901157
54.07387194818688 34.071747099834056 58.03572421596099
55.49738505293037 36.19116916170042 59.779036790289226
28.58732261285941 54.65693691286273 44.80699869989393
29.42080225632648 56.82162719782225 45.17612145121763
30.388487990528436 58.110001473691796 43.40152984225591
30.665919015057547 57.601441462564885 40.82842661220507
52.643353977746344 75.38110694996553 46.76900569346779
50.59269306366692 75.77246132852545 46.17636193551039
49.80566296786453 77.32807104626673 44.27560751151244
59.58274945936947 46.27274889002584 41.633147940963426
42.34120941959525 77.93635388707794 45.021720537322004
43.435203462272874 78.11973256492614 42.680453138775384
44.970283901120304 75.91896487498393 41.87695137215257
44.60904221611351 73.53181543078261 42.395161948149244
17.558173157787405 31.220798669111293 32.04515411450336
16.92297907753707 33.374136603643855 33.17783125411277
17.860086343600592 33.09661471938023 35.794449209905146
19.76811725894625 31.596549237453456 36.55072973116617
25.021285498513368 17.84668576198366 37.392984587312334
22.24784198442385 17.58125507926378 37.982794183976665
20.850507904509573 22.081526529055157 36.78937208997586
58.990706501825336 37.00184291913428 4.3657218813511705
29.617383030241037 42.456550126631186 20.51664413566796
29.10886345535108 42.316224191113996 18.415534726468437
29.097464653203396 40.220726871750365 16.55067560530204
30.686675181728944 38.87247467164623 16.598949946242843
46.3535172326611 66.60946222643028 21.988095515985258
46.072925531978 64.3509361904698 23.168126258288822
48.042029261325226 62.57001923589963 23.632400694754146
50.6231330780855 62.818563628067615 22.766283809985193
52.94616761884872 31.60963991643811 24.97576802224797
53.34546542809613 29.624641247936655 24.360795197919416
55.10590546889443 29.000031563844374 22.675649643069768
57.49092107498765 30.51658175854664 22.141920346164078
51.71850228913088 67.32821588141582 3.337849693448099
53.25696422929575 68.12805013144944 5.01361652778711
52.68492629538255 69.84231617266266 6.929905618346706
10.522418964176145 11.328916454316593 14.228718488857075
11.66893701042046 12.496263909670832 15.856219149756713
10.936541257115879 13.980676281462053 18.08856544280798
8.934658754742077 15.408957520085938 18.246719475571318
35.94410851289635 49.321083311800365 48.98819583343489
35.46061509538231 50.05746092834057 46.849737018065454
34.98566427453014 48.77351896931547 44.945858311706594
33.45744973540805 46.545297753500826 44.66760381677714
27.175717791944354 8.722947443591083 31.2088868056379
26.780760042919262 8.637253566932642 33.359802121498056
28.161334005929994 7.000836284919953 35.10236960828946
30.36628921980208 6.292190731648706 35.334158759020006
48.59923713644732 70.9079414776205 52.25444912254046
48.09065858973928 71.02814579491225 49.73686732494693
48.68993989086261 72.48240608506109 48.02563424856925
48.730370176459395 75.30796775533642 48.26125596459535
53.731895845847866 64.89724080369601 6.098533651883805
54.226322300443805 64.42261881347396 3.8207174859624233
57.18856753104097 63.734100520710335 3.653328255258823
58.60256555045213 62.90114562011007 5.021622795486566
31.632696595360535 25.273751155219347 53.7080718455388
33.955591381341236 69.24855238137113 25.080964524014334
35.62709245157929 70.86792551370522 25.179593948140393
35.981011907775695 73.50730522609672 24.733469080308865
34.139410432745755 75.13483848215455 24.189002774835185
45.019873702296586 38.68827807084947 41.97662882765584
44.30129866530924 36.78883432823131 41.3218429115081
43.45469009441507 34.79374856971818 42.677021305508845
44.62130557141708 33.19306648785215 43.93948430440223
34.88225113199495 45.1632530695159 39.757651098483734
35.10370917564977 47.06571542136194 41.26007371602734
34.79012151410995 49.61898722798875 40.23156022237557
32.82288586291664 50.28856939212061 38.798436158076974
58.03500885403126 12.929046650136383 0.24465865180143576
39.61953095901627 36.189553468146116 34.18381219186586
38.46948272090576 34.68314281146075 35.592118943194585
37.642571785181396 31.908081376850447 34.96703053380562
38.470082763414155 30.51474728676342 33.55088387811098
37.695453375008384 41.60386706423766 37.79792672063196
38.12828586273547 39.4457946769293 38.14855415046422
37.19360447063534 37.2821734891779 36.94967407867144
37.54608897741902 37.58766081433651 34.262242984245326
23.749249283596757 49.3576929396023 17.026108224518204
24.023332155301578 51.44320044439494 18.250534371941406
25.741299889574858 51.0959095187501 20.56378654087162
26.374191011732133 48.753427877137 21.54666950059011
56.34479309974484 40.62353209325511 53.23108129152482
55.5867448242212 38.65498517605325 53.77029474017238
57.00428824249527 36.40197014893464 54.81549692643867
58.85100971138903 36.42884725968887 56.330493428838444
54.420431274073174 85.56232361537495 29.812719272062793
51.81190431808665 84.65525913718781 30.499469936450218
29.027146751904414 0.1753440495799623 32.45481754800524
27.73658088818245 1.7100598123781947 31.82766231650182
21.11956116461268 40.40342827946228 16.87057713633322
23.461648296681275 41.05316207852762 16.793858494033355
24.741924061688056 42.790457212821 17.806189176368996
23.743470840489717 45.36738614929805 18.600649892181057
4.416314475268511 24.251054407836435 16.64885356300501
11.006557612973626 17.693074606453088 9.991132144412582
10.549307822265115 16.781256274091 12.12857578865277
10.892631376372861 14.27576767277233 12.863120419672203
11.117321931986394 12.111819937945418 11.530213060038228
42.48627457194915 11.3819145323787 13.590082370560264
43.08669056035042 9.353449041372283 15.127443327293443
42.192007206952 7.314719070676136 15.719587693743396
40.357462654189426 5.838696159309244 14.991940710889267
41.93429615797353 32.85086081007457 1.0696556742690504
42.34665720702355 30.539141428821257 0.9538706385881062
44.19790952030571 29.00437701677628 2.6183841010399522
45.21676152534018 29.372642583741904 4.369703144749633
52.716458301804764 34.305403677493445 25.990310882408743
52.9693762243541 34.3427821217222 23.763160147877148
53.58972176794705 37.142043595095885 22.873003917294838
53.11877239641118 39.10746066493434 23.872648333035382
41.888488111901765 53.00797704866808 54.676846000348036
43.02784450760955 54.05572022017034 57.03633386905571
44.72101176609844 52.874089224442166 58.580627465454086
46.41801885535344 50.981937493889 58.327451363487405
39.87036532873192 32.46097995499763 5.103910351251667
41.71785263981887 30.899137173414523 5.65394659124122
41.99506977283029 29.226826550964617 7.514551210399849
40.57885120376245 28.623154102106792 9.368971140372235
55.3000525307734 40.10727066439702 56.11405087466666
52.832675172929854 40.83615547864055 56.508094423002255
51.37257836293711 40.286275255865554 58.56663443326592
51.804283618013145 40.197838734717855 60.98031008552866
58.969958253311674 29.5884550562573 17.991314077569307
59.751659691754504 27.604991144639932 19.06000383480921
52.49952458588667 72.20533770416881 44.57101224930384
50.7469896216779 73.21701913701223 46.17710070805928
48.12252534801616 73.69623791289223 45.514190873669804
47.41019427651713 74.38194382121382 43.40083362551755
40.42638760295349 53.623093518740475 20.516059283153847
42.883797825712264 54.477833567402264 21.675438937669202
44.953086548117064 53.166639490650006 22.32588891098329
45.35565580163815 50.49298903342313 22.709610033468454
42.33911912407646 22.05938691342346 41.91629586459305
43.79451530966269 23.33827980668844 40.474594612910664
43.135685970607014 24.89674587744567 38.22167522198026
41.31594759187819 25.93917086638629 37.775221451642025
59.89885861952289 26.126636866459368 21.748591054912072
34.37783120876235 55.45252803288392 61.22813240945211
35.20550045401772 57.56349034209616 60.5354979916487
36.9893838054111 59.06344239160453 62.03031696463481
57.35822993975378 61.58873622177829 49.63439920211186
54.834596101882255 61.5583320740169 49.7922553513845
52.744338767932994 63.464707285698054 48.77437060021431
52.73414352011468 65.14629739600775 47.78457276604442
47.6943392453642 13.139864053838831 36.41349094612901
48.56359970457418 15.554526001884199 36.61745726524044
47.29904711504549 17.695625568387502 36.98238275059533
45.051415741938825 18.412201706082467 37.42768827273517
49.48745108221847 70.81851645326344 9.320170440420132
49.834827964496036 72.19998150985275 7.718002387973236
27.697971203995394 35.84664413417104 16.849740421366825
27.376635665745532 33.802933466440344 15.506905760081679
27.53878097588434 31.200930016910014 15.799648247751819
27.92516204545407 30.02070497224229 17.48904262919773
21.22663843820848 1.9269360678268312 11.106908630733653
18.603508325033555 2.0623968600561544 11.94710332262833
16.563054418966974 0.5781462027862557 10.793119284567803
48.50333142275304 55.189096712720016 18.945117204332455
47.78406862383986 53.94506243990839 20.577131638702053
47.51139985209638 54.0577071229889 23.140070624593754
47.34987901458368 56.071253089986 24.51902888349807
14.933615261063434 31.985579789230314 34.555871692343835
33.243562301723145 7.9561517949877265 37.06660498696327
31.550529412955576 7.170863724974328 37.77148826093336
30.85536437593498 4.5515641290396704 38.7207999512512
32.36490092008697 2.6501660581688884 38.66133417164584
24.42338558565211 2.5468860892060943 13.79654777833911
23.385280608282173 0.8610532760331718 12.726610791060983
48.231760371546365 16.08371991135092 43.061332319332834
48.80511029325114 16.67023525741786 41.17537180899713
49.755486233957505 15.523379446002332 38.93129411474863
50.292470629643695 13.645198222571713 38.636246227196715
40.54246522866622 58.294510316107 59.23880532179834
39.54616690312083 59.052557376677676 61.22043783783118
40.05443831141202 63.65058162862808 61.4162408272674
49.5918809967976 0.4491336657009887 17.88686990678145
30.21666872095091 0.9133447553843712 34.88295030058026
29.087838993024533 3.015801376364515 34.23972045452907
27.54234661104662 4.41727285849354 34.94379132463804
46.462949848364204 52.81212109619167 16.393564903110857
45.95833370450036 53.598355922199495 18.51741275913866
44.13919192220543 55.18835791364242 19.377644921566244
42.33109367069325 56.44800162922186 18.51530438376091
44.72616459200867 57.789754914404455 18.84435762856649
45.730005294435195 57.81361743082281 21.003388324530476
46.854624585005745 60.21386611441875 22.306939943583846
45.14510527375012 61.82659435455865 22.792578620930918
58.13984199594339 72.8729065486447 3.7524441878440213
56.540065455536826 71.46325214671407 5.372565586742084
54.80873274731932 71.78797718394291 6.595367659433552
52.98936876136287 73.7400448233871 6.4308855094798565
50.39847667838548 8.705007272853276 0.6063692240672207
49.981052473180924 11.167330601596879 0.07034439439279609
48.007402858720816 12.919039774884348 0.5329300604811891
45.617485201114924 12.27725339675624 0.9795258154872863
49.1953321347345 26.167904775822706 3.7119944694389027
47.020644771129504 27.004688977326783 3.0399709006415065
46.94557379350215 28.26948970063921 0.6054782111190934
5.043453804382978 25.458101640327754 14.198776141341481
7.078409765093177 23.96726980664901 15.022922879788327
8.897417330801527 22.85740488056306 13.705592425588
9.802481778189119 22.592403025676358 11.683232783454654
23.65500704444868 29.621461218042054 8.229992129131881
24.209318492888848 30.78112080825625 10.10234708813137
26.240081071754283 31.268923909630747 11.414373019061596
28.74315278744002 30.775031244531345 11.054293481027251
59.68809521674468 48.244992360658884 39.492900671511194
59.536349084726446 50.05798162687823 40.3699977007681
58.04390920320606 50.45079834616248 42.65646013364916
56.09498388226546 49.18395114369323 43.35707106022275
41.83662647296523 36.83016679485497 0.4622911880623231
51.24558690671208 6.920293367311601 27.110433360289694
52.780714136662816 8.518448454994923 28.292563308341833
52.834624492307746 8.98576920190476 31.104353174447606
51.55728441137735 8.387662088511178 32.88548560595491
38.253482549894066 15.975106702413127 52.84575078001415
36.86032832249239 14.58794380656866 53.41363676648175
36.4507451686062 14.653577173431264 55.79446696926655
36.46707136681748 16.790749652412927 57.39542343781054
40.06096740342421 1.516555446930859 17.274465704861658
41.84776212792177 2.871729431997375 17.33824574068407
42.314545965450556 5.340787259086112 17.749673248097558
40.8745505098461 7.197174018756019 18.44191270843784
25.008368768435886 22.22339947563117 21.856403049205397
26.330707398251775 21.63830631067014 19.818122657433175
28.489621822520327 20.7207067076777 19.413045130015433
30.006760878533836 19.38797027779881 20.484183054127943
47.343052391657146 68.27399236575715 52.18246756439655
49.95654786353557 68.79221361931104 51.139264874212294
52.07558289362826 67.44939170737031 51.83801943518679
51.77436740542799 65.28185780173581 50.79650379246544
45.00196428266667 0.14039924448603933 18.63344756593346
44.40687728580978 1.8830062908245095 17.45891148719445
46.2079081355588 3.698971332673483 16.764602921427684
48.35743150041247 4.24567781526097 17.935096211953535
27.914957144547337 66.67075662955112 44.895983803440394
28.592417542826304 64.25370191627805 45.08769739667125
30.93856396955425 63.215918472600485 44.94035391044301
33.214717294300094 64.23017375438255 44.47428673186522
17.426950568415442 21.393032873003627 33.52143270453318
29.90164417449976 36.10713017806612 55.40918435408685
24.883672929218612 37.2644052843198 12.6138185429694
25.31316483201141 37.74196691942866 14.866753921680267
26.59659092448857 39.947842830076915 16.03922993257525
27.386947224076327 41.6255694820413 15.058615609958451
34.47343059178735 14.328148985538215 17.691018659317816
34.50019754194867 16.929846240986294 17.889360310752707
32.56225504116601 18.49772341044758 18.234634367385063
30.38122860818229 18.518753023325736 17.956829427059912
49.48491455237125 47.5321855086629 61.66740374492811
47.79840178011183 48.226502283829575 60.26123552926412
45.64953923553302 49.935413577362176 60.89660896102037
49.71681853117019 33.83866500113969 57.8543561098939
51.41128965616854 34.81935060462503 58.112080734925286
52.750065408422884 36.36052236469183 60.17142948334587
46.595399555377746 71.7715112781498 46.730923170710014
47.62029163944707 70.37606699309364 45.29140091171872
49.043780676633865 68.4136778120714 46.22067551015944
49.195143263424136 67.84417627749798 48.7541280504386
43.36804595585742 3.402932173771596 12.477725464352204
43.77994454492044 4.016668468936169 14.741966293171979
45.19003599499597 6.511925752345093 15.54767725377861
46.8769278755278 7.256813865463615 14.796665397807876
23.980410570745903 34.422513061774204 16.77689665344614
25.10206129619069 36.60233046314614 16.99091205719459
24.601445990151372 38.720794452707985 17.807886418275878
22.60325415107968 39.59049241274824 19.252356817715672
13.66447071370402 10.345258785014732 10.917958781036951
14.165336388280673 12.416892085400285 11.625816857136414
15.941912000707868 12.415659478086404 13.525559571181603
17.773286208666494 10.177515531614558 13.88635343904393
46.78205179503102 6.710301644758513 17.889250995637774
44.73366363596355 6.787640624160399 19.26166818327997
42.8650075529687 9.039279894375753 18.833497298521866
43.6476082531972 11.226371703133253 17.612985517624207
20.33900577067421 65.94175622541303 38.20761314703766
21.26933350220044 67.86662262427402 38.78618557011779
22.099154050776505 70.09672866265356 37.494616263043085
22.29729680237938 70.60517159027823 35.02822014570582
33.15425210176066 0.8045919399347031 36.86232629299066
53.681142775752114 55.30240503054491 47.08905722772274
55.44143315850096 55.319772901164704 46.19955573612748
56.10067786033866 54.02729289624606 43.90976553023197
55.22417195139844 52.03660958019672 43.11963260057788
58.50562359413932 59.416829698565756 48.010872685806866
56.77434002398033 57.85495672046604 46.972029304835914
54.60181712574872 57.82238862983316 48.07048349463198
53.86713163736138 57.930978463108794 50.41029076657545
18.853371842063073 71.95215841343082 44.732992677391735
18.967851996340226 72.63658765125993 42.34534704905605
18.037063972227713 74.42030213500479 40.798147938762604
16.190268242568774 75.59835259477408 41.05076466201709
33.08172171909144 55.57770214900773 39.25928301398854
33.302830255655266 56.670744106967085 41.61449812792206
33.33932155611872 59.29851612860605 42.03156093818781
34.87447092893792 61.09000011565354 41.0861643731745
58.991352511360105 60.271763066841274 0.424355582593766
59.22863093930671 61.874686574093836 2.670971972668224
41.6688893558726 43.80921426971367 1.9737691070917514
40.6849426329281 44.447640466827224 0.37581752421742476
45.24607797445866 14.737559725664116 5.214998635720949
45.4013721565543 14.725415090577396 2.868388377445278
47.289036788054375 15.45306511346754 1.2309710479456095
49.339955911088566 16.545346425460792 1.4311896945912836
49.33823994927735 39.050028401507184 24.001845746889686
50.653395427595854 41.053350473220696 22.88079617522987
50.1341707010404 43.69464359455878 23.432735603913223
48.648901379849484 44.939299095342626 25.040439184956355
1.32701011246804 21.385352532399324 55.09871015498025
0.7436401275354287 23.819185032906358 56.166166340376556
10.677798659701203 71.96555087086895 58.733067451558874
9.188611452759245 72.59399795116707 60.223782662725306
1.877756833627291 50.65510615466797 59.01018649532032
9.729703873812873 3.442855183939266 51.436600388698146
9.582859432017669 4.181121034491004 53.6732767398475
9.713430640684134 6.103803263427646 54.80207537564716
9.093754740462686 8.741695591309698 54.1735822821462
8.364676964621934 69.78024164635153 59.02283087417503
9.091863116757134 68.6913410793685 60.94159743158433
10.151510041785983 66.4879045445036 61.67922446674229
12.232829383309971 65.49052772907605 60.459061123715465
11.250980024092037 5.452137052995304 18.75214618367099
19.838467448949473 45.4006839932485 59.94296436743292
21.8036595559123 44.16098146165947 59.22115429463694
24.013738039446714 41.93213953671175 59.97149073813286
24.35353274305616 40.21533909917211 58.867495676193336
26.220346726217723 38.28893325076624 58.59489352513553
27.83145732165251 37.43701774936627 60.79649541013079
13.77731717817936 26.25433311421995 39.254914817550585
14.122560605792588 28.209606765651785 38.012199374647295
12.566203830736699 30.442725326578852 37.925192651859234
11.203503279869635 31.561198769385676 39.27684398058692
1.7367403925985923 31.00776077539664 60.70341890624722
3.684361625600824 29.101406918770078 60.09110040925563
4.968144628085714 28.002284204016952 61.275873600691945
14.554258604816667 65.9002073728155 61.98975364097253
5.319307917611184 50.19929325314625 44.29203051304751
6.791152499648744 50.77617409322119 42.686242221253536
7.684117970343458 52.865283432893314 41.81947521743024
8.18051662868209 55.15420416947265 42.87187691856037
13.982936049369467 1.8659636849548582 53.91969834340008
12.615978540952623 2.940764924867767 52.25811867562338
12.658064400250995 5.246603909480975 51.1475707563707
13.855864955423248 7.402042083285537 51.6897020957513
16.563444444727047 43.38319881568959 55.167828399104856
17.39215482969929 45.27430868200038 56.78589872226762
17.407567726014154 45.45563100337947 59.288503767706
17.220554815729134 44.239233306497816 61.05347305984462
19.19536238171304 12.42322270555251 37.32304462243916
20.83770271207901 12.991318763536174 35.94980779483214
19.716181573463963 12.10129346022928 40.66249406811457
20.142877880794483 13.599638320407333 39.4292278559526
22.516871748011386 13.511766943751713 38.44142402267235
5.21013470207584 31.757518326331656 58.89689177465207
3.17004707050421 32.59707550739318 58.92370856983025
1.5992714397727295 30.95301650320392 57.923377817024935
1.921232347420557 29.44088675486606 55.97679826105979
4.125841236470436 23.68496136377743 52.74967308049863
3.800568655118667 22.239913241561556 54.567423583897245
3.6035916023743124 19.425820400390048 54.666724555569544
3.1214764182010275 18.00275280594039 53.11329862289249
5.423922920033639 28.95242701502237 58.04213456816965
3.7092167313266557 27.762501950560672 56.76983720258972
3.861221355985045 25.33189899458293 55.383310580945555
5.959065829951379 23.562880276178365 55.929816110229304
13.159183364687323 72.71197218452868 60.89488932470622
11.517858687113923 70.8972983819116 61.40818594174027
18.65357495233007 59.719980860765574 58.3610451717365
17.036732538290213 58.286448140282815 58.85664083445389
16.46923392738523 56.139002350604294 58.795871417412336
16.4572936280174 54.85893389424957 56.94778398772568
6.268770182437482 23.298759786274413 19.268976932122925
20.270882457866705 8.010766717368451 33.04101779828447
22.140337148903814 8.90768130172808 35.01311619572298
21.92457512449304 9.951302726344801 36.927540124935554
19.77853289885584 10.330553752697192 38.6283557497109
10.914520927466143 53.72661866936362 55.049274670914336
12.606397966333024 53.62073180000043 56.51590309095746
13.965503463981095 54.82835039835715 57.961362242211955
13.95368724047269 57.01633603930038 59.07164937650699
30.19469415156309 20.608289037863877 54.89385755140559
30.707566033602816 22.83512161949461 55.275850812164734
4.403828735256526 15.477691811323469 52.78485245605141
5.261315093052122 14.401603883777199 54.58428216515056
6.385086548069288 12.083625889274451 55.02668029376418
6.494913859881463 10.251460830010712 54.03097064632064
7.9163578666075605 64.77705205088552 60.943884702035945
6.860883942383377 63.03376888331005 59.57017539950301
24.40298968594329 4.511931374493818 36.5764882148939
10.579715456151146 40.489236513381165 44.475058894807944
10.526729359785392 38.97364161171755 42.53025330768474
11.398286331229716 40.42068666096177 40.168380867028205
11.236085549825308 42.96652066789956 40.125682898602946
10.107090368702645 12.492026580860504 20.53154300486836
9.35875413354684 29.684644286951126 36.193984128878135
11.312637778341985 30.90705327766704 35.77872935906101
12.11832228130617 33.365806409963 35.49099565403812
11.546367079514933 35.14087673247067 36.49717940591743
7.2335036792403615 70.94107738959966 61.39153346676696
6.200590591898669 73.1302714681696 60.71510228594113
33.1243273935355 8.84593807087883 52.3939551898672
33.924242241658774 4.563885511817921 52.9510653462394
31.684741762775342 4.175816055401257 53.38015994840695
14.831857297439862 33.72559360724407 41.02160102688284
13.992038731951908 32.66339917487632 39.34941687659279
15.9589586578593 31.41267752336943 37.606092301871826
16.438376887449028 29.56833300232366 38.520358504057484
31.183016059534044 31.762279392893884 60.80787121733602
31.055579491514244 32.39936525837047 58.39125398563035
30.096064521534796 35.00646419766093 57.69665305297802
12.022135038007944 62.5809289402959 60.906693135444606
13.444235161853399 60.76676974342091 60.35386352346732
13.87423655591154 58.42055075629164 61.32494862735642
34.235471387549275 21.142953856372074 60.28893295062511
35.73059621532455 19.276358546649114 59.04250496520322
27.25224436386363 32.14257196595206 53.3826794177244
25.4524232741427 33.7819979510966 53.16642734186282
23.96428335744537 33.825594641677185 51.48447852199631
13.835670672722564 20.587597083961025 34.7087703847006
13.481716870861595 21.345606640042817 36.74651111419092
11.982692789935921 23.365153223862166 37.62252640661038
12.081646185889106 25.82408666161662 36.7644955236883
5.944299000826664 55.36450469636407 37.23642459372844
6.591366059503775 53.28132345968258 38.582013444777495
7.259591788307765 50.78011175177138 37.88712169572209
7.20735789037705 49.674044246788206 36.21300976832922
9.875746345671299 42.59714060904606 37.5664595959972
12.332671917502442 41.974156810939625 37.295583085469715
13.378947996490295 39.734663365717765 36.72200403941561
12.484577656458132 37.56865985670889 36.0381911221837
2.2997182661392506 25.17485377302382 49.95344200200775
1.7275704167769528 24.795863533404475 52.03482765957246
1.3328144450575863 25.97760119981156 54.11578906921662
0.13558424614189016 27.6302845326893 54.51316532071017
1.6774615456003634 45.38899700008166 60.817926537326066
35.505423241904055 3.8975876188727514 55.16699221578631
37.744028317157216 2.976917739797432 54.38725193735836
39.443520047753815 1.4653881920141894 55.8340693151313
2.5087575872899683 28.1570588800646 18.771819969549814
4.244473186649039 19.47190058333339 21.791898242292405
5.682180872208123 20.043681631375343 20.47521684910893
7.628173965324552 18.586203694919774 19.17852365227076
9.101194811401486 16.80762327070644 20.41521898549328
13.331670030253067 62.071478423692405 58.1102368686551
15.098416995974777 60.39921005740251 58.41829522020613
17.310786146214713 61.41927921181112 60.08303194742131
18.163885689160665 63.45917047394322 60.31561343368615
9.246673366059438 1.3780423143729146 53.49775167384998
4.982438447751014 31.279372396896626 21.923995546090634
4.2143811773788995 29.20884126031807 20.24497828843327
3.9509636176508556 26.961298088726213 20.79883115916108
0.5635746127360272 3.2067226944403813 34.76244852760013
0.062155570199434615 4.118830662223742 36.79955713987235
19.45708803061786 43.727545069943034 55.29069873328543
20.942568012039636 44.22966928520332 56.53061930546942
21.2784622223869 46.68368827501898 57.69866709585741
21.39097574303731 48.354520579730924 56.99803995346429
7.940629509090275 23.660139506181928 39.71995513802383
9.357612297389297 25.856977659816774 39.36720328154811
9.727851498647695 27.483343530052156 37.490781103649844
8.004814660993594 27.391785910590844 35.38480486926982
3.3648400566647636 11.66210626155624 58.57148597363957
5.861777451188401 11.450065799607966 59.22508001941309
7.814346754731223 9.86956468889141 58.62121403427391
8.028622107158867 8.19133576871734 57.0678849169427
13.096679531953528 4.163258102850913 48.40309734414223
12.079970862905524 2.3003524162259867 49.59195393195647
38.677813234589244 4.555879338943318 57.80951914495084
37.15567716923213 5.7805638606641745 56.266009225430444
35.93032810205249 7.896566611906488 56.06203860539493
35.37767446005422 9.437142374664221 57.87468810413568
19.995564517562048 51.791160570245495 60.094239469124005
19.930359078513206 49.3594152596705 59.99609090251615
21.86913164606329 47.597511425008165 60.3732042876981
24.337051859180917 47.5997034112895 61.23091365884081
17.231898131834754 57.59694387169225 61.594830177243054
10.194954815248147 54.79793469056114 40.65476830400975
10.51508482553825 52.54732215748293 42.06353133222898
12.15571815632658 51.85864239158551 43.55367724467062
23.817702311881735 36.516563793388556 59.527802486244475
24.375229648365323 35.42163291928044 57.30293172362087
25.88832170060578 33.84238091144899 56.63407317414588
28.03449825229789 33.71843359723138 58.267692123782375
17.75412814801932 32.44090631959038 56.98587546738678
19.746016882667448 31.449376780174084 57.42219213226868
21.848268540881655 33.17936923855656 57.07496359439371
21.910812589675327 35.29740886828766 56.43118797316248
34.38233716456696 3.5883009135039132 50.24458963689977
10.896133943855705 51.8091143664084 38.458743066894115
10.149557020504407 50.050692922562085 40.75873189833613
11.610684494797818 48.39124346279258 41.64670601421788
1.166811224419015 18.86614167046815 56.38752418627194
3.5615757710452765 17.201150483498594 56.59824257902985
3.5878367600190213 14.797401345623504 56.67058677747325
10.446822205953568 5.27901390480667 57.16686752794578
11.299942188543003 3.892443268836198 55.5729348306456
11.986731593063809 1.5836001393513723 55.44249411489642
29.52118482100691 18.090088702308698 57.46302754443613
31.524139343080066 18.86280800290882 56.340579953603005
33.34913433695706 17.36326426956454 55.170258401001874
33.02615943409887 14.743194352645759 55.1605051403195
14.847259498787611 18.614767136264497 41.402687056286354
16.84360246682187 19.711975143138766 40.77079808297309
16.63178373861267 21.990151881821262 39.28245980269557
14.514929457024225 23.165546457951532 38.97010023947347
14.816771885668455 36.76975622696597 37.38038132533966
14.360292670682338 34.456515866774616 37.36353411822262
6.055861049069694 20.166620495015497 56.18706960346971
5.837874106146756 18.293018179846317 55.41958731587264
7.633997656436659 16.038820748507923 55.11503853822072
8.709446539624949 16.595754443107566 52.8949474969917
10.541230082068765 50.697484434204796 45.35994425515472
11.91975513695551 49.03882188411223 44.23327701242987
9.1338125463174 49.53162171258408 43.425323315772175
7.221286402463701 48.23890565085162 44.051636146196934
12.320476514396184 45.69552377047092 39.655589024996885
2.2652482087084738 36.372521829863416 58.56216004089233
0.9543343595748308 34.79515104579024 59.479684294897375
18.057607545820645 27.428793688174 37.962941348379324
16.17697739214233 25.606045142394823 38.084967458159674
15.999827934702113 23.760500531511127 36.607720287682504
21.327731577590594 36.633962614228246 58.809779643842255
22.394205974826658 38.57044162869079 57.75523267004631
21.927752418397912 41.36717446529169 58.15909410024304
19.882348958234264 42.358036738046025 58.052459649356514
0.3095943079725875 31.373703236784294 53.361839835546114
0.11488130888750439 33.63212289937407 54.96695421898849
10.767123328642493 8.055378184286239 50.302985798192026
11.51395165533871 9.343827576500505 52.258583782860974
13.076366595031914 11.289576326426687 52.48882329583779
14.396481238318307 12.460588453392944 50.328850641970476
11.952939282717194 33.336140311346504 40.99861880615749
11.671462732545931 35.04117997479744 39.006407687298605
10.054269160513812 36.733339367994546 38.73689270291349
8.258776431198978 37.94375203751616 40.668065196934194
29.787316595910458 24.20021688111026 59.56070600572273
31.442387977574963 23.04008506874992 58.57239112997967
32.060920993411855 20.2354798017516 58.57459196810015
31.08566978718558 18.40097347447387 59.60858776116308
19.141274358026532 53.53546494524313 61.92064435190341
15.257663262109137 52.534432723627596 55.96021545178024
16.143422834505174 52.49422623666023 58.259424532327806
17.074691058814928 50.987679965062924 59.780014085897484
16.917589171275516 48.37376010973266 59.74382788251045
20.41536601868864 19.212293426021926 37.385181883424785
12.843334976726872 17.441836610237548 35.86368871200289
13.6108696774476 18.703611998953107 38.171860277526996
12.34572285962479 19.79926872499834 40.00649752809634
10.148823729868463 21.412321778864296 39.317684962510285
28.2931893879498 31.033111310100093 59.67543190343783
28.178619366300325 31.128658239338076 57.427587694008594
29.27624113234259 29.233857386960278 55.77822158841178
30.293378013393603 27.48508869102837 56.06451070303503
1.7812503061286267 47.22904248779763 57.71824689114431
4.104284846891846 16.02011877616812 59.92773110340708
4.503582656139253 14.035120107666668 59.31275827907853
6.264022696937555 13.410510423574387 57.62761272422888
8.64903830303077 14.92706061827665 57.09388342732319
2.8766195171740088 51.738694741145835 38.28981277460721
4.415081457338871 52.538528991179454 39.96557960894623
3.8430435234256772 54.252795032392676 41.88186869950582
4.89001307389099 49.30771966342602 41.05049673304292
5.384439528486928 48.83309767320397 38.77268056712154
8.346684759084091 48.14457938044035 38.60529133641794
9.760682778495253 47.311624479840084 39.97358587664568
27.199760812489696 28.31669651099666 51.46619791124449
27.42459522530678 26.551399344807834 53.600920847362694
29.516191401998803 25.466927234930846 54.39076466840166
26.461781092061123 25.695932375340217 56.63525894851708
28.30694042206302 24.162317053479555 57.313579338337924
28.99490685162912 22.26865603303393 57.01844762475033
28.017041100341228 19.900178658894372 56.191565473999006
1.3375033244017431 1.239466375120105 32.51126381872314
3.3115259488182343 20.804247363741553 19.255684219842152
4.636591726027934 21.919871544647343 17.77918112097449
3.8745755298478874 18.715882537223457 60.94227396356786
4.127493452397223 18.753260981452215 58.715123229036266
4.747838995990169 21.552522454825894 57.82496699845395
4.276889624454306 23.517939524664353 58.8246114141945
14.400174723108588 0.5576369485645348 51.34680255686461
32.539264510243726 6.149150407235191 55.82369218884921
33.4715237460008 8.275361162316825 55.003528534910295
32.8466608132183 10.779816074978468 55.149757855083955
31.86827178476628 12.218394560242274 56.47821235618322
13.70068470972791 15.923956151498315 53.41511657948543
11.42512308282654 16.375588054031585 52.76942739444372
10.128075481354797 13.99893391598731 52.94327715872842
10.90977691979763 12.015470004369945 54.01196691596832
17.60925569922736 66.17279198992611 60.591152015600954
16.339074242867174 66.88094630168659 58.42371021948663
14.469648794500156 68.98398878833531 58.964956897921574
14.731857247377627 70.47434908985365 61.05240998505319
35.09060100018474 24.761146838148225 61.833697737387524
33.76586025317442 24.874651593304367 59.77038272245509
31.848562352625997 26.151872921247083 58.97809432000285
30.866432402018564 28.46249347519427 60.51274217916766
21.563011670913074 21.306224876035877 42.56271991942511
20.60448935558606 21.634555957646487 39.80036073630047
19.050270813726435 23.140137255996404 38.86634443045989
17.984962155092365 25.414192726930704 39.833511040296976
11.51755771556535 11.115926668548619 59.13086467281958
11.056975847566015 10.53711572618938 56.70055413607119
11.746400367326537 8.379097321817389 55.02022093142135
12.573956565050038 6.238398310961903 55.631922794763504
24.31410362198276 45.89721267297446 58.22925689080325
25.776063148950072 44.02413036523593 58.44791697695482
25.243805196611873 41.985037420173704 56.986376928121786
22.6311777020464 41.87455505426887 55.57278749434591
0.6455683102615964 55.22899531299346 44.27213352157925
0.9929451925391642 56.61046036958275 42.66996546913235
11.486870544170845 28.029211716111835 34.89661623483528
13.424309424532725 27.677182403075562 35.53853042376368
15.429042687717702 29.805407338870584 35.50959478499359
12.095191676451714 53.35600256603447 59.30329329961806
13.733807721510312 51.9513861280259 60.47661608684857
16.022534181650993 53.050716867433216 61.241299990979314
16.61637637759686 54.88744515575031 61.59973189866925
18.38224253074871 19.136613041041542 44.35433928286807
19.08773020504547 19.87010975462536 42.25878671146187
20.606137148498927 18.53107820392951 40.41918912313801
19.834577207939613 16.268579862779497 39.65800934206716
9.297959223986515 57.28338540837472 38.704407269003134
7.6981826835799545 55.87373100644409 40.3245286679012
5.966849975362444 56.198456043672934 41.54733074059267
4.147485989405997 58.15052368311711 41.38284859063897
0.35344936277762873 10.578383635552717 38.66395755059802
0.12501608521760918 13.12553422361014 34.11946193948752
13.32187806152 14.70747621866802 38.24736647826304
14.556654095277048 15.971201689517532 38.587213346105926
17.055205622578086 15.739303312532 39.28568813898668
17.88190438100939 14.206054034645279 40.548839560725234
33.67076418385263 17.286409838458823 59.739605596453636
34.02375663895248 15.796812221718314 57.88372725067484
34.01596156033544 13.205678167198249 57.832000022467334
33.89791041536147 11.283712361652405 59.54019183207337
23.763814398612123 36.72729552982665 51.907407122883086
22.682133011325334 36.649456231659066 54.13186480737152
20.988789667701315 37.93402759618438 55.22872867104309
20.11423125041398 40.25297787496082 54.7817355744435
18.225979083876098 21.799293255206212 35.48848226003151
17.990324517318342 20.213780294471604 37.949320777339416
16.21146749105667 18.633503368270745 38.112228876810704
14.364479988108457 40.58207111692386 41.86795738714566
13.570615950840713 38.818149109706305 40.421001003115194
14.34295270582583 36.39884492684152 40.170875126900846
16.71322543900549 35.62221237859714 40.67614944854007
27.717540785943203 35.36636583560674 55.154786053677775
25.389622510273806 36.64316555066093 54.74716201742517
24.782309759055778 38.95526424146928 55.158777337790674
21.99011792388089 31.516747335951997 53.091084170490596
23.85001552481695 32.42490563900716 54.845371326081434
26.144602584110615 31.136062303111032 55.43892710735053
26.880634894781725 28.9940093064349 54.398938082752466
7.538712804166621 47.26835416711832 33.75496775431007
8.516394661961847 45.251308386838 33.58773980812893
10.149469739403232 44.68224192657129 35.37631866375288
10.386748167349834 46.28516543382385 37.62293505382734
0.4980731391316897 0.9558252851908031 36.383152775750396
0.4963571773204795 23.460507261237197 58.9538088280488
1.811512655638978 25.46382933295071 57.83275925638899
1.2922879290835227 28.10512245428879 58.38469868507234
11.423177023319985 95.44447321065904 46.347900752337885
25.55717384573326 92.02531759521476 31.59763437041839
26.795016755125094 92.75649779899685 29.987543527557058
29.492298378173277 92.55610718842645 29.310771049891898
14.089076918364716 94.57166096016368 46.399634742529656
13.86229112431769 92.19871544991865 47.65354124320606
15.45278356246745 90.65670899544607 48.362807381490946
16.392513210126562 94.50595189608923 43.74665706840491
18.035656679865504 93.74719846258577 42.7041177587051
20.221292756044278 95.0800562121697 41.31098249733881
30.463223718057655 95.84768617610686 30.6106997202134
27.80074328494223 95.68010130791907 30.918103225598355
23.091545290379837 95.44013117681146 25.371952089585346
31.14417411122334 94.13126242700817 27.262080217276317
31.882698103200887 93.55136312985155 29.860444758877268
26.149013768794212 94.75294482211058 25.77671562472336
17.189340494118497 92.22992052562192 45.135612784913356
15.495833975806697 90.97173355234108 44.84955604028143
15.071718181944759 88.608054086984 43.710364271325496
17.034748041562825 87.3957554181355 42.16869506761603
8.70950218886074 90.57680833858147 49.68900999187388
10.218731769482758 91.28170774195742 47.993731224474395
12.001446180418686 90.50439606074092 46.644419478694914
13.403134948069713 88.23726198934922 46.61197103426747
14.57959407155268 85.39373586780596 45.66152522108706
15.825601572271479 87.29443609209319 46.25857772893168
9.658027959339472 86.58589003367027 44.934666529825805
11.820748636230919 86.24019530071327 45.054508575986056
13.727996140122816 85.56449679043801 43.058193384640425
11.648766012951521 88.94696722263323 43.77927673115013
13.408084224325814 89.60828271745068 42.15838820433486
14.564937417705108 91.98282410227498 42.57768676530762
13.523234484874655 93.99256051369255 43.50788025919571
24.349717320831108 95.27994820324274 27.683581578330877
12.927243541189085 88.09061346581744 39.63784619689904
14.8635304947712 87.28465879626042 39.45257006717301
16.955380473361995 89.27206550775985 40.36842836293736
16.498678484418978 91.73166902448156 40.41363612842274
13.190944812566867 83.69337839702263 47.95297293581159
12.273533700541002 85.81277418316994 47.42987846041175
9.646060268315129 86.77042408248911 47.59750015943014
7.580349206738486 84.80095230133337 47.95467346947723
5.869477688676871 94.57490501807466 47.3136646027509
6.449503378436335 95.39024344206733 45.04556266902843
9.0550479729854 93.92328590499814 44.8136416908741
9.541764056344206 92.1681715405224 45.57551754508047
7.2992749832149695 95.24721473058649 50.05535547459848
8.251489660683728 93.351085453858 48.951366911055324
10.525761617918558 93.75439043776875 48.1977433456317
12.460179745821845 94.34951127665995 49.14960332143167
2.0876291909686557 85.83625745896796 60.87629161796714
3.90971648614797 90.06208344618352 58.916255073543624
2.820589026811188 90.76783679456138 60.59926834000312
3.1983247586624572 88.20939435920579 61.592620426866205
60.23122187042289 92.6683351168375 8.225534304450884
14.587369762350543 52.673036117950545 24.420722336526048
37.36390335830837 79.60683821699863 21.64974241815832
36.764772329944066 81.8150894311481 20.909809498657353
15.840121789422225 60.220566738996844 20.876060466479842
17.275508638669894 58.22259774985515 19.940260183425828
18.049605764009094 56.309347515800454 20.98525582030236
17.45116266307368 55.03249348799229 22.51226574776151
33.881258780817205 72.078682266591 4.2719216258741035
35.769073177511835 71.82037269477577 2.7737018163026113
38.25148309737897 70.78752922319768 2.950350395990701
39.357687872435726 69.73137145148216 4.515069101306944
13.892780128449674 47.76349987561722 1.66462136380459
11.904347624250542 48.10515970815991 0.4142300797199221
10.388480933089612 52.73593235189238 0.6259298755987168
31.02215904984717 90.88914016206138 30.151194261971863
21.601560085059987 77.51868493378997 6.792738113932647
20.506387337090885 79.8732639891017 7.269435272015336
21.916911455899303 82.07495840310084 6.9044875926638065
24.349587398487927 82.44322373634888 7.137715949692013
3.588971281565902 67.75162597165077 3.396119902458153
5.436798611511551 66.89562672281286 2.338806441652616
5.198244459419215 65.55148916199173 0.2857246249725934
37.44186588776395 90.44617581555127 5.623562410339229
39.048765081391366 91.9715389916308 5.1994160072527835
41.924033782765115 91.56860733549011 5.24556873511991
42.656799578922886 88.86328118629586 6.039304148452282
47.725550703810654 86.76922841063781 3.709569806040855
45.950168636329686 86.63099749311247 4.708711462145242
45.14390793106008 88.26546994866268 6.286961493149243
45.26895678442534 90.80199157991595 6.046777368832443
0.07234870337572241 92.71730577535506 23.88894091394238
2.234828025783381 93.64114967013381 24.572919947433874
3.237819120824219 95.75744100527203 24.239507006808033
2.967234791306545 56.48628454570741 0.4709439428207554
21.195573791469705 94.45671357357963 24.581117890689107
20.569688353953214 81.52642711304837 2.7675922440299443
22.744561874874282 81.49489870670364 1.9580577201806297
24.65820369842198 83.05996707937541 3.5407559341899004
23.824640324440665 84.4968302426259 5.308718885487479
36.08010037272822 52.884843059428654 3.9284176530371684
36.10625422424622 52.83773389170407 1.7745439926762416
37.4759680267386 51.58783893721295 0.13972994986544623
0.582308723486892 41.369599181353905 18.992230623264085
0.7540787558778667 39.489193629363406 18.169864335244547
2.473200792321275 39.783523131499265 15.571066111591623
3.2370544201781377 42.13458207735676 15.247863554315357
1.9297462739484648 81.52331803404283 20.80816231957129
3.917959160319689 82.45935703591832 20.977111291045386
43.04394455245664 95.44096586894901 5.757609300662553
43.64246880773031 93.89002904942893 4.439376381536657
16.95176273822962 95.9040854322697 10.895688457542784
34.90837018653729 49.94771998837951 0.4732656991346215
36.91503409624004 48.75168661546219 0.5443290982457494
37.18685954952481 92.02187071377008 7.71513576119152
39.782660768747945 92.4575636624461 7.78030972941749
40.374305165904815 95.07062846709844 7.0865511618207355
8.656591080767553 54.140275671399415 1.741867873082245
7.739429090614549 55.85331039026096 0.4271760940123503
7.15762773167025 58.38861349454291 1.2172065522906528
8.100120692138784 59.746813595816185 3.127613462026298
5.244690851376225 94.31575079813713 23.624319419516162
6.1883864592776066 91.89635930299117 23.50886576716845
5.354670997915245 90.81954663566403 25.87926012225374
4.815229011141393 92.213448330398 28.01420562784228
16.760429884911996 71.40414526536178 22.27177562244146
14.559200509877044 71.48116955659825 23.645286529973195
13.871915034991778 72.839196579798 25.7156368145518
15.118403259558313 74.89182984474257 26.785902202101816
43.955839219182074 84.89298218663309 4.755800104399318
