64.76089166647448 42.043605581942 57.44808012879323
63.37591051606078 40.8870206054313 58.393088371441756
65.64740895240006 34.12595941078387 38.072085181656874
66.13271522134896 34.36561431228452 40.25506065725706
65.7409419284494 36.43969083148029 42.015695734970734
65.11127842961753 38.80774646186489 41.58156519952128
35.90998069815868 3.509767028984663 54.38369790174511
36.55989884554989 1.1152709996079708 54.39363721997469
39.44540157798834 1.5464211475722909 54.42626956431935
30.12925161909352 5.03883043806713 26.545798280812452
70.07232606821309 32.02564418806908 48.92006372997085
69.51315523755162 31.727689116244 44.657149645412886
68.31939159154614 29.373907604100477 43.872868294004405
67.64253846326085 11.42287928507474 30.498885708129446
24.17758636727557 0.8406978982079987 28.159246972619282
24.882808728281276 2.010276623524727 30.051705502872473
66.09808692768138 36.59534121522087 50.41001181442116
65.73031900585968 38.82050892864597 51.03440863935182
66.75782386714808 41.02326927419819 50.84032865031153
68.00962388263409 41.934257457710395 48.99264097447045
31.991709889573364 2.895012926334201 28.21898738998048
30.63805730725907 0.9469883143831659 27.12482586443047
26.961995444908222 0.04793738384041531 30.004600599740442
43.504853083037524 0.4580441728922707 48.548137030558635
26.065306360243955 5.970678861571551 27.39675103410488
25.778604684230668 3.565378635793304 26.753945683363764
66.63636862166452 38.178054756559 58.177831691059275
68.58896478645337 39.65628048293612 58.16137913724982
69.24267340595974 41.71298510809773 59.68874610637165
68.08701636383053 42.874188450072666 61.734810512284454
62.70162790096752 30.163642290652046 41.50177799786318
64.39138110664226 31.331690620496676 40.67575572579495
65.6947970430985 31.138098415227816 38.12995592960465
64.88493570801347 30.103622637459182 36.230735168997626
37.99884461143779 5.2480363957506215 51.11939654086013
41.41049320525475 2.509187016966454 51.976076378808195
40.84463982917001 0.760615239803165 50.24662830696889
48.985860706470554 46.56254825406676 42.316934872911084
47.906749888159744 44.47892629459645 43.1872555610076
48.67798268856753 42.133620890567656 43.89712008193976
51.327185423561694 41.385777490880564 43.9103410875229
49.70387572577756 45.5030392247653 46.39794929875563
47.36284562396425 45.46092329538925 45.6323593681424
46.868475124085435 45.99326525006966 53.07363217645826
48.87306433513314 45.520754649810954 51.541013676892916
47.95428363383103 43.56444442358265 49.526038990430415
45.85503774320724 42.723551664484845 49.78490790399615
44.1964864984955 45.14772114448677 43.087409506069584
45.49905262387879 43.09183627392058 43.3198388556105
46.74217396479832 41.69903538543861 41.22869343768256
46.83508589103403 41.51663513124369 39.39460620570293
47.13531288186429 36.737286636559844 37.00433680988824
46.55042639320612 38.984847945991696 37.40498609866209
45.33274738617803 39.978550993450206 42.87777180099964
46.96401058040347 38.88878434621035 41.76195060528925
46.97988938078377 36.84817237359386 39.89259088357599
45.83331405337114 35.48749892095302 39.05881907057735
43.74035441026948 40.81861926816104 49.40160415985618
49.051196415429295 39.434626338990874 46.53213437164905
48.899432291513904 41.73870346769086 46.88793215057208
46.739048724241776 43.32193653908578 46.94515141672527
44.52430660905807 43.10967365293507 45.93086359174568
49.509153504563606 40.804611743448476 49.8938578533412
50.51630291338121 42.90302691284419 48.672269853413354
52.549264151818925 43.12489075643881 47.347007664999765
53.56800031415893 41.040118422052714 45.84788068578716
46.375769567085236 46.90868526912104 42.63730461979282
49.37539431300657 41.11205046721008 38.06160695576652
51.28098883499173 36.188382856539945 37.172916897860084
48.10673418152525 34.054610866497306 40.55674088579952
49.23335653780204 33.620163217099204 38.58138888649396
50.99440440624801 38.56982678630844 44.82273923162763
49.93773715681779 38.919324006515915 42.64688593164713
50.12057793519522 37.35162676972435 40.34944654695566
51.010423505420555 35.0598542246909 40.21266761130574
43.16631154777985 29.6812984255816 34.5325144965717
44.63814247928142 30.980187353986764 35.54305964282971
44.50321082407184 33.19359355654391 37.222455251266204
42.600861619448885 34.32946224860418 37.82974467062662
33.188778152473986 25.248105990655798 28.026124050291436
34.54125859675834 24.497834921197796 29.722721058365483
36.467159813604944 22.947688097357887 29.98604299404971
37.35803983055527 21.106802164805966 28.1663576701102
33.708144115351075 33.91611738954515 32.5426982531904
35.07018619921201 32.4102013778076 32.90142922997512
37.427347028894324 32.90043009830011 34.74004630722982
38.02103552683299 34.82921174494998 35.573065958064774
33.142590842145914 22.665849319544222 56.4210365000585
35.68036105296596 22.47687487220861 55.98851722189071
37.147410594362896 23.798236343332928 54.12100234024567
36.41442593833133 25.22042003285298 52.256161223400966
31.403068439577662 17.462214564378964 55.479092751599815
31.935047273021787 19.332079815711253 53.81331483994388
32.282274645255576 18.55610521169776 51.435485417802795
31.38592673292467 16.370197621781944 50.286029654108276
36.38663350004427 36.8036957985473 32.85085918696795
33.99636151791959 24.38395793410025 63.591857561840015
34.4809707131992 26.437078636151394 62.82185416591814
36.06477226972577 26.307769620612234 60.63663724247463
36.08181203029141 24.745014633015913 58.88609243251814
53.94524089456853 43.65586839874181 26.70747775751762
54.03108638336374 45.01160184878448 24.730696682485423
53.980231440925834 44.27868256754745 22.15558633665773
53.004021455915954 42.57127657327274 21.73981372503409
39.1399212536242 24.471054332717276 29.474579426711028
38.18171203572984 24.478883684994962 31.523854894683993
56.41771781034639 46.193537795161966 23.929551748871745
55.30304052451991 46.389498435786486 21.49687817107993
37.924170021912516 26.62600596981858 27.950603031711193
38.96170019714419 27.513298437799946 29.749919240728456
40.951968342762484 29.25421050805433 30.20338023844961
41.8451383059256 30.851880582086228 28.74192876150601
31.405146600554783 19.500707324003084 57.50100795666027
33.346960364294716 20.078188233242347 56.22911044553148
35.928921817382445 19.979716972609243 56.562354944265664
37.10544446122946 19.553099239950637 58.594976431025465
32.835694234404905 23.353361895498484 31.105545060391442
31.525849515325376 25.58676268060117 32.094935687097795
34.710120843107674 33.82693319740357 29.909727246518305
35.90029266083851 32.23077635068625 28.658332215210187
35.71067255760611 29.51377996187767 28.802707868474766
33.69205320081218 28.534879804650675 30.358974224700404
42.59652835025272 23.469467023162604 55.552732411453775
40.322403803303054 23.03263415471622 55.07311608162876
38.149238332878184 23.27552875397998 57.07479223217526
37.81324993299588 22.626458486195304 58.99532497034371
35.31596577392683 13.38857486293714 47.13189139383914
36.15225488354285 15.14157765190625 47.40286193895685
48.70140548650859 48.78538690356705 19.939814997302488
50.43087074236404 48.21205772128189 21.470031184545167
52.68008130554212 47.17435545568266 21.33760515946864
53.617290364727495 45.51963834373067 19.378155593826502
31.56593240945337 21.779392462531455 48.46941492752665
33.28680587891469 19.426198785681816 47.71275837003949
32.23772359031781 17.011331835242874 47.85824774767818
32.461499633158034 16.51877093768153 45.90930486112275
31.716871702872886 12.504178635784728 50.36050618569519
46.0579231779703 46.784889747965984 25.766707154286124
48.299157942023925 47.50924692262964 25.20895243807742
50.08551083691377 46.74988568302273 23.567228838194087
50.578573612419106 44.57139594765799 22.58488666420217
35.75753317955155 25.69335482749553 32.382390498459664
36.36315185855877 27.742544870099216 30.699688405179497
37.59197692019774 29.584968642280053 30.89451736448982
40.28859543517181 31.35546400068881 12.613466802809235
38.39609808993062 9.997575453928096 77.09469960314539
38.35201674026371 36.417994655841106 30.94038088057895
36.892359578533416 34.97069759570107 30.821678525838426
37.651674787492624 32.25408410001653 31.125502378762604
39.58665325522252 31.510870959297087 31.399788411633374
37.62481526093988 25.04219778471672 49.76868707632948
37.57904903834202 22.52183934905939 49.2654629322853
35.52185750475514 20.97025602653831 49.58763485074301
33.41831674857245 20.952427053373956 50.36581411003232
38.52886745861609 19.708306910938997 56.05540502099997
38.43692189228501 21.128528704816205 54.17058686596687
36.75371192985701 20.67879222169693 52.03474009441468
35.223203406813504 18.88725337129689 51.71319924341695
43.136178765707136 23.96516742606129 52.69570974452413
40.90552808035249 23.714285672839143 52.55279120841115
39.09536031434074 21.931027658569956 51.53492307037769
39.42464978748041 20.273346674193338 50.24905093944244
35.26546680080727 23.078868877753496 66.65081623824848
35.86668490650338 25.043619358461843 65.33336133804677
35.532648475700825 27.4346669494352 65.473033672996
31.866835512044776 20.880225192336244 28.33274154568552
34.17936811665332 19.98248833479644 27.708502476029626
34.83788911650433 18.45073832401555 25.620156726073144
37.98282464509928 27.979178266908058 50.81848952937472
38.16328815691895 27.142569653258544 52.968454577711285
39.644406391981015 25.848912591325988 53.78540193627049
42.20938381522609 25.860414729582594 54.33791324797776
38.34552763626052 19.74811126623781 60.84239747856011
37.06900012665629 21.514930515611233 61.50334557997988
35.504645890558734 22.1325704062776 63.69609281414953
34.70611886845271 20.98620224091104 65.37611940035156
42.07447201970657 33.15848620758348 63.0764446810333
39.76510512683151 31.839056354682583 63.28563293290304
38.46483803197323 30.47561175976296 61.426965543468555
39.07778564670321 29.161385476010707 59.70372838609148
37.579158383800404 23.461842923469398 64.17530120580051
38.17854346646876 24.014194280024515 62.09439079921148
38.48945184705202 26.851080933028957 61.496483054152876
38.523444039846495 28.59058513622732 63.15862377103382
32.74587306837919 13.625789374438535 45.84675556670797
31.898738396609048 14.07382342050614 48.18589837753572
29.550972656178303 14.133424857721035 49.18483539256234
58.41134719297202 39.13638745549699 73.5758669434221
29.932623727453063 21.629894554447095 30.313478803545934
31.00011179204922 23.92801550348259 29.001687358416
30.03162731708228 25.571776435019864 27.671275684958925
35.036396505999946 17.742725710622167 43.97912560952037
34.912942164398906 17.503698830247227 46.48795906188518
36.55150754467041 18.760811990005635 48.31083501188983
38.654349147171345 20.325942412437005 47.86032435890311
41.65417969785877 33.40139562760337 65.64271379084614
37.17295752604691 29.721815641215557 67.07514160072459
62.07629823611839 41.98286045220458 66.28776053009646
42.096437206883444 36.87149901327346 32.07306446235994
39.99952721486666 36.28109738617995 32.84745175957902
38.79678546113573 37.229485447389294 35.12669073289886
39.29822517285463 38.75841237623198 36.734268288590336
36.12878950513355 30.180444871419798 58.70655819700886
34.826275273303246 28.629984586308332 57.726632579548735
35.76371911722404 26.332536764032653 56.53171908541591
37.815947316147465 25.789680006304106 55.67494972427175
41.51819075465693 30.392806205819436 33.84539194780675
39.86092403415 31.662531214471915 33.994080962347326
40.52601705098607 34.21001856787821 34.660055677320635
43.104596123914625 34.33285106157604 35.4636452328899
59.940085125368185 40.47646664001627 71.57612432960741
61.33078490530745 41.85222559260284 69.24377336150499
60.89018502131494 44.21195749903693 68.49392012524505
41.45937166175875 35.81281081727881 62.74007264714088
21.31407539197513 2.3865940630026037 42.734415307351
22.001154002205503 2.3672862990140904 44.82282008806196
23.108985422169056 0.0702262655859548 45.45757705847864
23.18486743685012 7.438932030947553 56.21415871521673
22.257670467263893 8.339211717247283 54.22906660435154
19.99012888857166 8.804857333742591 53.32387468895957
21.776157477900334 9.309910991934004 43.73521515677973
21.242753804204302 10.46587948003653 45.80629710173448
23.120591622776217 10.224570199179496 47.876073399370185
25.512504224706465 10.0888986557187 47.43008512909637
17.59812548213564 0.27089316121750906 46.17739456085839
33.50182162632097 15.454873301461845 31.271561440405495
18.550605066190823 3.493216869271245 52.63253698506663
19.213056770675287 4.803690814014382 51.06588732184125
20.584342571131934 3.7219606576151376 48.66191134200323
20.341615547261625 1.6644062510400286 47.87800551155938
17.81173254604371 2.2012080016690114 43.14204951042337
19.257583457959093 2.5238123907652437 44.94430708328978
20.304166999914784 4.892882841775066 46.127573104894886
20.42422518539888 7.077196657259632 45.219100735343716
15.882376051286984 0.16758392851502887 39.84027114980098
22.312399371469255 15.01408522210761 46.364019327956804
21.732489831846927 13.03704730775417 47.649359499489485
23.389378307254113 1.9178431314459243 47.43084813950261
22.654804775969453 4.124786333360417 46.83862943657729
23.80117158138006 6.472295838272316 47.02878107425583
25.59398744989642 7.449539482156197 48.23788229135839
24.335183175069375 14.783239818849305 48.273362588957035
22.98368305502173 13.616091929444869 49.99923501503492
23.77065699445273 12.020992263468404 52.19452888864735
25.402395380487388 11.052710640062598 52.63432530674965
22.29157931528589 10.80087702225295 56.56378878014564
23.37695449596156 11.190643853736969 54.57840050662385
23.289683599623494 14.187518233655009 53.7546904888189
18.452745636792155 6.946046782926708 47.53354051692314
21.072790752812423 6.92618822921176 48.70988740846341
22.15186212754523 8.383691775718903 49.98182942605486
21.054004301964646 10.508123429495448 51.353186266214
24.532315050381325 8.108988077058067 53.258420303577935
24.44916294588505 7.363053207219958 50.9358916885897
22.196100913557483 5.437556921327643 50.81078045133912
21.56953954391838 4.1190725409223585 52.30750496659692
53.315638124187174 56.62356022297751 29.772499348919837
52.610406894116124 54.415347643676405 29.910949532151474
51.84468572124739 52.63913833465143 28.376487554393048
50.97847169829223 53.12308744049466 25.982564338504133
54.46713097042814 5.852947985375201 7.750704399226372
25.685900494847147 8.640900965862851 23.768228760908734
26.805378607613182 15.481329811189834 20.031152587359262
27.851646059609013 15.147409773313031 21.79304030179877
59.14365268017005 3.590436097617845 3.641173028713795
54.14291634536554 50.381971850531144 21.99953993479081
53.82310407322441 49.79335606492538 23.947617969722515
51.359269727603525 50.06799863155198 25.63931218710462
49.106327698691764 50.29523021748587 24.70536702482158
8.225919561445854 2.977117893848628 1.7909656445554094
63.17746279225813 42.398875333726075 77.46876170655611
64.07839379688855 43.37709475509872 75.50024465117477
62.87414422797684 44.90583671136359 73.55896948250319
60.550780597826105 44.87029914489407 72.88093011990989
56.396043851468505 50.54229689448525 24.352319865414877
56.9446246024874 48.445256058029614 25.42016759428625
49.486595732442474 47.435382515350085 27.594086403262118
51.1819828734588 47.342462523728145 25.875673008015994
53.73299594621732 47.41551292718354 25.923826118023268
55.212732447796625 47.48685917202647 27.525418780659564
48.79779233373498 52.994745787426695 27.577418257582927
48.74481690863489 50.297986089004894 27.582050824228425
46.94697108225183 48.88638630592356 27.424099773273223
24.10205561043693 18.570098732138394 19.34302364344981
22.3993930153686 17.512938298144956 19.13371564931806
22.54485734828271 15.117224459832826 18.980378755143892
25.04979127162363 13.707233986585768 17.785573222069445
55.26863253377968 57.1613448500471 36.701171754084335
27.79893930512288 20.872754568263765 30.78002236435099
27.63223202545552 19.460608718224304 29.334172305514294
29.04629020955089 17.230282397253067 29.149261292365036
57.66650621128314 48.78365232230725 28.72513343591152
55.57670550242569 49.15778852350407 29.36219573419384
54.27137650160519 51.22558134223313 27.693847581731042
55.44898749483142 52.553538059440335 26.247159165250714
49.112394938240165 57.218081358158244 22.760846523348707
49.955797377446295 55.425464785664964 24.633662451611468
49.497062078163204 55.790127501242324 27.116893023001833
26.516954410751687 16.911215711202 27.71843410364561
26.19445908363896 15.791768434136824 25.531798930636526
61.32302836007988 46.17534762935182 70.61006013919916
62.925310604170264 44.43561901856705 70.8499862502459
13.544557594150909 3.0841462938799253 4.646720132158726
12.211883804215347 4.411695394026 2.8984299495847043
24.232399981570893 15.500362579589067 23.51565678517496
24.03715414749027 16.518872877104084 21.23440196207912
26.09644991437992 18.084531256992783 21.079328119249343
27.344381316227985 19.038130332486226 22.93136309374106
53.45262790213289 59.40702382914304 33.7472720493685
53.06208555943243 58.491793253739644 31.813019918542672
57.107143668761424 46.39037371278761 29.96593134310687
53.25198208725338 52.66934523145014 34.51444664098224
51.67150898171527 54.75044767480307 34.24368625075633
28.948789777110733 15.710507826196439 25.554820952668504
29.322296642320318 17.013269319794407 23.443206350475613
57.23387327224809 62.81664476137263 37.57580358798597
56.24962055956957 61.83311161915411 36.12009445622748
56.22832861661551 61.293168644213026 33.58822910714809
58.05376659011794 61.86133915948292 31.73509742992193
7.764688093290454 4.8025925162027745 5.007296462028478
7.174616976495994 5.167330603013123 2.8026053220491733
14.006242680136108 14.796022929620259 7.130607423011038
13.19739961309401 13.843330317008085 4.926337489176482
49.79014225322517 53.23482415811675 32.74510471369642
50.67640513101228 52.86135146935138 30.838948969060844
52.838626114263214 50.95156443006046 30.0391764917164
53.9486349123185 49.51193756111894 31.386860232872404
23.386149698669673 12.530540195424358 19.458745373338846
24.457904810443804 13.760409512412112 20.694563438201474
26.00096811303041 13.230288124147728 22.807563810658888
25.521711583893037 11.267949074403209 24.670443570198447
27.21921617390342 12.643936602760238 17.100085060683302
27.120826077391396 12.129847553618058 19.700076128966327
27.494978176765727 10.017185863548812 20.792120307695697
25.892114007990614 8.037339732222456 20.67352845392321
59.53387231507134 0.9318291741596983 3.389413402753076
57.784713057792764 0.2938672964456928 4.817878393220705
57.494719259934215 1.4115641421749967 7.180254854603478
58.853318999358265 1.9539383057686914 9.053366356254074
57.57722410027706 58.12424486968922 33.23558326253865
55.69734454933272 57.90281568207411 33.43459377409819
53.79707466234712 55.84608740193989 33.050586337074606
53.98671959360774 53.672292855965594 32.1584547308768
58.97446124424767 42.08573186426799 72.78600917664248
30.114953015510633 13.878962574395526 22.212117481512006
29.52669857321067 13.043586213298639 27.56065802317148
28.921010873905193 12.771548237570663 25.30542367133672
32.28183124082495 15.59847479911456 28.27181118444674
30.076809571035692 15.5070344627102 27.510581718417566
1.498047674920382 92.97355286073677 4.482778253689506
1.1288956313601897 91.65513427434215 1.84025842321204
8.297225996028184 66.62461951596688 9.980681329609876
12.25658725340955 66.67521755720406 11.180253744244192
12.573852348720953 69.04064462630458 11.147987410742562
21.596866716290986 97.98477209186308 14.610762776113162
22.89553220202168 98.96578799085253 12.823707637919247
22.722875672142244 99.00279117535108 10.432938041924272
20.7760300720731 97.91865072103239 8.867584654213816
13.66426124519076 69.39184261606948 13.685246136427025
11.444142999562015 68.66639456114474 14.77785104489376
10.534044957164898 66.50011195579161 15.758962367800857
15.474793460301974 80.97891655151327 25.26763275451946
7.426423660848672 67.89825723611868 20.427043728920403
7.654949615928254 69.93938753853939 19.220377194012332
7.5372060442928674 70.32711179111736 16.59920815469787
8.14946590054709 68.60100489031198 14.73495892717971
2.690372814480375 103.5766763946212 11.902222757609497
2.933826141889971 101.76672540908456 10.022883077484337
23.464572601230003 95.635924798584 8.190089893848542
21.502154781003604 94.84381737351663 8.931187552179596
0.2721892264298807 91.58578028061035 13.515438146902598
0.4427113243272244 92.98353963628956 11.515278246262667
0.5616635181338188 91.98307620768975 8.00230748264318
20.973497859298874 93.2751540308607 3.936066069215697
20.547303450348075 92.24518090252536 6.708527502440706
19.191184135806537 93.6529051666709 8.545026292964037
17.907106239568417 95.27216722292049 8.649738287450843
16.12261836783589 75.74105684345287 14.895899726194251
14.853955462995186 75.84273414535946 16.665020532900254
16.133102323686632 76.66954337395072 18.60241873170374
15.448582626791657 70.07136350948097 10.806842290002143
2.6023901287720537 96.21464709352682 5.039337672796328
2.2770245904512407 94.95345301126439 7.008444696094321
1.057162216401061 95.09354126678309 9.226015099397623
11.064287689494712 64.25290376764775 13.292189071123868
9.11284802788375 65.81399869667224 13.560388647032294
5.887377995490802 93.57247049128566 0.46324642547627676
8.431560642628009 94.17498753888805 1.6339837561189907
7.345927195050572 95.56445853856897 4.090988302261719
5.1120994218367 95.96319908299425 4.450387093943385
9.199691618716724 72.7827292283108 21.99274879223329
10.886872182576377 74.0199662356483 22.423298162561697
10.212054113675297 76.8786638898227 23.10728173589412
7.63674092692284 77.43400468645638 23.27860698611662
13.582408657215456 68.25229262021436 8.225009464708888
6.467635535007481 91.24625792694367 5.114629370108231
3.9327149837814024 91.4741427226942 5.0125444606523875
2.1793566564243783 90.01099391171465 6.3507629128745675
2.5715127138110585 89.12326538592859 8.724607104940954
13.80502962032835 80.1421867457582 20.440426916688335
14.326469541895877 80.13997050284406 22.731340839929295
12.66464653095488 79.14725335475416 24.595589250616523
10.281800395162874 79.12161350770243 24.839640878772453
23.136489416697124 101.24404265561576 9.132615176930884
3.6023413868809877 89.88370430823286 0.37347050980128244
3.7322952374611247 90.39646124751366 2.4082992299726587
12.950209361277095 81.83369518411256 25.51126279898476
14.512879905937554 84.11015653713363 25.78868732215692
17.321884562838093 85.10229210761248 26.791825010967287
16.577456323244764 87.64272881822643 27.677445290565736
16.732049828080967 89.60082544479219 26.48441202283425
14.177394992799531 89.32212242655545 28.04183508730494
11.90813566795076 88.83634503661979 27.369744143230584
9.02335715204814 73.07836898342165 14.034316290726682
11.075360216168468 71.86836310689912 14.71211697663885
13.424099571391547 71.98611234403711 14.370923528709774
14.928454015349521 73.6608014661047 13.336016984942464
1.4778965632008205 99.60287844486061 11.607985660747893
2.5707407448564434 100.82186972726917 13.472497328172405
5.590827259134918 91.69280868064165 16.371192634505913
4.258153469199366 93.02035778078772 14.622902451931875
2.977897722820424 92.65765797626442 12.96730512744714
3.2213804205207546 91.12630178491769 10.710346852850842
22.657406711363958 101.70004952710579 12.094113064883448
12.500577061652862 76.26240313545583 24.068671812448525
12.70959999835614 75.78328130467305 21.829769027838356
13.982211055920233 77.32558894451363 20.548999533763396
16.191848285116365 78.76287358822178 21.246978541431226
22.376750915749582 95.9012059916114 5.597164975498906
23.506998005378996 94.00344923655294 4.2161999787163325
1.4234214538018672 97.01326350610952 12.527185404021928
6.052512345120148 103.40468531638197 18.855079925358222
5.243669278078032 102.4519927037698 16.650809991523666
2.703280518062502 102.48911990410984 15.674541315201813
10.398473311115223 70.63929664603717 17.746575997491846
9.824984057110422 71.96408477836528 19.370343968497497
11.428650502131259 74.42204046781532 19.477493418748345
13.421440225583217 74.7085054985084 19.144671156533217
13.89005882139422 89.68763428527564 25.217578856960277
15.309188092267563 89.12165301849552 23.65105682963159
15.4280820785228 86.66078633750917 22.654190354577473
13.694707413709814 85.05439822985265 23.51251720063801
14.86602615002874 72.13067955525663 16.827723851791404
15.432419363653684 101.13920258218606 31.183217875686026
7.770956598051341 76.89637891574668 20.43485846910797
9.374087002598293 78.97419234321036 20.67665586856574
11.84428928048407 78.43410846254937 19.34341120121068
12.157571464521151 76.51685729948706 17.446000852197304
1.2691275040462306 88.64853019325236 1.37404574367716
1.2786508660941742 87.83717271275972 3.820502366162895
1.548767887185219 95.46083131099961 2.881458448331441
3.125623983212609 93.65879131830195 1.2326247205918508
17.100156069929728 82.01795636216787 23.27344285601712
16.809278380625123 84.03754010460963 22.920485640259766
5.343750204550434 67.09093799567387 11.47676390514482
7.1128144722455655 68.30587913960943 11.92140923513238
7.418847704085233 70.84149262865573 13.080231377909408
6.036165021646319 72.7162432072828 13.248758951802326
7.175237344810112 72.0887449393335 20.809206157276517
7.639596270802967 74.24675006329541 19.870122386253676
7.339594058529784 74.33191188706611 17.126138103809065
5.747111305329355 72.1596798712126 16.102128496222516
18.701292074139165 94.63807930736351 28.085524375867543
3.899389274346373 94.9862383280147 11.957373461784721
3.131884794330272 93.64185043782712 9.802559200966632
3.92867413245493 93.09058874852307 7.713695074779834
6.2132814073900935 93.78219848721834 6.215189442207478
10.180696392361378 65.49535991428472 9.590635937768466
10.758271404945443 53.60370647010518 4.925112804185543
12.011290007113011 54.488349175168764 3.004945607787765
13.141165192854622 65.36002034205475 8.784738517296633
11.63290616676597 64.05254609373723 8.114134021278835
11.073578407463911 61.59806043632546 8.130915173126205
12.786077168465397 59.83523111543892 8.32169784107767
13.894247741526636 59.77595988879554 2.8762865776117095
12.18490337952749 55.51471434280192 6.4845962822112
11.760517465181897 57.017848631057504 4.923108406629942
10.958132726929387 59.25688956600799 4.884645506328047
9.178035618172148 60.73850617918404 6.472724462574746
9.402114407248893 61.72138026440577 10.37975234119061
11.043483900023338 61.782777166485154 12.031354142916701
12.512005987086924 56.1295624375552 0.12857090379601038
14.472527066878024 67.40083539633693 2.4131690780582136
14.282024669706498 66.03477242272265 4.285312057273292
13.13504614278119 66.66026351097241 6.768405125456846
11.032301984773381 60.13487119045673 0.7361031607305236
11.1713426322801 59.138674481158205 2.3734813516591906
9.965497460004723 56.67936772634603 2.69424980621734
7.524117048971643 56.626735471560096 1.794490579339617
14.731807560465393 64.72809488967255 1.789956151223037
14.616178365496921 62.613549753677624 2.516749184599869
13.404428680270241 63.584330855598026 4.523909758617895
11.12258982710481 64.30563652066438 4.677075241296631
6.6881317478429745 52.70929450397891 0.02198558784239387
5.100926251722754 66.04184792089741 8.930614428237092
6.602190132610484 64.19646194079523 10.355642200174103
8.67144201423707 63.69178818352643 8.505440602878197
8.622914013698116 63.31390141745067 6.252530983098599
21.033897250610863 101.8559445005693 8.253799444114007
25.034064391084524 99.46661412639905 7.9813650742554225
25.283485226060673 98.69266821398799 6.02365960154377
23.416265407118416 92.9517356129386 1.489807504842842
18.660083700727515 68.04814969992076 0.8040582616845043
17.148910253386894 66.28273025860118 1.6075376644094703
17.20372425684828 66.51345908457334 4.152117490040009
19.27703695426448 67.27576309649729 5.607528905281814
37.47586216321004 64.02860124455829 6.048612166250324
13.296398178007442 53.246920028072765 1.1389406454220727
13.22059935425018 51.163532314176955 0.5233636517501575
37.119826159198496 57.70120087014915 0.16361645115532858
22.670316640347636 34.78668540940247 11.809486524098656
18.198340714532044 63.09975331540343 2.6999509411600005
16.72000023054156 63.973298197566784 4.085336703034231
15.17625543092886 62.456435974441234 6.040841542328924
15.735349400485076 60.20484036603398 6.915581502164139
21.909421578180915 37.74657502486354 5.325016934608924
21.508630222720388 36.061447749465636 7.171154737903756
41.92985841232312 63.33011905558851 3.5066082383381385
40.24229407039263 62.54005775624654 4.894718416468267
39.90794383281565 63.23971449243832 7.458989745996919
24.454416211480417 33.63583941731965 8.903691156301258
15.094647721983433 56.147715496774914 5.640928206005819
13.904179006933285 58.44415022712714 5.085788453558714
15.120680119283499 59.7886178561793 0.8481393494495792
33.1709667510246 62.1713672402441 0.7540187810506552
34.34960499135792 57.7456931325161 0.5478402131230651
33.58596293622885 56.785050943570255 2.5417116312297092
26.118755610929192 39.10687862173738 10.643199955210603
24.354107564106155 38.13237018217847 12.248948052275017
20.783728261184265 38.92869395398459 12.021953318887263
21.467029730279123 41.46990988234525 12.12314567633573
26.50816647393786 43.53809930534576 12.28446414225377
26.31530288273595 41.22405502026075 12.911153956608231
24.488283508086383 45.09440877973193 12.334949454927015
24.692514725781255 44.82450394044796 14.498266603047165
19.922302839293828 44.636706593858605 14.420039165225443
43.040651795210906 60.64145231895516 3.1427936279377637
41.68685149417015 60.464386662534935 5.268026558314792
39.4059085363835 58.953583759338855 4.763586950087141
39.01088775884475 58.07183001717766 2.712092700172398
37.11694412119583 61.91378682932874 7.787288041362832
36.957107605034146 61.26601959694349 5.38423715509213
35.76119973644148 59.30971440940987 3.925733699229944
35.13407069416762 57.10286807864688 4.685079577000211
20.850091747192792 40.588069441165544 9.433886804314009
21.40448435815964 38.21937504101073 9.67111836873734
23.37113766488269 36.54761369033335 9.163322543479257
25.571087398225455 36.97711951101536 8.28173257184751
40.588370584349455 62.423516793986536 0.5966952558123475
39.45624909328722 60.769182075717254 0.35438807094181507
37.175768401353004 60.35820776187129 1.4447517882227556
35.63040822793999 62.360593505330286 2.181153088967289
37.35517476949629 51.91929051478663 1.1729515742425871
36.28272864316178 53.57356015185447 1.2497975443240465
36.448741063269004 55.92782258052427 2.6969505484268277
37.63998756725284 56.16082145477704 4.833610616452817
14.046288988433323 48.125169470326284 1.2116193981253889
17.27605862839129 54.39570232533175 0.714916105361686
41.182692888742025 57.77920577411019 7.792444565653978
39.87419030644502 59.756589527306616 7.845271909309676
39.20250363902709 61.76252736599766 9.570912540373875
33.67725369101898 54.182350886291395 1.8969829206440922
39.75361579374298 53.07309468102445 0.49244628572825144
17.194581957097764 42.58534254912175 6.05796906112678
18.630127110013227 40.83164643534765 5.1700880294820095
19.562512430253193 38.70916286740522 6.022608095684459
18.969142753128537 37.38889305472993 7.8144064136200155
41.89636759018462 60.03286328168217 0.6706082960526318
1.596924986984835 46.607872097018166 7.01170331269383
0.059360026930251254 46.6426219475823 8.941577974886675
0.2939437318207888 51.57568954749823 8.544983733392979
28.236497961600556 92.66195030404062 1.6151725051589672
29.308541317546368 93.43023018593554 3.811675228470987
31.38663944521543 95.38031947210197 3.6717042578361485
29.378546289666172 99.12048705685936 7.023053424988774
28.98680933793734 96.66328272672763 6.682858217528511
30.521918616539043 94.55914892299107 6.736345089571108
19.39278345872779 30.198396292813243 5.4112708972346955
0.2444350566989893 51.03041597752557 0.33443799397703056
0.58485198855401 52.44247597021228 2.184208479516448
30.886000192221132 88.29730792370086 0.1937322679943683
29.418415987384133 89.368984436141 1.8886833943358776
27.258528301578313 100.410795425839 8.477563653448037
27.572527474363188 100.98735103516456 5.797704318751235
1.120499403533382 46.257953080737074 1.7182621155315112
0.4165512237259253 48.2086665275256 1.1656661725537396
15.845964646577448 36.294835448315936 9.173218105928038
27.787741026972636 95.46825310095765 4.8413823411877885
17.93937223767432 27.58688026067418 0.8639488484781274
18.442439915853463 29.542133382932512 2.803871282516892
16.78922867651082 31.266965548917646 3.8374283655917227
13.641011857032302 26.995870342599726 1.3108645974830162
25.254450457643497 91.73088709652714 2.1313804249235186
29.84991105971344 97.56079399903489 10.566417745722704
28.152994287962752 97.58683024290202 9.140038138169771
25.482280285569612 97.1450176909808 9.570486672244188
24.230488700146303 96.8649712984169 11.451888226258431
14.830181393838135 67.26271276355548 12.472149555617728
38.41526190041998 65.69996354690798 7.199961654176681
38.48587413427083 65.58126235520334 9.845963543275246
37.33622096911417 63.81395048980672 10.933826783214059
12.649284216702736 18.300617718454475 0.035059312210871774
40.09569383103375 83.45339699023474 24.0235643456148
40.41393308479465 83.69840264254661 21.894572524019996
39.975847986643856 81.85988331993498 19.744682525615207
39.75789355458232 79.25784735689243 19.734204805288066
11.963790823859474 15.595517435278579 2.1414674332127546
10.64410314949636 14.968014007859468 0.17775025526230645
18.98825512501665 27.765570706748964 6.512209200702911
16.915573213916396 27.944087387231438 7.672246287527216
27.025706001974086 80.1907137607635 1.6615141089653374
25.567446912329817 85.41772436956356 1.2608721010666193
47.674629635372455 78.84380754609438 20.78779274057397
23.191012309825865 76.04253812592536 17.25391163316051
20.892502796621525 76.41617837299009 17.445851052855758
19.180662696011304 76.20455329376301 19.531415317168715
19.554013981432156 76.87508802362044 21.934109732414875
39.76418609202477 77.0084183816175 15.398099456991122
40.3133973921829 78.26102399580202 17.178817842966936
42.91824877622931 78.62832215113356 17.170128198463125
44.54576899659339 76.94538318757654 17.13438750155819
41.25220602161459 64.53625604422372 9.090625819894681
27.130435332654116 92.39068400440333 9.377530463733622
26.100412437769375 94.60761206339953 8.218038921444426
43.455494250648535 73.0867722577745 8.417104771225985
43.160481481083295 71.5129077095685 9.603310589109292
41.80623005963128 68.94127880754421 9.447711914294013
40.02202188038084 68.27660193552174 7.817614806053525
32.66351297016546 94.39627290356628 8.43261069358551
17.923558877277554 78.54269812024097 18.824283212019544
40.79715066152641 82.70743864681299 15.82907503515874
41.91130212018096 82.88963085388679 17.956686322106073
18.496066998182176 73.63350365524101 11.933494469637088
16.54352906266237 71.89063716601909 12.349791069008063
16.357579230516905 68.83555245062753 8.92068613895211
17.939497799612774 34.28585524909252 9.66991012186567
17.241923663537456 31.82937727999062 9.005696158347096
17.589293232112276 30.416726323669327 6.935725198296657
13.874727452584047 17.204191333674295 4.916167202999398
13.977339778289998 18.321799596898977 2.576466352560166
15.024789522246756 20.101601075222142 1.4537954047059
24.478572901384553 97.81262829279002 15.003857975259553
26.815305465126823 98.00138859017957 14.647389591181442
36.20246704519337 83.01648944194393 22.326379741690932
37.36394317162712 83.25114908841643 20.228358233320293
36.77344140393524 83.81627479297501 17.867376801820743
34.60556526670088 83.94473821841306 16.81747831369493
16.54713215945639 26.328867764212788 3.1135318150380997
16.33406194902363 26.856814041266244 5.390400099200262
15.079869652528526 25.101366110639184 6.927953599902784
15.23188462677003 22.643386196231024 7.001020412827016
9.632372394377027 21.87309765203073 6.565492498307358e-05
48.67324495935887 77.83108533528292 11.056071642390854
47.71956226212827 80.28235914148645 11.511138000468021
46.35970409674533 80.34012897640315 13.987596537285551
46.72733801178328 78.72385338130486 15.846943743243388
38.63404959961813 85.87555720553081 21.481074162169374
37.631591121499596 84.86835791245737 23.407148460772387
18.633597738016725 84.40214127370564 24.986237375042098
18.4968919717961 76.63428759442732 12.931651818432693
19.107332600736925 77.07602304432712 15.41374749362447
20.1375774916901 79.20061632223295 16.398087312633756
21.405822277406408 80.93467118524028 15.741040918923963
47.463513226519204 66.50410923935517 6.959959796956973
46.50050979636426 67.94384595813389 7.874304387195964
44.12301513108127 67.70166749129203 9.363243833495977
43.34206783968121 65.67787113131581 10.478637626098173
15.250648148495227 34.4623902746493 9.958631784369882
46.96233824203715 67.9044938485722 12.914294728937454
44.91775339431221 68.73224833210011 11.966905214180711
43.42185225112641 70.42471439433501 12.495532023313984
43.17958142572912 72.02994209148824 14.283610038956425
7.316858188671729 15.986808061339158 2.20107283206862
9.398374542109567 16.720265086014873 1.552697603569921
11.323381874587067 18.39456121073481 2.6680993376443505
11.376923486061784 19.62321318214353 4.587116029156767
13.935952191283148 28.95766603414065 8.625989477719704
14.538554802532941 31.00616610660166 9.858804932279103
26.252600337213682 93.780415201873 4.36188179359119
46.7253970708095 78.22650762409573 24.124651848913583
45.32405603038702 79.3398146902375 23.647186343776198
43.42714849823031 79.41336290431099 21.45461043840621
42.82466503318981 78.08306755865944 19.8662939845745
43.74469622061328 81.91534684362203 19.532460950153116
25.30345100680976 94.02404790693596 30.016217163384137
22.798803511840692 94.24743735406624 30.174535889296816
21.279982524390892 96.48262253369948 30.850865917172868
39.1361162583187 61.46926941566625 11.47353728417636
10.65701085307849 13.880457517348113 3.9500688128546217
29.08291621758098 82.1101829224324 3.124948928556147
29.34669276753592 81.91003589197786 1.1280501850477005
28.14630941892846 86.14287190565219 0.3319384260758316
38.68868785092908 68.28439271688156 9.964740632836302
40.470279711827324 68.19141764594089 11.778738449112325
41.06037074702158 69.77720980000113 13.769028970833093
39.91534684061231 71.53881848917952 14.766929320656851
35.560414725525504 81.15666378124662 17.19822026205841
37.927069723098164 80.91421673554507 17.782772903667396
39.538875332899174 80.41731226003074 15.850959706294391
39.290890002967444 79.72167206365704 13.515285450787855
19.25543935700749 74.08357798725923 15.31402322546195
18.64665043547993 74.36500729669963 17.4117053460989
16.054499535745123 73.51023739911433 17.902422346041277
41.41183819565189 80.79350967801174 11.755126870312097
42.30446806252449 79.51070289743507 13.785105655981448
44.167528329238706 80.30177346001827 15.335752437662544
44.83741453428178 82.62772802011551 16.065314782997334
14.802715570638192 31.238613547976506 6.8792935318536514
15.4498073539403 29.805571559091213 5.445991108117654
14.165977145081973 27.66283603358417 4.082142267964955
12.132323351479426 26.799211266835602 4.229698253767169
44.772973586965556 72.8391049687303 11.236374619911782
42.07573852642833 73.03511724172462 11.907955657807555
40.648530771267176 74.91421479050678 12.441126329559701
41.229177368312804 77.27739878145316 13.157453943376048
19.82683476359038 79.94820134248818 20.318705899321973
18.745956649678583 80.00503066367145 22.10026763879623
39.37165442722197 63.3266285229694 13.620209225347839
41.009612387338976 64.58351089339584 12.217124542309028
42.445937627325314 66.61422251423711 12.805596615762799
42.829395640984345 67.90577584808938 14.974890012674534
14.95559052351616 25.183091279680916 0.9505246728498096
14.702091395444493 23.059357691194585 2.147262288702362
13.01104147262349 21.869529783182852 3.0948481752217467
23.991388284154482 87.51945264594961 0.5037595718654763
25.624500802896694 88.91281260035329 1.2227881847500957
19.640003299612932 93.83831504718174 29.906101472429114
11.944847516653251 25.61532046653297 7.246313094875085
12.01153825166031 24.23789182910686 5.6363974501043295
12.824638606437432 21.61927629916116 6.152799483274514
28.963684640113254 92.20527412528077 7.392964280944694
26.795142556068843 92.23051063689098 6.409539614004478
25.598307230984407 90.41193275566665 4.424569971662792
27.189417107991392 88.55296576871736 3.320629103073526
17.096060936607646 102.3158963733475 29.51004572441662
16.50417447542783 102.36907189917385 32.41903594054867
19.265485838887432 101.25259898952197 28.824557563030474
19.16709574237539 100.73850994037977 31.424548631313506
55.16297873546416 81.07395168990847 0.09599559539766105
58.705998580150975 100.57972975588993 16.927396105016367
56.569741794316194 102.07460684163159 15.850628385655105
53.99464719722312 101.68807270990867 15.9256136773477
52.67370290824175 99.44068458293306 16.254166834621067
51.628076544831735 97.92212323083204 3.8611502272701794
53.151579299706704 98.59198755824768 5.6842543700408745
53.76734868690192 96.27620690945272 6.970846045172499
52.437956249454636 94.27081829415474 7.381210770510583
51.25565960487687 100.75463302035647 11.431079802448313
51.51886751166172 102.86448690982938 11.19105588001381
52.93483178841167 103.34950218008072 8.887918984876862
52.60577372437167 103.07905949171058 6.871464232060202
55.567421529377484 84.49171443223334 0.6482692296685192
60.28029595930724 91.986722522268 4.156827178286026
58.144866016221066 93.23979295247022 4.2047233792682945
55.80047783365139 92.98559784281144 2.7955779988573504
55.63150930109888 91.9242603670561 0.7963554377898006
53.25757911060968 92.59142394503513 5.404478439419458
53.44868082170652 92.03006208213068 3.1005798990173363
53.56692851384179 89.75709545993904 1.3575052492101933
54.35054272090533 87.92868562795714 1.8887600686739778
27.477176813147178 102.34183451399934 10.507235465658214
59.69274133934067 95.8424303733772 4.297078928635193
58.61097822213054 95.53869986572732 2.41842883473374
56.11136135413135 96.35908493523904 2.481849193311412
55.31702590934405 97.52086470603135 4.996134308801145
53.54897200999852 98.13565162971216 0.23184160561342868
54.03427827894744 98.37530653121283 2.4148170812136205
53.642504986047875 100.44938305040858 4.175452158927286
53.01284148721601 102.8174386807932 3.7413216234778397
57.97388912581156 96.03533640699739 11.079820153927402
58.557273216775926 96.54489091037608 8.583953887110525
57.41471829515011 95.7373813351723 6.8169060693694385
56.22095464914461 93.38359982302877 6.032624717960964
53.99964998527983 100.60503343414916 12.56976823837772
53.631882063458164 102.83020114757427 13.194165063308374
54.53793167926298 102.18774697548729 20.337588115015816
50.603190958565996 94.17333450958034 3.6615344218197343
52.29294416424072 95.34138283942497 2.8355121497515072
53.596360100697 95.14779063415611 0.2897123535611995
29.169674378967837 101.62086680378275 12.875021298457757
30.761370295956144 99.59869990495142 12.183032262335082
70.1878514062619 89.27923371373743 23.810459430334422
50.91375442150971 94.89780674519321 31.79996116509894
63.50991791236482 77.83422140481495 21.062100007367675
62.46558309815678 75.87236149501167 20.48235366786469
23.954954505261412 101.96701251787212 32.596643020033824
68.96701822247765 83.77815521589284 24.083361593289972
49.32577852055104 81.98780803328414 18.736113487657345
48.24695537660051 79.82223839203792 18.335783404708963
49.03771238577284 79.11758481222495 23.018684894797836
41.891728502491446 84.82226205287726 19.872448500526897
40.65407389948838 86.87258015281611 20.02158962656027
28.21284158928337 99.99829949531455 14.659678960551526
27.972642969159033 102.24055430951779 15.903564415292132
48.12495372149722 94.16847515952404 30.975648628517245
68.80119000003859 86.15480572650831 21.36437521193809
66.7396942581689 86.0577016582959 22.48837761299749
64.9269650386936 84.36020044141287 22.454123018327262
64.67445446236516 82.40841868443277 21.532116580847273
66.15212463816144 92.600558602228 20.838282475633434
68.56020736883674 92.17195697799423 21.534889235753923
67.95528746735832 90.6832388600641 23.905676992952646
67.28168355774875 88.78815732264918 23.712141754282495
38.41527663170963 86.01436582296932 25.866438038073113
38.96803134313022 88.18588004938279 26.12317918474362
45.47478010568189 92.4102108621624 27.39605812110773
45.377082151138616 90.2807144348469 26.426853958570728
46.88706672614876 88.50571430302458 27.255770170315746
49.02523226172408 89.25634452188521 28.8121768238505
63.11306236010626 80.76025512442041 23.819985051290665
65.2304839362937 80.01786496991322 22.9414837418127
47.17242934947634 84.65994036919346 27.887926145202016
45.78697921377411 85.95215291521055 28.422012960517087
25.118735233268826 101.89515950078192 12.649867444207997
26.55266027756567 103.37994877241995 13.863240521429699
65.63977326165302 84.79694926937253 26.106684170096283
67.72128961509085 85.53040629404823 25.458308941597586
69.64629694756836 87.20470241876818 26.573710675672015
69.69983855904307 88.4333543901769 28.492727367184433
50.08101356888931 92.26148337220987 30.725525049179115
47.44511479624614 84.72365009244177 22.834943213702058
47.79018559983547 82.7884258590616 21.97500438636154
45.782925658496715 81.17787442548384 20.649632605536084
68.97992592605978 82.69059872538148 27.855680150882286
40.18125791400526 90.67188372026504 27.575772714936598
41.9015895417107 89.16341905988008 27.335931862826744
43.9526436873603 88.35500070493701 28.521716210045792
45.499736669649565 82.63414350982976 27.670959288616977
45.307686217410165 81.66911866041593 25.734749578929375
47.46057506553527 81.20667394906285 24.04008135482803
49.57159991132119 81.0913120804499 24.49806875970577
30.51878391099922 102.91372162496394 15.737007363876067
43.18113732047445 88.49963469069246 24.79002410002292
45.68262984146526 88.2261343986332 24.319473398582662
46.02762383002997 85.46102862657577 25.218918349849538
45.17858077533672 83.96149807792305 23.96478804104302
40.39578134940719 86.9953610587314 28.251499240243092
41.07945432149758 85.2652901731238 25.923057316780493
42.410251649574136 83.27715914496461 26.169666174283705
50.33964452639136 83.36448360099479 23.34504097456605
49.08435317370502 84.75840967563308 25.03143581710437
49.01682988559007 87.0514304368605 25.487494596137545
50.000230157036384 89.03345030684874 24.182868773513427
40.063205066212525 21.556436587916878 4.532644376508141
60.481040625977805 12.481140530571146 0.5810254677600606
62.51465643982977 12.674341457892238 0.32419711165726256
64.4753404062171 13.116583548044211 2.494949667960833
64.19025841381992 15.023422905038005 3.991383644254662
67.84214175552177 13.804147418953342 0.6946447660311926
67.13691052545074 11.595934839652218 0.8330949492628387
32.731044525850145 2.5501516206477075 0.14574933813260407
30.8940266040626 1.0202310639600791 0.5794575095971444
65.44025805284434 52.07839394116903 2.722106582210307
66.24137285391005 52.06498798080181 5.047233469131804
65.61321908083022 54.33254241373833 6.205898045599478
65.19329918296773 56.36750474091059 5.392266151589283
45.65344365708553 18.214155084016348 6.041377152560447
44.11807182340603 18.589344885695247 3.72696962387035
44.90269407172909 25.273070407076325 7.980293681852855
37.631114667326635 22.02313756440712 7.3728077070091596
32.81866186417802 15.538100391676007 5.539682404032234
62.90495944031281 48.9921276292483 7.0432027518435385
62.732662837110446 51.43666840475689 6.251412669828258
63.2605137279718 53.564615730598305 7.772135839302298
63.261335431915235 53.90058525709345 9.910882103749824
30.987116960768926 4.242339165009547 1.7466740225724702
63.526045222698556 55.75740915369155 14.752079661010775
63.24909532000898 55.42631915439318 12.832093946250549
61.239058488354466 54.93380505520424 11.355562099754023
35.54030255046483 6.885961787920784 3.064955381225306
61.106357348338975 45.567862299751276 8.075126255087007
60.89753279882898 47.03143823255061 6.101019596797308
