100.90022420614696 12.71826164416183 17.033031524237273
101.52585689839454 8.449411250559525 19.0651026792135
101.23846481689986 11.299030230656133 19.193997232923504
40.018785004678655 72.51500636910369 3.1884239852457017
38.994830422646615 70.91408258913349 1.7582072213524604
36.97830020582484 69.48450051804929 1.8381520719488107
39.35406797752097 62.82999921647255 6.37789547082644
40.08263407643145 59.60906556263629 1.8336360849006277
40.10354801084817 60.34264090023913 4.270670333495369
100.31590377622844 40.19248332772003 13.827320737064762
99.3796833228529 35.683831240598565 10.617038546733296
100.15582881791259 35.88868988349711 12.700604531209779
36.40844893801028 67.0808712580491 3.320411073939107
38.37062032729445 67.97481311576459 3.9293736031048674
40.01315926917023 67.60017990350535 5.977975059419924
39.20044471644991 66.78665327702892 8.333939726263965
41.06268013596769 73.7855439530314 0.6780278882795767
42.63948207641184 61.04868558215698 3.711379836537571
41.11363439070845 62.1146899580022 2.596614667347685
40.448586389772395 64.86924615973038 3.6886162710963357
41.628930652315475 65.46676190430972 5.647697906442728
42.55127240032528 72.69054169720802 4.5469539666009675
42.91882133892301 70.02808350685807 4.815592988650122
42.440644715321355 68.67679567623594 6.873848903092822
41.34066293209404 69.5047281988845 9.489941552983794
43.60010623535753 66.06675586062569 1.0923310557207953
41.73097629905196 67.06664892705037 1.754019218726619
41.25080825372203 69.47542921551373 2.810063673520782
42.68538313152005 71.77622187702322 1.8669223343091752
87.43322573359116 69.91184722928725 63.829679249332855
88.26120727078813 72.2379962973589 63.81649320411867
52.43932686004219 93.57257624075262 51.99696726212259
54.57934369697797 92.26672771293656 51.93398497826136
56.22780252820377 91.46408385115296 53.733060513053296
56.210295968698595 91.59634250263365 56.30518452990375
51.17034388994856 94.5234317678382 46.01647980069183
49.66356229056498 93.87623340807853 44.95441548481374
46.76844549656613 94.62276844551411 44.627565044973494
45.955740178457866 96.87573116542166 45.783568708484985
49.662942696869166 103.87161894823468 33.54922166021757
48.3011719326962 101.9236004535085 34.689708170743344
48.51175687928171 100.91110171129945 37.06269020956964
50.61428417723438 101.40708804747732 38.754750074319524
95.66068492325236 47.45313561263992 50.772965748375825
87.1527047291818 57.80338062755917 59.498281039282155
85.41710985034447 58.23858984737892 60.82489906905169
47.548313702706665 97.96857042549703 30.671841969817013
46.91256670611585 98.86128210634317 32.77839269558821
44.90433449588491 97.89815881579692 34.609832510256965
48.76389230730213 91.74818212551807 37.58724001801254
46.82778380916418 92.70781693847628 38.69518787605324
47.67759222534202 93.67588889085454 41.234314355653595
49.239603399845066 92.994239867809 42.39394745541611
85.76188613261724 71.63666536501525 62.68114460607694
85.23142665447924 73.84631677733725 61.40244303062449
98.93198768721973 85.29208590472443 63.61712796961036
100.60195714407826 84.49147806361663 61.49056988470631
83.55108326766393 66.3080992919039 61.980294607389105
50.27501298472487 89.6253598875174 51.32783348092012
51.683070784972635 91.22910726929162 50.34803037484022
51.72295129713115 92.46828070176196 47.91954641466068
50.95017446284396 91.39319804285056 45.69716911462726
44.97901869596104 93.30770265970962 41.312420320197546
45.038951687333444 94.37049289319066 39.37288059016502
45.44977055127717 97.07242729436298 40.119330163217455
44.57608769321143 98.17406621003789 41.73711621092671
95.08199671930002 50.487854493259604 46.05726168545403
58.32114657540781 91.33281324331553 47.95198680063132
57.41359412824599 91.65593598777618 50.06877370005609
54.62085027551384 92.14579919211451 49.24218279047772
54.07038939296331 92.66675000555927 46.701095009818204
55.44793618003873 88.54959566177074 47.51480675069107
54.135152279481915 89.49600444708207 49.09525911474965
54.37154495995397 89.57082249581826 51.76706938250706
56.39835554020846 88.92955557589443 52.8743162879116
101.60104245502379 68.95671753051941 49.33945567524895
49.591264739343615 103.70774622264817 27.015645436471086
48.95411563446497 101.50941103351381 27.34625025451993
49.05954900746547 100.31828254519071 29.60694633776021
50.356017837067654 101.30485788786034 31.602648840440438
86.98486091272983 67.85150203487463 61.37387748429932
85.04683845508286 69.11226775595793 61.610886303001436
83.49462826277916 70.85114409943019 59.882005533702966
84.02176085318852 71.62043169965139 58.14941695426932
93.52129073204661 50.12149496178257 49.76593584343908
92.14942501583421 51.071695300727065 47.83539666719101
89.32821981277365 50.97608989770822 47.575863346209815
100.53145528659826 81.61696994759323 64.33243890239754
90.93620187370011 56.42784816473402 45.25894464224088
88.13094878819066 52.72460624241276 44.874275004610055
86.9323816632295 52.42167061708523 46.77665291310663
54.62151356639609 97.1727829298252 39.24364311113204
52.493538326997125 96.20277906349973 39.4711648385512
51.67271845389271 94.5054923579713 41.103278284864324
51.87093665881457 93.72462543077292 43.023136396885356
94.32722248789672 52.799744200904165 48.018177298182415
91.75197111981417 53.60420894547575 47.33683657470832
91.61616183991892 52.62326360299153 44.80349528218575
93.24473865427359 52.72566124888511 42.85565355728296
51.981186381084996 89.6407261463841 40.7570416182083
53.1684901234059 91.30315418906841 41.858707684967264
54.57529687092611 91.18511060333248 44.247050338707595
54.152481213041945 90.25428455990921 46.05562618227439
51.75980694405309 94.5969797510691 37.35621814972938
51.52994000027127 91.92784091532634 38.55965447946812
53.86771737477818 90.63778174205333 39.22953756761224
47.91784458655094 95.65741707293091 23.886464766745508
49.05059438919751 99.46979561303087 25.400077659917205
47.47685994606709 98.91526981795731 27.63940972554769
48.09559478589459 99.51779768619068 21.15947626643108
46.569100126856355 98.0959594169067 23.03077384958849
45.840911579279016 99.97390130754131 36.71197085277045
45.6417705199583 99.89492163499897 39.59792262939387
44.444150351730464 100.95733093620959 41.100838768789465
50.359511379692464 98.61686192397283 32.08533275782335
49.36032617935406 99.62052710704847 33.90884408562065
48.152426297946704 98.28970107518639 36.09607918118527
48.555211936924685 96.20414888614056 36.93759436217171
52.25754873490714 87.8057796924121 52.191029907293384
53.65272309151782 88.28794992708391 54.00312185124007
54.30039825523951 86.77859158954205 55.9270088256249
80.96697675861625 70.4116980865483 59.179859845281186
81.56584645083832 69.21110011209167 61.47002466114969
80.63304247495228 67.10171739328113 62.37184129051344
101.01232198826509 84.27375502210332 67.462616317812
58.03160408246252 88.55889636208366 46.39248056838311
56.93821957247729 90.51821791695698 45.8926516527611
58.11763271196663 92.33360846417538 44.672999337187576
101.69245441567983 86.82155826209255 62.84495067668163
101.34330300275339 85.12187416234345 64.78965256513773
80.9640031871843 72.60345644344746 61.018655288097996
83.0846627554017 73.63342943980884 60.25601891278068
42.390113488032625 94.6575982788339 35.64410131923813
44.74994677474882 95.29954911910424 36.79021466513176
46.768504131850385 94.26492287326771 36.64642080186103
47.54704082680721 92.39257976090812 35.055344973068394
46.93138621470713 97.52670302278653 42.96855828729936
48.38823924864081 96.01887216060865 42.43709665138629
49.89439678528698 96.01062827497938 39.85563408799125
50.11938397567808 97.89453516397535 38.407688410337286
87.43110864564436 72.57054792534619 60.00346168033213
73.70238599164165 90.63493561141343 37.51905494050267
73.96590639613792 91.84825825073625 35.498280030909825
73.21143004774315 91.67482197680918 33.157230938460664
71.35778236939144 89.97887505176251 31.93685676669651
61.21208679917293 80.88021001593414 85.56168769423252
61.08853584970496 78.53195623615537 84.26423523153471
59.03081997687091 77.39918830162149 83.1277842864219
59.09978864534482 78.03188235899644 81.28369715967743
57.759364447982435 104.59567509872518 85.87862569145787
55.559717030950424 101.54922563802911 88.1853349125483
57.44644836200823 100.22221914598376 88.92325300914965
71.27598083942998 81.29280868178122 46.23045054680905
72.96448391934686 79.63372953604625 45.918861652089014
75.03939982564643 81.0772949016743 44.70167493495805
74.79758493133582 82.84994362136351 43.09199826580635
101.51414075419268 99.59607858813779 44.48792471691453
96.09055882407603 106.61112265688438 41.641646773997486
97.11008891327494 107.5115073297203 39.711437594510876
96.47876607562577 108.05779731325427 37.39898386040529
101.26998795799797 73.25213298553703 32.3428194500288
101.4415890119634 75.19558526623324 33.157648877069434
99.51486277693203 71.20959968034283 38.884023123326735
101.04230004641299 69.81549419416407 38.39074327980169
101.15366713385963 69.08059777293376 34.13888356542478
98.9406494386986 97.49686390266957 54.906126034754635
100.5880861941335 97.42086147067361 53.03315458505362
55.46944880363208 78.44757693798154 71.45548504086717
55.42692515995388 79.56582253321828 69.94295171811746
53.55894020845333 81.57555085690163 69.49860694649638
51.45710096016468 81.265911372964 71.0749722460083
100.03869356501971 89.55291258980418 56.43245676677889
98.39147762104348 89.20316061579776 54.53269448093418
59.815014236280334 85.45809349372487 57.95840095866524
59.66939468105931 85.74193938538183 60.25733608411967
58.358792782321444 84.50385626501074 62.05639129783934
57.527804898320895 82.6234549401616 62.500501753318304
51.52743327218684 80.69412772178508 75.48304970266007
51.90030814866979 82.15752575919232 73.37373907702651
52.053227379786534 84.46372561686945 73.08615840059959
53.566840575676345 85.13871261741558 74.36678624869592
68.24872880146181 76.57345552296323 83.18872937440977
66.2680478699399 77.39258747277148 84.56192618317739
65.53802685847458 77.0236642001547 87.10761981924955
66.41042987381786 75.70670185919404 88.81375966518561
100.91434780538954 68.07780734605112 42.03067297753784
75.61233842539633 93.49128174293804 37.04171262010034
76.71869467608497 94.08333930137451 35.49945100636415
75.84552658301244 95.38649623021531 33.256217930867265
73.71287845248874 96.29456235676015 33.05722621720827
79.64825860545193 65.71300543404499 24.81843418953918
78.50068199582107 67.77689634820045 23.55622070116091
98.1542186510047 94.57839266763003 53.78434306330613
99.66615803238787 94.85959538524871 55.57952420508998
100.19782905136766 93.07282415991023 57.77196046570987
98.32987899257317 91.01850859276493 57.8589436595651
77.75496671709068 100.15101587730977 85.65698492240807
76.2481851177071 99.50381751755013 84.59492060653
73.35306832370824 100.2503525549857 84.26807016668977
72.5403630056 102.50331527489324 85.42407383020124
74.88579475983833 107.55118456298008 74.3302132924596
75.09637970642383 106.53868582077104 76.70319533128588
77.19890700437651 107.03467215694891 78.39525519603579
54.2039046644864 83.40720181595744 71.57247708241557
55.06058735216323 81.73596720621896 72.81579263965857
57.46451820772102 81.4337680096437 74.14826817375737
58.8801697234401 83.08953840820384 74.63557125539522
73.795136490826 94.78631037784925 25.636397577571255
73.58382555993097 96.99437791226082 25.25761925164294
72.57930439034803 98.11343698839306 23.31793430003121
73.57032502692377 86.59451825306574 44.09969828393513
75.35964275762487 85.1861895312656 44.489935760168606
76.38220566374521 84.02045908313283 46.51867417233866
77.29817719319833 85.59409344327538 48.414944070094855
100.3052578258449 98.70810982498203 46.66170262517594
100.22018577891123 98.24706988924159 48.51125541806851
100.55618385951388 95.71957297703368 49.97780697663612
100.49041828979803 93.43181429202833 48.73430051269553
62.90051846653244 90.37324455578292 60.040455008562674
60.620546946490435 90.51158618290131 59.65250260602991
58.564749160519575 90.05019784645361 60.882344179634956
58.04021503868912 89.14390087222425 63.00004905862473
98.92992832393777 101.092263615842 46.718433641283326
100.40217681571102 102.63150880302189 45.477775000651704
100.19452722784922 104.50763764500206 43.860037428470314
97.95149548333688 105.35631751309367 42.670673137770216
82.54340520449495 70.55915850819642 55.68912360697271
83.55001370539506 72.35997666507659 55.63291699351233
82.61429211612177 75.00476643858057 55.38523713959255
80.22748040851067 75.56543017461125 55.27716027515412
98.4719386541264 106.43537540739882 36.19646015533468
99.30501536953987 106.8799228624256 38.29383291855146
100.12987769829097 105.52759721008891 40.32170368574019
99.87387055620033 102.88205049480783 40.92439640369081
85.21819327427194 82.64406000726207 51.416820402562756
83.52121209698575 83.92894904779062 50.057743517137915
83.45822059797266 85.71930265916153 48.47938820679176
84.81145775658923 87.71375998651352 48.3505826147087
64.93506048976246 82.06439607333574 77.27359389820542
63.43391134157236 80.25247669149515 76.66478339910138
61.36437615878677 80.09746559670037 75.29907312262645
60.791155681786144 81.65644833159112 72.77570621517594
76.31551722039569 66.18458576855623 24.166952603169335
77.22208478676932 64.71902215193468 25.691832458991186
77.4612477769956 62.26146145189972 25.856389885184726
74.13293652984879 103.59615453496863 70.31234709153327
73.49718953325797 104.48886621581474 72.41889781730447
71.48895732302704 103.52574292526852 74.25033763197321
69.37760329905225 102.51090907807931 73.70368962297721
69.3072907672962 57.08691117469599 75.30712511354234
68.7328892375304 56.49135289589893 77.18717443270491
59.67172763566228 67.85441852970288 48.67564015146431
59.41530343610535 65.67485610341618 47.52463314895359
75.34851513444424 97.37576623498965 77.22774513972881
73.4124066363063 98.33540104794787 78.33569299776948
74.26221505248415 99.30347300032614 80.87481947736984
75.8242262269872 98.62182397728061 82.03445257713237
85.57341666548052 78.58739607693612 55.11866023089431
85.37470599866047 80.02690534028504 57.48882479312069
83.10250600859487 81.19043312067741 56.87198556870971
82.20687519201603 81.75716960809604 54.20453946996479
100.6762089597319 84.94333293486287 59.37493503527223
99.46173693561478 86.66000241836593 57.96756190902055
38.56077065743354 70.94368296117477 90.75684097835217
55.748808581310804 99.37682985693486 86.43202715862667
61.129421947063676 75.82373809084234 80.40789935955404
62.44360660694851 77.27372498034204 81.93704217215374
63.51672817339168 76.70454656086504 84.42127993439742
64.22903240764768 74.70178858546808 85.53720244854266
61.22258866717084 88.17611157998077 58.36406220527189
63.21280771193067 87.74699389533866 59.748300808502854
94.8924920171514 96.98043164011825 51.847549444794886
97.18508697556331 97.05625171723243 51.76821265798553
99.20002410140032 98.72449075324023 50.86825363630955
99.07061481394759 100.80945846132819 49.44531986769508
98.5921230337992 66.52373611507899 42.48099164000699
99.89175460777614 66.67115567272273 44.911069785142814
99.66146189648322 68.50762229529215 46.542840843613945
99.57544061697614 70.3278063133198 44.97831013207513
76.78038553653275 72.96933408420595 23.15268012505865
74.6662702883736 101.51411363629832 24.355015900615246
74.63546703369292 99.78975054057285 25.79918734385329
76.37924686109584 98.37664545499155 27.10308142822476
72.90413452746516 53.95909510478835 79.066879974647
71.45382011148249 55.671124426684486 77.3375717685435
71.83048402436864 56.058372544423435 75.03341230462367
65.64417282507297 82.175541008439 80.59110927364686
63.70940368805789 80.82554731798147 81.50869302387163
63.244030061758764 80.06674533127416 83.86643836975522
64.77565767205952 79.39667215348658 85.75331492476028
57.818856159372764 83.2695954136843 77.28134246662063
59.48933454884477 81.3510055010133 77.432699778031
61.7623639811316 81.04614810931281 78.47606507491452
62.94820349197295 82.61615466028829 79.49123666307669
58.344291835917154 101.22138937173263 76.3693420327461
76.85963581186698 95.25294399698899 90.9683386026364
78.26769361211475 96.8566913787632 89.98853549655647
78.30757412427326 98.09586481123354 87.56005153637695
77.53479728998607 97.02078215232214 85.33767423634352
71.56364152310316 98.9352867691812 80.95292544191379
71.62357451447556 99.99807700266226 79.01338571188127
72.0343933784193 102.7000114038346 79.75983528493371
71.16071052035355 103.80165031950948 81.37762133264296
61.400816888238246 62.048191608999 63.83675173082289
64.06428795172206 62.150934682242614 63.98099824861736
64.81145182269958 61.20655816492515 61.57181847962567
101.39252303957049 80.91531699437401 34.824294488194354
100.8946317922097 80.88095822403224 36.94907449888922
84.90576940254994 96.96039735278711 87.59249192234755
83.99821695538809 97.28352009724775 89.70927882177236
81.20547310265596 97.77338330158611 88.882687912194
80.65501222010543 98.29433411503084 86.34160013153445
68.87227336337916 77.44896089297299 90.67529646163274
79.53417367605502 106.23833742238931 59.75564354826992
78.47164244201186 107.43050168799154 61.79283920190225
51.74046964201754 85.34892322023425 67.43685980097001
53.99944554527616 85.07741963066263 67.86377759120056
76.63235138192164 96.31953432281749 24.68655008172382
62.259928996070194 86.02120545864462 61.63627846404186
62.07726148667444 87.27041893982143 63.90731558429262
60.09883153116305 85.97451989584694 65.09011299138317
59.14229127001317 83.91340141044343 64.5533762060792
82.03255900718085 94.17717977124232 87.15531187240731
80.71977510662403 95.12358855655366 88.73576423646591
59.106321310406365 92.19461118795286 58.06892743223612
63.14910735792623 82.99009961534523 56.1992136419543
78.97347561655133 97.26620193934862 31.301538090535292
78.31423121013314 96.34517634258943 33.64138158562038
79.3465338697963 94.1117549857878 34.87655216920295
78.13532252510912 92.45174331038206 34.06455378739909
75.5387384616071 107.1369951429854 66.98675537623619
75.64417183460759 105.9458666546623 69.24745145947648
76.9406406642098 106.93244199733192 71.2431539621567
56.637653916036506 78.56265336532681 53.29226951742068
58.72985374298712 79.96422023543911 51.75787861342859
58.348492411365676 81.61736541172789 49.8293113835269
56.14905936973167 81.92961139385132 48.7308948124955
56.610856098542 80.24131952219807 55.27187789170464
56.48917471127371 82.42701622494873 54.47195350422744
58.68560349928315 83.94750982084159 55.87401146445431
73.23613060634156 101.7887916749762 53.47400869113964
75.22111109427343 101.77181404156607 55.38041605161778
76.55297438650862 99.87872549958728 55.82693961685748
75.83864543915313 97.25103720782329 56.40477557482945
80.33851433055834 65.0050358452325 31.033403355491547
78.55350179877946 64.84584352042529 29.658109988122273
78.33443256925737 62.32672093985098 28.77338909044444
79.8965063499607 60.50382684371805 29.5184175007084
61.33833991834663 77.17032982690964 73.76760004091521
59.34229246203439 79.01240273498026 73.88169269753863
58.20618788880036 80.0177651211808 71.94273207398179
58.63764396633883 79.55451541550325 69.17536802026075
79.372212104504 59.75061606590985 23.903837912918892
58.096995535167224 97.32398518127859 89.25719368556766
55.238007002799876 73.29365277549084 39.94176871169568
56.133821676610204 71.05152643492774 39.11029829251526
87.79268086380237 71.54803056292646 53.46584774408356
86.5733805404491 72.43326833610344 55.131517094469295
85.2534047603773 74.66044724740738 54.834933568369536
85.58650373526599 76.5344597755226 53.31183485592851
73.64297469575845 106.84449935912305 59.65665220734725
74.31497120623146 105.0750131969257 60.02565402861492
74.5201972431544 103.19709149673122 58.08414925878652
73.39035597267875 103.50631409909612 55.642683414857814
72.98712892760447 73.15126994069354 25.332765211285214
73.89100872508601 71.23206441805524 24.255931011478516
76.46894878725122 69.8853308470926 24.679925727738272
78.16897114694132 71.09401759866186 26.03765473919
97.56991577524151 108.25762811432718 43.440751676331395
68.02297504129803 75.44584775767379 80.21144692174525
66.07660997242999 76.1083630436713 81.05946487878505
64.8101831034608 78.63493935540264 80.55266285975293
65.50153852251523 80.08712484830063 79.08675174119497
70.4158991923281 56.54598285849471 79.62762577756067
72.58922207389688 56.45549384190634 80.37605579976267
89.98533281881136 54.55672004022785 44.14664889455171
64.81775602964079 78.14312536640965 89.81984806513066
63.043258188977994 78.73032359230912 88.2230841528055
62.089614140607274 81.4219816522061 88.04029866349188
81.20613639353822 102.80036703929679 78.88414823284829
79.07816115413924 101.83036317297132 79.11166996026745
78.25734128103484 100.1330764674429 80.74378340658058
78.45555948595668 99.35220954024449 82.66364151860162
62.306918121978335 80.64972347997603 53.86084285931526
61.31154301869734 80.24181318560561 55.98205655480436
68.94083071732958 96.85896182944667 25.463040548804404
78.63392030321214 86.83169216158281 50.101926044991934
80.6499390423273 86.79473865650395 49.17957601814865
82.02058656729537 88.36976930866518 47.45223996560028
81.32188304263916 90.31292984810554 46.544193875562
66.28380382560715 63.818152319057646 64.36285931835867
66.71825566531159 61.34307664602538 64.78716627011468
68.17740394225 59.51694144706607 63.472630973064746
100.665622352641 89.49689017346567 32.47468981715197
99.39532463119447 89.91461420714757 30.737574027073027
97.97626810703176 92.31321405366393 30.28615900222972
97.81019971291173 93.87681342764151 32.060019383670806
71.50036280755428 58.813633832116494 70.6300511197385
61.73016353815985 76.54433179809674 88.80636743213334
63.09516605208766 74.60491210217565 89.28689269060372
76.75457128308709 80.35707188741323 39.793443149326414
76.67176232698213 81.93855644039758 41.4284069319967
77.74911244829947 82.08380733879486 43.97608002925504
78.54713921488049 80.67632750006698 45.47648015332249
78.54754098280742 105.13334409683456 54.90380558481638
76.68817765927902 103.8503018063373 55.97709241198286
77.11133370773302 104.2414566097543 58.38973448297644
78.70043902230157 103.6641934452902 59.817529999569835
58.0616975547352 69.8146037383978 30.09638454664125
57.367792495223355 71.96441019777131 31.109253968982152
57.075072363371426 74.37789687250307 30.40442816810353
57.386002672606395 75.39974185025821 28.13804345340823
50.21763047253769 83.7160477119236 71.28034382586428
70.33199891367987 93.37940251056399 33.49914681930745
72.14305482828954 94.1355370897421 31.738125639461007
71.83335050901263 94.88969882683021 29.07483416345208
70.27204432746093 95.33433756414286 27.896465749496404
60.113633480381594 73.45169480393258 31.304861788709108
59.734389943635456 71.53208667791378 32.33856427950414
59.42976825476745 71.83008152075635 35.23692501404517
60.64966487695314 73.83119898416659 36.380705557845076
100.57850063809879 73.66972860059406 35.6635657815618
101.27647844084612 73.45596689632403 37.86501350133766
54.23990476663933 97.85461652780779 89.14904989684501
53.4826527732396 98.23381427540004 86.88208319699388
72.4401651616862 64.66465156322758 28.415278610167476
75.07865293209895 64.79782472204373 29.834006603945745
76.4409684794147 65.98405075249283 28.07216979979286
75.55090349010395 67.9576633859457 26.195062940616896
82.89717563953769 81.5202816087 48.491917435313674
80.75923194812142 81.46055872631885 48.280492352927354
79.34234011727943 83.80747628916019 47.72854633540371
79.79907604543176 85.66271052214475 46.59664093752584
71.35459771264101 105.97585295647349 54.44632238409876
72.90865404239739 107.74545556459036 53.928984513359886
100.03795884866156 108.63988510167161 35.31332124957721
95.59798218203966 107.82583949000473 34.392972518144624
59.911713310549295 89.23299476839944 52.440322164951674
58.203184536864974 90.73143996648271 52.70487692054997
83.63458413817247 59.158760699085946 26.257914194538156
81.75795847607782 58.91045582315623 26.858329089114697
79.97777893690497 61.017458505996174 26.817552239314093
80.11203125322133 63.177155238998 26.31762431313403
59.238049739226476 88.02234482586026 50.273840735937476
67.8231006630378 59.31188441723577 75.71448173717033
68.91001306850681 58.986193143635354 78.23352110917433
67.9640193776481 58.773626600480306 80.2266396035259
65.68515502963648 59.12013282933144 81.3623586372802
78.56580920822711 95.26831025585568 80.39754673992455
79.75311295054803 96.93073829853999 81.49921280668353
81.15991969806824 96.81269471280406 83.88755546042383
80.73710404018408 95.88186866938081 85.69613130399064
62.1517271415691 70.47377653809664 37.05548559221746
59.83159527419543 69.81240917841059 36.77201124693517
57.861215509194686 68.94354041105048 38.18237606329287
57.845210148547004 67.86234907665013 40.186955462131564
77.48570123609707 101.35677338762108 61.384233077887316
76.88424155788756 100.24309690001286 59.18143981555151
53.68272674918813 82.13232252346886 63.823469122174956
53.75339977069381 82.34113271364731 66.24360021971509
51.406166666160814 82.61201943818445 67.76773505761486
58.68682393040911 77.18535186185285 54.373297164860375
59.03079075968397 78.81682097311483 55.8992164870654
71.49836693160198 62.85876976250754 78.24542584112197
73.33447915599665 60.57831924952536 78.04014844641436
72.1705899143731 59.02358402557819 76.30794686122447
71.1898407863787 59.51002455676095 74.40820581719423
52.837077253951286 85.34392061036974 64.8762896268159
54.3407544088209 84.71654838158123 63.08153762633799
56.33084066628292 86.39024392607116 62.23525578706515
57.653249325818905 86.31770717022562 64.1341768020806
74.4785382813503 108.39115168860624 57.733845187194326
76.39655173250894 106.77916450979502 57.02636735030742
79.04444041414673 106.99611777867038 57.213963951821746
58.14406673156607 69.01735212778605 33.59656928735227
56.87882184918091 70.9403450801783 34.82433844487058
54.69238347670649 70.29400947859244 36.417732710627654
78.3444297711952 100.22456386054068 76.99672327144565
78.11456282741338 97.55542502479794 78.20015960118437
80.45234020192031 96.26536585152492 78.87004268932849
98.85271671520472 78.64182547055943 35.611544998230976
100.64341445823521 77.92434914077086 33.73824217988524
100.94656470860284 78.80371560538411 31.455317814413558
99.30627722605209 80.54354549910323 30.1049008574692
56.996006218309184 77.1539005945644 34.39734286905974
58.40127209726562 75.5020319924818 35.29426957897164
57.3599161633151 73.41262247117902 36.57188715738515
55.10272307658522 72.90586438296081 37.022962451427645
100.22620166578274 87.20619842222477 33.86557867208235
99.62863040272447 85.25380283794824 33.08620120723066
97.58492845174821 86.01344830098358 31.242404875247964
96.51076613183663 88.3333138299518 31.189449301243204
70.2801903100628 108.69393110363636 61.272065563937105
73.86040387017111 106.74255301091377 63.81077031690092
72.93612468764016 106.37819316849517 66.11046168121226
61.71365680341402 73.5793809529448 86.83292966621204
60.81723511180539 75.78559284490183 86.2805845866896
58.38997080557434 76.5167430913111 85.76687470126242
56.53240732808733 75.40605945513961 85.28447620288915
74.50246741369305 101.2850011824025 63.52696988846177
75.63521721633963 105.09737972250245 65.04058278163346
74.06148277320919 104.54285392742887 67.27991484726395
73.15372295399847 103.72354352637828 62.671278971304744
71.40435219467824 101.64839158992169 62.18458995094683
75.97220758725896 82.7784003133141 38.05898383516675
77.22801504820522 83.94393208741258 39.489443125674164
76.63940665966919 86.05966522413304 41.070598473177085
74.9995603806836 86.88370765708714 41.86052783943984
58.62356486908508 78.51013910854063 27.021408855207238
60.62129667116289 77.70361007027448 28.25083423848554
67.02170023762513 65.10071100705362 66.62285499347315
66.29083666200171 63.01959447199292 67.03408702706272
66.47942831937235 61.39951115020755 68.88428550234671
68.34850834055422 61.68718452834318 71.03794702975888
74.0258433905838 57.98340338482082 78.49250654433624
75.05634970696981 57.94430710495961 80.64315906973987
70.65806322472318 106.20417568154546 74.77406160276837
72.42553440642114 105.60148541701291 76.35247597448671
72.22639334710041 105.52250574447055 79.23842775111015
71.02877317887258 106.58491504568119 80.74134389050573
55.16791559821393 72.22991426533707 32.86163128391869
55.88720348786109 74.71544308309306 32.91791603063612
81.42779682915078 93.02286608021294 36.39866782030312
79.22886809604333 91.8757003597504 36.47477940081907
77.80748342675346 91.0025115930655 38.75710332183708
78.4337095147668 91.32087901830518 41.30228470952405
100.1790887669336 106.93450904449651 44.978673344704845
101.08731054200581 105.3768703868086 46.42107263516147
101.5237917729678 105.53601002350483 49.23536873121772
85.61923883872088 86.92592897802211 45.62447864849069
83.20009140576634 87.20854911790926 45.304091739744386
81.65135138400754 89.01035738419858 44.08407932925134
81.9338150818055 90.76171100144352 42.72809002337697
59.49193205993428 75.88021965056876 32.65208847033913
59.14562231214773 76.2145489348599 30.684814728876052
76.94413420683458 104.2444460334444 71.72583787953961
75.94494900649619 105.24811121652006 73.5493492073369
74.73704912508883 103.91728518465797 75.73658430290153
75.1398347640668 101.83173299561216 76.57809948388798
60.846254381619616 68.53881950617634 32.98741039796591
61.69288443705485 68.40105301908771 35.13680390387117
87.0090714927117 54.23559314167581 38.45131860635456
90.53721020543662 52.85305879855502 41.08656848785297
91.3987106059164 54.80999953469288 42.02718046329741
55.57596343759603 76.78773544564896 73.92541559628015
53.824235680344245 78.52390494118829 73.98055846785695
54.31183671111574 80.77496909635039 75.20096860584428
56.37142524659281 81.09223545278037 76.80960120570214
58.32130718214933 77.68841360194071 75.98114129822905
59.07118743932303 78.5453098915194 78.04294358025774
61.31457106881422 78.3029072225299 79.16792959507791
63.46299688143825 77.67068691965594 77.57493107230901
79.40934725919506 91.98333542556762 45.34825381627327
78.90739583026426 89.68467081224874 45.07720522817579
76.66804138437914 88.24488952635227 44.656836652499436
74.58115600562337 89.17694979059554 43.805699349527124
76.03360697954808 89.37923621061256 31.07896822500819
73.96674605479579 90.3232479947705 30.833502723150318
73.08192927612704 92.3451662317249 29.420580394353326
73.98018975484533 93.83350162784713 28.144790298723755
73.73274078324212 62.99923298906708 26.590806129671666
75.29327987555214 62.64322534370579 27.978192555522195
76.62881138683498 60.368362474207814 28.887806020246714
57.64320645518781 76.40248536584798 25.33609000951794
66.9658472252372 73.0683845868974 90.8703526297214
98.24883992209618 92.08319813871324 48.52137920442503
97.64707995823665 92.67865990806922 50.90238948118196
99.4596813039432 92.0491672493288 52.85650630340373
101.76216436672497 90.83787396786315 52.31621179551727
81.61968343870069 85.82140385110796 51.35849406222271
81.71563026404834 83.49333120827734 51.90666045633286
79.62679200597803 82.08901136731706 50.884202261648696
77.70343363964133 82.87451863346368 50.03314438524349
61.25386276356101 66.27285360672188 39.05393413818815
68.87000585659531 59.03388495869449 69.95689815293338
69.19480146916358 60.00493954707357 68.15204234286853
73.49460965158352 81.43360313733565 48.10607136449752
75.99553196889393 81.21312120741331 47.48593549003323
78.00972020315923 80.66644960820864 48.64039768173185
78.25231203871198 79.65503982703652 51.3495737309435
72.63687221809549 107.22509857535384 68.68413547259574
72.15932870836903 106.78067567309265 71.36328420648472
72.35388549460646 108.10259271020797 73.32360184737757
73.23007892713026 104.64023974659426 51.970203835841794
74.34923212101222 105.39458970291895 54.035260794800664
76.49492698633397 106.75912156357072 54.428072288058246
78.27645650598997 107.54559569151134 53.02364060755882
80.01685512319426 69.52318147860449 57.1777499137697
57.63455643113571 89.37587571050094 54.88229254499662
59.52282754044009 87.6303500006125 54.53820860827223
60.90154346002797 86.3882769579696 56.19583118534074
81.7890581257612 101.02955698826821 62.755054585509676
72.11931832687901 100.84779866562069 27.013446627143953
70.56871255855329 99.84721657044498 25.674577107700507
76.1769640480914 97.56310297046761 31.4375686670523
75.2066844206884 96.3099724528707 29.223375790507323
73.24741323301613 96.79579447715867 27.85975418959612
71.29796713964542 98.13061285899839 27.920806895524795
84.61622690960465 94.18648047155524 86.03298569009935
83.52284239961938 96.14580202642856 85.53315677447736
84.70225553910875 97.96119257364697 84.31350445890382
57.10703995605704 88.60509485363808 59.188977390320645
58.350588949952474 87.77522258895574 57.395412406862846
78.00127011862557 86.76606983937654 38.510102824514895
76.6957378583669 88.67451753941967 38.06843523752033
76.34684243859864 90.19421675372257 35.88444706008075
76.70577604343654 90.03033646087886 33.86847767623754
68.44816513416438 60.61514754928774 83.21682656902124
68.60469344673012 61.33709841044971 80.94235893451588
70.82340250484671 60.3747716558853 79.66889484011006
72.77766166081639 59.91075151470309 80.51582694045403
62.13505238909082 84.94865441236095 54.40353369047226
61.00342284714245 83.13447756600732 54.303127570523166
58.73581075934038 82.99587468074176 52.52784209545982
58.43366817467084 84.37734358578999 50.80231381426487
75.28278937117663 107.17216203026277 61.91003087477081
100.92609208911031 70.5900161307451 41.07860847064174
81.66623189095137 70.59872773435895 25.67829146455835
79.86878628849824 69.08140590726809 25.7686008575472
79.5990006918861 66.95834807199175 27.218400193899846
81.25866329736489 66.70461100954105 29.075292010895545
83.69518552125945 75.54633821588429 58.40206954767145
82.27914814488314 77.44194865893911 57.62869085000177
84.26550580996654 79.05720502827349 48.7936357959342
84.0842011281112 79.5511763403767 51.07632653896131
82.14445138736328 79.00423518829281 52.901144302774725
80.2785092473515 78.08562475411479 52.73577652869717
100.08009105201924 90.50142984740886 62.98874416154396
99.43936127849473 89.21262675865084 60.46887782071172
101.35599117106703 88.76433295592585 58.865376779332614
57.49630788389358 85.95303215977083 53.963751650895766
68.97473631517474 100.28518238830549 75.28460644095439
71.33456960189095 100.92713322857583 76.43071978684802
73.3531269589925 99.89250698273929 76.28692592357727
74.13166365394935 98.02016387037973 74.69585009478465
86.259933396148 93.56385255141446 91.00295820267043
86.07627769179015 94.51174358713054 88.32216623869193
80.03043352094811 84.06708623244883 43.248057502249495
78.55352298907214 86.33740053038423 43.486574597431655
79.38578550404856 88.63481681783101 42.32310738467682
80.12294009683494 88.80232850841223 39.9736348677151
73.51600904184926 103.15428713225812 82.60906340901563
74.97286207578293 101.64645627008024 82.07760177310257
76.4790196124291 101.63821238445098 79.49613920970751
76.7040068028202 103.52211927344695 78.04819353205356
57.79929902320733 79.28491521947548 63.191147967460495
57.65970169476698 77.78742084618585 65.24888210101709
56.33509655469117 79.44740472720426 67.20224421968331
56.219831846095595 81.7195081146624 67.23269107700904
87.49657154561257 78.29806104883684 58.007500406258124
86.26516458391502 76.14599565645642 57.059130571600555
86.2338877381078 73.75197457265858 57.7234852596594
51.58098489986472 76.71246385313201 17.156170359496976
59.00134903483178 80.37915125794031 26.508041969694226
57.92798130837408 82.00452314315612 26.811915689732746
61.3193036694166 83.40347524899978 19.974850703659264
50.064006585038776 100.02368076343136 17.55445439181848
50.25759136469924 101.37416391044847 23.511668871640563
52.069896480667396 103.72914743411685 18.466003143077238
67.33141203149437 108.07946486759823 45.11541437667995
42.65706421798064 80.58622449521769 90.84444706328357
56.12030431234079 73.92081261562363 22.579981435069012
55.83177127997605 73.16533411894035 20.047806733542266
54.646557930473634 74.74900431998519 18.308311334733173
53.853453896398236 76.8505662618516 18.447850440433164
61.058038707266725 82.70485419458542 24.260145753680103
59.75303611211722 81.15130009853715 24.11020111758948
59.47692281465644 80.29254656989892 21.75248812595675
59.15820948878767 81.64198051731817 19.71750817173374
56.659437280878 91.61658143994448 38.35774473355135
49.59364508314876 97.26533921134967 23.509246985225552
69.25200941308549 100.24418200617184 22.182832563987382
57.319323108485854 78.88079079739009 21.01406699665424
56.97523388795546 76.717157393022 21.543904710404806
59.00955464255086 92.40736986986309 42.73382222822534
57.228546349980206 76.50569180282962 18.960200971688543
47.49957792739253 107.58360279022163 84.85580741595358
97.50854273275587 48.217994901216535 74.50746402877975
97.2921465176035 46.64229929115358 76.33837766509428
98.83485552477946 45.46390016282349 77.86836334344888
101.41250103475302 45.13582197965286 77.20112678004011
40.39722524376295 73.27488788125915 65.36756537689568
90.60352450104688 78.24510087265672 79.69214838553434
89.79837994494898 76.17999849971199 79.52201855046566
89.12176765835302 75.13219148343165 76.9931083670411
89.44777014564103 76.64882261810514 74.65577243700744
54.18335261349759 93.66287868822036 63.755379953403754
53.03577600386673 95.72676960237582 62.49316646502548
54.394974478336046 97.52137051543795 60.535550346794665
56.366919473550006 97.66286491504128 60.003197475263896
51.11198885151362 100.8735548054547 55.57832348807875
48.45620153277266 101.53818131595946 55.40191713168712
57.67575857383899 103.87154987441166 57.54114576189953
53.636776083065556 98.84674086516078 57.26946838146138
88.32172657924895 48.50524524791702 68.89580222720758
89.78284289765543 47.12037243339134 69.8341492944386
51.65402704353837 103.2336457299346 57.29664879107816
101.79704517265576 92.47826144965933 79.28199069436086
50.85061122844136 94.1344590227316 63.103898367033906
51.757178794814976 92.66889540611007 64.62877822285574
51.996341785041274 90.21133470607509 64.7933356490493
51.504773502960745 88.39970761548301 63.32389042240564
34.206821643707926 95.80429178387826 87.61258591532888
33.950397444151 93.62472935759155 86.46157891281817
34.030938400223874 92.76659383604307 83.96491689547075
33.04142229370628 94.27013794917062 82.25678583483686
42.215778516061825 87.6804697325016 85.00344841863712
39.97195233375327 88.07832607764477 86.08165099562996
38.00537806590827 89.7644492543477 85.50651479892674
37.650941885845825 91.75788145610197 84.70032674067113
38.40987688429997 78.49325864249266 59.539333741318615
37.09271471806833 77.47118995435557 60.900527021275956
35.04783050843839 76.55837170691294 60.42962022037385
33.63079045749692 76.56752346033798 58.22436078745356
51.31547954457841 100.91920733838134 62.08962588892322
53.366481037171 99.88223712036168 61.91610038431206
55.42936487123213 100.18210432506667 59.882736249977086
56.07350248558771 101.91409767008851 59.104205484183446
73.22122091161283 55.28720966966745 73.1513323080161
36.13149229701974 88.36516770089216 52.19346548317751
34.4953914104065 86.9898821990036 52.90537767226225
33.744076840038026 85.38670385319713 50.89047488318434
85.7169602974475 71.49950528834302 84.40195390690732
87.5869025061743 71.9198283345336 85.99520245712182
87.86277119465164 72.05511088214728 88.22643028373264
87.36288716571005 71.0105787920691 90.04392514025638
86.04686424378282 83.58249277302504 70.20630623048925
86.08073336243147 83.85002868686367 67.73965063904853
85.5859718619739 86.0067353674119 66.14854709141048
84.51260413551621 87.63210725262772 66.452420811449
87.21991121668253 80.92064555409716 65.02352004801969
88.51436823853055 81.15335146540735 67.16081751121985
91.24336611254796 49.43354877578331 71.90587907748872
92.59159473594936 47.266281949051105 72.21867430707353
93.61238643525365 46.275396648211185 74.19990481105081
94.6903134320778 46.69299963595586 76.0225431521862
87.00750622527265 82.88991027407961 74.92410501692227
88.33080595689964 81.2884303251097 75.16253005856603
89.12599282991562 80.0284859494945 77.585076035305
89.13639147768147 80.38853130501049 79.70275230006955
89.14026948125893 80.80547285567236 82.44583762007505
89.04699065610093 78.54803637998499 83.30788987617588
90.33129524733708 77.19688111894101 84.9205406549574
92.42452537532 77.28655126640797 85.86253368126069
33.164698207110575 85.07696227781138 54.729067641586354
32.87109782207709 83.22932690643677 52.981763352195635
33.342829076314494 80.55812200999954 53.17371224621987
33.79547877313848 79.20123495813029 55.20485669005176
94.60810497452026 43.677623615109844 80.26254027885243
95.62943553447248 43.846726815796266 78.35029549047408
98.10400381829821 42.50532217023443 78.36702943030878
99.79053172491763 43.096442925083196 79.2743916947737
84.30190382462848 80.48243208717945 73.97345567016683
85.29816366853645 79.42546629222157 75.9530491604143
86.79025591470186 77.42064484640693 75.14102304178475
86.8010260435617 76.32537808292392 72.86158726949687
33.17469227610152 87.1492786444528 88.7009731635412
34.013920447482086 88.37654473903527 86.69252625791043
33.23433233109935 90.36075037675285 85.44603105319324
31.644354920732297 92.46658908999777 86.36845380883952
54.873608338603994 92.95490909940789 69.97034911935611
53.088595806825126 92.79571677460068 68.59505575198685
52.869526577303034 90.27659419402636 67.710334854309
84.10923279651333 81.48409980267438 70.7865392234516
86.19183407287345 80.6847038527831 69.1470471961423
85.97533293138761 79.7161015113578 66.89858209582121
84.12716465443444 79.57097970045665 65.14502558505573
53.907306112549655 87.70048932008523 62.84078367678346
87.49176331974233 67.80274439760535 88.39113534973869
89.31804873836192 68.55113429638726 89.59033332589038
47.522222935650134 101.10114319486891 64.26971097514979
48.426102733131664 99.18193767223062 63.192876775343066
51.00404279529688 97.83520410126799 63.616871491602836
52.70406515498698 99.04389085283724 64.97460050305457
97.14897123659686 64.48428173495456 89.28408356335783
97.30162043165278 62.19613829041341 89.85869091639168
40.48748275059837 85.76619765856422 84.1652098795348
41.28494363583204 84.7776894224819 86.30452608821945
43.36398049296296 83.0525250453196 86.85888122891919
44.84026591064435 81.48962179925579 85.1970065386911
76.84221419184136 107.00174801992006 63.15217399335682
91.24130333340247 74.71971003645362 87.05845317141483
90.31907229275825 72.8476097019839 86.16194728668138
90.2950331606375 70.2592113085008 87.06912884983426
91.79811662875605 69.0050326063708 88.20855429329791
36.33256436193385 78.86544005088476 51.253180620542985
69.58961509098349 59.674493647203015 61.690100312633675
74.90195911329394 57.574713088837285 73.29175295995782
72.99283494967695 57.99293095163414 72.90652365385233
72.20690471274298 59.04271764812658 68.6983008443524
38.07599940460131 82.48686544952685 87.52292166498623
40.297578843930374 83.0541670798104 87.91517972745655
42.20407363241208 82.05584849342442 88.89347316516168
90.99822437954684 74.53544380704034 84.14861560575767
90.03642797684596 75.81262662404428 82.03370772165596
87.44812221410422 74.92581621761447 82.32067441505633
86.56087438844081 72.77863395884931 82.28684353233862
51.28966529113274 108.3069451415886 78.73038891319099
53.08223322292614 108.62620075424233 84.41342591718706
40.56066712143907 77.08646468546877 59.39727650532648
38.64056451139108 75.26124943859881 59.927942767726634
35.1847588849988 101.78107223834198 75.31765132170963
46.975259169731856 92.61452481740294 67.35222437403205
49.61374694014461 92.7476979762191 68.77095236781032
50.97606248746037 93.93392400666822 67.00911556365743
50.085997498149595 95.90753664012108 65.13200870448148
97.51194406823888 43.433915881402115 75.32388614302242
99.8373400240827 43.1836052271967 76.33755564543632
54.647125261267 91.12702849317337 65.2545700769986
99.55060291794021 108.47978032165221 86.06637038556033
101.56368625473884 88.3886357530124 72.41751581352933
101.70381293320746 88.06109791929848 74.41144142370993
100.42852621747 89.76803698192779 76.42699253831282
97.81836369059565 90.40475083094532 76.24567408902311
37.425701733652915 75.23307569651328 56.056284416686715
39.27637810155312 75.62534776496203 54.325661495763335
83.43623152951531 75.64249897732267 70.21941774468014
84.24772446234954 76.37500659562531 68.16009141161044
86.69831266811498 77.13839246785786 67.9531310817051
88.65361729115277 76.12325165281959 68.8616009477807
36.686821149614765 98.42364979227202 75.99243135608204
34.36668928224108 97.76228243258596 75.70895701079974
32.39630951724035 96.89341366522585 77.11932182715746
32.380304156592665 95.8122223308255 79.12390122599614
45.203931812549015 84.89576715415062 87.24813077341342
44.13038056371158 87.12493302314643 87.04943508207457
33.981727240268725 88.40743548804232 82.57066998947752
35.671961438021626 88.33363941593511 84.21236355733744
37.23222828553229 86.77152848348396 84.98166780278194
37.971408734217725 84.64212480518617 84.33957558792031
98.06109379006169 45.136912991341084 71.6425324912682
96.29423822195177 46.54420306347014 72.2310356478886
94.82467201332925 48.43555100115078 70.9475368745081
94.62826182602308 49.30611767208974 68.99939250531624
32.10506909289048 94.82614380235961 72.93018150240462
83.24406010802012 97.24416554941605 77.99824985526762
31.588580200420953 78.82995962510752 51.728325086311116
99.16199727311968 39.538259944374566 88.43655503786383
90.22652977645316 48.121122489554224 67.00723822856226
92.60633772545144 47.579610825626894 67.47130682434515
93.9802126817775 45.43216391332464 67.42719995287197
95.47698122274967 51.31394023508341 71.6447952841714
95.60343488743804 50.17859590601516 73.60534920195519
95.05912240506287 50.85725177540068 76.05479844690596
95.20399572544537 53.07426052117218 77.04033417852952
85.15681073615471 76.94769637579557 65.14415826024015
76.1782679102909 102.89292332082127 63.149752106941804
40.16960523304287 77.12456922023739 56.2875640694301
37.684918245801875 77.81658261471969 56.712391772913016
36.2929218948482 78.8019210607022 54.71357664402953
36.602313224969656 80.59837923055056 53.28550249496944
84.9984406018165 74.51359386927321 80.30987102405767
86.85969527477306 75.95902535058757 79.69730171853439
87.4226825887742 78.36193687135203 80.36521564164038
86.28583882813456 80.29639987395755 81.22843101945136
76.61198973901703 59.25796015064326 75.03421204964987
74.97208882422434 57.997424828724256 76.01872144980177
87.19626415836075 71.09181613323072 79.81554885232185
87.54640332765538 73.29002790825645 78.93181731294939
86.3138041505895 74.73098923428371 76.94471899116273
85.0507669859105 73.90485807547046 74.92143648921999
91.08758633889819 45.90027070409176 75.64947868244226
89.44329675605583 77.46815348537744 72.0103894906655
87.75544237468459 78.38039846147426 71.39734379896808
86.7763563640918 80.96866326534207 71.77412806500436
88.12631122357824 82.94958213086315 72.46567576256048
88.62034315622033 75.02509183030239 88.09356763615259
87.42907882498378 74.58246003647092 86.03555720764066
86.06127170825113 76.0471543892989 84.31870109359427
86.05452813471842 78.72729065959977 84.09533711758935
31.922004257940024 91.50104998444118 78.38551222086744
32.92043256035653 92.58331136504184 77.11066825728335
31.986293704201714 94.52552456593632 75.64957377731092
95.43732951437546 64.65037463463537 91.07795385695454
93.53975032701968 66.2070342386946 90.4708208401683
35.38134838966528 96.48869276035173 71.92435616183046
36.22797844510052 96.35092627326308 74.07374966773574
35.07282145022707 94.16424303716563 75.55316544731863
34.78686569889318 92.06011828798833 74.7240050929971
30.06085333353798 93.94505728091525 81.46226836708007
31.16216630273145 91.95793965356215 80.86564485942286
31.702571711236605 89.71217868571492 82.0147809220963
31.258861897706584 89.0573753897259 84.1287103801492
43.96701835201433 84.33115124509474 89.77478470321324
42.12423302477292 84.21581341387643 90.78923649750807
