16.757130770870393 59.36448589021297 42.68299592997209
17.074035591707492 61.49751488713721 42.54342034779793
18.248211672587427 62.7424115429754 40.120816605806354
16.551874778081068 67.56652929898706 53.34237735552528
16.241384951787513 68.07536188804426 55.507047677090426
17.815377823114375 66.57175614321059 56.759962455500094
18.658500353807273 63.93701401161869 55.927423857216255
13.62987166985081 13.895766139681484 44.48818797485096
11.414615404839324 15.650324738200085 46.338240418187766
9.72420409852393 15.92312144856935 48.158335470361365
10.53390251009766 16.975072864425726 50.591946569026156
35.58201064353523 54.73515774559936 53.146729293328725
33.4110965002788 53.71337866571886 53.78222670509035
32.21837316153737 53.649898992014236 55.871303586340595
29.305704502148817 57.81005735654323 37.85292991672961
29.861485285879734 56.21215900590494 39.64360829543839
31.46651213076713 54.24449610609678 38.3766974811624
32.6239809754878 55.00690680015298 36.01472702166903
16.867887318299744 9.782022918324838 28.398108243518514
19.263109820013185 61.30960702140865 53.917908338570975
18.06192685468734 62.53136262126302 52.56652461553674
18.34055528082201 62.58442938827876 50.15836588022956
18.607154548684516 60.881929621763284 48.39570654038542
18.351258991205626 66.90395544463877 60.29742402359284
16.533281666469126 66.59534257910151 59.037454832777286
22.36339064568537 66.48948655864973 60.0275929812143
13.693626766129004 15.29577401755622 50.36966385748645
18.640147243226128 9.279812062984378 38.62360658419629
15.936676379520733 11.528060998914984 41.71704524263162
15.371536175743792 9.847846716543721 43.7104633625237
45.389471324882024 29.461314473911255 60.73946159848013
45.80350168424863 31.014089756373515 59.16631756555798
44.92226004495417 32.7695427913407 57.70217549012425
37.890195641120016 48.4983926419259 45.002944177004295
49.12426558422815 39.87093490894 44.016193356185624
50.78268618722479 38.744274880248135 44.85228905247301
53.096204575513745 38.3166464517376 54.74305294877681
52.97784016003431 37.48928241538703 51.92200714122086
53.11678618472897 38.623942718347514 50.20509801217468
55.234870265830416 33.81045211630662 37.51007410481598
12.747952387035053 16.275412726125946 58.676075389720836
12.601317615569261 14.281658426805558 59.89058228780672
9.737125179174726 14.646448321608206 59.81625359492035
11.662582649127886 9.190666109983837 43.67718589545883
12.691273271336536 11.04307834254177 44.37099378620775
13.084860517722017 12.301255415613648 46.73670725065222
16.2241993761119 10.310787617505214 37.20062968400466
16.890478899113404 11.214239162103246 61.50188516093516
12.08229363605302 13.652014703006836 53.85664697335886
11.37681363618961 11.966025952750282 55.1844264087578
33.48349623122439 51.43609596714668 57.21231370307106
33.47298283786312 53.271227952057124 61.66148389668894
28.443639497367325 31.167659028717235 58.49972898603638
51.63241379972705 31.962720210489252 60.88579819036848
49.762709074095035 33.31239210969884 61.172684376689055
55.601949282858826 35.41752866461009 45.186067103532416
53.40043222728843 35.05205282443207 44.956233995379236
51.824325714720196 33.12839190616974 44.99977280736947
52.15257604197814 30.886360127654125 46.23725628240261
15.902283803180245 6.579670982312055 30.24521493295971
47.86862642878376 36.79887843472805 47.40904222897312
49.143272747112206 36.830010946739826 49.546785247239285
51.74104747843998 36.11899543256153 49.06103975174386
53.00604810670241 36.16215726190769 47.295411819748686
55.248809313219944 36.26443617156571 50.44446356697875
54.53930396131682 34.640402804728204 49.02840927801251
52.27737978288937 32.82420926246516 49.49042037258481
51.3870589794013 32.211289485718936 51.36040703661137
50.81425333818235 34.35228412333069 56.53452603653911
48.59528148566852 33.20068198785104 57.461918869125036
46.70487297851258 34.17993175143552 58.985562109619316
46.64355918359885 35.87539413910526 60.58381049772345
54.651620549852105 36.1154112158052 36.33491967045939
37.283683716614505 46.678250851944355 41.57239355275649
35.04463660840053 44.50148317257493 48.771822851840014
34.56825725875787 46.55615029774404 48.39129783518978
31.485070584779322 47.83893925068078 51.65146751688526
47.82556369591835 33.42084862552527 43.81693202325093
48.85383612489545 34.823692083711116 45.13171718517955
51.16968721289743 36.20986389712707 43.80900871508241
51.559612940945755 35.684206395359496 41.2698052687758
12.99676242184862 11.345382402424047 60.85486514758629
12.305648353312264 10.632966181594679 58.68097309358799
16.384186106385222 9.663897473239173 58.90360026039313
14.838180907904773 11.63390858706286 57.740910506531236
13.842241070995778 12.045561522689171 55.6858359316385
13.741649817135379 10.709066354301811 53.43090145922409
13.060562192590135 15.860929756159875 55.08687039548614
44.880051515668015 28.87385283940996 56.51383383949442
46.60912023114283 30.527411741378117 56.69376017106194
48.95664158900845 30.5747459718579 54.949786680612355
49.193799127795344 29.226562018153476 52.94871280690531
52.44258540683081 32.51469567946124 58.158334132755975
52.7648299114701 32.47657183113137 55.21334283194198
51.7778475642235 30.74599193419656 53.76159335548933
52.16949932452616 28.076089136552483 54.26746616372703
8.891305420558758 11.772561366054214 60.4037291048156
10.013613319789526 12.218374647350013 58.35238983737348
8.834570284764766 13.612321825360857 56.08228475552324
35.58032389055284 49.23016740815527 48.899099926912825
50.684178801567626 26.881715541551713 59.031400327023974
50.45020849943535 28.97851854525455 58.22787829929201
49.417281014145125 31.312025080888066 59.35454628418182
47.73424980552788 31.533723695674112 61.10529860898518
13.188414350263537 10.401475664997534 41.71969783715883
48.338625858332016 12.796028718359548 61.337042052065044
53.95913992806843 37.55890175664671 42.77421337954187
54.29110898247937 35.82370945270637 40.721977840202946
55.78163403747448 34.006505692199816 40.579971826425975
29.032923481225374 48.41720054551278 61.646759162168664
29.28101164252618 50.2876581882894 60.50115683713615
30.912091915742458 50.228001213204905 58.11173695572849
31.85673744085189 48.19984179000739 56.88736341114253
48.859647632957724 31.854635331802264 45.75254881228419
49.98337291352516 31.67666204215959 47.84895424815078
49.07212295309037 34.08205097651684 49.665418662400505
47.07599759646127 35.04856885233456 49.612728597916046
52.25246329445143 32.843294310533636 41.74432723618037
38.61568603997361 44.20827469285625 47.28389874555944
37.136720374179426 45.93814309909592 47.28577649503191
35.523353016755586 47.06216484667468 45.300378298780785
35.101267102914576 46.38780328253976 43.21179064612122
17.920150775271388 8.264168603586945 29.34259252468251
17.316242345421387 10.460416019274213 46.59715541756938
15.916679059181064 12.19017223979101 47.40448078141443
14.157855967020636 12.058078263203114 49.65235451555842
13.19058569037456 10.241905467319887 50.98937891318394
51.899184400438465 29.489090609917515 44.03255540691317
50.46777456183183 31.58133499355895 43.38699986519528
47.78845521460711 33.003356458119995 54.74031715615975
49.87382552698431 33.872299454671456 54.158809714085606
50.71130032321733 36.17441036246537 53.12913616490163
49.52159285276153 37.96295907367844 52.06632999604471
29.723928811601606 28.2363204082759 60.77390484763787
14.407187220604246 13.432817673258057 51.91213690779474
13.21243003386788 55.33489511244135 13.344067878657128
14.861008595273695 56.67899549141155 11.90939836187702
16.058236356437934 56.35218409674567 9.857341750927707
16.190816952240805 54.64732774409391 8.346473218197104
28.99208894869666 51.38888292656127 39.78741013392313
32.818183466602996 50.67919393371902 37.270233480217584
32.35414724258949 50.57235724615733 35.08269823551917
2.872050355506625 79.84873690217938 23.997286170797487
0.5321992596030929 79.48343221747257 22.460765698415212
0.34319733417480763 52.147528884375966 14.488046401474692
17.635891899067282 58.01952902091085 27.867456952835898
16.549865866758623 60.43873892171342 27.721126971529028
15.423851799081602 61.921717865961085 29.29094294386824
15.551411922309548 61.83971018479343 31.929352854795304
36.6753441172342 42.17812253647371 17.4109441976221
35.20758218277548 43.5106140883985 18.93569790296982
35.78470756424192 44.32834124984412 21.487022423768007
38.197310276604235 44.50998007235271 22.546454416030198
0.7037793944808618 1.369540282273831 7.969635138303848
39.54394844783018 44.981409332738835 4.262822852809149
39.67898144907543 42.853663045998225 5.917635515075438
39.97513860877218 37.22926676241699 5.146014460386132
0.05466415480035985 76.43793139466325 28.813502117157892
34.79303027104864 53.22260185839055 34.92644197309011
35.535512877467454 49.44415420977918 37.05127293401496
35.66884381360755 47.99472991171304 34.883079524671786
18.881040169335005 41.81719593291959 31.655782131928245
17.49738953143146 41.537864889705716 29.86631348180671
15.862791842040103 42.95909892091809 28.563919903273963
15.846864622346931 45.32311502691728 27.96906731830912
23.323199037628726 58.461801060272094 12.98394694288256
20.930767913548575 59.02621244761544 13.8540177474053
18.570295691994055 58.70560619497477 12.61576167355098
17.759461338420888 56.46506248654408 11.863268221966559
39.060785469907586 43.18388479267458 13.851019512149906
37.00224314635505 42.39452766730974 12.727606029391834
36.631065369032875 41.821810494517884 10.101271432153046
38.39865780022531 42.18581119784084 8.202653800084317
10.962870640749417 5.701475662753536 25.201411812598934
13.164137635222557 6.017782208550907 24.400438645553024
15.241587066925836 4.523352741631606 23.527845202722805
12.57237477114615 47.04010356973212 41.35516070487781
11.700702310154396 45.153214120299474 41.90171835477956
12.270210300743218 44.29438259002348 44.40381301540902
12.661671413587765 46.223837765306705 46.51908645454173
2.2706998643208367 21.64317487794694 19.844164415735
1.4490804645276059 26.534210034200964 19.52893619187776
11.994042988651808 46.49376851210936 54.44498493651783
10.389086705278878 45.01657756008423 52.886896872073756
7.965605170719778 45.63672358840699 52.78867977970209
35.914085359394015 50.06981608005195 25.785637059036844
35.59795903832935 47.45414912467177 24.77327532069326
37.2856740642018 46.025701539487876 24.73745575170942
11.347173622171464 65.43208474960852 39.148658395046134
12.749643179283503 64.79717584705665 37.6624266955357
14.749245376034164 62.80162885498142 38.67443236177831
7.858235550473881 37.01002407120081 51.66009481589635
9.051842266686345 38.63709087940807 52.81493135504369
10.029685517218393 38.73096468355226 54.70826232691698
12.033206826275862 38.245740225091716 55.65829637170571
9.04108496062064 42.272746833188414 44.151222413177216
10.66069504077541 42.70487331610064 42.54390762053638
10.765446603396576 42.71514464638245 40.09735452817087
9.90865935860468 41.78641693657394 38.3013847720231
34.7996698426989 46.79379941097217 40.0884336106118
33.15471185261146 48.25166970816483 38.211390565783766
31.458489857279854 47.479833736255806 37.05990309253643
20.843804276245756 60.25634933614636 21.70773807165693
18.721913918579762 60.313248318803204 23.008577015088598
18.147097687712026 60.064784699938265 25.473331888853664
19.394020762145907 60.27735762987472 27.571557466235433
18.777480047514793 65.82230496081094 30.985557981101262
18.209622741149992 63.735547395697026 29.887846870137416
18.425134228197344 62.7817420534991 27.681891103708345
19.39641743994642 63.415992751691356 25.46652577492503
24.751735331500928 36.008320220412564 12.166784956128012
22.90057060780071 36.01889769461482 14.58609004535168
21.148543547213286 37.8814352892666 13.81939777056535
21.225000535812484 39.34016004050781 11.883590052585406
14.481768442967885 26.165950996622637 7.042227329287571
15.714445581289098 25.434965664709768 4.991553825454375
15.426015175804112 24.363249418625863 3.061887931972497
13.097596143279898 23.703618165395174 1.746313580105369
16.622009336595305 61.31914216045039 36.58482042725073
14.424306476552063 60.44110413854944 37.778029978633654
12.066454121180652 60.916929217000444 36.776100693399556
11.546399419193854 61.38314240246723 34.487467121045384
16.779198740904274 66.32197638651263 22.545751641798528
16.74934716775382 64.65253550591486 24.062702273983426
15.950685711637817 64.17781828148631 26.458535164524427
15.567358711818196 65.84904567541574 28.371609365090734
8.594908405685896 37.83089198932944 18.39955469299204
10.836382890521577 38.90284214652879 17.483776518897248
11.585030303120847 39.24054383562118 15.333527960695905
11.055420457173707 38.14478638062555 12.92306276687845
32.676309008357364 46.39450664250491 41.75926159599212
16.75869499399605 29.844501080337004 4.491450990390571
15.12963087263391 28.146031809092676 4.295007620243881
13.397250077105523 28.452046419797522 2.1583261080386755
38.6059440717935 43.19969446059599 1.3607065763174042
1.5668542646734498 75.94443839436583 20.055495845999836
32.50178967157038 52.80719973267188 33.50429294990523
33.90888651774636 51.70004962601963 32.70721121965159
35.091847804817945 51.548840029084104 30.079764632490473
34.26041645095215 52.143231100352814 28.18062186054288
10.095315265902755 39.67116784347971 27.14923039864736
11.603356985647387 41.36710473120848 28.186945849615014
11.920457064482077 42.403715545947406 30.51974410807155
10.332240427706562 42.06404418580346 32.841252495224644
12.269990747451367 38.50699408557395 32.247857916092805
12.237603322538977 40.47987619138591 33.83229430924827
11.283816507133237 40.72690742138021 36.26669507971968
10.754539673242812 39.34757139894552 38.037238119480016
14.109834891330637 36.181411467625566 4.983822416676418
15.154318107341938 35.80826740694822 6.914475048515956
13.593306747488613 36.16607345768791 9.029016290523142
12.40661303463456 37.311162083357395 9.766610141194036
15.45190118478014 59.280364353148144 10.512573170992036
16.713071039357903 60.56882671572843 11.552410826336011
11.534857716448789 37.76739905010478 25.94280252785555
11.515657200524743 39.156279729321 24.124469419082708
10.834631515966848 38.7531279086077 21.59974853809798
10.397926544556913 36.72261497802801 20.117942985575667
12.09446119055739 35.61143974247559 13.65990293905586
13.23837835117312 35.60612705340275 11.893404595463663
14.421395183838936 34.0006644313408 10.820097077498986
13.447313880540626 31.75073264104308 10.388162806706564
21.705210436792044 38.25360883893368 8.46035389861915
19.972498341151454 37.11943639678945 10.043520272233984
17.683066730637837 36.65039564629895 9.972405313227085
17.465540221965213 35.36504220621788 7.857471486762372
16.409973057334096 61.11952524999036 22.076065199922756
15.307844875417457 62.73232676546217 22.581049908501694
13.974984093517746 63.05381979098418 25.035236030698524
13.884635174907885 61.55353282334449 26.600441838067443
15.327703324773946 65.4982577518756 20.57408014755384
16.89851007764645 63.736260912873846 20.357530857768584
17.826387612944213 62.338223098704944 18.593106449125187
17.27721436305307 62.29498610630871 16.06477547264344
2.4072575979041684 78.94471472635038 19.872682290523578
35.88656721751072 49.61054151751434 28.402193159737994
34.58970158782918 48.04464083200912 30.08225295825612
35.22951787165561 46.70492203182221 31.91407104645541
9.905879001073371 44.339872063403575 34.67985818785353
8.482772563664287 43.16524707156494 36.398431987718915
9.099513052552842 45.01077999057168 38.76289213182301
11.211993276816367 46.62746417007002 38.01683245250165
14.136985701460992 41.874951049019 51.04638624637532
12.1549463328991 40.52688692691124 51.05825246948312
10.334342284211013 41.11540845810167 52.92887082901546
10.852545740692966 42.667858249716055 54.9975574848837
3.492455880059242 19.59385927280876 18.378779932833808
3.8979397458984226 17.12181184556832 18.672765590292894
15.37367048182506 32.22765629879963 3.5641655729779025
17.864579949250746 32.81982431221526 5.119264623859976
19.326386653119197 34.03166197525569 5.132621122087199
37.74292483615903 46.10460887099836 14.28703260305343
37.5413579379918 47.20915790854136 16.997711536420557
35.29740658667697 46.17614285421545 18.113947323572802
33.35037420833965 45.695748513573534 17.109336069344852
21.014654339750482 61.74856358112028 12.574899501588405
20.085591475553436 61.596517895393845 14.909213391382565
20.18035366213135 63.00052738721499 16.980411051299697
8.912026842145194 64.6562150765711 34.51416751886941
10.672962528459015 64.44939746826816 36.092247001552906
10.15648793709436 63.00443368267305 38.473945038696556
7.892301364244432 62.098633449155585 39.2339928008009
31.93603802721837 49.46546068405249 21.58770342698588
33.234590503253095 47.3397532190459 22.266871496623967
35.96279589837503 46.80429978849992 22.13813274100406
37.54412095306117 47.61693462397268 20.898885155442308
35.49972803643318 45.591637816503024 26.970942490212146
33.22597287406765 45.34731952606597 27.371527780288286
32.22476401900066 44.607507493353054 24.695548604229202
33.61526468533767 43.429120661967175 22.990953149675992
11.158138808455828 45.790390811909546 27.96869406757322
12.456427007765068 43.805461181536515 28.146114961425837
14.12201624227082 42.5326950279153 26.475545044623107
14.172438581098703 42.600803196580834 24.215873124704444
40.959192753253646 38.22106409085354 5.994327446250926
39.40055631460698 40.27976053703698 4.745398858843922
39.236440458419196 40.85112771245148 2.638197592564679
1.7252870388592667 56.597962759765764 45.372604278833805
11.931722818229769 7.061594474518448 27.611260018510315
12.34385173217615 8.910615472264125 26.360943686069614
37.38891009416366 39.75072412759074 1.1676294740584476
9.204093504660563 64.65751714214032 40.89988340716663
11.03558199040469 63.445064563296114 41.38799132140635
11.95948809814458 61.99202299329294 43.6527016153362
11.951083971784977 42.06032758337024 22.394317594123244
13.12794967032397 40.47315458912643 21.059846791782192
13.852707951681861 40.37925450764025 18.491879523756747
12.953163389370342 41.37806857143006 16.503717036141847
8.423616164894309 43.64837821678621 26.60255439697932
9.784939930594334 43.10479866691835 24.570784597244582
9.805905494118504 41.00387163239934 23.329909165698524
8.314753188675502 39.02180922475903 23.100846863385694
10.428288716714697 5.397313800779276 18.434970865736993
7.776442997293151 41.82826926363077 52.79793552840183
7.923249640375842 43.84124824285734 50.742292586475585
7.0842025709134475 43.62457090601568 48.57651629241778
14.051616598569002 60.10212381857297 43.819975217111285
11.631713169053732 58.89722068416556 44.096747261626305
24.0205810751702 57.49062306660151 15.28878096956962
21.49322538266085 56.92084440130945 15.704007831646583
19.64168343695131 57.59230127429443 17.135233764574146
19.433775410088856 58.54044242653242 19.334620743364596
0.7028467309846529 22.57273608769796 10.530767650207315
14.414967633511537 43.274438315067826 42.485043920731854
13.214818010623391 41.92598562115877 41.32273250186105
12.93749180869126 40.977786276760376 38.8755168789316
13.77529365708502 41.71744628524286 36.7057154249731
13.810696812574758 36.5680263390644 20.508621459967912
13.550759970500414 37.55299301853264 18.420102802146413
13.339501030262658 36.17071102244876 15.954028977779311
14.16924375957913 33.81248142142546 15.355642577449675
11.628356422365812 33.60203771464402 5.49601277154019
13.823794626206535 33.37547521626149 5.966812763768642
15.261651130262127 31.77091431652883 6.768626823684864
15.020575674835488 29.37787756794186 7.390584271786861
0.0692216281059073 76.95616227161844 26.131852047956713
16.206470675865763 40.84361468500948 19.84701701350768
16.50350040192329 38.446989226657685 18.667865940333634
17.371053808872382 37.925154966521475 16.4370765774771
18.3898164899222 38.63808309252637 14.617436761981857
16.518045531149163 67.03885206982262 31.005836663597805
15.708651502887363 65.40097162070475 32.53575494795539
14.001735466931699 65.40381165744157 34.5714153598275
12.872704139442737 67.21695209605645 35.729504212096536
15.362321580158659 37.87553019704614 10.246085651072322
15.540228717411916 36.852450729304934 12.355375206752807
15.319545909371962 37.82991799281596 14.95485149467267
14.555075834335339 39.336173219889496 15.78885005859233
37.983788315260426 35.793579116380776 6.42984544756017
38.425578683783414 38.089214812845924 6.805959900211483
38.65091734089174 39.496391999895934 9.103024552450282
37.80599733494403 38.88065345596018 11.258796553271726
14.665162425258544 10.167605093026099 24.49824534910398
16.230384069671913 30.248185078544765 9.539800794572196
16.88683009739419 32.45497522920418 9.557328641463698
19.263264441263082 33.54338776314622 8.72871882364109
20.825728803570442 32.4969205357372 7.339395190233729
1.4282530479525541 56.790275994249214 22.144590868609576
0.7692505052831539 56.49676756022633 19.76485781108886
18.45984582739514 61.872224013786585 38.3804284426709
31.179715025328456 41.575891269646355 18.388598869803996
32.75681293600293 43.15069618909889 17.300117351094343
34.30100667866684 43.078050163791694 15.26364380883444
35.76549185563048 40.733576720741745 14.923398964107873
15.627721521357076 55.38020582438305 14.74557001214265
16.5693567207977 57.52995875772371 14.186324987314974
17.712717565409143 59.43250763957364 15.891327039738115
17.273274934850917 59.67650855463449 18.31149495518246
29.521532137002428 47.64121400744132 20.109238189684604
31.528814904128794 47.25344285400254 18.929026423991882
32.882322285322566 45.44503177019395 20.30646132471354
32.30102445610709 43.27734073331701 20.75112189893474
31.167831053531177 46.9003611831242 23.786418639759837
31.2902795514001 46.849518447145016 26.07260101390404
32.23770103006263 48.59796371679816 27.362220811463715
33.20665180939914 50.854694991436645 26.217653392860104
17.263816956549878 39.04072023784863 31.84694361965426
15.12528027465859 39.543315435952614 31.11758849607469
13.588655932176833 38.72954779979537 29.50943021653299
13.897772440708948 37.97093996502499 27.14767335697766
16.922227686793647 41.029005409088505 26.84607982720996
14.583443753027636 39.93096375993579 25.463630610687503
14.264638826272193 39.16083496266221 23.260472451397074
16.023099575756714 38.338783836470704 21.410793996694355
9.241608654443905 59.886867240387836 41.46648586056051
10.615416656259784 61.06271358109439 40.38515428471241
13.237281627077309 60.641941003688984 40.484191226801045
14.318719833478355 58.56579301695057 41.62012229395219
14.91547607829675 36.82843325038039 38.94520339592226
14.353989961319902 38.85155435507805 40.047135507890125
11.454912520028467 38.92409722131576 40.665007488736364
10.395552691815269 37.837820937359965 42.277488621419074
4.226265388684144 18.247545112019697 14.59852012148466
2.4640193260505123 19.525057362727996 13.519019104076348
0.8306678804641545 19.139024897933947 11.62777785824071
0.6848500782840579 17.782386850792818 9.9715651632494
32.029132146175606 42.89449344080786 8.729883617992883
32.25415112526443 42.565587364904516 11.078764542114437
33.34560616764445 43.604806010008424 12.764002586513921
35.68466520051524 44.841022403175465 13.009022863829951
4.052153881829604 78.83266729645173 31.232422957006953
40.052986541048206 40.173183111094566 1.0658916106916245
16.769682548497546 42.165753964166214 33.59027289187035
15.072677269284567 40.26381516400761 33.952932740894965
15.189018443021306 38.286100331403276 35.44346652523825
16.85607848962611 36.83882662568189 36.18226691849045
10.71413664400345 28.00614805177071 3.21185181518719
29.85381690667839 49.43840768380881 30.586768264396746
31.885612033148725 49.15575252196637 29.993612424016323
33.2832994945094 49.097747789552955 32.31728934609673
32.70099194691718 47.82637844548349 34.63948915518947
10.9623319049853 39.31803696117953 44.76235011472436
9.981015506267532 40.65454910638036 46.217906476517
9.447157188738146 40.530118704663344 48.76741259121525
10.092848538988063 38.80566482500452 50.40756337785268
0.3720091067981528 21.85793553042513 13.291831814619904
14.634551855159337 42.297504483764 48.1826800158529
13.100847834643389 42.22069491661135 46.56513870790522
12.843267790756169 41.41456746892488 43.99737916699197
14.58831594822863 39.553231516206786 43.23258430936261
13.766211095652118 45.59288136542944 29.841236835599073
14.101719253886646 43.52700938870588 31.24624033667836
13.756407330938346 43.10812744366789 33.72131151274943
12.54988861645185 44.21146650121397 35.33631624508601
0.45033180170424236 30.490028696343803 18.503899233150534
19.800267919631935 65.81156377705548 23.262635988051372
18.957010962077323 63.533261679162244 22.35902905335448
19.613608159373612 62.253649567506436 20.532825836300923
21.320803573752187 61.91115307158388 19.07759803218668
1.376981348271967 58.604880170087455 26.1031226879485
0.48842773976760706 56.933982676857084 24.94766522586761
0.05454860247544438 54.471014432581704 24.964828467471435
0.8832437689875114 52.65205902293906 26.839493792340484
36.08392271507569 42.65052565325044 2.372577118390324
36.56141572391216 40.51203392052657 3.5602480527371543
36.00307109934767 39.75444283383819 5.864729797950767
35.51938389048039 40.78029131916437 7.901163270649347
22.206183516200593 35.13018615974747 6.790084936642011
21.76822728657569 35.281447228737065 8.954721505937616
22.966442948231347 34.357149026974724 11.086608452385395
25.183963339394026 33.277276555554806 11.690286900860535
14.613825971521328 44.63294085699556 49.82905776168051
12.749681677354792 44.281536350715676 51.54037693997211
10.715991281082358 42.80387081588448 50.26167475104606
10.045583082507182 43.08918117799303 47.754563366842845
12.807031323502343 64.20112668742851 27.474086625332625
13.950922118992892 64.2538759093385 29.39483228492765
13.571476471960626 63.7998108114149 31.876432561795895
11.391113097245102 63.803126233590284 33.17500288674796
19.5275551808475 63.52639498824485 32.767249157563015
17.28864039724666 63.35617215491411 33.515127695194934
16.14989237908877 63.875143009853154 35.775761529017934
17.06985495236888 64.13845631409419 37.80203914489781
10.953168908635941 58.35164721764034 12.539490566105055
13.13588711822089 58.25528252861575 13.153519580816113
15.022789343378092 59.990322335275344 13.517836100347456
15.294296553908643 62.47599457662111 13.345713383696067
17.437070304523473 35.39894038598239 15.97948947754724
16.58392404306619 35.242977196286304 14.02928871718965
17.811025067974146 34.255623955696386 11.634508146515651
20.155481292636548 33.65795205820406 11.219187421799996
10.617059073839101 11.125506403343845 24.188614625499223
12.342327309687056 9.751177100753296 23.609840884172367
13.121378000524755 7.99270622160559 22.374900713083193
12.039804847749364 6.473157431087565 20.916538839842733
27.95219843514648 31.147021068953748 29.79636168050618
26.591786815715913 28.642218121659074 30.172196154244535
26.9255475310667 26.682413235636055 29.09483778876844
27.589352963677857 25.974242958463783 27.12379190522725
32.96246454125122 29.90235407756354 45.21351161705618
30.62261344534769 29.53704939285673 43.676991144673906
28.961964414662916 30.682626486408292 45.231240426071274
29.04990658834913 32.12559693548575 47.13183196408384
26.113809991555893 5.603027550988957 35.728074329264814
45.64182610805414 11.893327360177585 53.145578301053995
29.992289274233595 23.31673678312961 54.07032395837102
29.103133178154327 25.330214347528962 54.43856944868015
30.001648601213194 26.789232084852955 52.52202664493734
30.14507834054496 26.491548570047417 50.02972756341658
15.404705909030769 2.177170003926995 23.566934685772623
25.972262758057393 5.999443619964323 31.849204412829895
24.906932171168613 7.129742695311254 33.924069156722865
22.517896888254466 6.728938914572503 35.00008227451252
31.12704914499867 26.759918426222136 59.057608175679256
29.05124241529737 27.806396310117645 57.51335473731475
29.070272084603236 29.345691279971437 55.64394534260539
30.672132187236826 30.409741181082797 54.41761156232285
24.747728358501377 27.522184342720013 57.39102104805116
26.104943949006934 27.16928303586904 59.829487915727256
25.733027777502855 26.108404562824187 61.661541301757104
54.636334166246975 32.841162641846516 35.34301475405872
26.93254951783234 18.139911540149665 28.364904551231756
26.653401626078445 20.294764818414603 26.91397119903733
24.241565963294153 22.04454670331816 27.069138628704607
22.99066381260617 22.24275914462804 28.86533616611211
41.43758780791607 15.48570192499268 60.364883841304824
42.84005736502809 14.8507930224408 58.87865214179439
44.83965956177876 12.855246030365587 59.890657808037
29.83857688940249 11.099872046885249 49.922376126624016
29.10271406514679 9.597014275128595 48.39612059229067
28.49883525102771 9.456533364747411 46.0527888373674
27.20103480779555 10.707128996937156 44.67236869213624
35.33069101158861 23.76521858468161 25.470796600581338
33.22797825025735 22.794787916396764 25.554296524372297
32.12914360998097 20.501206596250857 24.43905803801488
32.611061538210805 19.32655830704286 22.680712193255548
26.56763304957133 34.4848765569146 55.86139874936569
27.061033116834505 31.83640785171853 55.18837291548303
28.348257317515206 30.730635222098922 53.05543103550491
28.750765242831648 31.799703998516318 50.95360205992874
35.30428993579419 44.51731109497967 40.23132800841947
27.45226035384802 18.66860850171208 22.08434305278674
28.651400220129748 20.50120302962233 21.60942674589289
30.516386183215147 21.18663962309607 20.22410455921724
48.867894233259385 15.875922136195102 52.20178342735995
23.85564297188216 31.422165089917552 60.62814991742303
24.07968419873169 30.664123247270496 58.470286480812334
26.295150375055297 30.203115356426707 57.521377852782194
28.7415153782689 19.948953040915956 29.549169118189035
27.190236806020028 21.21960095575409 30.5817733801368
26.86875372041526 22.380915653084863 33.096042647825755
28.899936680909416 23.443752585195167 34.47216405369771
25.688254892852875 33.915420326118564 37.09412062847868
27.70176443312786 32.33806853731944 35.56131988840499
27.239659593423323 30.849624446622435 34.063857592171736
27.61898678126767 32.50823762524706 32.42351599512484
47.813558242719026 29.432674351095173 34.21120499650336
49.443145981517034 29.761331112551225 32.694175387758555
48.50544553841888 31.04764423569637 28.521078988440735
29.74440145112883 5.809150357961943 51.17110558159102
27.233707498549148 5.460889547890388 51.00499621048843
46.7124235223399 11.37275933583455 57.80104587350943
44.51472066229666 10.494721313933606 58.99425542489234
42.15686830692523 10.97054639238461 57.992326139658246
41.636813604938446 11.436759577851392 55.70369256730406
16.113054970600324 2.6866876498927224 26.63673326563958
14.529923152413435 2.9917695974598533 27.593936732918593
14.855822075985023 5.446591246751973 27.927168418575228
45.65777289756279 15.902662850799906 49.587834811349424
24.807878068975622 24.375940190942217 30.681066849526854
26.255727643748898 25.174052879276207 32.13847680317613
26.134950799927175 27.024730930682406 34.04606726785541
24.782200123287005 28.867907307575038 34.360890777141826
21.727127926328482 22.827018108691398 26.195210185572826
22.2448993645276 21.936548949884493 24.379415320642504
21.273352687344946 19.770941675761673 22.902349348142618
20.784189368314106 17.507315782036017 24.520079616328246
22.070269002954625 8.650131075276438 37.28865158754616
22.691208203078403 6.77224062980875 38.965351523161196
24.877257172485212 5.99495240734351 40.045228496672124
27.314893767913645 7.342491257852772 39.91824224881403
31.306638522225803 23.16827697556886 36.0402233246181
30.362902631205834 25.22686519761194 36.81142645302875
30.456895136118522 26.39979781835127 39.16446793386189
31.657268450418037 25.998055569749987 41.271721292258526
52.12010367250582 35.543058058780886 36.20308857438537
50.582992801178015 35.93126779784033 38.15935215200046
23.3327094628356 29.141455977120785 61.7592971051144
9.325769540825249 19.306632899732367 42.43637524018622
8.71351608869356 20.15171738050809 40.70833105186788
23.311876584916114 25.435201365236168 50.18294816838409
25.19824037972887 26.399491498329446 49.73379306820796
26.58500448433211 27.22096330739787 47.54831647750938
25.708992042733566 27.207602308450287 45.232158256763796
27.647761848408656 2.0336302730070335 42.18273553731424
29.34226234781662 1.5787560150417703 46.30393561241973
32.497671783648755 28.998331901734538 41.08890773678226
30.075119577929264 29.15190284003913 41.05207501668123
28.380437943713037 29.75599614807752 39.20390451166554
28.530017773425296 29.82707230108959 36.79012594844674
25.52191822425128 28.73921072005625 37.468888974897965
26.731154382294942 27.34475524742011 38.77955004408322
26.66730557287446 26.574110298414748 41.384350948960844
25.146755528894175 26.355666013857867 42.684479929659624
31.451241113316968 26.231055164623662 30.381695744656394
29.257600042653042 25.617802415360295 30.133520810584017
28.03886066919311 23.77515662451816 28.60919530922076
29.27269835924887 21.9151033672529 27.387977452499545
12.302602074603932 18.752831898970804 36.89606079715728
9.914537594411906 18.499700501621717 38.201347233181096
25.254991515804942 7.344645934455808 55.29504788917159
24.925306134086114 7.719626238895816 57.622226994192516
39.00244102788978 14.709832251955259 55.73039296512809
40.763376714203595 14.50301464365232 57.30847244781159
40.24690212283896 13.05805085805721 59.69017048495525
37.98271554998902 12.152250624539745 60.45021824705959
25.96465476283564 3.9081175257969143 37.646743293974055
50.87983783622701 35.69964124941658 24.81886328817754
50.204720808101506 33.816578808864236 26.3532717802731
47.98340749804334 32.572800916343226 26.520067782676477
26.291634256866374 5.536693251338374 58.28697486822694
27.32188078263241 5.492437179967455 60.81319546178094
28.85480802134116 30.075622489556604 32.24394751442976
28.23961809604644 27.834951340697973 32.2109694823579
29.604444451343976 25.602096455556538 33.058635191119606
31.482593305526567 24.84156986172056 33.906902899856505
29.268021178728986 25.299120674821484 42.1492345021702
28.363545138060143 27.4758026293391 43.060878125842315
28.454965017712603 28.131124499026022 45.82221066523777
30.1596358138505 27.00977944700259 47.348077494215396
31.85069663005496 18.919424761703613 26.70797513425723
30.00199642471253 19.28844064810579 25.32327200568855
27.817722783295284 18.60109991915408 25.062893422179233
26.958059479877384 16.761422466590325 24.524927653542765
46.608459716893755 17.092469245206793 52.2220621098565
45.79906568863196 15.454588796088917 53.75198039421408
44.092149652676284 15.457428832825716 55.787640806086195
42.963118325187324 17.2705692714406 56.94572965835522
33.70916610151057 22.803136381674793 20.688762406994844
17.08268846343539 5.521111617882388 25.657907967437993
26.255441672848914 29.773832779059244 45.64353245968762
26.842044628261615 29.785700962811507 47.86068421899837
26.112892408959524 31.416233151808957 50.20646322931485
25.56547572742508 33.85301206218727 49.85234346749545
23.958740446203638 28.69238860463778 50.81508430932209
25.990512701027942 28.48149220791788 50.95827499823464
27.895096959885993 28.18924013321549 53.03814570405028
27.42066180291045 27.32554645636545 55.228265779518516
9.380146048494012 18.891236082305795 34.71022626282546
27.73706922444794 23.586859499300175 57.275955367113106
27.89971329638704 25.62421221891461 58.56885520491929
28.408510267923678 25.95326520840637 61.178029420721415
31.518667233697148 6.843893169633377 43.360816314868266
30.859664691027746 6.550384735610493 40.98108325734755
28.62207659863174 4.884737494481491 40.95286030700422
27.581431332189457 4.658653070614958 43.449529950381006
48.550260013139734 11.925841189170749 59.59665388892959
22.24065386083329 24.356041966248405 23.41603786916777
24.236782539509562 25.316160477380187 23.40094373039469
25.586584348492636 25.35856584931133 25.379644737745075
24.779725285023332 24.904090020144572 27.787964573596742
11.22325614803185 21.12394438029071 36.097666949787104
8.963086365851327 20.85661493121478 36.954184308656316
7.4941968591594215 22.54141000368645 38.53780897646749
7.922439479983773 24.905982676328534 39.171459051097585
53.11617620040737 31.88392255672927 37.63495483272631
52.233555812620914 33.15625741417284 39.434101163970766
11.154900237002833 16.844018025431893 34.90169846252427
13.5906367076931 17.227432216624614 34.66025065721514
24.998542293763062 23.00528272453899 35.071701104581386
26.61616944833737 24.67255809020838 35.62621370266394
27.926217366392184 25.044426020618854 38.12690545789347
27.471773974289533 24.110883297706728 40.17689530969011
23.222259589298975 11.303045439468416 43.040814385963074
24.69176333237892 9.274516869655432 43.185704316477526
24.258656231158163 6.885622852798198 42.510460625216304
40.705830842004374 11.116330756478554 61.6013797309711
43.3276958128219 10.695558179073146 61.70041667305974
25.350451766489844 8.453038828817862 45.65509886402748
24.950197212007147 6.077785505789329 45.01509324444791
26.075733943484334 3.852190557818128 46.4268757159769
27.725227777541594 4.149221389928787 47.866358877956166
48.58339216628118 33.205394545520946 33.610129803029444
49.60987242289572 31.441509702515976 35.266663216524464
50.18615110051489 31.262448875946 37.65436228865414
49.41837643843005 33.27212863320827 39.48516823015447
51.48485835241216 31.642510999690565 33.0191806659387
52.08832475765327 33.222205432513476 34.536817535314114
34.14256806757419 28.886284471835882 52.44864840326564
31.753176421333247 29.01712662097317 52.48090341350292
29.95645409732888 29.54351335726397 50.81386055675693
30.079496533489234 29.733148433530523 48.44190379524283
28.484990397401578 24.47706372001055 20.348963537338967
30.80903942478093 24.511257925588975 21.28631992103884
30.59089372749202 23.709459260974576 24.092197640682862
28.734686512364462 23.067038186010503 25.060358253101715
32.573050481398774 23.850021471505578 16.42937657365639
31.424809792157472 23.932014992495592 18.476130065984222
29.20961640991692 22.818601602763152 18.66332234165835
28.08075754756164 21.498353498015984 16.308127575678583
26.893201268511692 22.387066404422534 21.02923520935912
25.682885864642174 23.026939316882352 23.03257887810652
25.11090997082584 21.135193559090343 24.642987135595774
24.632205540139335 18.5139336712767 24.140510526626816
51.13663624509245 28.602466746706487 36.63059642819547
31.46739553401656 8.65849734547162 47.31934813420719
30.5788419255122 6.987599852241244 46.16389067212631
30.144962788220045 4.524631607965864 46.181053913730125
30.973657954732108 2.70567619832323 48.05571923859917
29.233417907951434 8.830570943746402 61.251938118186125
29.110728630059647 1.4723252234776312 50.46456757229264
51.57391533029893 27.49179989390752 42.263260533152646
48.63014226189047 31.709398731740322 42.00429148789728
42.89744550924693 14.254743862812667 48.690312071591315
44.0413363047375 14.30749308472266 50.61105773118634
43.66189065770522 13.853427986799067 53.092658008054585
41.48152728298969 13.856743408974436 54.39122833300665
10.788391545811969 17.823613749342243 44.316860829280984
47.37905458299125 13.40978933029827 54.731353141453624
46.24030656483336 13.928760185237314 56.991986975276625
47.16026913811347 14.192073489478338 59.018264591156516
27.59194817810062 29.17532361672515 60.65608849965857
39.56508867832295 20.119487609055106 30.238165645770838
1.3992898502061342 58.59048627507847 58.19118587537519
13.049858966733359 46.40418316605751 61.29124497095013
0.9867029963350987 61.50890036082519 55.59474250368191
9.00529627282315 46.13656490415155 61.77658704164521
11.822792971530268 52.51803572019492 60.982178824875156
12.340009501218956 50.038748057932374 61.156223580731066
10.977162600715264 48.07156224804186 61.578636511143394
13.011069669985128 41.98193465769329 61.75970386424521
11.201936123623318 43.909509912562015 61.05748757514557
56.42873083382147 28.13679579412399 44.09107843729503
7.207961689370993 40.383167434780475 59.87108393346753
9.409228683844127 40.699473980577835 59.07011076642163
11.486678115547402 39.20504451365854 58.19751732359139
33.45523360691664 4.753269460252315 44.07482679578174
30.158627818251432 2.937278247315151 41.82545645705732
1.2435422158789327 59.222543415313694 53.73195527993178
1.8528695826472004 55.861263733763685 55.95144613638489
1.1283001662137204 56.17009715512991 54.02107502234419
0.1430307945199876 51.803503617595254 53.34243771116149
1.422800053493611 56.9461377744885 51.546386679268025
8.588942780797707 43.59230724429106 61.03061580693821
6.673379765336262 40.07900557280621 53.10464298660559
10.91025347388011 44.84929686505303 59.16791746997258
0.4713564373057117 52.92923688404663 49.26819224235327
6.862150122460676 45.80719817537078 58.85828674636781
8.587418358308618 44.432868872780226 58.27951300504096
9.366469049146325 42.674397993632525 57.04457283395179
8.284895896370918 41.154849203114495 55.58621096071133
11.649796957652342 36.85886177595394 58.23660680664123
12.358146019221895 37.36837942191966 61.306405386508175
4.7251905674813885 25.701121220759248 57.571893061616755
9.614035806941661 22.64597258476386 58.036953147337584
13.327779512056953 40.20280338990932 60.32758008830659
9.941640767735548 20.94621560602597 59.91437885558961
0.8952885599500782 77.72741223790534 32.15411418454344
14.572429972943409 72.34751078889832 61.50280149235123
7.749654049415455 68.93902249814697 60.37099173479587
9.379241788213463 69.26767925960303 58.853962126051066
8.441541345115313 70.55399238274818 54.680865726733245
10.815933642923444 75.20598939646838 50.97865002647005
10.140816614797936 73.32292695591603 52.513058518565614
7.919503304739771 72.07914906339502 52.67985452096899
8.519487972977606 72.71174269257276 59.769916541321955
9.545968229592148 70.94785784956778 61.42644995481698
11.420954159108588 71.14885914674237 59.17896740423121
12.024420564349699 72.72855357956527 60.696604273606624
53.41522840928688 39.64237304067879 14.869847382722513
55.36296133244101 39.9013491514753 13.363449413928935
55.7769916918076 41.454124433937544 11.79030538100678
54.89575005251315 43.20957746890473 10.326163305573042
56.35938272227531 39.453900412429306 16.038415537633558
55.88030978070058 41.55278207632316 15.642975317020271
57.155245825193525 43.59170004886214 16.806800357656098
57.778808625098364 43.903088414053435 19.024439208541235
60.028269477741524 31.494871336078177 34.75410954925558
56.65401533650734 34.41101709332546 30.965570245838567
59.73619908165401 43.752426787262884 13.796672192137844
58.77843701629805 45.59613429188989 15.544223358588553
59.624274474878995 46.38474962182891 17.584478207224688
57.84211643634274 47.23891311229209 0.03303004442191924
59.11676275467119 47.270045624303876 2.1707730626880863
58.5687714932275 43.64071666541507 10.085906684573837
56.678362986071555 44.61996642899955 11.60954992506811
56.617049191157825 46.31542881666929 13.207798313172253
54.85354152322699 39.31388751697399 9.137821654943224
56.582610238701804 40.967446418942146 9.31774798651075
58.93013159656744 41.014780649421944 7.57377449606115
59.16728913535432 39.66659669571751 5.5727006223541125
59.44920317766914 45.75108638649551 20.227891843188903
59.390771021704104 41.7520597584521 11.978534099630602
57.707739813086846 41.97375837323815 13.729286424433969
59.95686292108413 42.11669671972363 0.47294206359958146
59.04561296064935 44.52208565408088 2.2894064778493006
57.04948760402026 45.488603529898604 2.2367164133648565
58.06709811471827 48.38510885380883 15.122796061754762
57.761945222166084 43.443391135684024 7.364304971608546
59.84731553454329 44.312334132235485 6.782797529534403
59.49508286032051 48.40299375124247 4.690317811493513
43.12715529489479 44.99788821556709 1.778716132121283
54.55477953128317 54.71618226607009 13.08227553726681
52.13129799672408 55.33632829439286 12.98405844489514
52.02392837647818 46.70962877718667 11.855473481089414
53.21753509269064 48.33669558539393 13.010310020236743
54.195378343222686 48.430569389538114 14.903640992110034
56.19889965228015 47.945344931077564 15.853675036898759
53.20677778662493 51.97235153917426 4.346601078370275
56.32063915890339 50.226491632897094 11.253631134676175
54.50003511021529 50.81501316408752 13.124249494208513
55.018238566697256 52.3674629557019 15.192936150076758
51.942135823297434 51.52787396961662 12.99331419359489
52.08894246638013 53.5408529488432 10.937671251668634
51.24989539691774 53.32417561200154 8.771894957610833
53.612850014742435 50.22972341064919 8.962791256408304
54.25854136499237 48.50526953099038 10.602942043045733
41.244615592961246 65.69015083112745 2.9599824468756717
42.72115974174136 64.1737943626042 3.844376525149122
54.88168410708665 52.50347552187035 10.457053416239107
54.21127590851145 52.788785883978875 7.949942032035904
36.44636541762746 72.15805329415426 20.563772221904213
34.740756544054555 73.78787631094704 21.43244536218239
13.351324215983311 79.1487211877306 41.02963412101502
15.299057139137439 79.4076972985271 39.52323615222144
15.713087498504034 80.96047258098935 37.95009211929929
14.831845859209583 82.71592561595654 36.48595004386555
16.295478528971746 78.96024855948112 42.198202275926064
15.81640558739701 81.05913022337496 41.80276205531278
17.091341631889957 83.09804819591393 42.96658709594861
17.7149044317948 83.40943656110524 45.18422594683375
37.98747517593391 54.23476361289447 47.235174471886126
41.850171850983 69.95884442084396 48.52710000476429
40.69295556616625 71.81682640736463 49.857045537975
39.54963905156322 71.61399210052006 52.24697328021797
39.98280793799009 70.29300650889944 54.255129501794876
20.219489354829317 73.35402099464163 60.8879723724259
19.964365284437953 71.00121948312999 60.91389628754809
41.891287929172435 69.887089832236 42.33650207559629
39.17713861400725 71.36849727250265 39.98109600751367
39.17381540838036 70.71690056462934 37.71191529680528
22.025201092656197 69.88889307210219 59.82086300086641
53.590549429993175 57.70680015459974 27.98000972651721
16.59011114320377 73.91736524037726 57.12535698413108
41.324970713720184 69.33772847646134 61.27777725327492
40.90993741414791 70.9351331345467 60.03209549322223
39.72924282838159 70.64690086087289 57.69984747268195
39.47513886302993 68.11994985040826 56.55393404358425
34.36691718006657 70.56825064084813 39.30700162693733
36.579063574184055 71.26552464676674 39.43424771575416
36.68189902938118 73.36663153374728 40.95327974975627
35.267554689653196 74.3806495941211 42.547476916788334
51.79233226532551 91.57850039909243 52.135960635893944
37.4974193064148 74.68204227077253 44.200649460142294
48.49142367590379 60.26386930245963 53.51231706779254
51.92112867605005 57.028222305224354 43.34421375803754
50.14054434677523 58.06601848291165 44.90257766669454
51.82389690410609 58.73085714573987 46.308833358815235
56.439157217122734 90.67242198099511 53.20123627083244
53.95953715811098 90.62847505566744 53.251207970173795
35.58127119743005 75.67119710284416 49.32586708763721
36.8319079080631 74.6393850911886 47.342887673910234
21.54199961398245 81.90910303510509 39.66957274410979
19.67229488835044 83.25877493431469 39.95645893043035
18.71453282299448 85.10248243894169 41.70401009688106
19.560370281575423 85.89109776888071 43.7442649455172
23.31001804154383 84.99843564904789 23.740008549120553
21.733911528975607 83.07477473078558 23.783547361110788
22.06216185623356 80.83274295226997 25.021030836143918
39.23426424797706 71.09001038764565 29.90314600631407
39.533933555681024 70.54890771312618 27.031503952894617
17.77821224303917 86.74526125934389 26.19281678271443
19.052858561367625 86.77639377135567 28.3305598009806
21.650633292695407 86.06537825717737 27.84481430548517
24.448889775572226 84.58678562934404 27.81218383175382
22.186965597144766 82.770592087081 28.274194926326114
21.296644793656718 82.15767231033477 30.144181590352684
38.12439350624487 70.56151817954064 24.24925664803547
39.61319118222146 69.0805499681319 18.87357231443019
20.72383915243775 84.29866694794653 35.31830059028042
