19.28897179247427 55.13276729182578 56.182517949801614
21.893135056890678 54.49770866877652 54.93877606588234
27.561064150359933 24.800669990375653 53.795087436497475
27.454578730325437 26.270070207807738 55.43147516136034
28.24045240756758 29.054427049827545 55.57762073241163
29.597188885292482 30.358275476802998 54.321179483413964
23.095615091553277 28.92049993356254 58.63510745556232
22.098685619045703 27.31351161786759 59.19576413779358
23.10567424812096 25.397493149730444 60.183671349726005
25.311642453479667 25.710650205028195 61.76391049464115
32.843498958334585 38.824792360315 56.09409498839531
29.55508816663112 34.51920393459304 52.651227651791174
29.8065950391146 33.08856745919483 53.97195543692424
28.421632666788888 31.98900140713044 56.16169378483831
26.157390831917134 32.87483572784983 56.695617037936756
19.225986063763163 26.18527249618882 60.492563735631485
20.53519500988121 25.41555393597594 58.56727498923426
20.9775068615367 22.827148741698686 57.4870923530825
21.561129716484196 20.779366157025063 58.76425183849284
22.766339092393906 20.11218881251217 56.28548265244038
22.115788763085252 22.306619266940796 54.91231851025812
18.09977856360145 21.2824910178755 56.64787216369542
25.229507352863813 23.710261950786048 59.69170342563911
24.8812811054081 24.918851663548487 58.2148859158066
25.00457297237348 24.70678575254453 55.262386280578596
24.781013547250623 22.479800453615105 54.27542136349839
26.95767764619581 26.521784524425673 59.84095096066859
25.696930074907463 28.367755348291183 58.53641664120241
26.040486235385863 30.64996438990681 58.07786733053339
27.964887749678507 32.37550155643713 58.70726411986463
19.471365737027764 23.932710688456716 55.12370471759228
20.924924605817925 27.086968893302114 51.4014140336265
23.237689452541968 26.337396496826806 52.42102834046027
24.594786025033528 24.285466569553435 52.34387269360939
25.636617897445515 29.52309021915752 54.8810481511693
25.203273908433474 27.72816980786514 56.03272162502373
23.315448079960003 26.363447698321266 56.95944405455592
21.030304980457657 26.035976394999032 56.010404760717
24.27696707760999 95.2807160752248 4.6427667283519645
48.876537152863875 89.13249388039455 6.031860522043171
47.25737978543414 90.36474464146309 6.720806747391299
55.4962801469004 94.98238682407201 7.741393569273189
56.13710181887321 94.25767243865388 10.471721953220136
53.657999014581826 89.28712671047072 3.524995073291005
58.896780359479244 92.61573454706091 6.06815762199782
16.99417481069997 95.5371839110335 4.347460369598705
48.629942339545295 91.45877500473127 4.0606257901944725
50.83002448689404 91.89146276464666 5.522797786687224
50.860383680673685 93.67447740178292 6.880958849323997
52.475438245440614 95.49911508326585 6.352006317732629
20.06895610380532 91.49444051854283 4.047684854201933
18.656886044866447 93.21173907966072 3.524335192801107
46.39977621198781 88.59154403253359 4.590618881075358
36.68959994961542 92.8883705662204 16.99133664111362
14.334516065164305 94.39884406762177 7.085901489024905
54.885718395033486 92.46028434362273 9.022326320838003
53.19347291173476 93.48976131631045 8.492363239985153
16.88038440038838 95.41541456731244 7.59929420023807
18.371377994938307 94.34999443847629 6.109724667660377
20.579091743061 93.03352406667226 6.418629376257568
34.9929275097152 94.57531344380425 17.959288311707287
36.40967409461581 95.17633227790935 19.732155338055808
58.663058960877144 95.85713421502382 7.410096342101507
59.65840844797866 95.54952350213429 5.034171042820379
21.23556662719144 95.88808109733172 5.180407914160912
21.099739776049027 94.06409374693116 4.006960958237964
57.83790020443686 94.62141372213935 2.840912248669546
56.69285270611683 94.16812935058175 5.053478924962868
55.42469191780906 92.08522302724653 4.81561252888366
53.498947156248136 91.96418347346031 3.7579140172893832
32.93041671458891 81.81462739591983 37.1721235765231
33.51733769202794 80.95864942280213 38.98095431231779
36.107995239192704 80.21787056858628 39.6630642948033
38.04722083722672 80.61450457379924 38.011854455478414
36.741945689900035 43.083465780794334 35.79198461925486
35.978903734453404 44.583642127836775 37.37813887725429
36.90996704983725 45.107702509195924 39.967392163376395
39.06637362676561 44.685676859431446 40.849447897022536
49.68775350035445 72.98181900603325 16.97581183227861
50.3560260942147 73.44485152072637 19.07592737413484
52.23620493029296 74.29638137416046 20.465597886858223
54.44414175724236 75.07388972849793 20.056248618490944
51.055992311381324 87.61764730114609 9.99572853266912
51.01864905529516 87.89327859404597 7.695675719084889
59.722358397724186 38.16749434703262 37.8700246382942
20.140689042628885 88.89607575688589 20.91976078935006
22.672437356101046 87.89006521227664 20.50768471261643
24.231122622635173 88.02608131589149 19.14772814347613
24.18866101802798 87.39233093806355 16.867681254286914
35.134822611321574 52.505414140345174 40.414903442101874
33.36444782991323 52.521039139218466 38.81488290764686
30.422877514547142 52.729001759717534 39.5357205886466
29.44051201329782 52.95380618051894 41.68202705423958
39.87357067841616 90.47848450484298 16.182892387115853
39.08682860816229 89.23471640708827 18.088807743235137
41.29324510458579 89.03191100685967 19.77437189563308
43.869147104276614 89.49501205526008 19.113229361811417
27.541927413460566 69.05835633554975 40.41062647236465
29.41186467344516 70.00694928343565 39.41725307601281
42.466189028605875 81.55962304340446 60.9128341905346
44.30592561493496 83.0886794299255 60.12535901039372
47.04111667193609 83.02880255738721 60.81493079522934
44.47888383687725 49.376661964923414 38.86503149208547
42.052995291347344 48.9529959731737 38.53422204123118
40.42186845226275 47.14752524564238 39.2989330500627
41.067502884397896 45.26616735681192 39.03335115846591
46.988978009884235 77.99656767909029 8.998984423915903
45.22377248589896 77.12777127879579 7.167840618876883
46.47608340344686 79.1788193750519 6.579788912094768
46.2816282783773 81.55815152136226 7.196494591948425
35.83005446068061 71.7455300066628 36.1985204214737
35.50295638676508 74.27306280292531 35.31984412151106
34.45935243781587 75.40564948941027 33.35649104258493
32.34789825067856 74.34513121124058 32.055776464857445
55.60777573702881 92.75725091510162 61.15910369256586
54.95972584063206 94.88618992170655 62.00387153288955
29.72292812553516 64.74262431649069 18.39759903510419
32.11388381673916 65.54917025715952 18.196737884971046
55.25850769512534 58.161707780137135 35.74077504082347
57.16108428663759 58.193985695810056 37.0354887916149
57.224254063066674 60.16269681610159 39.022363825897386
57.3916097189068 62.23791051778318 38.52849661486067
36.190432470620145 80.87880026536469 32.84918778652373
36.125490181570356 80.14488930511813 35.342548129498944
37.217588379411936 78.18059082201461 36.50433598772225
37.655921618576805 75.74464446224403 35.78879233250014
36.97023284539405 79.60857114830267 55.65949293110398
41.05378877162976 79.08352988655459 59.68935624993034
59.17525590839729 76.68281387838334 21.133999917416613
57.305659060289514 78.28931861848109 20.040353064541318
56.501246745851056 78.6855650825769 17.839011620591656
52.462636805149565 53.665117089645086 34.810618866761885
52.76297858602044 54.9828111751235 36.77102459850774
55.16057262970564 55.91235909523915 37.98875943842106
56.97331007739359 54.30754854551479 38.52831888940026
39.22376222411999 64.07324645630699 61.236729517716064
41.68879463072612 64.83893185380548 60.06324979276981
42.33720390983496 66.93960709601097 59.57692039281953
48.151396260399764 67.40486230319395 19.101752799781366
48.912262832688846 68.97312535204345 20.479028472652875
51.07610046816223 70.63648662686573 19.76101741017508
52.679757643086475 70.11977632064081 18.024339928569585
45.92820072560444 64.4140947901606 48.96764268900739
46.63533824374397 63.62459601215376 51.05291395383892
48.686144141206356 62.79973660810612 52.17071707389858
50.809630101413205 62.122786257611 51.318056655536324
53.12352218762025 63.4240301791138 51.94911926035866
51.48282457557469 64.70446877039464 52.68161258517248
51.776688606631865 66.20527201976702 54.652650430014695
54.28486507259137 66.76484239564769 55.89140842560705
29.81270910393852 75.00276002532519 36.16231544996921
32.09477459792262 74.00798476778515 36.77137111715203
30.764991039485057 75.40893591379641 38.62720665098042
29.069649523469828 75.05522958130891 40.1431940812746
49.099885713945326 75.8069039395172 40.982878051571575
49.43187300058975 78.0324868431311 40.92809123394301
51.208407406313306 79.56351516245041 42.34250599335698
52.410409534308265 79.3400691593924 44.058772968642835
51.67253121562464 95.12957118776826 26.055972579304637
45.851680699185536 94.6553585937384 26.273928234656893
25.85330842357031 89.95662297260466 20.169879483646692
27.288613399035086 88.71452300216494 19.631627872280504
29.77481311779803 88.88135438639773 19.42028176824992
31.138053489835414 90.91524104689911 20.298910359287106
45.831127090472926 56.136071473909524 36.57112138825705
45.31091980504684 54.07274233399559 37.80778267713719
43.03863601166962 52.60288776912299 37.83170591986841
40.86505265261928 53.05023893231409 36.59457542042797
46.56239690679777 67.76893193498837 58.88340495158278
47.115714909778035 65.96350627830824 57.17245322180269
48.34585484411379 66.02916138209304 54.95953981592911
48.95347992963779 67.59651103487562 53.36076214181366
29.344072389955038 49.79554081304901 41.20713316907212
29.749673029432408 48.36578765458438 39.31230788431113
28.724605467171735 46.17652509603096 38.43837651935005
26.643372765470865 44.790216994082485 39.157321416169935
45.346099530356 94.88070452040742 23.46742717083551
44.24916975913177 92.88394987651853 22.195841490177983
44.218310929001376 92.16694049047095 20.032589265858377
51.749348750814704 87.7232965717365 2.7499191886593795
51.716198966262574 85.65052956650001 1.3316357576967606
42.26256644449725 62.13775468437251 61.119970220060395
42.54493154090354 60.91198755617271 59.51269363609166
45.12339955266129 60.07233551941269 58.123647523119715
47.31795831156269 61.55432333388797 57.9260627011147
59.31759605018641 54.8451350659521 40.10259262560068
58.68241728173566 56.28767820471392 38.467310935623665
59.99460381226376 58.71811058227544 38.534858672516286
37.473638710609194 63.636330116288306 59.31449473467721
37.14905113418419 61.61367291627639 57.31992507710604
35.55054070524644 61.1899480276877 55.99856253538324
39.93876221868927 75.3002589641233 36.847726095445644
42.07920656948134 75.9194129881154 38.09444390285453
42.30462274676666 78.67290200557201 38.32748638009309
40.88322407637916 80.39810030027651 36.64382188365479
26.423595503470462 63.770791296770994 36.97576044670766
53.04179837489249 86.45364478585653 5.1350080868342785
52.88881370069537 88.3439149673152 5.867773611373703
54.57443578767256 90.19995740119265 6.699858705272314
56.49140383896574 89.9155329564106 7.894366988171136
39.52781640343552 76.88932961950552 2.6950652592765993
41.89314792440118 78.16026649016186 3.009738055912935
43.50735265138676 77.29245181116164 4.672505549274616
35.712025153861845 53.01510113818616 37.14360398181089
37.779922801084695 52.30503620737243 37.176017979969906
39.49553126388428 52.723624411732565 39.25266306448718
39.72370770414745 54.74741983959611 40.25187494775317
58.98808834031428 90.48389619045267 7.015019864408726
38.57329974276714 69.04552757698588 14.072397286961753
37.56962961556172 69.03866804124637 16.74540087575018
39.443091134322685 68.93597512439455 18.524800582495974
41.79490618474019 69.7503336325674 18.47420530864332
30.443902892968726 47.958716989999246 35.9738855723914
30.657981080545625 45.66427560064209 36.47165441949347
29.459153422990017 43.33993361660303 35.496678260501604
40.840918203009934 66.36326693630087 24.303666699391936
41.51741377920851 66.34522852718366 21.77763398658657
43.44402080156961 66.7070476145975 20.567158015013334
45.663013815604415 67.31766647803211 20.865751458169502
58.25871001145303 52.6516272626715 15.99015146510288
59.04598010403014 51.89658853879697 17.62899257153221
58.164284733411364 49.77624137235874 18.829101283791445
55.86984733560649 48.84195726177892 18.62190966161859
46.551520657638655 81.08171767203926 1.1905412623202023
45.16371173662306 79.60031184576324 3.07621985259155
46.11560838269508 77.84857396295865 4.427196698382722
45.53984611737515 84.99551787519563 2.4227483254793203
45.74276802874929 83.54703963916022 4.7111030057464935
44.09275195540207 81.85459140846274 5.429743901100057
42.174292158872646 80.87839609810406 4.569591101887383
53.35441094772644 48.89844320816727 59.24891039239803
60.21751601848875 86.51842518111411 47.616898636782004
58.91206877026571 85.38287844866218 46.30816047331772
58.69416738400686 85.66403183291195 43.65933098280386
59.29852850847318 87.39477286258392 42.329680441707914
51.051351293370956 89.16280600266312 61.77589109475174
52.668977574700854 94.85553090335837 60.719788992472324
28.42843273178699 90.41103612167109 23.359016977465043
30.72364732092454 90.21247211300924 22.741268195411415
32.896098906734196 90.83530004838984 23.706435202113486
33.71371384398496 91.2435339975681 25.489624158479536
43.165627946924374 57.68051118083066 53.578361322524266
43.053972745228236 59.6921179159115 52.18716577651188
43.918999605662826 61.87097804848789 53.996150234409896
45.41773987903265 62.0880945380748 55.519181464627856
36.93016932610863 64.47900040373837 21.135442598917937
34.41616500843414 64.9394101965237 19.940886134364785
32.343110844292845 64.34916379484437 20.43874234773112
31.71099263726005 62.249964088355455 20.642150542158365
32.39133345195288 75.99889608379404 45.07055482017862
33.31556175732057 75.77178412782598 42.94563346538014
33.746549334738276 77.6775521712472 41.10017471451932
33.35710657669638 80.5499256659151 41.78246752349498
55.39746656987394 43.816954810778036 21.894399821935295
54.8452449672039 43.88437967727536 19.742326288285643
56.30219454588211 44.61431094608665 17.40039296687254
58.53973536752735 45.32294210064735 16.995255802874304
32.53393471609537 39.29719022411237 35.196902745104836
31.121864657156497 41.014488785230256 34.67355308370401
41.90090358322571 50.61986893369028 35.41022679524427
40.258698837647636 50.497627344827485 37.06971017135204
38.389824941512764 49.13076024991093 37.535055162511526
38.46716451597084 46.371800779340006 36.79719200406803
49.141869266923635 86.12147946198736 1.9856509416501391
47.652333220720685 86.50261320507595 3.8936971060943013
58.86475482427786 36.394293738103116 35.73983677197826
59.52769209210264 68.8172411179809 0.543600522698647
57.04939744500953 67.84765924712275 0.47832191712355054
56.0844211465654 66.09220927736983 1.0343828552319867
50.271326819494 44.95236470391935 52.019567660565684
39.32424116590735 95.40043114801688 21.03895630973734
41.57048686059644 95.10636742800314 22.02379568172247
21.480257620759584 90.20700736007215 23.000776987212852
23.897758196481984 90.67527013404869 21.776207678914613
25.914971836852523 91.27902028189175 22.743637632798677
59.61552882831052 47.06888037320632 54.175577558149264
48.725653802775675 75.07145247426541 38.49784036852506
46.39495918336742 74.32297358298692 39.5945970031002
44.75925471951548 76.29375301520346 38.89626315699601
44.861898619100195 77.99348993398708 37.22340115512138
46.55950811363917 51.3216940481363 40.52681510110441
46.69872051907794 51.54360993610048 38.27525229577984
48.23784547636493 53.24285595151697 36.82951678792214
50.37001257198517 53.47199692804372 36.581377824536794
56.44038312397447 81.22608397834838 19.252043912149347
58.200724158570395 81.33964404757523 20.71000652334373
42.08889354459375 94.50356482958152 19.196665873541516
40.60581250869855 92.48839067724508 19.570646876834278
38.306865074691025 91.87101301357839 18.48396080965197
49.15457856190547 40.69112027178994 48.14055453201652
34.48096285206246 72.70452006082058 38.329446409775166
34.10715836902295 74.94976168690076 38.2235061332981
35.22712207777377 77.27818677263977 38.9858856204756
37.23030008854836 77.83054269524466 39.61583951429389
57.66747515251071 69.29159427794008 57.130478294725215
58.366845885492445 67.24979544049224 58.014779574255655
60.18217194326769 66.68998914695086 59.726744871508146
27.71551259183237 68.70099505351433 21.83601965972833
29.679167453104288 66.82106892472865 20.99162321411869
31.923717628472424 66.78402801925279 21.208637381580058
33.491263352945204 67.15846297888675 23.093256642046438
37.4343910821052 74.74832835944045 5.566573077600418
46.518802705149135 54.90118590340497 34.08120263452519
48.49180768546768 55.25950191012225 35.16699577268269
51.02180675532182 55.99036304285218 34.27171720280581
51.950160525463374 55.014284307539796 32.153034127580064
44.59092255820606 62.7120309490866 21.808076211918593
43.53696417332017 64.13585841459276 20.611800097373322
41.105985585403104 64.66565422711805 19.755273944834475
39.20343430156487 63.68726353974936 19.887068752699555
26.799494677454355 42.2015937731913 38.2351193799278
57.806998684638636 47.73544785297789 14.725593641529478
59.734507019308815 48.89470734653023 13.882920695063097
37.00934934061458 79.64053393744899 42.309003536491836
38.01795228543593 78.24150722207285 43.83590321923478
40.69541520177087 77.54888428629805 42.80900131266105
41.78857583276735 78.47992050396589 41.26836758250596
58.22562506221396 55.471848818807736 24.271101105909402
59.01801968137457 56.06075140384557 22.142050554277922
58.76269439649041 53.873504558977395 20.383789479640846
58.7780907941999 51.712890261678744 20.90444790776451
31.10348953420835 59.267086186387154 22.35888231315422
35.42653392726957 65.38281325585572 17.462863147442373
37.40748063089559 66.58729902430251 18.260238786916076
40.050089569376766 66.45210765981375 17.43835427351462
40.80149322980512 64.94254584158885 15.301291518792937
34.264754375276446 91.9591394470682 17.277065212821043
33.14897118957407 91.53768147754353 18.887833250515524
33.86281074337623 89.07432491545946 20.191404806363636
34.6804940055293 87.35996819673197 19.236430209604098
43.232542072796626 79.32118634610259 0.7936405402169782
44.28670911398253 81.91997965479199 0.14697086523103361
36.673003024893234 86.31910731196969 20.75065693185842
35.22566361664093 88.02160210788426 22.20664842033288
36.10417317334287 90.45840942230092 21.95643621517909
38.36163580772567 91.46392409388201 21.234046835183673
41.76929428048511 85.23155434185101 60.91855909852571
57.61780592395745 69.36260009458661 25.80133785456419
57.43355913727414 71.35784082985961 24.07910260700874
58.90328230183714 73.44618713272118 23.783279135080573
59.231354839180646 74.82545405366896 25.548912947264785
37.01213525718736 51.93012888128466 33.283327003473794
36.80470549648143 50.51144974270547 35.399373690158356
34.966399739941814 49.38256358386724 36.50027779081074
32.67768822071766 49.3319276387726 36.405008109020514
52.431246425323096 58.32727898499585 36.14960857163001
52.73389626341799 57.55443807660754 38.11987800717604
51.24425976624591 55.97855347111538 39.4736462548187
48.90545142688738 56.01066502590341 39.81397639798639
53.09716232697591 63.688240600077044 60.64938879813199
52.443098130680085 65.26640798631435 59.09355610840522
50.00931324504587 66.09360694121123 58.43571861132223
48.76796704073867 67.32516833583948 60.55995854648297
48.151814348531516 80.46048352385006 42.433278834510865
46.76207652971107 79.1277276996976 40.909478466548556
44.66393073830215 78.06795713719725 40.927394488589684
43.459717024399986 77.12841490054683 43.123712433890475
48.428963156300654 82.87057067662835 41.64786644920875
50.25540975210719 83.86969548650629 40.96772633887519
52.49026963457069 83.23365738798732 42.324305666953805
52.477485696954865 82.06005372213556 44.36875493761751
27.96548654120656 83.75292644713223 20.76761836069025
28.42344014185451 86.18299253533223 21.329779587392164
27.14783055082946 88.09192607291168 22.21238825749586
24.501814042064726 87.83626651914622 23.637649518867708
44.651607949779326 69.55972538249385 17.80247015525051
45.93001218760721 69.71060382886532 19.814627250955308
46.92364261258131 71.92596524824846 20.85244031150105
47.40035947792747 73.90395381900677 20.474238775412434
55.89040427025512 79.06066938446106 44.0525633168096
54.693536319480756 80.7838752367143 43.32949294371438
55.708945306121166 82.86797881049557 42.04701217254965
58.18800715311292 83.20415751117025 41.6442037015782
34.69831412681545 67.99547551226674 15.847517285305315
34.254911081499465 68.72010872231652 18.137636853449315
31.77425398995202 68.99407007299826 19.374264344672724
29.676045805185215 69.15075833545869 18.5183096162486
59.7592680204146 62.91305090325558 37.57293968991157
54.56549835395259 69.36842212861329 25.757641126812725
54.46641917208862 69.43851107848563 23.450605724901006
52.065680635365396 69.85901846488369 22.267364650861524
49.966773128793655 69.66510745102914 22.869990885455753
59.475294567024875 61.30170232421638 40.08599169536039
57.18070206177144 62.222791474189826 41.41025835938723
55.830508552155955 61.16892326342234 43.401703652781556
57.76991060420432 87.57516851797064 39.85923109082998
56.18612937019845 87.38186819754578 41.51968762044298
53.47945063939851 86.52347591863325 41.455232392619585
52.44178501742734 85.16674100536206 40.00733174709141
38.369957078836 61.21631848232343 54.7591303051491
40.716037570671524 60.57917311618956 54.22273660473681
42.40838619022097 61.926255854128904 56.31677920783593
41.73698040912447 63.78905235036477 57.47192695799465
58.82668499281812 63.01723785929793 1.2881900844941403
25.659233928893915 64.29613298281292 21.518592529903554
27.917772170274088 64.09297719165869 20.91380400729516
29.094309904886853 61.136265023614 21.183574460989565
28.54765858275275 59.66299539584801 22.40963010077992
46.33341020832388 44.44984079633351 24.8649754608735
48.12230045464825 47.13864983377291 21.172752109786693
54.812833819865915 59.69926463468679 51.768483673630726
54.83634379864399 61.60194422774741 53.32392970667858
56.46501690552716 62.06278456068023 55.518119459008815
57.826404927410294 60.319811296236665 56.77170893343577
43.32605928681683 64.23994946255985 14.992164577716261
43.18128225316703 65.64192768788008 16.618543741725468
44.7626075998922 66.74598552047848 17.877664944773368
46.48778273487123 67.49938599275276 16.706765964359306
50.15643288253546 82.39872377431688 38.65196465801045
48.6294471445294 80.72314006104241 39.28986676868822
46.09614749815883 79.97731529983517 38.52992293940516
44.35559623784358 81.13023213478246 37.61857253508772
48.299891943904186 83.70840108475014 0.7311301932120635
58.47385001538831 32.4537961326019 30.82497036819746
54.702310896328854 66.48583352506913 60.248833438276364
54.78231549254369 67.99376690000766 58.375175565163694
54.38014141321209 70.26039054076138 58.171000452362186
58.83146616265067 79.77352120266063 41.54030833284402
54.13572539591945 46.424397933340344 21.47982330734888
56.129151934839975 47.575246324163494 20.953243714386502
57.48773419537333 49.78235509253007 22.014453094730396
56.844201278627324 51.12271605380191 23.119639815946368
54.46816550894515 76.10916238760757 25.11610651215974
56.49605703001831 75.30475347214764 24.321183720384163
56.26959385631399 73.28155133173121 22.726665578092465
53.795465656064536 72.18190575589213 22.0991436787084
50.55777619922005 44.467179127256934 25.442601992700002
48.72971953716201 44.6287068494644 23.448809641650747
50.18338371415885 44.45746727058636 21.213617769969478
52.07019142548569 43.42109434605229 20.496798573325528
49.588479083243385 85.57191632505052 8.142965031253196
50.29912301810394 85.69081438086104 6.073769826042597
49.864680392972645 83.98060692738825 3.873828235081786
47.977906185387404 82.20842743061341 3.9938408223078543
27.179424012376497 69.40542291117384 19.12142175868835
27.36024077232794 68.4021387743983 16.993344793949273
55.342381588015705 47.097419520453506 16.903656562850937
53.46433277879381 46.99468102195517 19.054737047218282
51.94407312822495 45.85468154842667 19.422102392093453
53.80866282665737 89.42523537007864 11.735958788192228
55.66827657011793 90.35803145515789 10.594744708789738
52.027115785953974 60.86433299801332 53.397326292965225
52.92138323003567 62.18398562805 55.25282167600074
50.96360270850609 64.03480655251768 56.753266841471294
48.456087820908145 63.65680046163506 56.82845058693215
54.01757256620153 95.20564756089611 27.681285918828543
29.95317226061515 44.60934587588051 40.24089590337927
29.345363012678426 43.21816427288197 38.748512091140974
30.836356607228357 42.152744144045826 37.25894255856328
33.044070355351046 40.836273772241796 37.56784726716047
21.82794792467136 87.7941886653409 24.79450955714355
21.135536409301647 86.55476122116208 22.715779002214386
19.82965247353073 84.26054838981334 22.39588528496755
19.690017672895163 82.45318061931891 23.847414727417256
50.92861673110948 79.36623820650382 38.99243017686764
51.98845142645825 81.23000002636019 40.281098634265746
53.72462411350635 82.70976639969125 40.0341374650244
56.08422115468751 82.37950288784361 38.66595252684855
31.06747331831869 83.44793606014365 15.995314714721083
30.129607983215582 84.65881238855648 18.073010392065964
28.59962106639485 86.65700780189788 18.268752641814345
27.059619735090752 87.48483459344416 16.069045072715433
36.22460878168092 56.606032720475554 54.48968839768994
38.337086110231056 55.16563681979294 54.541385715711336
40.72694551604672 55.928056881131866 53.26901772892153
41.2533487189396 57.25770883997659 51.8920798418954
45.718412953118765 85.56015556599458 61.26935381011318
43.922470591090466 64.63549406398208 12.408362091219917
41.40226453441339 64.8768461109848 12.092233016507494
40.91334204554687 67.05953184176988 13.845851670589687
42.98973155682171 68.67792324718424 14.547627596177014
47.457906122005255 42.37806314937378 49.10850620261019
48.874652706905856 42.97908198347889 50.88137322895871
36.21715967318204 94.25130289424477 22.43239280840841
33.974050054203744 93.54680473359302 23.38054977747393
33.01797252638534 84.47317123613155 18.859069698528305
32.115924336448394 86.47410155058103 19.535196372384096
31.008017188389307 87.42484287336528 21.63944877860739
31.23853855276399 86.85210348189135 23.908157481178666
54.911161345214474 49.571245951216795 13.900953625328686
57.424293146883265 50.62760750105579 14.472209591451373
58.831142816019664 51.8106785653 13.304082980339953
58.82088260995474 53.043587071251686 11.33038669693792
52.18854813121742 57.56161867826943 41.62901438140329
53.90530357593324 58.47652141402234 40.136501830379075
56.525285813497376 57.888581346514464 39.99327683089979
58.03806000665419 56.93987698150104 41.19255742509972
54.548516902981284 68.108063607664 20.17236739903262
54.78925233575159 70.6427113902023 19.562442102381194
57.164559686250065 71.60226042582391 20.76168069543055
58.76710843682687 70.35511211438303 21.90699988615257
34.973880033735696 93.08592564243094 27.443189561794778
35.76918578341671 92.99202452110221 25.31220577198441
38.13592072970221 94.24704831457258 24.765001225329115
51.09312538273998 78.49221808642591 21.474000013460433
51.983347725719426 76.82334896140947 19.737538919412533
53.692573356512824 78.40483119686616 17.942730911573634
53.656688903239434 80.32930105132941 17.77758736380645
52.71873037991862 80.24954099974285 22.256308410733748
53.63193107037166 77.9136475133439 21.920789373100124
56.175481604870356 77.22791075682797 22.194063594195153
57.822630121270585 78.11034953569668 24.123201130951525
32.28116313027349 46.707755739247204 39.67425966091984
33.13773086469626 49.35223351873621 39.64536449954669
35.549783255334674 50.212478530555614 39.17943368729002
37.69245121509325 49.28831087294322 39.992473298413806
33.96805423620656 47.49137370395299 33.51156410050581
33.42465431307847 46.4966069763212 35.45050339336468
33.700545239481485 43.69083080290125 36.32962580506381
33.564718388339074 41.8668434525007 35.156178849140865
57.35161859966681 63.44408985797073 3.5459389404461477
58.89057997306063 63.333369342183396 54.68658836526597
57.174501747877315 65.10600559068965 54.25212689071556
57.32253684097717 67.40527593928941 52.95220779335949
48.537069074581645 52.01060369897258 33.97953601676077
46.16803731225443 52.187559163538985 35.00694534568951
44.663833359601874 50.65260841694694 36.15824532497042
44.4766790873263 47.99662326439394 35.60914292661935
37.36517999813845 94.98839331773817 32.851537690077286
35.95465422460337 93.70735326265812 31.213551549433845
37.31174277126158 93.13449023680623 29.192602943978432
39.842911183336824 92.8267619918548 28.769613530048858
37.54885626351878 57.361856348485155 57.95737248278852
42.51985580925548 95.72791994756987 31.643568129326287
42.521671772269094 94.71167313324865 25.740712347100263
41.78275877868509 56.94297874719616 55.511376197363894
40.03406037858402 58.31260944564369 56.62380265740873
39.64228851114016 59.27585789404387 59.028166736699276
41.00304210821797 59.058676355472286 61.13761512123482
34.68632330256808 81.46920139690832 5.0959274413996845
35.790452639191095 79.69368136094229 3.5573008877697756
37.87342268381571 79.36422546859609 2.4027539074026953
39.914976142979626 80.44279320829551 2.2557150156109524
24.739518003625818 47.175685184573375 38.123745950472575
25.08809033961053 45.18639152020618 37.30414394056467
60.2007603142837 92.6845221092293 8.472357463700982
59.58460476475383 90.84719913921553 9.813378172465722
32.398527935441955 69.79275553152459 40.92090947476887
30.38724464131101 69.84633920279478 41.81953734632344
29.738259244231738 72.52923079996638 42.67064095031625
31.040659662962558 74.00450626155823 43.38455491503107
38.987165505414545 51.509204071984975 42.413085791453454
40.91450113319174 50.785127332555625 40.78903289730011
43.0302745160512 51.3535848794115 40.18776995383493
44.63914832104298 53.10388028371892 40.92316903058479
55.23306645088672 87.67447460458867 47.118475870667446
55.760610371913806 87.98677825944449 44.74943493540684
55.81196986861655 85.60120715226145 43.7094201785562
54.27655271386578 84.4277555525206 43.759858221761455
59.15784741214541 64.20042790109972 59.0524866382186
57.68054628239411 64.83418866789286 57.19770328637078
55.280848232081084 64.1302633647843 56.7174624724991
53.536506126003296 62.827230606170794 58.11045699695081
40.06331752310759 82.91512545796492 60.715566085775535
42.53808920452521 90.7730965240553 21.867263582090512
41.54660185730153 92.3919405851595 23.209824504113065
40.50737143900224 92.66467297382673 25.63649468184466
39.765235862199546 90.72965296356818 27.20684907901004
39.90463799604738 71.16326111235875 21.42101145450888
39.77437679356367 68.47446465810398 21.16865595586688
37.791942529675275 67.06037492787563 20.821433453594437
35.39416710277162 67.17164900853236 21.160643516344475
40.633982299316266 72.65988231981085 38.40393871274247
39.63291283354617 74.59842314749784 40.00318542696474
39.73742906592602 74.95251053077057 42.2319975409379
41.731235187682486 74.84207319794238 44.01400547658092
30.389885263287294 76.07464548872336 33.57016829800104
32.23381483610658 76.78238575699218 35.087973454687166
33.57165921339116 78.8455488800073 35.35252089211766
33.49365372094753 81.10848630370938 34.42081703965177
37.51224983969685 90.385353558115 28.73266909241185
36.998641760441394 90.71830834885685 26.613678095205568
35.77810274703556 89.57333009659497 24.91850335887871
34.24869220369335 87.23766946538592 24.81581386573619
29.475854000377392 77.40451165910129 41.46319877022855
31.471456875707492 77.46305004647431 39.95793586126824
31.974073839568135 78.90693188617271 37.722173465962186
30.492989419801486 80.62168772950675 36.4811478730602
52.643087502316455 71.77515398144139 56.77297275801226
53.001091589341684 69.74701559612437 55.41438585727943
53.65675094964318 69.24448123354215 52.811905648999755
56.16935668723539 69.78802909445149 52.7630826926352
26.072322591828943 58.28279176358809 24.56742130252257
40.00360972725476 95.90422228122247 32.541544670407255
51.662012084879464 85.6538001030282 61.733077879954585
51.02364037637091 77.08183399251728 23.546750776649485
51.966417879725725 75.35536167850596 23.174797143623607
50.89221445409299 72.80517499317054 22.721700253263087
48.71802518215884 71.956514430406 23.081978511794986
59.78381887239507 47.67182066094468 17.78406903493706
46.14069036421542 66.4059520034865 51.437537163115046
46.1991349277243 64.95536846652713 53.449502673835006
45.01703430076354 64.95454044144961 55.53868048405728
43.28196629894148 65.77940687693096 56.56544684876482
32.60566765491893 36.698825462455424 52.06897868025296
35.137415968391096 35.69281491784617 51.65690260351933
36.69610123492522 35.82883102146101 50.29694603437903
36.653639630318025 35.19508064363308 48.01689914518981
52.33854929070621 38.28123421041252 47.33211027801875
51.55180722045234 37.0374661126578 49.23802563413803
53.75822371687585 36.834660712429205 50.92358978653598
56.33412571656666 37.29776176082961 50.26244725271432
59.45395662217428 25.79931738465983 40.1482023148188
57.68875109818901 24.930520984365327 38.317058509779784
58.941062015736904 26.981569080621437 37.72900680299767
58.746606890667344 29.360901226931805 38.345712482851326
42.18790673782521 12.545374022060223 49.54681692600709
44.578862429029215 13.35191996272905 49.345955775873946
59.9865067150043 43.91028079966649 58.83974790843903
58.31665931147558 42.45810829930793 57.42314612555979
38.31828703586036 37.759372678174195 51.31909737454959
39.75359201132513 36.51727270773446 50.78084576318341
42.23979173008808 36.68410409196727 50.569499659152825
43.60303210212547 38.717990752468644 51.44812825019
59.71854714294171 44.033024453788855 54.20447959706441
57.81107814264605 42.68345422597695 54.61664506173841
56.714148371421814 40.68669958208807 53.34505938108088
56.68328954129142 39.96969019604049 51.18180715676128
51.99279501572557 24.692079325075053 33.8442831501795
54.35812653669122 25.96301619573139 34.15895594681584
55.97233126367681 25.09520151673118 35.821723440177514
51.03827835505719 16.848277282555408 45.221615177864656
50.03460822785178 16.841417746815903 47.89461876665308
51.90806974661273 16.738724829964085 49.674018473398874
54.25988479703024 17.553083338136933 49.62342319954622
53.30589681529999 14.16601664187041 55.452884590294836
53.98239239149856 14.1479782327532 52.92685187748947
55.908999413859654 14.509797320167038 51.71637590591624
58.12799242789446 15.120416183601648 52.0149693490724
59.0164992699287 28.88446737760879 32.339759153223106
57.6286903489131 27.403061551332783 34.22543774349445
58.580586994985126 25.651323668528185 35.57641458928562
58.004824729665195 32.79826758076516 33.57196621638222
58.207746641039336 31.349789344729754 35.86032089664939
56.55773056769212 29.65734111403227 36.57896179200296
54.6392707711627 28.6811458036736 35.71880899279029
53.36364863067467 47.386917098466576 61.24019378311041
40.89341134407704 38.21378582724062 54.50823486836794
43.188625933214595 38.015221818578766 53.89048608631432
45.36107751902425 38.63804975395937 54.855653093016386
46.17869245627501 39.046283703137625 56.63884204938243
49.39514793839869 12.281750109307906 52.28466048982084
46.881143620724195 12.742159902093233 51.090104025267685
44.80808945658289 12.151913500413905 51.587960238634025
44.175971249550095 10.052713793924992 51.791368433061265
60.11731183301074 34.30536291064548 35.042914996997204
51.789219778197406 43.20318085358642 52.18817420064024
54.03546547288649 42.90911713357267 53.17301357262537
55.40316057099813 44.048607047783314 54.90966497483476
33.945236233049634 38.00975706564169 54.14999487811575
36.362736808772034 38.47801983961822 52.92542556981751
38.37995044914257 39.08176998746128 53.89285552370158
59.645205444743915 46.3658707202872 56.742618185211626
57.82584217016836 46.002311069072036 58.35546797803432
55.36451366655919 46.95764922312371 58.41341230213699
54.5538721568838 42.30631453515106 50.345883764444416
53.070791120988595 40.29114038281461 50.71986476773718
50.77184368698107 39.673762719147916 49.63317870055487
40.18049120412242 16.503744759083872 52.98523755063123
42.14414606539434 14.62381863029818 52.14084110502159
44.38869624076247 14.586777724822321 52.35785527248296
45.95624196523526 14.961212684456273 54.24247453294934
49.89936969439525 22.551078065009982 36.71579096850332
57.05590117049611 10.51478065465614 52.95729410282149
56.00194278561022 11.9386081201623 51.76101798827622
53.57096419769315 12.46840393268758 50.904491835737375
51.668412913854915 11.490013245318897 51.03628664360246
43.5684681464984 7.069835891956686 53.50810020405712
47.89151253955961 13.185562961425253 48.61208103834527
49.872459243185645 14.390048729872044 49.40945667781898
52.51506818166681 14.254857365383282 48.587572164417516
53.266471842095164 12.745295547158388 46.45050940969584
46.7297329875665 39.76188915263773 48.42628310372395
45.613949801864116 39.34043118311306 50.037051141418424
46.32778935566628 36.87707462102899 51.34062269726654
47.14547261781935 35.162717902301495 50.385648100507
55.69752068508667 27.12393605167213 31.942858431119877
56.751687726272586 29.722729360361527 31.296188756133933
56.99089734950357 30.54346846646207 29.157476484519314
49.13798163718328 34.12185701753922 51.89987482276132
47.690642228930976 35.824351813453795 53.35586631123578
48.56915178563292 38.26115912787045 53.10565410608199
50.82661442001572 39.26667379945155 52.38326472608657
40.430465153496606 31.555676152701754 51.916836251593146
40.88841875414456 33.985742240901764 52.478997478295064
39.61280916311951 35.8946757784812 53.361606148398764
36.96679265435478 35.639016224715746 54.78686740977061
57.11658656206937 17.36247508806339 48.951688046153414
58.394990799897265 17.51335353443485 50.96384514185821
59.38862122487136 19.72871495381799 52.00165820240395
59.86533809021753 21.706703524576305 51.623456666315334
47.16329273910549 15.798225217836274 46.99673517620821
46.71988969378951 16.522858427886057 49.28685474435222
44.23923260224207 16.796819778567794 50.52348223557562
42.141024417475265 16.953508041028226 49.667527507151505
38.124212541183965 12.09888268838246 52.667810420806454
40.38275078256414 11.895726897228224 52.06302189819806
41.5592885171769 8.939014729183539 52.332792351892465
41.0126371950428 7.465745101417541 53.558847991682825
56.43788664080209 47.36853246703391 61.45127932109641
58.97738493050163 47.43135461560653 60.25745665648253
55.791037899106875 12.042699168129387 46.14138246861916
55.64626086545708 13.444677393449618 47.767761632628364
57.227586212182246 14.548735226048015 49.02688283567627
58.95276134716128 15.302135698322296 47.85598385526221
39.64440262466655 17.208172616743372 50.27063964959125
39.825219384617995 16.204888479967835 48.14256268485217
34.29292653696141 35.596938370910436 55.94372744804645
33.6005150215917 34.35751092673162 53.864996893117286
32.294631085820775 32.06329809538287 53.54510317587045
32.15499628518521 30.255930324888453 54.996632618320156
43.53245193060874 31.250685765713186 47.144532605623986
42.59458659550563 32.46156209412602 49.222228282968864
41.0645996786849 34.4597575074674 49.41797053271725
39.5245983473808 35.2875842990137 47.218262963618336
56.38744920338051 12.438243769551615 43.55757998212282
53.86724314670344 12.679595816554334 43.241450907410396
53.37832065783692 14.862281547339409 44.995069561492585
55.454710169111756 16.480672952753768 45.69684548707991
48.682138285472085 42.054052599814305 53.581610699311305
46.43902866649379 41.34955443916255 54.52976766837683
45.48295113867539 32.27592094170108 50.008287589431205
44.58090294873844 34.27685125615056 50.684414263286996
43.47299580067936 35.22759257893481 52.78866666951029
43.70351716505404 34.65485318746089 55.057375372081566
47.43885864602574 40.88867534800047 58.59240745269768
48.234164395706756 40.79477422667174 56.461423662887306
50.60089934199225 42.04979802014211 55.91421911623202
51.68031378942526 43.83249321015242 56.74844021433081
49.776721383551624 40.93723994237576 60.34182083488133
52.30788979562687 40.629511697424334 59.918831420951754
54.37515252711533 44.60905966155525 61.011182703566796
54.243810242520766 44.27715136304223 58.204777903435605
54.98665038455914 42.51442283881819 56.88993023800316
47.151301914858124 29.27195110247785 36.245145332302585
48.25543125148114 27.49643106651182 34.706518778672674
50.338401296105765 27.166975174165625 33.551971798305594
52.37995475526967 28.245542913865048 33.40493290651385
55.00306781681526 38.57584622962483 53.01648147299341
54.01158046959158 40.19469029072904 54.35904239501597
52.97235005129229 40.46742267939626 56.785712572747556
52.2302144744896 38.53240266913772 58.356066969912945
52.36961660833743 18.966010817928293 52.57022934541178
52.239355405853715 16.27721436367351 52.31787384676978
50.25692114196532 14.863124633445157 51.97065134449734
47.859145715061665 14.97439871410189 52.309861407247375
49.977228451986896 38.18810326368453 59.88188698331475
49.46362037273144 38.521058054426376 57.76289598610847
48.24308135932561 37.3760798021645 56.067721249781606
46.7136708159834 35.04041917095546 55.96503175663909
38.53730120411899 6.08554146915762 55.716639193425465
51.676612979076516 45.053459652456084 61.62260960224553
1.7930407338433079 89.89015101253258 0.2844101874794335
1.983915991008831 92.42138236543353 5.547255926033868
2.416276822672559 93.26533859285524 2.7825052567048068
4.0526999482309165 91.79611406041212 2.328994697768984
6.474524271584804 91.54288985675942 3.997260521942266
7.053818096154112 93.00651025279444 5.6602926774868765
9.44835462889561 91.3903142734642 5.987796310408324
5.579015619832771 87.0333784218484 2.0598960473620314
6.050588804290351 89.55065724834056 2.0715144510574746
6.374501050209163 91.26942453991559 0.48940944045233203
6.129913492705923 89.25204924763653 7.0453438919583835
4.464210850563746 91.08635790238243 6.198061531226343
2.976226265594149 90.06543918266192 4.293896613146354
3.2940538685306664 87.18773374205671 3.625350613741092
1.3434536049242658 86.73790694252722 0.8951806089799182
1.6902677100304133 84.21892926554703 2.033287998243489
0.27015511610410864 85.63230326128571 3.8484788963153047
7.80135876655144 86.6578080070679 6.186627987411295
7.061729636518849 87.69829983484165 4.321800916918606
8.5451004848831 89.69791546510173 3.3100823890881577
2.1184512778536835 34.695399037754115 35.133079685072275
2.4685163223440814 69.53175981600437 21.47072121449479
1.0436152253039264 70.55861725343561 19.87918929998199
10.790464407465903 47.53877906446368 14.302344882240947
12.092018454528342 47.0277333735565 16.355400701655682
11.295829846152929 32.986911082176185 19.049857189273254
4.579817413932571 48.12251971685158 22.512835173893183
4.455463374008415 47.56487596398023 20.02257411489741
1.8101949213491955 47.446060664857846 19.184823051184676
0.02484886268981922 14.798181248767419 23.983288335017527
1.8682340650991562 25.237021749132975 12.885667283603444
5.311406752262176 24.622376800848873 9.418090467731966
4.780495463737616 24.967986388306027 12.124021212626069
4.073231850363792 23.47277177294083 13.668407047937276
3.9583186453089243 20.84430591107288 13.917380597800816
2.8649514517231034 32.0473161097984 34.6120429226178
4.9622495882081985 32.853548360466775 35.42856334269974
7.398020758390818 32.35363777971451 34.879073982917056
8.70069712832009 31.306034819132602 33.23377122973581
9.388867088345904 32.40873228117686 16.754469555625946
10.327818867520334 39.23013139454873 33.542501294144536
12.21697020334252 37.48290891461019 32.65148968807347
14.258019346133356 37.69290071810212 31.433628078382334
15.560912730853621 40.04286209354442 30.83020968184196
0.39344391024190917 65.77206294846027 2.738019748884731
2.6192738968466815 67.25339762136535 3.6642689220611677
3.7908117116681743 67.18144284178138 5.459331189971126
0.5442456193644484 20.82835144000342 18.01780345873405
1.297942356990205 22.31370709969079 16.125564878509742
2.7163638337587486 24.580964744541483 16.0305588427173
3.458587232518171 25.640658263019525 18.14474527797568
4.145336889672908 37.843760929046525 33.785016802155454
5.82930842833061 36.120204852309456 34.408190152837264
8.18595729315311 35.47947733434017 33.02292714570331
9.339165904418078 36.44242581085001 31.563530691110834
9.217186004896842 38.439482282165805 38.66600069425198
10.163216696116997 38.3334961802865 36.64967545547995
12.277735015134969 38.75665348600018 35.793479597631475
14.44889460329888 40.224132071003055 36.696473816936766
5.029973719356273 66.61947947387362 2.1034466405533694
6.446733218568332 67.71597641998855 4.073120107772023
14.881255434962608 41.06808829842478 33.931723147607705
16.517678560520963 39.598863765981655 33.47821258867189
18.93950288387485 39.34563956232895 35.14647841284517
19.51879670844416 40.80925995836398 36.809510568389776
21.913333241185658 39.19306397903373 37.137014201311224
5.679444112961799 47.818728969711415 12.39444143737895
7.675803465581349 47.62693703138541 13.003246860863376
9.225097440699944 45.170659180991855 12.759258344549462
8.789260538001335 44.138939056705844 10.43786716059692
18.04399423212282 34.83612812741793 33.209113938264935
18.5155674165804 37.35340695391009 33.22073234196038
18.839479662499212 39.072174245485115 31.63862733135523
17.664848711421048 39.10207402545385 29.324131538384925
3.404875684158531 55.36649756978605 38.303125855603916
13.191630217444855 55.43752278949131 19.794679660967414
13.613384999629039 54.909952795156784 17.759780450298454
7.536407237870121 74.57944027025312 21.783677206781768
6.51574098172317 72.68628542157204 20.55956108841295
1.410820814035339 57.53718177280419 38.200706182152956
0.7637670627730967 17.153668045105277 17.85985674845023
0.9828345359946099 33.411106194332234 37.91348175352886
3.28984491860234 33.45425198015424 37.64425652579828
5.12398227079989 31.643078866126167 37.954944263594996
0.49432068701253357 75.83005218874744 21.92448683872511
2.9427197003460654 38.24963570924249 1.2174449174580033
0.12619378034725764 72.58219198177541 24.28067452082489
1.9786759006042844 71.5454117576074 23.345835603413544
4.580800095055231 71.69233020643337 23.847545392537597
0.47643692955886346 68.61129117973682 17.285220680101595
0.882458745683663 71.21922376780715 16.146304697461495
11.814251218712748 29.47541397576775 19.01587449690198
10.85740859716702 31.31593705610611 20.81165871186535
11.924405730445509 32.21377977571968 22.67406781333666
2.9646434852155337 43.20028858258251 17.285404523515787
3.758096424311456 45.52440708131087 18.129398637971416
6.054107982457645 46.66987885590285 17.89901855300322
7.34145628482264 46.61528966738657 15.389997692384403
5.954229511245227 69.62246605393322 21.08640371209483
4.1141032604189895 71.082835033154 19.706202397410173
3.2073189759948613 70.75398297658587 17.29490794067189
2.997729214545047 68.67704237130248 16.033867408687925
0.8820242999776718 46.18089763543883 16.86050059334474
3.283581776066821 46.91705286386581 15.842227530195176
3.7744722741092485 46.26481937201991 13.273949685073902
1.7426363489535828 36.309278397623984 38.02970567941365
3.4062014625599697 36.92261478801296 36.63480940744014
5.727818872913292 36.20114335954167 37.24578234397348
7.015829183012283 37.64210209796218 36.589228306906676
6.630827157288272 33.841054208815784 38.38573733409859
7.738578556467386 34.62772724635771 36.30652152540765
10.160867018054976 35.68146496154421 36.314118614412735
12.207626469707526 35.31077281504769 37.27228670209335
0.9837408157721353 27.951471588734215 13.838082506393839
1.8133085758530447 27.276479642078787 15.39094419473346
4.514562894149027 27.372250042764062 16.384800051825607
6.169775359723479 28.91161601982305 15.718317163525262
1.2772894240781643 20.175959306005776 10.342413595914598
1.3827845766862947 20.989671020200202 12.912752200440938
18.59489210499597 37.05479895320607 38.194561782861285
16.929189462853795 38.88910760795197 37.34727942212924
15.441204877884198 37.86818888823146 35.443114504049255
15.759032480820714 34.99048344762624 34.774568504643995
10.468392640021893 51.143151414119664 23.351599031893333
