5.9098694168924935 82.77452373923438 53.97385796204179
5.747810602948226 85.09557748138226 55.141734373877206
6.998360139509219 87.19238187914307 54.70421034178089
8.864943411277325 87.94346512464097 53.078237659994805
35.51947514179638 82.46847003145815 45.78497400859881
27.087525882918072 79.26451572894875 44.88908340064807
24.976309751647154 80.12820330729471 43.93170710379639
22.78020864441712 78.52779465729905 44.3715980604052
22.750393530603034 76.65943905102411 45.35551953224693
4.352918242639932 92.89587547192909 54.98646498683694
4.480447859587801 90.68630556853505 54.82409988207245
2.8864242528082773 89.00119439268136 54.410076894103284
22.101489571562997 78.26496558604781 49.41748008203402
20.588399392375052 76.46577260292342 48.14380257504985
18.274951899097424 75.85003825738693 48.250518932022025
16.42269326612846 75.95907148623127 49.992747404143174
1.7930201555397696 81.70890720086598 54.178089387160114
3.3816953090435034 83.1086261952765 54.3375755992513
3.1214238191928447 85.75823161581637 54.22219147242179
0.38532301953244225 86.65936723345328 53.89397540664207
17.43260566150501 70.61592065457766 45.697456264793374
15.447364766667555 70.13612654867957 45.76295414092462
20.43939310389486 72.91516100654444 45.732251692495595
18.368810131110063 72.77660943346305 44.309215811833575
18.510741654388575 79.70442806899204 45.065341355287075
20.463233504853463 78.6445951528883 46.08038464213021
22.29149407800101 80.05571677135507 47.65659663812105
33.10473120958589 79.94265314081372 49.636627832621215
31.151456551208366 79.60664242819888 50.756795206286746
13.124991516839215 68.04680343811039 46.70055595764598
8.174050495760946 81.85497050504364 56.5554602084527
7.154316111993713 83.63697278908022 57.26689442858239
4.121419571233464 83.50267722284234 57.934465730576726
2.946990776676578 81.57247830136684 57.14223615907896
12.26995904747327 71.00100415621867 47.408219446344084
6.661017488482675 92.84965978440313 61.11140153629337
6.410035714773842 91.75186415191067 58.91164310970065
4.80116177811004 90.65250779053682 57.84761465848669
2.0659775454353113 90.662611071925 58.25489313586312
20.985387412296678 72.00276048118215 48.32373385309778
21.836313088406452 74.30164019589513 47.55388611197947
23.891718799732004 75.72751139749134 47.791653171180066
26.02223972811233 75.11212234408305 49.09306789216984
0.7368461009513078 83.24455610900804 57.7505153367105
1.0940223311487536 87.41032465945791 56.636894146966355
3.148498466206406 88.01461089878495 57.920486193321835
9.022731122552248 91.647088449273 61.91265470083859
14.987604795339589 68.94025400848646 48.60942775298279
14.958274974425578 71.45392625342235 48.08946851859389
16.986900148653998 73.42221586216799 48.722037931308726
18.8635556477432 73.10982876521778 49.358663719357764
6.819464477572743 91.49139187201484 54.00293955862141
7.3389086578739535 90.34110746957381 56.15076294816705
9.515879952118281 89.91519248272745 57.51560611212833
11.50011711435307 91.221038617039 57.8098223370188
37.23296403556249 67.48002262858685 38.91103544303775
34.863790768105034 67.24268506182732 38.08266592921349
35.08071288222615 67.20265538156718 35.12856475387772
47.46607214263352 67.96370524493297 38.986169180206865
45.62627726127754 68.00896952591017 38.046859864800425
45.37184235107782 66.78933370856019 35.523125214246505
46.76382233383162 64.85262975021483 34.6933702319381
52.44679540804961 73.21821295190229 39.50378863025802
30.52625108385143 63.82311925920146 36.76873016361494
40.17617450059343 68.82291216595836 33.56739043097603
42.02339405055151 68.52556298321355 33.40996929732538
50.15184452318099 73.44663696831654 32.98686069387493
49.92502519713627 71.26878259578551 34.039472035346144
48.14035406957711 69.5617710648885 34.15733416434775
46.48157780910001 69.1165039271538 32.30789977261757
38.653805455153424 63.95448305738405 33.08717926101161
39.91387384998806 64.61221090668599 36.07041708788391
42.44756461945006 65.44685888084103 36.7737207958724
42.72639070559283 67.9487138685848 38.23865712568581
41.17606374638889 68.85195361170717 39.605968960704395
36.98370394209419 63.34868505207616 35.29188947711895
34.707603877531625 64.50946746417634 35.051680280746425
45.42767087790208 64.17433742963908 32.4412451791604
43.109883304939416 64.87922754218859 34.13809487890251
41.14419421809749 63.62332798846798 34.03766168811076
51.71566567450013 77.2306688711158 35.806653631900694
50.435333509531056 75.47753890629345 35.29895378868117
49.563600425540045 73.62564810230717 36.877557432311185
49.882970313858266 73.79003653784311 39.663515398353454
45.11806954408281 73.71499468434264 38.9538538370454
46.965107546653165 72.59453549693161 37.92227395662902
48.79891402938584 71.0664909054356 38.96450514972879
49.12998745665493 69.61974101036954 40.86001279275994
50.27318300340239 70.32744107750707 36.85641077928949
40.49433088441785 70.52541161176103 37.20887256896774
41.840439963763295 69.31591567786275 35.876274013356685
44.211464743857064 69.73677756747013 35.13509450905597
45.91247155418596 72.0018406334123 35.476097146419626
16.116528258024783 95.24769264695978 1.6708001144524929
19.151254582578233 90.95101634901683 2.089417233352541
21.578815931741257 92.40877587088929 1.131599459772214
20.935919744824343 95.04783879085122 1.1343625387936642
17.126143795034928 92.47657038469467 1.1577357868487141
24.259184805767212 92.55415339131034 0.43790854218070735
23.923160257619486 95.0081705075903 1.1871129854884899
26.66745406962583 95.76942571326943 4.73736031596141
14.049854536444977 90.73096929045505 0.12240953655232627
54.5577888894196 58.10150638788438 58.877245728523114
59.254440602902804 55.194728907415126 61.84903425828626
55.84446402265786 51.69110875928861 59.76366270766334
58.40486246187692 52.47603396422196 59.55800161153943
57.97818783324868 54.718572181409215 58.222948618105306
57.58905443980498 55.01304004508386 55.413672488338115
55.488811497548 55.53573591349846 58.96289138433712
59.381675291201475 58.032749019639326 59.376188538189076
58.02956629439765 57.43214484269118 61.312027177241966
56.295331759046285 61.36550769604565 57.9770687654128
58.45314020450198 85.29867726550593 30.45877110585195
58.06654609892918 87.97521281141833 30.44674811183867
59.42514746330431 89.66533729330494 29.64321103619637
57.329235622671625 94.83400904785542 15.191384178225466
59.889634061890675 95.61893425278876 14.985723082101554
56.987382764409794 59.18799076759985 57.692672407320835
56.5350048114807 57.296441896080005 56.47221336721468
59.61870391042991 82.80199866276558 31.7106793150155
59.68413430246564 84.5438503951862 33.126542356649715
54.307717996787545 76.65423203275816 36.10418275802492
54.10546240144402 74.98778127435484 38.81535917009228
29.922066803637456 9.513565841023759 10.392615339880331
26.95092768490278 1.949567322716572 8.533225994203097
24.205791160137103 2.545491466175981 8.582596733929874
22.632916247604886 2.6866273872573005 6.822976301570078
22.402501009262036 1.5058106150940507 4.528940030496687
21.30250297921507 5.579589289354669 6.5917904235137685
9.55622605245035 8.052242372604297 11.028927228935595
13.971860334569477 5.654690424338493 7.437570952066504
14.982357533657511 4.697657943569639 5.430012855593626
20.883421321477748 2.747215175660761 9.46172864385456
19.410691719934324 2.5959935303111132 7.789813778340589
16.940163777668953 3.8025239443546197 7.2594782377482625
15.712390548930843 4.949840489211672 9.092940249802654
14.934233020439494 2.221503238662279 9.1934180815827
13.827087083519471 2.3152630795510407 6.665997704619728
11.65140304062063 1.7103964472456372 5.840611354137436
22.17357118764945 9.028308665152718 10.69177720980613
21.50919114867738 6.443863279420884 9.579684007835867
24.011921354300995 5.384291886010604 7.914874770425939
18.6076883249309 0.2907903244650113 4.162329151537132
19.967363414795216 2.3434245846229835 4.557871406303252
23.09453880537988 0.1259846573703266 9.128821032433834
12.334612215569551 1.064085406043207 3.501042417826728
14.65908745506928 1.3645924612963682 4.262195123858885
16.43691280000891 2.5283761671465883 3.4462143577707223
28.70488008470902 6.931916038401825 10.511304343432329
28.99664011951787 4.584204382959061 9.770597380446906
9.626344770928226 3.9348566905194873 4.6830296338899124
1.7148213899956877 1.422020204032563 2.2551200148044592
4.173055539760424 1.4651964457132116 6.2045169582635475
56.80720364655133 33.22645812633213 37.85676983833004
57.42565736434626 35.33261776057374 38.94871848123812
59.23817250994519 35.96309064230089 40.64576266737407
60.233259531000634 34.766106885470464 41.966853822207106
41.15711252668144 22.390441042965865 49.062717338777894
43.255156734863114 23.676923861863216 50.15126104886211
44.164575588812845 25.58165428124187 49.98869852044436
49.82285681391018 4.525440181015377 56.68238591047925
53.47253145639616 30.610231668076295 62.01422284798747
42.54094241791871 19.893391763320153 48.10847316799562
43.17461985294597 18.80502119126469 49.70980036770499
40.986990701696726 19.516423472654736 51.88038761944988
38.556054128114084 20.289071180243145 51.225293344826305
59.297288811547894 39.422095331901765 40.928117207379444
58.11222898425483 38.116536525902404 42.52171206404444
50.98694076727374 51.06149617853203 53.84210893950129
46.20168343071327 30.556883325015374 53.35298014198731
45.09895056619588 28.67082930181511 53.29670135673305
42.944272700499106 27.627021641653492 52.102326272521054
41.000555458414965 28.497929276260802 51.23159092489476
55.072348667857725 27.16950133274869 56.456763031286904
52.85970017368206 26.569357295142776 56.70217806142138
51.15027016563934 27.07056326110398 54.88660544422133
51.17651782388208 27.11894011103823 52.24188998241614
59.56265690884926 32.81488037012047 60.504563113684554
58.611591953733296 33.3318254499041 58.4984730022686
37.897510832607836 26.609845762720546 49.26087369315637
39.51543857913583 26.456922605656406 50.61587717652997
40.150061273293275 23.87549014760194 51.54905738663926
38.61903513802972 22.50647754133144 52.68001810907789
47.195145341620076 21.93038386923421 54.496935874664544
45.74015870327119 23.39884579703626 53.240909845295946
43.126231248021575 23.422104016013506 52.79403399594644
41.44127785296465 21.738523549191935 53.37763761479414
56.919207636148684 31.653243595022094 33.943722005272555
55.728755294877395 33.257749332013766 35.49738672622945
58.556217032728696 2.3170442112436063 61.83608198333489
57.46939116413536 1.8912597905800665 59.389864709642914
57.99380835673338 2.3295436813891652 57.33880963963423
54.76370061840853 49.59717439752233 59.57637618947893
40.989330255719764 16.15900053997139 56.947485961368315
41.702914435703654 18.231403868572063 56.336740704784646
40.02708806474885 19.729379352695045 54.79726482119944
38.14892865953852 18.663410458155404 53.336149208126876
54.7514261287504 32.949064633850625 55.418740963817136
53.62845897839615 31.598132256943035 56.65184310637739
54.22302640036553 30.95107601163039 59.54837741636526
55.99174413321772 31.65438707828208 60.455998313287196
50.25773634831622 33.15716927041883 38.38054430415336
50.798331448271774 34.891875592883906 37.05370050461541
54.9927613674121 36.62914653095084 38.094541501987244
51.88479365734834 29.221900427277912 60.35409963898513
52.60368879484544 29.374838064012685 58.19470121661341
51.36950022187519 29.953618574748457 55.746313889921936
49.20638876291332 29.890795391355343 55.16969894315178
9.339881880184763 1.8351139569336823 6.957028099512833
52.65811110663184 49.41600511117427 57.62386312526555
52.005669894539054 51.39817043770068 57.933796728095935
54.607180927927246 1.3938651599039462 60.614774396249395
53.16598522856114 0.41153480488422056 59.09370177462999
55.70015756148087 29.217126008479486 54.171763778624175
56.18881987143975 29.96629400925304 56.325524180431
58.59280777698803 30.71809223020074 57.58405215934268
60.14896291705506 31.202877521684343 56.402976965196686
58.40378239976594 30.48132845658345 60.370470969601186
58.809543549940514 28.511010648632475 59.326763897971695
54.64764789290682 33.80271638591419 52.695271372174716
54.37951009413803 31.312873093139224 52.67882268367685
52.25626908901155 29.743621822622526 52.76821459656287
49.898399936753265 30.351808090620935 52.71418604863527
59.43397609091516 37.42302709024792 38.401212025651205
59.433807967060474 16.263963245885034 35.814947749011004
58.596428180527994 14.893404096141694 37.907117519977916
58.427880906700395 16.045517455469007 40.597622951660014
59.2011075207309 10.890806728342296 43.163769524078766
58.278962839385194 12.498615070891477 41.80768519208182
46.02394599955691 28.104004110672356 37.77435572354173
46.30946160908586 30.264895109215367 36.63332969659082
48.1376311669701 31.414499592385294 35.95423146849209
50.65950187579481 31.344941634202424 36.21191515903875
39.78066969358226 33.39930395271276 36.480176111431305
60.06999791436024 9.973922648190086 47.754319364349726
59.021244740995435 8.560592476241945 46.18080939581605
38.96252481881327 22.068430229891497 56.14714811309758
37.2789356380021 22.12334783429463 54.83018534485675
51.911554606698644 6.300409403579568 56.59734588481635
52.16458738154298 4.43785088061751 58.26404903530757
54.373794946006214 3.62489633158297 59.432913546278016
54.440120725847784 4.459669537535665 61.18219298967434
51.88662319348768 25.590044428747557 61.1526829273839
55.21437292059048 28.304958890792253 60.72272337956601
56.455864139308176 27.173146282139555 58.93724542123599
46.633016734342704 24.360289302114776 50.2658101059959
48.108655325406495 23.847026601282234 51.88374100740529
48.89247650355257 25.550671921371872 53.959936428894224
47.7375843508291 27.900195130542464 54.11460739918152
35.7426011846385 19.29752363837794 54.596657330424925
46.64539297353554 34.28893289717101 40.99284508354096
48.03124647919648 35.21229153746694 39.429043117595505
47.510332603595366 34.1077942799066 37.05912710064425
45.893357486013244 33.130284172322874 36.31443312381332
44.85396339772165 21.082282939190588 46.670203466768605
44.39671218618393 21.47435986795328 49.26101147877906
46.14644044878484 21.76332423626789 51.01899356212997
48.6480774201617 21.27886251965327 51.35110223020061
59.675265923807586 36.61288252563845 47.382818239314446
58.851241372811636 38.628365594124446 46.11071028143503
59.88410142077285 39.82349111718865 43.74159643552002
55.68405886120903 37.79876637934798 46.699229887852916
56.67910424992602 36.15826799045581 48.6434988305695
57.07873269018966 36.52425787314088 51.07233871234145
57.003870604867615 38.26953961423818 52.5670350237977
51.87650936402855 23.978238656877345 57.9907162053961
50.73813328971191 25.393320030177907 58.714391778300985
48.43928803028973 26.360979982615497 58.0215909441859
46.75126867800078 25.517952832642166 56.130932297897616
44.51890367321296 27.678775019591875 56.12481124902387
43.5860585827032 26.18092351559376 54.187132864649094
41.23718697650993 24.597667764909502 54.21478959299328
39.36897728481966 24.59898065226887 55.645225083554045
8.599367597099278 1.9033904630783933 3.365304551239294
6.538707791777571 1.3532628357875078 2.754062824470423
5.186598794973741 0.7526586588393618 4.689901463523315
53.294032582757765 1.423228129204758 56.75995364851267
55.29673087430043 2.493044921211561 57.26302813902423
50.324142852158175 32.732987944963426 33.88043873296962
56.680938562035976 52.14348462457509 56.256954482448506
54.72473066675892 51.70470834003879 57.344338196146545
52.84055910998264 53.850314979883464 56.663760296305135
44.99797717833925 34.82521594186802 61.163737080796956
40.507237193844986 29.22766143197522 58.89107901198963
41.58800059809431 31.321595793741484 59.07836553017402
45.125211866637926 37.663236054092216 58.690891360699766
40.468267242195374 31.335195374491676 56.659041018657234
35.65396015065392 29.73903273160151 30.38075972611907
30.75816958383871 20.050530304406102 33.45185522576481
28.58019704630542 21.55084668877758 33.25624312526609
28.06069100642676 23.72932230767747 34.54351600520286
34.56766503450012 17.358713570737056 53.86412957555418
36.29545090932204 15.554295720312107 54.80636399927288
35.09014794307596 15.149275279612622 52.265746614207245
33.05982668064782 15.180143530003978 52.607969066399434
31.266678894575985 13.533064644654512 53.42114551968315
31.893308603420536 10.804205553974718 54.17110858218152
37.07499310208314 27.399446513353745 30.402888407372
39.08982397013251 29.039002362869404 31.243169846353894
41.06618014030304 29.264429437746262 30.574708258797152
33.80735897227518 25.81441895733132 29.081152016925273
33.28357604689085 24.65727774054183 31.17620240857184
31.88017187486041 22.783948443170484 31.597615268357803
42.388064740218255 31.437219054245844 33.19477468845773
45.065739483910036 31.518314072632794 32.68564482638247
37.66931574077341 25.55148886436023 35.098003725144096
39.76210634010282 26.53390037490992 34.375411538104856
41.51725300563693 27.617537731024097 35.67604681214608
42.775398218854214 27.156849357789273 37.86744903546248
43.315726844257085 28.75592042514483 33.83951796935202
30.845503381858855 26.215675233511515 28.571024897197887
37.72968884213597 17.042778275302204 53.18244178742328
31.71818497052049 15.329596804631016 50.12249615449232
35.657448061685365 29.72620207187723 33.210972689994804
37.95641971687139 28.777191406587036 33.54749950078145
39.8207717527603 29.493511829176015 34.8346796124138
40.24662594963572 30.999806368550768 36.47868538103616
32.9578849305931 17.653453694367503 49.23474983180092
35.40581378805902 17.92232888150759 50.80517269107597
35.62682744497126 19.410116859160887 52.48048292654341
35.790886073327265 23.990824926082166 32.11376367360374
37.85879441195874 25.642242887131673 32.331255759711865
28.954849503202585 20.46797496832589 30.91627059539679
26.391403754208902 25.74872120027654 27.996557873391556
28.509771047642882 25.16702257205323 29.5892724752424
29.04146634768196 25.825722657218417 31.73395264881969
29.352358882077983 28.710308278271246 29.45564236916242
31.08944755894943 28.073855336911603 31.469700202666633
33.34241654817434 29.16545127744197 31.91974808052352
40.402714888156076 29.178114996413996 38.64692801362313
27.645083602353616 22.318278965451317 29.140115620367354
25.470099664436297 23.074165482765586 28.71729888269541
29.75200536725523 26.257804947750056 34.41877481223237
31.67367986803243 24.905549386831925 33.78720176716441
34.236358590410006 25.01228926849227 34.35571527291101
35.559982267788094 26.927443499838194 34.715712847326394
29.318542157410143 30.932032316596594 31.810306626001427
37.55615405946242 10.680597122898623 18.88668774811355
37.95271352722182 10.988563782251349 16.647019716029995
37.00939983988623 9.828541771416097 14.480805572374502
35.17186151727924 8.955284409895985 13.953789961801778
33.79138321610858 10.799768118969968 12.500633749869243
32.035161221465145 9.20517942929412 11.973206992406633
38.77681960651593 7.666461655132377 15.378738471398782
40.08940854127585 9.580267174406657 15.783653621567542
42.284289275555906 10.11512934139931 17.53577371888983
43.47332703164349 8.82103594618074 18.930201426456666
49.99541737443945 11.443555342265162 18.874050481283717
47.77363934102 12.055181274919164 19.34167953955204
45.80058929670025 10.896333667568106 20.797562141036817
45.42316273101881 8.933253058152799 21.949562655881024
45.03902944499486 4.2597890641612635 41.8978969895807
45.7439039613002 5.402857086262547 39.92023528280391
48.48372238953945 5.999806441132176 39.56442141032472
50.17442836247344 5.721715983066267 41.33165070759523
53.78844231816553 8.950383929293915 40.54983669997961
51.9669736854145 8.154848290426466 41.342347451703844
49.27917937609751 8.76757256061158 40.83094770777932
48.148444226090064 10.583777523137284 40.34114221861891
39.499818737355056 13.171488443951274 19.991614968038885
40.228183389480236 11.9808150770894 17.8916019272104
41.27229220735961 12.880282579841339 15.894207305226702
20.27838365034614 3.2557724666375276 38.31482178958067
20.514927736071236 3.125022625542057 35.90340647904576
19.188154015653957 4.043498279618177 34.147872813785824
36.65822602513916 26.027328137875145 28.278852672317093
60.224457819028366 9.55710869934304 40.61141861877803
58.84813720454548 8.086697792839535 41.342351843123154
59.59777820993409 6.905948690090777 43.63030933783123
48.97144598786949 15.423233461150623 21.588493663453182
47.60523009795907 15.250759185993278 19.475508032494837
44.95297249104685 14.850155459251106 19.17352317594994
43.4502998009456 13.97457982034702 20.562570402148815
34.58641979176143 24.781946190065206 26.61953399585708
41.31533262444241 0.037443499876636935 36.7276754532013
43.918593060289936 0.9215087922837939 36.47025965936469
26.360266316529135 0.6939257725157311 30.904108996702405
20.581650783803468 1.6107479942095209 31.97392486722607
39.69732442569009 0.8539825776489767 39.72282797565289
38.24282820473888 1.5818893377234067 38.65894560306077
42.48146844690731 0.3424895758424085 57.61497607874823
58.47309497788648 1.6196647844635808 3.822109608076133
34.37153561310405 7.711611317158569 11.014425719538279
36.3064984698146 6.781677660289031 12.789712632911064
38.7613892787647 7.271457242437069 12.703382557498198
44.48799174961274 4.984047851511588 35.722794966926635
42.42564646548624 3.992807718624375 36.82771974788719
40.453150303249316 2.6175352729956214 35.83759317415627
39.784283589451015 2.6971330645601634 33.36609875555881
22.61049411376296 0.23481829121414333 36.20794556863326
51.89945837900683 3.3883699906682074 37.31822241774533
52.110913076999424 4.065597181238967 39.52170177220072
53.82237836503313 5.726270003839481 40.71322997795524
55.87713000213894 6.726851057783789 39.933014007550064
42.176629011368725 26.699950468546046 33.04135812183591
45.690507236621656 29.152746789475508 34.701693829133525
34.4041354026147 2.3162415766187396 32.976147481753316
35.93534815056947 2.087831027020872 34.97743737551678
37.71454579345261 0.06385965868029246 35.34575859740384
54.302483794875585 6.1702532952780045 48.120679754746774
55.31855599752623 7.699078989847856 47.08491887031846
53.57043956277164 14.810655777250233 25.349440369871477
53.70452276170227 15.843699071610299 23.46014818702454
52.453037929407316 15.10132667073398 21.068871661967183
51.003583023414464 13.269080960035872 20.648657499101652
42.94382155322637 10.693506697986292 36.7850058403551
42.451661164074736 8.619592056133587 36.589784831583465
40.50907641313956 7.157410880065103 35.16727984474947
38.54459438191348 8.25613835369795 34.94847281209035
47.638427635039655 0.5904695338671553 39.29458103871397
49.644558768736935 2.100079932292262 38.680319307591425
49.508258394601526 4.478975558307316 37.28165459893775
47.665743557322514 5.1925686981794685 35.78473098466303
46.57217253105305 1.5476818675428063 42.49321695247597
45.72711988704348 2.0406054291392968 40.560195171369806
43.888242552447664 0.9963420783149869 39.11274160082696
49.30472323552867 12.238941534147328 16.060274421238987
51.88907398714792 12.799462058987258 17.737587157715154
53.018043179088615 14.810353686673878 17.56785479799405
55.41673546174773 0.4557859256782145 22.89322384335814
25.918497446754543 1.4568286047993215 56.587772382030984
55.16719062658524 0.7444355393625409 3.0301832335419503
32.08327892429339 0.4985320446231597 33.20290000891115
54.48490824025372 11.879432508644092 18.204864627776058
54.64924217877627 14.073404935539912 19.67269505354372
56.6203458635768 15.45168058000884 20.126262175447728
58.58371387973593 15.823659303164005 19.146326224758695
21.301900951966484 9.189353344015103 34.84980677668584
22.1464004194434 6.905463120032671 35.904401763526565
22.38322207336816 4.707175341121449 35.17086214650296
49.43172145617692 1.8024486647970832 41.64933797997279
51.752970972335085 3.369152109726645 42.61080267817345
54.01205827247786 2.781412577754225 42.29578772657827
29.253604951745434 0.6702219152090992 34.81033811686603
27.543786527460885 0.9987518563633542 33.583202621252646
24.861666315633073 1.5263787061360004 34.3592833286897
23.92417867415473 2.5665823647326698 35.92236018747142
50.17904698279215 18.255849410164274 20.210307061344785
51.85104720364521 16.978628881465028 18.95169468690011
56.27064569241364 18.39404643844891 20.06932396149445
38.78294727385858 4.304616026424085 38.994601808942974
39.69509238300269 5.396752128861389 37.2182045832152
38.31770560098563 5.336612621438008 34.64712212135475
36.2174704612645 4.764021424331913 34.15332189661871
38.78062788963299 11.933248068084328 22.274931651307615
41.56152107328135 12.52786438068039 22.08858949307313
43.634806260570336 11.252136874111963 22.845735328116668
44.00807866382326 9.593621922304608 24.400382530646876
59.11526137724738 18.447209722102745 22.576927710501106
36.29087633100839 22.170421134728443 31.153659869235877
40.304404474757646 24.904775713631558 31.84806531155369
28.61987021909297 16.319504777300953 28.740745398773548
30.96973020347372 16.69132443028662 28.856809708864212
31.40470949041541 19.200016313538914 30.095906972351973
25.257625543824823 1.4894848145989825 54.137208995546956
58.3012883988327 5.106265727500282 44.972017906594786
56.248186523311354 6.905735900094454 44.8097064039924
53.97924091153957 6.507290212228279 43.40172840808878
52.444539035879245 5.12297107193255 44.77110268795188
31.49496734803073 4.160727780990431 11.27562609083966
33.19252978578789 3.459617942536781 9.915665543607096
35.85408490579128 3.8458824299467884 10.000317208694455
37.265688707940946 4.207914857738873 12.16946734012891
52.63322626733583 11.15399430343494 43.665896739126694
50.6031872725688 11.938436725267362 43.059859680470446
24.21248025586805 2.2116290892138446 12.73781646769755
26.117814870958455 1.0645015314103679 11.644438594487406
28.23495169618679 3.0084568231894195 11.716115911878155
28.776016174739 4.515388166850144 13.022445356125758
37.65859644446972 10.375215767976641 12.090260103889245
39.796033208079365 9.903696828827881 12.872885746938406
41.93512756780906 11.728800282481295 13.43786407100054
41.23572408232608 7.2757493779951 38.38902579352279
43.345055619932324 6.366279346615913 38.7044918553371
43.24851064709993 3.736368103760396 39.572253878421726
41.73118418924153 2.6095827762594843 40.722448402109464
50.376040810165435 6.96583238720462 44.88405198375447
52.47570400921891 8.582435548875347 44.688813907511005
53.6995421173008 10.04226316154997 46.55190426745444
58.66578350940008 1.753640418654407 6.577062176556846
17.417216443468885 4.536036421284816 33.101904589675094
59.73477987289854 0.5473912834813348 27.11686732618862
57.578331460205845 8.77934283025718 43.47035374431384
55.48853452448488 10.092226487323412 42.53825533885598
49.76561550280962 8.285435974842471 37.999822945021506
47.51315419536567 8.359261066018105 38.75639697706976
45.9867990010849 7.130217930026324 37.58405231951444
44.562936596188486 7.798837418961951 35.31371215730015
46.799458512656116 11.193842562847838 16.6233117330101
44.89682190376809 11.315736089508029 17.57535306347909
43.65389811199961 13.645594982061116 17.107211761366955
17.948325635329812 0.1210968017077991 36.48391895194505
17.88147435912752 1.178134851365314 33.879088503810266
19.590538285079674 5.4798397749309675 2.2986806788182554
19.465681994255327 5.050741879365997 4.694519317887727
19.77073486523233 7.3965733954935375 7.149950689778681
16.678180123783736 5.481629148190437 3.9721381750750386
17.342149372287853 7.81158455062558 3.3809840572967693
15.397604352047324 12.183704738937202 7.908016688075846
16.684780755958716 10.297926076799284 8.832237189209344
19.294694364327302 9.939138901680952 8.764904556177031
20.910631684198428 11.178560485821928 7.269055202619945
18.78764746731434 19.733723754655323 7.301978663458316
3.4523642596223754 4.686021512193824 1.3549430516941516
24.269008585819865 9.464047555823212 9.761594253015243
10.809087039255598 1.9075841542595746 2.062796189514607
22.073291329680973 12.491686162112448 10.422138790274133
23.303297074093607 11.97343720778203 8.519878730919052
25.78803799102651 12.352579026383205 7.771339654283656
27.778780050002354 12.327752421657559 9.807591612052894
25.946966103993468 8.548572505333034 7.749165179722583
27.70835842649045 9.153169475788633 8.890959591449995
38.308851315873966 45.305446899223874 36.06211984346757
37.55808094326015 42.50830921544341 35.7149997425272
42.6418841266952 65.53334133153267 4.490438809340014
44.73992833487688 66.81982415043002 5.5789825194242315
45.64934718882661 68.72455456980867 5.416419991006478
51.307628413923936 47.66834046958218 12.110107381041367
54.95730305640992 73.7531319566431 17.441944318549588
57.15053727591958 73.0141653196554 18.597300937557275
57.84280360380258 73.38122466501103 20.581848090428966
57.93298870457655 71.46015261228727 22.056050359381715
42.33786745619138 37.77345997133924 32.75817326255209
44.02571401793247 63.03629205188696 3.5361946385577374
44.65939145295973 61.9479214798315 5.137521838267116
42.47176230171049 62.65932376122154 7.308109090011999
40.04082572812785 63.43197146880995 6.653014815388428
55.982667961653426 39.333759170193154 37.8859780998628
58.12257997832436 40.18203054607321 38.18164153863856
52.4717123672875 94.20439646709883 9.26983041006341
40.46963560300693 36.52589946511956 35.93827331730315
42.451726185711266 35.401224188780446 35.08677076046691
45.02623184593944 36.3327921470891 35.1757956869344
45.54453002641655 38.89568852614948 34.88640455083235
47.68645503072703 73.69978361358218 8.780701612549429
46.58372216620965 71.81372959038191 8.724422827295172
44.42904430051287 70.7699219302203 7.530047743083175
42.48532705842873 71.64082956482761 6.659312395456882
60.104301717313064 42.5457844201139 14.925910934471593
57.403281763151696 42.0377969220988 15.213788816087948
56.41378225346145 41.346574414819756 17.8521373760916
56.55712026787149 70.3124016213155 11.884484501849027
54.34447177369582 69.71225758370959 12.129899531983499
52.635041765653106 70.21346354967079 10.31432691478345
52.661289423895845 70.26184039960503 7.669611452978264
51.925380365600766 62.614889845626 27.914669425237495
53.37374153591428 62.59019838799797 29.85911920933765
43.86709669415646 56.78145511129487 30.614428835027873
43.84565047646749 58.25815237459911 31.90852822967152
60.096363553747054 76.47472573847091 13.926194472830716
39.3822824326216 69.75274605128735 4.688595163718492
41.0002101791496 69.59982289422321 6.043598647092091
41.63483287330704 67.01839043616874 6.976778857201382
40.10380673804349 65.64937782989824 8.107739579640013
48.67991694163384 65.07328415780101 9.924657345226665
47.22493030328496 66.54174608560307 8.66863131585807
44.611002848035334 66.56500430458031 8.221755466508567
42.92604945297841 64.88142383775875 8.805359085356264
53.909318200684915 34.893103482639354 35.09864037973967
52.00436800477915 34.9741987837624 33.655738750774056
60.04098863274246 45.45994449981041 17.26380345389701
58.954162764149125 45.03416007914687 14.817586180205037
59.47857995674715 45.47244396995597 12.766531110196349
56.24847221842229 92.74007468608913 15.004097660041053
42.47410185573353 59.301900828538194 12.375207431930436
43.18768603571742 61.374304157138866 11.764462175346768
41.51185966476261 62.872279641261855 10.22498629176156
39.633700259552285 61.80631074672221 8.763870678688995
45.14632899700148 32.251519323832284 32.63529429587726
56.23619772876416 76.09196492241743 10.846462434379255
55.11323057840991 74.74103254550984 12.079564576939513
55.70779800037929 74.0939763001972 14.97609888692738
57.47651573323149 74.79728736684889 15.883719783849317
46.8050210029398 63.12352978515204 31.985473723863876
52.73597217370731 36.388986175056466 36.632748817605716
53.369565257362105 72.36480071584472 15.781821109547252
54.088460394859204 72.51773835257949 13.622422687175531
52.85427182188895 73.09651886331527 11.174035360484059
50.69116036292708 73.03369567992215 10.597420413713902
54.14288270664561 92.55890539974108 13.051584595827673
53.49044149455281 94.54107072626748 13.361518198658054
55.730244694686945 44.44068793641532 18.497351268961093
56.091952527941004 44.53676544847075 16.042495866811514
54.650756828574906 43.554435093451026 14.52142324519211
57.18492916149463 72.36002629704629 9.5994852491863
57.67359147145351 73.10919429781984 11.753245650993126
60.0775793770018 73.86099251876755 13.0117736299048
59.78098893214624 74.34494004514393 18.371028515297535
59.8885539997797 73.62422874515026 15.79819244016331
56.13241949292058 76.945616674481 8.122992842736839
55.86428169415179 74.45577338170602 8.10654415423897
53.74104068902532 72.88652211118934 8.195936067124993
51.38317153676703 73.49470837918774 8.141907519197392
58.93634988433812 35.907884123230374 36.648188684039056
51.17318861787833 64.57026413889844 30.974120852078425
40.44729641882704 65.2113305184583 11.574869583659696
38.76370723801587 65.26624812286144 10.257906815418872
53.3963262067124 49.44330969214637 12.025067355378475
53.649358981556745 47.58075116918432 13.69177050586969
55.85856654601997 46.767796620149774 14.860635016840135
55.92489232586154 47.60256982610247 16.609914460236464
53.37139479350144 68.73294471731437 16.580404397946022
54.43485672458797 70.41975621030548 17.5793831758725
56.69914452060424 71.44785917935906 16.15044485012813
57.94063573932194 70.31604657070636 14.364966891798115
48.11778833435646 67.50318959068159 5.69353157655802
49.59342692542026 66.98992688984904 7.311462477967413
50.37724810356634 68.69357220993868 9.387657899456345
49.22235595084287 71.04309541910926 9.542328869743642
37.22737278465226 62.440423926944746 10.024378800987048
57.99799930715427 45.6821958742498 23.063300522799842
57.30651116788625 44.88528328962383 20.939218790365263
57.794812581819365 45.79349811627311 19.107360677755207
58.22213014259616 48.29985677630189 18.420264825347225
46.338734997735415 64.2251832277574 2.0979249373307245
45.8814837861977 64.61726015652009 4.688732949341179
47.6312120487986 64.9062245248347 6.446715032692091
50.13284902017546 64.42176280822008 6.778823700762728
4.144415264985887 2.5085045837480324 1.0705466936021835
54.92474785246111 57.154957248539816 54.044523928976716
59.637188578379394 43.21288600519873 19.55634834790252
57.1688304612228 80.94166666791479 2.126951358415033
58.163875849939785 79.30116827902262 4.071220301131622
58.56350429020342 79.66715816170769 6.500060182903571
58.48864220488138 81.41243990280498 7.994756494359822
57.967401123535275 76.61958642593548 19.97037627253018
59.90383751510007 76.89277286802661 18.41615752421259
58.08527785989314 41.892898781148695 11.975239450245015
49.524704446380696 39.79249825234485 30.877870609167815
47.83373321285868 40.20831186832543 32.305451040585204
45.20966011855271 39.48451350329522 32.26357563485387
44.240685796420216 37.85190393695167 31.081639377095023
49.36439007339152 37.03702608328016 37.475082641603
48.07082693332226 37.56769250442124 35.740718153592304
49.3496912230156 37.91409299539824 32.92963584305396
51.8472430020613 37.90823944158781 33.03186347579129
53.361280964042315 67.12113894544414 13.418437675958218
52.222904889725676 68.53622031874471 14.142113248863103
49.924059630303496 69.50388027118231 13.449312414748025
48.23604027801454 68.66085312120897 11.558653768459735
46.003675273226726 70.82167530815869 11.552532719585988
45.07083018271697 69.32382380416057 9.614854335211213
42.72195857652369 67.74056805347631 9.642511063555402
40.85374888483342 67.74188094083567 11.072946554116168
48.99255718314877 63.526690516579585 25.14764424916409
49.43788433338805 63.758272432595156 27.82337100760452
48.335650296821576 62.39044936451161 29.775430346202324
46.58990396522818 61.18502175128325 29.85657755690788
55.924335979438204 36.51317370985454 31.354186638893836
54.684006435043905 36.83650124265072 33.19550836574442
56.58613700855519 36.788494204373094 35.159676312460846
57.85642247330876 38.68580288398363 35.877395722110954
54.77880418277152 44.566128417771566 12.187675119074788
56.781502474314195 45.63594520977837 12.690749609586351
59.06924800736295 42.106188315094805 42.69531127677479
48.71005012348484 57.4139123407789 31.664586799762773
46.73571624804283 58.89594125983954 31.486469386804217
45.421059208950254 60.259911579142084 33.28007647212608
49.09722381101892 34.55216751358242 34.675258498506324
47.04130642359141 36.12783140656103 33.46373485799869
45.22658976820002 35.31767067359694 31.891807754948747
58.16571016204974 95.2863849131419 11.68467595301063
56.20950226677269 94.8476086286056 12.77205966670867
53.016998413151185 55.42041193246413 54.72216196310858
46.48274877835301 77.96811623043482 16.59145855135908
41.99200879385875 72.37056172054203 14.318800482551751
43.07277219810807 74.46449608230829 14.506087000736143
46.60998346665169 80.80613634265902 14.118612831261887
41.95303884220913 74.47809566305848 12.086762489219353
33.51798412950627 30.529643180917056 27.259889009970223
33.80630403402004 28.409149394705583 28.568136371830477
37.660287339358256 30.701078385342903 29.67877626918961
36.05243663451389 60.501613859303866 9.291851046116298
37.78022250933581 58.69719600887891 10.234085469835
36.57491954308973 58.29217556817943 7.693468084769366
34.54459828066158 58.32304381857078 8.035690536961557
32.75145049458975 56.675964933221316 8.848866990245275
33.3780802034343 53.947105842541525 9.598830052743637
40.14444813125417 33.15501924443097 29.519488477650256
40.37831685129995 31.700229317000385 31.61667746497524
28.866695089097135 29.22243893432672 25.662516099180863
30.893646938077495 29.497958691366385 25.70950448907924
31.516079110076948 28.289886502142814 27.4717263017907
39.214460442149736 60.18567856386901 8.610163257985402
33.202956570534255 58.47249709319782 5.550217625054438
34.44265653060687 60.796353982934306 4.662471302363039
36.890585388072786 61.065229170074396 6.232894161638088
37.11159904498503 62.553017147727694 7.908204397105532
29.153752324881825 30.62212498502965 28.089291156446738
51.73933923254183 22.603779718618117 2.7404834563952774
53.93943387805565 22.845407089123828 1.6928518880249883
56.31925746175454 22.92808940655331 2.3083753990301843
57.49324424618833 22.54974247142333 4.460153438955778
34.41570142484522 12.983152636370441 12.252012436548696
37.60716771488759 29.803593061888293 16.352637624654577
49.301371456235 16.80573117729256 16.65299959888659
47.026249293593516 16.268645707156562 16.854973009113976
44.860379551225904 17.607861680948798 17.670143325343012
44.94343869657212 20.254151137846826 17.727279776878984
40.93742692980575 15.032195629210872 14.524111340295098
23.523759084772255 38.327683043331795 9.548788292345678
22.31845611852617 37.92266260263231 7.00817090728005
30.941386703769833 36.289614582552105 27.646035741541795
29.9524958054139 32.75426167212445 29.390337184446327
53.575018359536 37.623372636500214 18.194939486216686
50.82988183477033 38.21929677995963 18.244310225943455
49.257006922238105 38.360432701040935 16.484689793583655
49.026591683895255 37.17961592887769 14.190653522510264
46.214628959712904 41.153645088714605 11.96039417083185
46.08977266888855 40.72454719314964 14.356232809901309
47.92659365384829 41.25339460313831 16.253503915527354
46.39482553986555 43.07037870927717 16.811664181792263
40.5959510092027 41.328495738122136 17.099284444080084
41.60644820829074 40.371463257353284 15.091726347607212
43.30227079841695 41.15543446197407 13.633851667088615
43.96624004692107 43.485389864409214 13.04269754931035
57.505980918747305 1.7449750013934626 1.4040738663360164
35.50301093054822 9.890037868146637 10.364532650572565
47.50751199611097 38.4210204894444 19.12344213586814
46.03478239456754 38.26979884409475 17.451527270354166
43.56425445230218 39.476329258138264 16.921191729761848
42.336481223564064 40.62364580299531 18.754653741816238
48.365337861889735 22.787027439340267 3.591020807453151
26.51730302707228 42.22833629385548 12.791594358593064
42.02169502668055 47.85751005272084 17.569730180089433
43.308871430591935 45.97173139058293 18.493950681222923
44.99341606007347 25.88938690514008 0.3683902313198506
49.326967942077594 24.578421024598097 0.02076731987849992
50.690287243660464 25.483070329236234 1.8404900421235235
41.55832369507272 37.895308552445925 18.855131573596285
40.4511777581527 37.98906839333468 16.327711196633317
38.275493715253845 37.384201761029274 15.50232484615101
55.78725539488934 49.31315358384481 3.5484012253088917
56.80332759754 50.84197927841466 2.51264034088058
59.95621615955069 30.185734054305325 0.1347071023701936
48.46144048704954 14.340706633336364 15.203301160107646
48.133281823310604 42.117668593204534 19.24139749984945
50.636012028934225 41.05809719979425 17.576588262439525
52.645795294956194 1.1801373943639333 2.6816308680700542
49.8181422890222 21.864845847145443 0.9422548251160103
60.22654341463962 24.099564908360634 1.0351044586625715
58.533296006621484 22.19910871549737 1.2139092228250048
27.403269046768308 44.59972889336613 12.015493852593103
55.79157715110333 2.539434132542513 3.9821130169113315
44.46626442998361 35.1896227405045 9.366894270762216
44.582803903308644 34.6068476172293 11.601906336794393
45.23177899956412 35.96459563824865 13.824042643550703
46.591454089428446 38.017229898406626 14.219584898316835
56.114653207200405 28.360293585399937 4.142151937159947
57.708811871684794 27.322711371015664 2.5660718699944853
56.35876951306118 25.46554925029716 1.2699258019072972
53.633514183409666 25.477946596669025 0.8265059598843906
51.33339022021049 32.03338051617969 16.783548761450092
50.42097473102853 34.14119378878967 16.786984373191434
49.7186294800131 35.79978997115396 18.790534524447423
50.22311453104486 35.235699784363696 21.544755463712125
37.433177713888824 37.58138946804322 11.724509681528193
38.95870289020279 36.73789071982685 13.162755909840316
41.2831781297025 37.03839777508001 13.923908615872463
43.06100347464213 38.20218148093022 13.1079278497843
59.69558813373925 18.781276002978842 15.913634583175511
57.16042882288892 18.596627645144512 16.243584271754944
54.42690261636495 17.251752015240708 18.462889875391493
53.629685459175214 2.708752354150161 0.4655638183095566
54.06731835743146 3.8169860107464655 2.325873563967986
55.61421233066926 6.247992647017203 2.7944927771946486
43.731637104442214 31.35590385487365 11.786439616733615
43.39430292248059 33.079707647664875 13.60977921549398
41.13801157257731 34.381991624309926 14.29849398747215
22.63412196350923 40.69571620452729 5.547596984148777
58.540492540071035 25.03019905855862 4.4873851511797795
56.203480342096306 25.724004011510743 5.197475653904581
31.619226407822875 34.03714893056659 32.85099394799106
45.95564442550777 31.228084357742198 13.777024996993731
47.66204426470019 31.943291024122036 14.617420662759923
48.10193603516482 34.08835748313214 15.68531073173443
47.24810692258995 35.192022796639364 17.57490814941526
26.742397143838584 44.63238510316579 9.564930466109077
59.78605999884647 48.249166016067086 0.3997393771569081
57.73295812332512 50.04863618866126 0.23742787455452072
53.92931063589301 48.265871360499354 0.19882415851399926
51.83105584658327 34.160977083406415 12.689338710353583
49.40025466099316 34.689621142467615 13.10802642551661
47.288737309887594 33.57757567138827 12.316344613573472
47.01281609201188 31.522983347199304 10.43402322897291
36.70719040484532 12.354826292853573 11.024431175379526
51.8608124101792 50.10873267577143 0.311773454316586
53.960475609232674 51.72533583744215 0.11653537807312486
55.18431371731456 53.185163450116775 1.979625738016562
36.25043544556144 39.60866200430313 14.344743125903493
43.87880885417645 15.103904910189359 15.426548618826851
20.41101894990722 31.818320039023117 8.675318731070918
58.410194568086055 69.07735160197387 36.09900332249121
22.538979233696477 34.54278380302363 6.762314209904402
21.06176804475518 32.92548548992617 6.246835535141025
22.17097735615951 30.304899358558092 6.147094126505381
24.768063942483053 30.05581530846386 6.881696717796213
17.816662603318658 27.09535511306835 7.756772860332026
20.301522355227583 26.70174509572835 8.832288892468647
22.54735471917531 27.97494014717979 8.18210406390727
37.40293309565571 34.46695284133055 16.183709992910146
35.12212200058909 35.16558341530036 15.54991425825363
33.03556377811213 34.18904803734696 14.8886220365812
31.64482498048081 32.380445535515534 16.105061079623095
55.42924229182565 63.60702845652181 30.73919170838489
57.20849862272606 64.88323693299387 29.706984195149502
44.72737976568821 18.896029326004875 1.378032033748192
44.96568035631762 20.950495223424262 1.0984232970950458
46.93791900844912 22.218334711670348 1.4051851931074333
28.544823793617855 28.591493527454155 12.615963967773869
29.625587197867176 30.685427889220428 12.803250485958264
32.185985637086226 31.470353094153776 12.597589389834363
34.16284547877786 30.330296092468252 12.356212859466641
59.35234505289523 64.09346416579443 39.13133006725237
58.21737886661343 64.87966309043613 37.547473850003996
56.68492035810379 63.923016465051674 35.51796230919731
55.68937241987665 62.13437591522918 34.915568058744256
15.069689495467529 25.005116802734243 3.453803875966741
49.91083195717926 64.33605928656665 36.09453620806146
48.16454995879095 63.253307579521426 36.42942402091511
46.908148169116444 62.375106845565405 34.27053815852954
35.96397255481798 37.50891927071732 16.618741591526412
26.43923428184116 28.410324241106096 10.663450903560475
25.78679306974837 30.3924895676325 10.973384506390856
23.914592190017288 30.922867464170213 9.668262280313906
21.84705763961093 29.97499754162619 9.815188518633445
56.17750325460718 58.09780227071951 31.76298135206765
56.01544444066291 60.418856012867394 32.93085776390308
57.2659939772239 62.51566041062819 32.493333731806764
59.132577248992014 63.26674365612609 30.867361050020676
25.70732441812356 36.607766337471084 12.17609438561952
28.19999895604285 37.215445869657785 12.337309385082554
29.55016670976807 38.4161171724231 13.862892240383797
40.51729202957703 20.953466090545408 1.6057204633774402
36.29729630408175 34.769988809899004 11.723886597818911
34.15065106023833 34.567910390350264 12.598905344723871
31.759311008458006 33.712891311341046 11.262536396400234
31.370177615014306 34.007359175015694 8.453260266633043
54.62055208035461 68.21915400341422 32.77558837686281
54.74808169730248 66.00958410002016 32.613223272098324
53.154058090522966 64.32447292416649 32.199200284129155
43.82499316294007 23.599194311250766 1.678707892515001
49.90519134854528 17.31150748166917 0.6769213053926278
48.98943236130536 19.670668232706216 1.194157746607392
52.060653993254455 57.0321857323511 31.96721277718599
53.649329146758184 58.431904726761616 32.12669898927718
53.38905765690752 61.08151014730151 32.011314862447655
50.652956857247126 61.982645764938404 31.68309879666794
27.1694973332282 30.62000179652015 14.440349068620513
25.667572339115615 32.26758088794068 13.882778063591632
26.916489424583002 34.08618969745999 12.201388657835956
29.269934672757316 34.53005504343029 12.00247916263205
30.768505939619114 38.18230989753168 10.73226018561577
30.316127986690013 36.29076102601183 9.511801145509605
28.705871027670426 36.14927637847163 7.0841117072716315
27.056187583083723 37.74992864524875 6.478602993656165
33.4563890990169 15.60720165557027 0.42240601760936447
38.82841595291254 34.0704743878962 13.723313292074309
58.44168433347563 57.178249036528754 34.344583598478565
57.42194994970839 58.960251320565334 35.056017818608254
54.38905340894815 58.82595575432745 35.7235891206026
53.21462461439127 56.89575683285198 34.931359549104826
30.46022742513534 15.152587120387642 1.683086608864437
37.9979693809082 21.417491526513373 0.4892327146205353
37.62338776094867 19.67011863338283 1.9828642329959436
36.58485977320639 17.38001479031093 1.4701787077555235
56.928651326197354 68.17293831588826 38.900524926319235
56.677669552488524 67.07514268339578 36.70076649972651
55.068795615824726 65.97578632202193 35.63673804851256
52.33361138315 65.98588960341013 36.044016525888985
25.600728593205716 37.78165547316176 9.736855850014948
25.111558552733605 36.44423281336524 7.858875715050113
24.29317025941807 33.98937594380275 8.751000120877151
