45.118457632122215 44.48618913261193 61.57659798679648
46.29496481270212 42.58479572595901 60.56899334596592
45.75354744352166 40.16883654874218 60.674777927016265
24.934482206774277 27.94790701817203 59.80791243345004
23.818356573428048 28.514301282619808 57.775038847260504
23.834219774640395 31.214480852930894 57.73246799103099
25.541435370849772 32.712394123354834 58.371912662281794
53.90647045178044 59.31183151445401 39.448046479567196
42.036560279236255 30.293963306978256 41.08175586364376
41.10657305448567 32.19810163506359 40.48175434332916
42.320688298125816 34.54798592368402 39.386499302590316
44.320351995075384 35.5370765747486 39.94509636880077
45.638547019960946 46.130724253747495 13.878726994106527
45.82469397538574 48.72043778041332 14.732917873606416
44.58142423416361 56.461199925222466 43.6573920567969
23.362987457426385 27.59951454025221 16.020662410964476
23.991839903230566 28.514779882303785 17.571566073104876
26.039205087063632 30.432067684529528 18.161038429740678
23.444039942249404 23.471212566133115 17.40572095439131
24.1893541978864 25.53307170011247 17.219252492465195
25.266189247509928 26.944192861572137 19.69173442930504
25.47197476533573 25.92797006952291 21.625552900200336
32.669346541157076 24.028795739831722 37.32338947464794
35.98542196291504 28.74805433911382 37.880717676744794
32.563473168888684 35.02338529782567 38.700637028104865
34.48055114578432 34.81887641708247 39.70902918913577
36.59216013582886 36.37815622592197 40.190772437511114
36.67596481784325 38.51009830022754 40.45256453812618
18.34408487657044 32.80983170892369 57.90846286873586
20.511773020233218 32.87481767944896 57.61308945104331
21.601631854973398 30.807481015816247 58.89700438390348
20.75239809604777 28.35998612408588 59.21612966413823
36.749443514282675 21.967537972367893 41.59388461837613
35.57578365390649 23.51574375751784 39.89736199476888
53.045746554186515 8.02050120678768 40.31725127102123
51.20542560756511 8.717112188241313 42.104814381179764
51.832901641509714 13.187887251303273 42.47484948677895
57.89959521899684 56.194069487723254 34.61628593431839
55.816280881172055 57.416502899214784 35.61891494149914
54.37680421871438 59.03737704432429 34.764153139997326
53.75329822865656 59.7996920840638 32.08622579568983
49.85123787434171 47.51318395132479 17.78851139309229
47.46212446063007 47.3578423212894 16.464867943749926
45.59816745227487 45.570479600842724 16.491825962788372
45.19260429041149 44.12218990363314 18.875452637809477
43.856443707690204 39.81268419746721 22.053593943761044
46.07100512840035 39.76502474940845 20.8345303753971
47.59395436752735 37.87017755318988 19.97309314802373
47.41776234706373 35.56680016956606 20.45174925137335
49.78521013707782 53.006187274737435 17.931714081406085
50.65816659572973 54.52956265361843 16.275584511215232
52.33957782460711 56.44302251201995 16.169109798340546
53.98943325650143 57.18755104386618 17.955842044228227
52.44074586111975 53.995390434549144 14.063708147570548
43.32876232248387 59.5611000143526 61.53211408469198
43.870468631710146 57.237874948192356 60.509596761785154
45.19791726767113 55.2816990757303 61.56410971196105
45.00011178306956 38.373345008121255 41.7873594205281
42.92515589841432 39.466882358790755 40.97074974116031
57.02744841908275 32.417276186517704 38.800730584732776
50.83587197940235 28.200356047687496 17.428322577009258
49.2559110628077 28.631850734349072 19.30638652174768
48.49910509608939 27.168081730799603 21.50091389377248
50.02722337928544 25.707220741922438 22.779397185032106
28.22391305006461 13.745310495299025 19.980973695592496
48.48578920495311 21.806287623336157 18.482474460122088
49.41568736259755 24.177691882397294 18.198261780108478
49.865442845342834 25.655110210129425 16.134033584886623
49.23250973916394 25.751777235744584 14.01662957794229
53.506190233839845 55.51526754497114 36.08820866812364
54.58242822559412 55.36623846927863 37.881407078449875
48.25437761204868 58.08758752593964 59.99382042480817
49.399263857527025 58.92619951461536 58.12420919065207
44.04045551256934 15.327400392831397 28.892882690417196
43.39493532796586 14.92147299423433 26.70389649004434
43.40184925780154 12.537848770448903 25.279848020893038
44.156591194381186 10.410169575339205 25.633387737120373
59.28102171779522 17.428180816002776 20.208406253477783
38.32254934383412 28.456908024195766 43.55685017629593
39.09272637352407 29.76926291654919 41.7502477779324
38.467204304811425 32.306340650409126 40.867645941664136
37.447230951357355 33.84579501953097 41.79623444684313
59.54537640200792 47.909821469670725 35.770513586786
57.36396309607945 47.73632868104239 36.77520204265761
56.243736511369725 46.149111064576 38.52982825351363
42.66076728687835 49.196547872222915 38.624375138353685
49.44532674431351 18.879278791566616 20.211682329966848
49.12139159789168 19.85855680125623 21.79687917105351
50.0419472560438 22.62795835257075 22.14166216042108
51.249819696590926 23.66627917548174 20.37508087121676
58.34634921618606 0.6175291717795879 53.05317241543962
16.816399050817544 27.38195013488896 60.49578160941768
15.904302790046637 29.10500804537711 58.730508883282276
13.297406472614773 29.194777021416602 58.33987858599289
47.20569284888431 54.099821650715576 57.473221413667495
47.12412303762404 54.57013809962673 59.70934743023159
46.19934548984013 52.752746455894496 61.799389199231484
51.10209427559227 32.33940010946129 19.42973472155868
49.005994363452515 31.533487877594524 19.477453903790103
46.98345112203405 31.223074443714612 17.904735811472907
46.71118208444598 31.223211911824308 15.516311001802457
36.39469910851133 41.75839379650191 20.30179842310692
37.69305151450363 42.95253831645863 20.943110419692673
55.001409710397354 32.67966214195386 36.994759244436665
53.22068497012109 32.54910278066479 38.58887824391656
51.958465615097616 30.36590776667617 39.7247278588972
52.413278532175944 27.921933088033164 39.466561090653805
47.452837436801616 36.3559189323979 59.88683778459943
46.560531222698415 35.50945398507731 61.85892989919383
42.75591228920375 37.83196349463368 60.67486091434362
33.72482912018416 28.871678378857965 38.57144987264427
35.44368684379277 29.78818929700588 39.311029515149194
35.48158581753345 32.41136480904672 38.66313004902547
48.91508005550298 29.351678347795442 38.643684907691025
42.47010363137397 55.45774982496945 55.19954400539856
43.36275908119604 55.42663508731386 57.0852639298357
42.335841674709016 54.993710961897456 59.16404250900033
40.5421046476593 55.65627222480564 60.404917144768284
30.636961413662483 13.078087304588891 38.15334169098974
31.925208465957095 13.220313615638402 35.70901433345918
42.37391011452022 52.22643750040333 60.12398167922834
42.700640407346846 54.31279799151824 61.775537045972875
47.478650476445246 50.26870291810308 16.98123765253802
46.1168594191304 49.0674799905423 18.387016245265418
41.11363761680902 27.972491273079907 42.8219861527717
40.32594438721806 26.45889992793962 41.08358464486297
40.56450367854374 24.144311138573016 40.34532881125874
29.13440625253902 44.976695824480544 55.76230526573699
30.792781503651888 44.540745118216094 54.293188793119725
30.26384152828571 22.91640875380355 36.23147537016238
45.80984417577805 55.58573417026176 55.78383537692165
45.66213224469359 56.41242965642325 57.898699162758646
45.280538554014676 58.89050299550531 58.95490297850308
45.069097909317215 61.18159671381734 57.69459452100773
59.73297276610213 3.5672442919627865 25.287482415242863
59.85105377195498 6.227594033693337 25.46352461069358
59.79630040745795 7.843272470306549 23.151259132826493
59.32234406892427 7.415554668570125 21.023890811752906
40.68285216196466 44.449959739269296 17.810248844651774
41.82115285983033 43.607303669871456 19.69293366512302
43.83247052292683 41.520610543539426 19.883865709912808
44.33075127455258 39.81575492188718 18.218583257677658
28.544375426570035 25.068672311518924 23.471195875592645
26.47986375540371 24.33784319581919 23.606443858104452
25.677951553983483 22.338305792894328 22.40453497536537
27.016652646346706 20.217236508898164 21.427775578270694
23.374946156741874 27.85826397440885 25.3702826355197
24.191467290148115 25.606452857671037 24.963946026638357
25.726376506913702 24.108018169812755 26.572385290654832
26.048760087960325 24.27460787346816 29.129044335200224
43.19722556183889 9.404455156089805 61.595477074846265
18.980760029798024 24.268352888516112 21.356125379527736
21.338539277528376 24.51224521859781 22.50614421897063
22.008919100818176 24.200817301913755 25.0901781557921
27.41482970451233 20.704408842625323 60.83793588330044
25.278422787162494 20.4311669435587 60.91995342394617
23.801823347932633 22.5268333489374 61.34660183134938
34.0055105305056 35.398386529461426 36.16492734956864
35.217195508250306 33.892392826080865 37.16183122213834
35.89095933380173 31.23866705586821 36.42666138152796
34.444403521353784 29.920128106636867 34.918399428384866
51.366733208750325 56.81797799728429 37.724640454406924
52.615421276193345 58.426331747104726 36.98430546883121
52.60506254626 61.07006484563613 36.78410921106783
28.99430137718292 18.66978948228264 58.00758276447521
26.970988619829214 18.710933710751448 58.635919902456074
25.423378596285172 17.044623952350893 60.36655704352762
26.377080630229138 14.98445136625131 61.61237158238393
47.50911487638316 0.013631155463452494 42.5498823698069
21.30491455993835 21.886598629659147 61.82688388060309
20.20918421466835 21.14629399728786 60.34542840295879
20.493679839797505 19.358997975688904 58.43115327293547
22.366812873316974 17.779956430601263 58.43174683514057
48.43401142618731 34.501925937908375 22.74229345448519
47.48779499178345 32.48877302995018 21.434399110404197
47.877834177189335 29.960502823887065 21.808240592429772
48.22017724984203 28.64911110665618 23.707292077791386
25.00515306702865 42.00995325754917 61.24006114370575
25.43970732811082 42.117964836615094 58.26963907807031
27.89673732329445 27.785239229067905 16.49421741130202
27.475052736071614 28.330495682314137 18.860074948136496
28.020607549261825 26.19896220267669 20.504667388858856
29.488637364976302 24.27816798728819 20.419086647049657
37.91665856829959 29.00787809397192 39.29783486073607
37.12607743654424 26.633195980850644 39.06404760731689
52.45553551429576 20.3668628080872 39.89477320784157
49.852152913446865 10.191042585688177 22.12904823290663
59.32695727180501 14.997284322162127 24.98443960624205
59.45836881473249 9.10191312393603 25.914629347918456
44.29913560701802 21.03194717664582 22.16676650956619
45.58555206663469 20.259155079772977 24.029343688021918
45.247721419288254 17.70005399264931 25.203457297756238
44.82786457686311 15.598517048679172 24.429299019250152
37.33088180511266 21.86328942061385 46.465284291968736
27.348763425742728 43.43234484513034 59.91345091714405
44.88787296010311 2.7913851683682114 24.357369697309156
42.71337643288273 3.123576937269418 24.400616971819765
30.7184262651825 20.336590854094606 37.54052658245474
43.910521982294334 49.811529132795144 43.01702237117259
43.46406798306712 50.381579467430036 40.933777040196375
43.85861938466722 53.07405592746113 39.76480581736727
45.540290654975884 54.72636369640385 40.4495334232222
46.20496322579716 17.35984722235579 27.916506163949816
46.73718303294345 15.00033668707614 26.355085341498178
49.030257775331165 14.154471469767003 25.789385547316108
50.18523139330518 15.88940585058163 24.01519696265283
31.25799229380933 11.527519370407505 18.59551420468211
31.223649250832707 10.12383451971174 24.48026989999827
15.754374068542845 32.0828347794654 60.2272676526922
17.732576162702944 30.910878798027593 60.267193456853676
19.991901158856635 31.01313475512257 61.41265863146809
30.629314476512562 39.6146360452039 56.75916750763799
30.08582229657987 41.679649374782024 56.22468673236008
28.001807481762178 42.60171143993069 55.971343985635684
26.72761902125303 42.04954433929697 53.91723735823232
47.414694958491815 5.081879648789018 19.52142301593256
46.08559891596069 6.1699592717822265 21.470655873833188
49.61192615781564 47.03274263561495 23.103618322965755
48.092215920058074 45.82057549533479 21.78634371422776
46.27711135616588 47.23768973935373 20.702914476650122
45.511373909669196 49.49591309198942 21.25955152246575
32.47031547410363 29.422339410963566 36.947450858701714
31.57219748575634 31.671780124103176 36.49884699611656
51.922219815543095 37.734027477409654 60.36270020832107
50.12111943169308 32.24058394469807 61.58973959408613
19.380482097154495 26.269311306539677 60.84351700036289
19.754990990985775 23.943163465753837 60.96544954284281
53.09425658881098 61.89132348809137 34.107598681338736
23.86875196556792 15.478351015581506 55.77762735535457
23.694861759818284 15.328566035573294 58.389390462682165
22.279980406060307 13.997084597017144 59.6779667267786
35.30776901128729 19.71116086359106 41.385148395127004
33.796903547234905 20.805058674384256 41.60875633915307
28.151004798053837 18.901845020848338 54.98696257458433
25.93630902671284 18.25671605724107 56.153370235518125
24.152463733690777 19.70385382476913 57.202695238780834
23.303409088417556 22.002465121791452 56.50335624767942
51.408311889911765 51.632264997164405 12.494167618023264
49.762936155040485 51.2236812889018 14.079535333753652
50.199934630182426 50.61013075131465 16.935009512955084
51.690489355600995 49.38543893283739 17.828862608954996
47.62769381725143 44.76730675869643 59.611176355630754
48.763308005373325 45.16041253986737 61.77431292658415
48.8011065350593 14.915908054886014 22.105849381834716
47.97690140153403 16.916780322419843 21.714341852166747
38.33453731398195 44.264797290619306 44.145869150027714
38.60785464971975 44.18602243558672 41.99287346845359
37.20373671514385 43.24335398600504 39.80876550699662
34.885298094541575 42.42890664174445 39.771588540284036
31.538351835785363 36.56648161717785 36.42287052064141
30.563192351349635 38.51459388236762 35.04540279456587
49.40484475691814 6.845403146884086 22.974051855719193
51.15897870533216 8.77075346155142 23.95165949447976
53.57561260953563 7.58749431294945 24.320489314695433
54.1694485769562 7.874139869074748 26.689275159922637
56.23662103056713 37.92818325132873 38.8420504035355
40.21000375768302 41.79654384138444 39.10837758392781
37.96272304677376 40.60621748525964 39.19840351757601
51.17820071246529 34.84045175577287 39.04534477535271
15.065120789587821 22.617999919542097 44.60508730117127
49.88604751027305 55.751180235409024 60.775240756534316
49.60366657372727 55.516054615412145 58.45008041376127
17.382267761100596 28.263440622110256 39.25635012703499
24.937998942313964 13.285180581151543 60.01218281985859
35.48805373724216 7.440220206051998 62.04330020120632
26.7893770983625 20.666787954694378 18.818474963133134
27.854393123256965 22.71702136346415 18.584537694886297
26.788171735095947 24.388438995099726 16.871448392110107
25.118070419389035 23.597222669742823 14.642977919381993
26.897913407195087 39.554281468270275 61.08680234611763
29.17256138887583 40.149105971278296 60.51964232426277
14.400647472854764 25.290887826917334 41.634760699710625
24.43049066234492 19.636116169948945 18.703962685219704
24.05545902674645 21.87940034240723 19.542171798577602
44.25572318382549 40.87900833964125 24.596728272963734
44.92467632098969 42.35234282949028 22.560441651613388
47.215894152697885 43.186737259384394 21.81091166156831
49.57751129495989 42.824880577628115 22.529136970422577
53.841771169969604 2.105439672022735 42.839311657307725
31.443053725506417 40.926006732101975 59.656419333903116
30.114611053752338 42.469868214573474 59.23918520153926
30.306693014317148 44.97762728402602 58.716202069507396
31.970464524808115 45.66335534437898 56.57538442553052
16.21562237646171 25.4847223574822 58.4799324262658
16.52427781769114 24.547319956966625 60.35626774313532
17.17333053730704 21.670591771116033 60.50463660639666
17.717958181188642 20.22704108752194 58.54154589115694
21.681155595125446 22.464721585365723 27.559868513130862
23.88246058751982 22.066482632187185 27.348262534017117
25.160293156063492 20.843829546748776 25.333805269804476
24.68254338943641 19.710200910265826 23.672887711982852
55.636695530027595 65.19089273220227 36.58865077902617
54.17350656405315 63.51504204483912 38.47412552361912
19.041373078068947 24.879519694855464 58.32770486911858
20.29251687334971 23.013230179295153 57.45205137621124
22.87484750303682 23.179309750690113 58.89599851651137
23.94566720352306 25.23427239244828 59.71408077766124
40.2741113777388 51.994127559440685 41.92367822896974
43.49928992112446 38.835562033598855 44.85541788400765
43.99377678466602 40.266021098105725 43.450653870239464
42.83765491593534 43.0830626749363 42.851357389667214
41.16676593794161 43.975988558834196 43.952385245038734
22.492569961486588 35.03043390252794 60.149567600759404
23.631554355420654 37.6100675552191 60.077348302487785
53.41213682760772 17.73148927018789 51.33748153399223
58.83933260914056 20.416513939120247 51.3372508224279
40.108243728698795 33.97697191644701 42.7620506812921
39.70732748571856 35.035526314132525 40.54391323782714
39.77229968562049 37.47075828574569 39.781719161444286
39.94924602904981 39.53721789187637 40.66230089674648
50.88996299264548 43.79236888384615 60.379117441046915
49.597265531004446 42.54728489135348 61.937967897148795
43.5461152263965 29.99019135926193 16.17324878832838
43.5400997270071 32.02725670822485 15.429245727344355
44.5974240240481 33.34797011734656 17.184974383195165
43.79940786422006 34.00012002820909 19.355021896850452
25.629841474798663 38.01204101702097 56.37584155916898
23.33430429546174 37.57022136062719 57.228245282177824
22.16437508559814 35.30481408450199 57.281738007596424
22.698257027388184 32.90097849829263 56.02334708417834
54.38386357574636 7.126303505388134 42.71622004918722
53.81450943077303 43.51488409445773 39.82923715041842
38.91477256954883 46.113889161642575 39.199349923890864
40.74395958077858 44.00871650886324 40.30892646588968
43.012330674603874 44.52625506300443 40.36195235254512
46.703348360920074 12.384285864397532 22.122446488511113
44.45187113607769 13.643333771865656 22.720363905907817
41.13059443364219 26.340971617411885 24.84569299749228
42.83638212659623 25.183503566659795 23.987332632957592
43.9712606133939 22.7726263537546 24.420704466923763
44.09557764277818 21.212981997657447 25.932891155039457
42.36469484228305 8.929151173736205 24.070030083565293
41.275261155450906 4.468874057382994 28.864494857539427
31.545883340376687 38.05426123507721 58.94934133608121
29.16895552503913 38.09876533918087 58.610526911848766
27.352956504947116 36.42039244089759 58.04170047165519
27.74014090082607 34.10675765239249 57.68440252054877
42.05858854520062 47.7822917118326 23.40589847118067
43.89830572507858 46.77700143112889 21.88752391176863
44.12591364045452 46.7251405198795 19.365120834492526
42.58445798490281 46.56879091576889 17.507572688591054
45.996902534436835 23.711054401903645 19.53543257551739
47.32057010006562 25.75445182605592 18.96985016749094
46.567187060888465 28.231162807969195 18.340090590368582
44.524773401612435 29.28602464214716 18.841174901545035
40.2009204500038 41.96143848108424 21.54859277517441
42.08613336286475 42.2838273815987 22.007115106340013
42.953247110598426 44.27825877445808 23.945186343736296
41.37909859000298 45.924124278981076 25.046487315848026
42.94454733837281 17.73927367659117 26.824803627617342
44.276353796764795 19.26846659875092 27.938527753402134
44.227509231125495 20.18006716122324 30.54001140744403
43.2084750365486 19.427850486336382 32.38381654833163
21.746366277577277 14.84685295359939 61.964228776866854
47.647223140410865 14.0585230360252 41.58686108038452
51.307533073810426 17.104253621607704 41.4701475346733
53.62195777610665 49.43758900232492 35.74358161480442
54.32979461618746 50.52908804086104 37.652325393709035
31.53227534871212 34.5693389585306 42.05861436297806
33.49438225846464 33.47774265206069 41.94270792624158
34.320920367538726 30.92483247167391 41.71339663612648
32.809508682314785 28.870750003428405 41.991582615704644
32.17596526963293 42.00894591694101 35.17112382818058
35.237061690307634 37.360824601005454 37.557867786954915
19.030049082358868 19.983114451044496 35.653082111523034
38.222378894503954 0.8842688341578051 43.2244879255088
38.72534742119009 0.2498762531472401 45.83602986573038
53.41057388296821 10.29129077800641 48.26990859471666
55.90015126285053 10.401757411225272 48.74708732437525
57.374376310200866 11.917778449567555 49.5157893884357
36.464934048378126 46.7000328866006 38.08620804388345
59.50437439738152 10.26512555669115 47.63064303623057
59.7657029150194 8.090781331759938 46.96900994893444
56.77367188466715 8.779734305727935 45.17833114100319
57.26018635716413 8.115983782320734 47.274060821717185
57.18367302317402 6.1743182827879 48.459212272869806
56.375982375821835 3.700089825371466 47.67866324390879
18.378029143115956 28.214989543271447 35.71310720639737
58.14677342497919 17.861485415042022 44.54654420198614
57.04192991796202 16.76101707055302 46.809765410464436
55.052965301467395 16.839370444288832 47.92464703123793
40.023917186609474 3.1946209532121728 49.73077966279021
37.960155760743525 4.558462761680235 49.098898308079626
36.91341482344462 1.823317502232102 48.371826526615465
53.88489637502305 1.2953167778013261 49.98792065758942
55.950828314442994 0.5123090373953164 49.88641275126839
58.43178881498898 1.4809004548540745 50.54030013381547
59.062866040177546 3.9128295721435284 50.372246885416864
52.89658295832611 11.866865827660824 45.78206481023145
55.00941822426375 10.695037867680487 45.91611773952633
57.235835265882756 12.50798989657378 46.270117255134565
57.370833596474036 14.557925689719589 45.45112665805545
59.57277751093116 18.698178151747317 48.96261583857921
58.22225335938423 16.9068106467162 49.36943428115827
58.39806411846066 14.24171573177899 48.22519301566371
16.42710886714139 24.52278465753433 35.93024431420416
17.874205979766725 26.076708440112387 36.99333821498442
20.189559180889262 25.318995721218183 38.117449913725544
21.357560921394835 23.18753320637593 37.87015152808761
40.17487340802482 7.007461443733163 43.82319193615923
38.468945775131424 6.1900094131749785 44.96057244826678
38.25329971245097 3.989078811396468 46.54183458687222
40.093462192209465 2.384425570127642 47.21196622747706
57.83465809867206 0.8211400797963014 45.589494531937106
55.86849259559908 1.7631838912336983 45.54551668925349
58.96414995893131 10.839071273630166 44.95565060402591
59.88432978213043 24.501055516363735 45.09999581832343
59.131537117610776 20.291312391879615 45.24263016480792
57.762486100835424 20.27739510359123 47.00995590430025
39.550453771928474 6.291633475462473 41.229029389057146
54.72042094972883 19.173443515010277 49.44728136635833
56.92946044950114 19.381698525810435 49.324275568668476
39.523192032731906 47.70107789789744 38.21895488216785
36.26551142350209 2.3943951258113017 44.65224140619305
35.309147486678924 3.053516849667817 46.515467807645464
59.44743101695536 4.315492114369681 45.71521556555181
59.00019219273146 2.9861729985684766 47.37929221593415
60.17625851093351 0.8790495775285947 48.598015883694316
15.981753607466876 6.450770869635961 31.540834681519122
14.776749264977243 7.179375489330819 29.7501480382137
14.032342726311159 9.438368277316162 31.37459365456227
16.274629853086385 9.027853609613885 32.996600802251365
8.064692180480565 7.223275120096927 32.538260178738604
9.19178764572158 6.407313500923725 30.476702000531404
10.330213036220124 1.8681935251850377 30.791076223551443
35.92792510588799 1.02713401872345 30.40550133133997
37.92758880283757 2.016224669788032 30.964098397550423
26.170709976650848 1.5025333928650797 29.7196390568545
28.08778795354649 1.298024512121902 30.728031217885423
30.199396943591037 2.857304320961391 31.209774466260757
30.283201625605418 4.989246395266958 31.47156656687583
31.054467759119532 0.3249431145704145 32.815236475592776
10.390802878584683 8.976324872830064 31.917800438567458
11.643118305330955 7.220863027061245 32.166185974355336
13.269916900629626 6.4672071182022695 34.23301529005981
28.492534902303735 8.908054736783853 30.79059056903368
31.569959854535924 7.085365580299065 30.21740554632567
33.715480536460966 0.4561200114864403 33.781052710041756
33.31456429348071 1.5146744091719322 31.562915266576788
33.379536493382666 3.94990638078511 30.800721190193936
33.55648283681197 6.0163659869157895 31.68130292549613
25.13951215647428 1.0484870535700306 33.07761639172772
4.158398191305513 0.9296316152307348 11.626972866138985
4.819132662378561 2.156817536772578 10.049968337066058
12.722309106317091 5.392641518343301 28.877680958835168
12.727491555658496 3.168644162014949 29.28075576625523
14.892073138161187 12.692393521422506 28.55467516010536
13.808704605105364 10.698507795023131 29.512909038434028
2.416155499022696 0.540353123614319 9.571328881384282
3.85868960405779 16.25944005424141 46.86909173892752
4.357078072871866 14.009176738253995 45.10006910557656
3.0430838950460117 13.087805456571019 43.57075259377691
14.790541199022002 2.1743794510056325 61.733691141217555
1.957558698889993 1.8809727787459234 51.516294162384824
3.6080978233014473 3.5627662480597553 51.897411856579446
3.5833216285039833 6.474706764904563 54.83559522521474
4.122618092506261 7.738195068941166 53.511296897002836
5.5516615280489585 7.139372954951722 51.30739376213506
6.336228360324344 4.219834234610937 51.331878963125305
12.519116051194734 19.955641456617673 28.00218698266128
11.548828059780135 18.62392125774162 26.49527105935842
11.810156577418029 16.449577032810414 25.83363797206228
12.645133873522823 14.292812085886467 26.806124927661816
10.047794032468284 4.228393460687551 29.566729279215632
9.304640019562733 16.47477948337121 26.138688844845028
9.228126685572622 14.53311398383837 27.32384029599766
8.420436038220446 12.058885526421934 26.543291267036626
24.183627679245607 0.40595199721443104 10.958137232533442
24.07345754028598 2.9022060961010876 11.042444684156074
25.06946685324272 10.83417844722133 50.08349768751533
3.1501391843614446 1.8798227514100563 47.141187751530055
4.857354780570813 3.3777360218339822 47.780632422780876
5.3551244967846765 1.0974095830086767 7.569758190239748
5.968536602940328 2.755430935544121 6.31823160917496
0.917551264694456 1.4728229142954008 48.30572414440257
29.577966646469736 2.0647979618776113 55.33733239738141
26.89524871644162 0.6763520050089642 52.76128800598218
26.657569889996502 3.0686825945539464 51.524300959985695
24.914086861995933 16.235821499321894 5.900545723287451
24.508523700132546 14.7875318021123 8.284172398308549
23.172363117411255 10.478026095946364 11.462313704260117
25.3869245381214 10.430366647887592 10.24325013589617
26.909873777248393 8.535519451669023 9.381812908522798
26.73368175678477 6.2321420680452055 9.860469011872425
7.215011225775301 18.1443274871714 47.271258846018725
36.343367828803814 3.0826180849968745 28.209450345231854
58.91150221848949 68.53966960559782 57.6823600036455
30.41801368531333 3.004742007940437 8.838454482057754
28.32191377317358 2.1988297760736963 8.886173664289172
26.299370531755088 1.8884163421937585 7.313455571971983
15.710618518232389 12.423735694981074 9.71051818360599
17.008970924224663 13.617880214937772 10.351830180191739
18.16186385833923 15.686685634023862 9.812624060408748
17.856777427096514 17.46470359376958 7.910820064892064
34.317329120118394 3.345004040433024 26.403479004935736
32.53660437984215 3.2144446791439494 27.997598004415643
31.27438502481866 1.0312496651553198 29.13344761939628
26.768756846522667 7.02126083087706 49.2955575450985
25.876450632419477 6.17479588355647 51.26764965969291
23.36560506008057 7.180927840671758 51.99633169761236
22.071831698924804 8.497305393112844 50.08358067484269
28.230999465224034 0.017020246274588594 28.052404668190096
31.41164066902495 3.7199479037687904 54.09374551885862
6.467071526009787 17.035260337679933 44.91904094760116
8.450325662260068 15.642037722959698 45.17102502623606
10.108700913372923 15.206087016695243 43.70190855361879
4.411375821617289 3.699540775744479 2.3381475892040915
19.998771571685708 15.115301637748455 7.218968605150851
21.137072269551375 14.272645568350603 9.101653425622098
23.148389932647866 12.185952442018577 9.292585470411888
23.64667068427363 10.48109682036633 7.627303018176729
13.321429940226656 6.063728427940576 25.573647110067714
14.533114917971352 4.557734724560014 26.57055098263741
15.20687874352277 1.904008954347364 25.835381142027032
13.760322931074846 0.5854700051160294 24.327119188883938
27.90114626317943 7.855102032458149 52.045575200452696
28.154051065098837 6.217842188616745 53.986044611435425
27.749930835908362 5.167267836387517 12.151013214984275
26.803714401504482 3.1541149284293177 10.843118870903272
27.193753586910375 0.6258447223662131 11.216960352928847
2.847303523299434 11.57746387310567 51.66403547195763
4.321072476749694 12.675295156028318 50.64878090420482
4.755626737831867 12.783306735094241 47.67835883856938
3.7402219814061994 11.373969006477555 46.09310623671541
21.846741646207928 18.6712234484273 4.715111202873698
5.929350037421669 9.654112478851806 28.852548680717263
7.9952819768416035 8.871104738445784 28.751040774396238
10.476242477387583 9.839696155904557 29.40492815694332
11.107319702576184 12.271625273194012 29.236874908544706
5.973630895624674 19.57040255479318 49.14409046281932
4.001016137342051 18.036872599139823 49.49247271503667
4.6715457248740755 15.305660669774754 49.393446737164425
6.6646828354637755 14.097686743609497 49.322170677643136
9.945233886233616 10.27997794368306 46.16788726813708
9.401741706300921 12.344991273261165 45.63340649285915
7.317726891483234 13.267053338409847 45.38006374613476
6.0435384309740865 12.714886237776144 43.3259571187314
11.786234883824688 0.08768130944272011 26.35617061920079
10.888116895477374 2.337122022582323 25.907566756615637
29.802136777167807 4.593790076718641 52.17262868583556
29.43703884141413 2.9059258431772212 50.9984593545852
7.930505684233402 8.386691977154015 6.540014178424254
10.04481247655468 5.019267581171413 26.84311095055391
10.854271245506428 7.2318235156570125 25.831590281140485
9.879111761070675 9.17993578084677 24.454122555064938
7.912946257997703 10.121979592284173 24.410144712381335
30.49412012218634 5.505793654252028 28.454064535851785
60.007355775255384 62.07296969703519 41.76469790849895
56.88501862671863 59.04713993106431 40.99679212064536
59.77705725472107 55.817919666379474 41.798036632092405
11.741101269758648 17.15767940667331 23.284997929649517
5.771104974132285 9.994382051944816 54.77124494155186
4.901055961466807 10.25684547394428 52.72207949462494
6.21383281691614 10.21962336674943 50.4955221066167
8.48848079859687 10.814447869757451 49.92836208476185
59.23322037741306 69.02244310972394 40.72396078783523
23.571642593546535 11.544350238120414 14.00544803346281
24.240595730710734 13.017684727969428 11.969161412112465
26.531813562418943 13.852079157863544 11.219631422067387
28.89343070468093 13.490222476107263 11.937856730921649
10.758973135227459 11.591348630581122 49.06513909440219
9.430530463473378 13.13521011305262 48.64790496203834
9.6226124240382 15.642969182505178 48.124921830006464
11.286383934529173 16.328697242858137 45.9841041860296
1.3001370892597062 5.519216634465652 53.75189160464539
0.8905644169649999 4.673007241867269 51.8468545737523
1.8084893712076322 5.695775801007086 49.55828736125847
2.9474737651417144 8.27540945369826 49.48606806298686
22.862034636117553 0.6555332577410836 5.581968548827452
23.91334343376914 4.01331201582571 6.59369414369423
23.115327273941112 4.66546192668823 8.763741657349524
4.945760884519722 8.677382915500113 45.78456131966806
2.6502237051827757 8.23556325910633 46.63696504267689
1.4802944953191919 5.970155982981159 46.69045776809549
2.0141764371092314 3.5663203967717907 45.43206684467742
10.861802750097738 8.719603133556362 48.3580610965803
8.484874934760164 8.764107237660006 48.01924667234785
6.6688759146681695 7.085734339376744 47.45042023215426
7.05606031054711 4.772099550871642 47.09312228104784
21.37450795492166 18.44763361031175 12.814618231679738
23.214225134799623 17.442343329608036 11.296243672267703
23.441833050175575 17.390482418358662 8.773840594991597
21.900377394623874 17.23413281424806 6.916292449090141
19.516839859724826 12.626780379563384 10.957312535673484
21.402052772585794 12.949169280077841 11.415834866839083
22.269166520319484 14.943600672937228 13.353906104235367
20.69501799972403 16.589466177460224 14.455207076347097
11.491884679353978 12.67428781542014 24.57984358867965
11.044645855130089 11.344968699618954 26.243920239062003
12.220712173332124 9.237845278579062 27.46264390682216
14.552981100028692 8.026166499484606 26.966587547453994
30.1277220112085 1.9565013400054254 47.23190492014328
28.243465662237107 0.2910644211162745 55.07085173893396
39.86151512166676 4.580171582939168 6.777504816950019
57.80191724335035 18.61721222864563 0.9980727247474147
59.24088954688246 16.88304538487312 0.07772649001584957
57.965554081220375 19.847825057781815 3.6214317884341813
57.722789782204515 17.420839670742108 5.828250763734015
58.39122173894893 17.168818979681678 3.585807708427947
58.95887813103731 15.061450070002287 2.16277928395733
57.84453563713583 13.287742599238674 1.4121735459392013
39.62898683224731 4.79871290287015 3.540332858956105
38.93241855714429 9.097508097290545 6.030175327097065
37.12233885489338 9.959862836347188 4.532911978773418
36.72400873373995 12.23201578271615 3.192218344549558
38.62118903642881 13.843712909538462 2.5628268467866273
58.160633881123786 12.334839537311995 3.912010750862409
57.88110238666822 9.871049022166854 4.389193321645899
57.9079399013239 7.880116961794867 2.9246658322704127
36.79791292493944 22.953553330335613 3.2238514419988737
35.87886931690626 24.670406795775186 2.162742647450712
36.06525520440612 26.99854069953308 1.6739323513940012
37.715794328817566 28.680334168846898 2.0550500455886223
37.691018134020105 31.592274685691706 4.9932334142239085
38.23031459802238 32.855762989728305 3.6689350860120147
39.65935803356508 32.25694087573887 1.465031951144231
40.44392486584047 29.337402155398077 1.4895171521344819
56.50470576453366 40.58600709920386 2.913462421642602
58.54207354735939 40.269098951878235 1.142955936304723
59.71858072793929 38.36770554522532 0.13535129547416913
59.17716335875883 35.95174636800848 0.24113587652450874
59.84365886518243 24.172568351793153 6.426289925708717
56.75237823772104 55.344009833618905 1.098472034200231
57.29408454694732 53.020784767458665 0.07595471129340282
58.6215331829083 51.0646088949966 1.1304676614692946
59.300525941896716 50.44970366085779 3.193483254705877
49.632362863669826 2.3969736475203827 8.492667385890496
51.5476606074396 3.3175045177236564 6.975275444500986
52.084611894543926 5.6889196144805805 6.276518937712245
50.90136271468221 7.633991613622856 6.773144495679153
29.146459994553243 21.956664234552854 1.9762233446950122
30.24001496605472 23.164859954155265 0.062139558925930996
59.6229614050773 48.535656275160804 1.3657471487397288
59.16756715131987 46.814110569831946 1.6239972786958974
59.98414713793559 31.292363804343612 1.4252878487020804
57.47330156559669 32.29849576145891 2.1539698866215353
56.17952820444092 33.61487331389999 0.24121886385186683
56.12425632258402 50.095707810784546 1.341894995481123
55.56866253411341 50.82402574258192 3.3564989251343555
54.108129227402806 49.29126618455689 5.284872566510596
56.62084147707606 5.18736497535611 1.1618350243545075
55.55216093462356 6.150362577581779 2.9724747399322506
52.827452217823016 5.860830353563939 3.870809542554619
51.20675774774561 5.011095110231228 2.8507971607326765
51.67632150422692 0.3416109998613225 2.469519657304548
52.04797746911898 0.06790892246954465 4.636667980093505
40.8384456197495 16.48731866189163 0.40429383280868636
38.70203870239967 16.214076762825005 0.4863113734544137
37.225439263169804 18.30974316820371 0.9129597808576281
37.63671691857601 20.350945521015397 2.1543109586283475
59.47232118451238 36.681011073733345 4.069020792096922
39.80069654546631 10.767361185517615 1.178729531892178
34.728530475175525 17.669508448925455 1.3932418301113387
36.95500002881556 36.695031793892824 1.821673660966811
38.42876898226582 37.79286307681548 0.8064190932139974
59.61983473389213 7.663893520701601 7.230258429271177
59.09467206681716 10.108406352345598 6.7633397807102655
52.70935029875738 1.7229082925312889 8.822008603637999
58.807834348184514 14.038531613869237 8.653575711530019
33.415517074093806 26.796044574388876 0.9790165809763381
33.98096356216283 27.582830146202955 3.544970195769812
34.02645870282982 24.013337198006674 4.201174367291024
32.79017951880627 24.17067198817604 2.43021245743569
32.80409801239167 22.052221125805982 0.4098749498711297
33.178606906222946 19.726073285020142 0.5318074923510598
37.79078874054274 8.786739898155162 1.7798795537841992
38.15796044516573 7.0166480830791755 3.515798066289253
48.91166965247934 3.223130025318303 1.6096581507145704
50.44220423859863 2.495611344650516 3.6018130745207646
49.961719508268196 1.17536351604509 5.884414516775493
48.247011184744174 0.6649893797257845 7.104765591670147
39.87880147964841 35.11194997273198 4.928883130561041
39.00875246698294 35.374413394731455 2.87971768363412
40.32152932243226 35.33719128753658 0.6531602956258752
42.596177304113006 35.932015790544604 0.08600027377101133
30.596946452544213 17.453501590382338 0.07099455590490548
35.40783359477584 30.6367845552528 3.9095297936545492
34.99826092248112 29.790575162654413 2.004492762761476
53.871248029225896 7.225387087384877 7.677908887741369
54.18055342860317 8.106409034230056 5.259906159430753
55.01975808898137 10.11861663712224 4.493092174624787
53.930234114632505 1.025129412284735 6.504053881110328
53.84029462458984 3.722352833848025 5.449864502555013
55.16582703987152 5.5321628654388855 5.695454474159309
34.62981391674355 9.03816034309556 5.699340875332814
35.16998219281445 10.629762772865696 1.5305867263750972
24.954466429681975 16.796066152226636 3.2874467546056008
26.027101494167024 1.8885538103034425 4.925030762301534
22.856019136728136 2.692598606704 4.83796548784343
9.249019456123902 73.17080704753734 45.66881115402241
9.09187042175747 70.89502075057146 45.63814230275642
7.356495051574427 69.85001311053809 47.69913104629271
1.097157612822658 65.66643621093533 47.62573496187389
2.8155181827496265 64.71395001539038 49.27734076961736
4.254490486281733 62.97978317161787 48.3569945348858
3.5987462996212125 60.7130946496857 47.356193478028075
26.143167082248315 83.41523834089374 51.96408340977724
26.57406601037503 83.2451090618549 48.22177602437495
26.076300836946977 85.5761231811218 53.67510854871857
5.582623408348671 69.67165232916423 53.13855570428805
5.327467587015288 67.04516241741936 52.259346631796916
2.979155020619654 65.94456284452656 51.90069983330413
0.39014606362957016 57.92660191205904 31.561902699108117
21.017549081809303 80.85943275692918 31.418020072013555
5.55864743896443 65.0725081816286 54.06227289019398
6.91568048209592 66.26508569399033 45.85389909354843
6.66278265002028 64.91732410366161 47.16123607742448
6.025264896552141 66.02408476807204 49.73784921937338
5.312815909499703 68.25568303703227 49.832712504502794
7.3647631071524975 71.50537012864817 53.50775797281309
14.272619397410255 72.08935576268503 47.9103203541636
12.399825572783572 73.11922891988394 48.60506708016429
10.301331869077169 71.14891995133463 49.35846662667385
10.104814453632377 69.02673571072266 48.1831554795364
25.584544438147365 87.52850971059637 35.78926260041678
24.372569378618966 86.79517389799803 33.71536943639976
23.15842448528861 84.76866737903882 32.99428796992042
22.06849412509346 82.9719047544107 34.57357845624187
28.505913360051068 73.22833980617766 6.6435662675464915
27.74331608624238 72.38603949102335 8.792860673799938
14.325431524629138 72.7649542446213 51.77962318599077
11.878594167254015 73.22758207611984 51.63759658696663
0.06657012839104214 63.96851714094604 29.551221231238785
2.7363907216037866 63.51757745748686 54.10751880860396
3.4048226783482014 63.26555676642642 51.865075753297894
3.972479070436589 61.158187856747034 50.44204732882728
2.8581365765351077 59.384480385983416 49.69144159080915
23.81531752876603 69.59023452801102 12.898582349126954
29.603599806688937 74.4522295815832 9.161853859468671
31.056410982551427 76.02296762612326 8.054646926478007
21.962317329601028 82.53124996098587 38.95371363450805
20.76955246830425 81.79909703813087 36.725536814314104
21.521012401110866 79.34078928652043 35.391121118776724
22.900128898724716 77.896159592249 35.916608980919584
22.746164947244754 75.19588578249979 35.7180874379331
20.61419260616871 74.09372328839513 36.89756327510364
10.861008444992542 71.66569800211424 54.973929901109265
9.833709063499512 71.0440592924885 52.33034914453282
9.151060287117797 68.95890831560021 51.43884578682303
7.028154751363841 54.35238682123119 5.938237766367299
7.473589779191656 54.69997569533483 8.072045974479751
18.56573824633896 71.49132003580873 33.35015751153135
22.616140795163744 77.84148772490705 33.2833486237808
23.152239925204483 80.49869235753597 33.50155132162001
24.92504966854518 81.97670413995138 32.644939423934126
3.7197100933237413 50.4017573769668 9.941863678177876
5.083887269269757 51.6533782745494 9.152086154195135
1.6280165358573406 48.87646517675602 11.318006706263894
4.8987942987803805 51.74087317068491 11.991908833243327
5.977373051312124 53.81331534299154 12.561849450071854
25.45400172121595 87.15129474606955 50.79574346387872
8.968663242689995 66.27292117195047 49.93958488636753
19.88419683635397 77.51403395779448 33.60974889488556
21.027059730080754 75.07721363207791 33.227942604162415
20.54204523135116 72.94435998626095 32.01466755259426
7.962556256955445 34.94658255565388 31.55588377778565
0.07007685860815867 42.15409998335864 14.174960949511755
6.224082598030475 63.66936484256894 28.49705239497456
29.40887665350271 87.326796336515 31.711372621028477
31.752048062347786 87.0803883729887 31.461705123445874
32.4651899602023 84.31013169251996 30.608027199811353
18.954282307308567 85.05512535577255 30.091539140234378
14.765094531913817 67.98741710954958 30.537664126272528
13.835107307163234 69.89155543763492 29.93766260595792
15.049222550803378 72.24143972625534 28.84240756521909
17.048886247752957 73.23053037731994 29.401004631429537
36.20060372809365 88.18598375012469 30.768877525783385
34.88784782745226 86.06625976000048 31.097320715306562
5.292007421566253 72.71683910039698 28.15654529073362
8.304317906584053 61.20919756008916 29.353270257397647
15.653690151091881 77.16033616136208 30.42665800378908
14.658664693135927 76.45362019756193 27.954682164957745
12.132501977127353 95.81636118396355 28.25839617086358
35.1123778590721 87.34845866667669 28.20525883483593
15.3893015395559 86.89000167479423 28.080283400982452
6.453363372861724 66.56513218142928 28.02735813527305
8.172221096470333 67.48164309957718 28.766937777777965
8.210120070211014 70.10481861161804 28.119038311654244
13.054478639895624 64.15235373051094 30.539492907491734
12.641732665364499 67.78534980168247 28.179226250288067
10.645192820977142 66.70133189654324 28.753743123364842
9.854611689221803 64.32664978342196 28.51995586994566
16.58715363734479 90.76750973003244 29.220714079996043
18.268824907653443 92.41981749897515 29.90544168585097
12.93853801036057 79.48999764395576 28.564285846556583
10.691257299451324 78.29967128783096 28.65431178020479
31.390279895465078 93.41548134022672 29.227390833189165
33.5108837737272 89.20988498608723 31.238025631900875
12.435861738396117 72.72898011670384 29.99982150045591
12.500833938298056 75.164212088317 29.23762742407305
11.643306822226394 83.8073429642139 28.655258186519646
15.740864927281438 82.21970886557575 29.817860615173885
13.45633499776102 91.50649104547837 27.941999599444618
13.20999686639479 89.22270907612611 28.574645631265195
5.070956354775305 62.69440323500682 26.583475414883182
25.50321325265752 31.491475638293426 20.641248576566984
22.37451679970471 39.97162277459655 40.521832652769476
21.169512457215067 40.70022739429139 38.73114600946404
27.22873264442288 61.89669294979029 10.159953348574758
26.914339521324614 59.84250926651491 8.816240141709093
25.21003290000394 58.22464351942227 10.088002838738406
25.62262538607012 57.35843649507301 12.073860043045435
30.096215245626606 63.12338999108906 34.56563357797029
30.69077934006477 65.06889677628315 33.084205368541575
31.49965473001396 67.36578787312183 33.87183060821815
50.36385962580794 58.73195087248511 10.851077823283296
49.10955199039972 59.945161894499115 12.924216578841959
47.82501526886123 62.149516202758626 13.022090771059093
47.15597382415609 63.830770611809726 11.415452376128544
15.11755925546158 91.51299013995472 30.101090352777902
5.458835831904731 68.97568606790561 13.306623672939205
4.883137461333337 68.15537461322769 11.50490678081409
4.500104012202245 65.66888455476061 10.223375602841662
6.0365802916206315 63.831561880819486 10.535835286672132
5.738850614343773 70.77772716439947 48.62037855729456
22.263918624474286 90.44828079778979 57.194337621400166
22.483448842290038 91.76059607717373 55.207421873166496
23.231421999976046 90.04169708444165 53.16561677630836
23.06741168421706 87.79316889740034 53.0070156082358
19.57085547753603 45.047231673855066 10.433456017893418
19.51226524002174 43.582247743508226 12.159174678468819
21.831036931109836 43.40523706908926 13.452964207080969
24.240159344482475 42.963896718351236 12.71042268486267
38.318811222180535 67.4131377586461 10.166124083827022
40.2559777236061 67.01746066822605 10.932306223547009
41.32490759922582 65.79950494911253 13.03117121584337
40.467906423723974 65.30534646835774 15.262619825897783
28.882836443844138 75.90154792716146 6.396940430315953
26.825127093092643 77.06351189699882 7.115205622722807
25.778479531662054 79.6045545070991 6.573523254111766
24.565019276024685 78.99227148122402 4.76862174050367
10.568604911832779 36.97455210975003 31.349412319468907
20.425105918548994 42.95922018227675 40.355591625812615
22.66739304532422 42.54870551457447 41.97759877350172
50.86616665509445 58.50613294715177 17.250792741309862
49.440376988662635 57.33885318304141 15.973186655200266
46.95944156967962 59.296772205670415 15.077816412497395
46.8033832262511 61.4398483040001 15.67399121067661
20.012800792410346 29.24552100177185 25.121583389350338
23.100236089301635 29.875011225135168 20.162609120885204
0.9807442128342877 87.77312641896152 33.061928102675836
0.6905356358967736 88.57588099801865 30.730359285998254
2.2041341134555603 89.02585357176484 28.98479929049629
4.662964909267446 89.24131915921227 28.481256871983806
23.07843511403771 47.06933079364697 57.06907693989691
24.542770194336743 45.59409815576226 57.460371978428455
25.04115866315081 43.343834839774836 55.69134934507748
23.727164485324952 42.42246355809186 54.162032833277834
15.722777224001478 55.69041783617561 39.018878571795426
4.909930684009345 45.836860860122314 29.008899855482714
6.23927692625535 43.823580953706774 28.51926480744388
8.544180104706177 44.32212323621017 29.96992684232022
10.03745546688273 45.521457300609235 29.96844814902702
20.899206739310166 44.87363337013175 18.992806478196563
21.451028487805093 43.19763682932488 17.454773661463072
20.004807657934197 42.43970062640775 15.341167169649934
17.730482685642748 42.60817993934483 14.787833972697044
35.24295796173543 47.461966419860865 42.42633961911132
9.193468301055681 84.39348668917191 27.542116306512217
9.462067880573938 86.62762078133547 26.58215198372665
7.6310264405623025 70.22845864053637 2.2155382973527917
4.927935599351452 70.36464347755074 3.4263891433093066
2.8078846240899082 69.61350943153423 1.9752667808120972
24.409775027054337 88.22748305853567 56.861404415728614
25.14969664448999 87.57380957979242 54.60116352325778
25.057424963232037 65.90694220816425 8.243132545163121
23.2320065256408 64.25335169222595 9.053560229444775
23.33259737286574 61.809717714881856 9.071373628304398
24.423464725223987 60.11879839305984 7.570815930469658
3.1742348205230666 58.43157732405675 52.19127879573236
