58.417167461774596 82.36895410911096 36.76069311480807
54.94222016756539 80.05129285017571 50.96007215806006
57.17402414022366 81.43365953012794 50.99938705642036
58.57412185274909 82.34463544528408 52.96234132701564
58.369956939491765 82.24229018286172 55.440625951956775
59.03064465675054 77.2195422449146 13.40580613081441
55.13249216655289 83.6046485627597 59.44209859455494
58.751608365635136 79.18817423190976 31.516105683243858
58.250330614796916 76.53477753887678 30.3191923593281
56.35037285959256 77.41967376623352 13.822730377421557
55.364634484022304 77.9346876673988 15.663144009369523
56.811521304632386 76.98173560968519 17.88781957527389
58.7709322159667 75.38192185227793 17.4013787583036
54.951290300636984 88.35601087240047 33.07859585279409
54.73185283186453 86.27447719536636 34.1235269880269
56.50503293453152 84.60359099235234 35.056256301086215
59.07652821885702 84.23578828564663 34.51457817721065
55.859520826877365 95.37138312177659 11.684764489350325
57.127952081301416 94.6197161952439 6.328411011474626
59.59739219435447 82.85774023691091 31.995367283575828
58.33939401747762 84.20183347643898 30.502362618993818
58.31460906502572 84.01985764412989 27.74747876818988
60.018579933988256 79.77149180015444 14.025857425374193
60.15230777236451 81.58634347898268 15.355610811585876
59.81368340181026 86.20995083906033 48.16099085333322
58.049753472908236 85.3964166105077 46.187084760037486
58.66338057820626 85.510065367938 43.594214003591176
58.282569908578566 74.20682905512776 20.036645424457397
58.05042867245644 76.67885617884772 20.432376515863417
56.367488902223634 78.0854013405882 21.597200187600148
53.90827431894066 77.28710156084152 22.799730279839167
35.75165799575919 90.29965149557954 34.60916318007802
34.40872818081728 88.75175715206402 36.356214755441265
34.06005617204084 89.09975327063452 38.841920575001495
35.57568937766633 89.54761614697095 40.39285982407037
1.3210986480028695 75.32659750598728 41.821441484150384
41.11392769218291 60.87348774157389 40.7140252933341
41.34441421728086 63.14464071824699 39.41146604876392
40.993020056161946 63.88378578604364 37.322884059608064
40.470501907096846 62.72056567368856 35.1617494690787
18.148308055361365 76.4647217664012 36.616122610598104
19.797719674323975 74.8155237334303 36.08294563192459
21.001442437564336 74.17646943681729 33.8699906216471
20.934888898069605 74.55740115112826 31.606005579901367
16.068614757842248 68.03485884017552 27.931166662002894
18.077273994733524 68.56028094412984 29.392673898512566
18.96236140185012 70.45599326221296 30.50147472468571
18.351260627482425 72.74580094277775 30.911359834937464
45.130497807380195 65.80812754920711 40.78858441749353
43.770000254982 64.49352062336726 39.05264855961367
43.3698880840394 64.65367255822882 36.457276982627086
43.59192844509206 66.32032899270546 34.952707346171856
13.017879801509924 93.47151652760321 15.698396647484719
11.271572148203928 92.35382346020674 16.327696719248717
9.888046466173037 92.65978498783156 19.0265833403795
10.381354886952039 93.25491628376633 20.871965752640897
21.10572416721514 68.53215693557038 43.84420663438398
21.969639156329897 69.00401661906032 45.725537855368295
22.48901491673188 71.28746468372235 46.491546500965455
22.903852680919876 73.45086951139692 45.192208403066914
43.29541959840692 61.25314226832033 41.957996027469406
42.41231761329941 63.41606263376043 42.13629723481127
41.95882331532069 65.0002295860898 44.15407303511325
42.69639006291757 65.08585018765756 46.45357678259751
17.321522805724904 95.73058418037967 61.4579231274477
0.8593061391379547 78.3744128486663 35.41007909124408
36.19316990655818 81.85280486503329 8.110115179503387
37.44520920176469 82.36743038453545 6.303003792773256
37.04476164004831 81.97325399503823 3.63314392637203
35.33200594219918 80.56591800480686 2.188701336756023
13.393981114974698 95.41594343754326 53.45667585233412
14.145579575506897 95.02245392998567 56.28372385377635
44.877430939201574 70.68976846965427 48.72681869986441
45.28452707090125 68.19736296008422 49.52021352900426
44.71622514522528 66.6354928795417 46.99165734501261
45.15854574920598 67.12809184396508 45.00822241288492
10.953261808800988 87.79947002483274 18.060022422345288
12.494266330095062 89.69928340236103 17.54504606215801
14.460827364563121 90.16534387964073 15.655340803043147
15.315646857115254 88.68476229015342 14.17383153338013
36.273623535130405 85.94642933581463 51.8464729866415
35.27112668805001 86.91466614757766 53.89497347939157
35.472734064502646 86.28043263604296 56.2934436944738
36.027626095557984 83.91190928220243 57.40182726832078
2.3221976946258813 70.31286307232665 8.432109207179941
2.1764165327782874 73.53680244129788 44.14437050094404
12.489423242544605 95.69526462651508 44.63687977363964
11.564863176269975 93.47748446661234 45.378937467477016
8.581485173536544 88.73477312878845 41.53563003154412
9.471489331107446 91.05987824657178 41.69603986416238
11.255492957720492 92.11558761029941 42.869592778295875
13.225493814451685 91.29585946793146 44.072455317266765
20.93586794204401 67.61274988078594 34.474579390602045
19.614822478416272 70.12834216525061 35.10430080114447
19.979022740349688 71.21535808010495 37.25397194571525
21.526011399021787 70.99238802471682 39.15673779534186
48.21083749754521 66.34930482608738 46.942024243997714
46.643345230414035 64.77340562862749 45.97009361209228
46.6171988632073 63.56014811115892 44.24064719500394
47.18368304228893 63.86001649556773 41.79241545145862
32.43988545680295 85.05258124921865 55.56971655113521
33.00299637420468 86.09011950729904 57.44366560268575
31.23064306386182 86.72721251935948 59.70733386874026
29.188879435217174 87.01991602268303 59.70022273972971
37.87299579034683 85.81628147680959 22.00020970240013
36.978604487224224 86.38892734135933 23.658139953020257
35.556325975450754 85.05172065221873 25.588684606937026
35.64994711341725 82.94421139140094 26.092555739325526
43.377724791011474 70.07720889009751 50.938416698195866
18.71037812333524 93.2459450706459 3.5193667572818637
16.54997343152659 92.16779340150772 3.710070674550024
15.199140115393087 90.63704103843776 5.463893949101805
15.49187317652821 90.00606319824591 7.215625694690433
32.66497930366697 87.39807238380637 4.473697272322724
32.98000389361332 88.18794353041567 2.3124640905792244
34.06797492036405 86.33457556012624 0.6133140674336297
33.77787554277945 83.79010212237186 0.6041339823259221
34.42576888270575 86.42394877389358 19.92110712851892
35.0488020920207 86.69910824112362 21.96882730833626
33.6370038325475 86.56587486028391 24.27139823092002
31.46660162555405 85.62838631828032 24.921706695457345
13.962819455239316 85.97356850913499 0.560089352205702
13.009510790292913 83.93614770138899 1.2098040248788369
29.83161364185086 85.54533633062888 30.84328128527022
32.12004274764161 85.6614734759678 31.077239306848078
33.819073965247 85.72859366406058 33.133153064548864
33.599163849740826 85.0926695800195 35.12359572194668
40.99714514429495 89.0186033984888 48.56097398500357
39.445596543946806 89.98007961512997 50.47540679225004
39.87522098896029 91.24374148382586 52.57648950065932
42.0740600577998 92.39182920406878 53.461464566062986
34.47283950245745 66.89425670794978 24.758105309552942
36.2808529999194 66.13663249288076 26.02834282314046
38.75037018735894 65.46756294070694 25.13844427609775
0.6374105295730617 78.15725918703743 42.02092214445961
16.451770769337536 87.41430293555356 31.960090923574963
14.913079208290746 88.57164074940654 33.01427720159684
13.991263079143897 88.79912204975211 35.18302864389341
15.477350503930875 87.8975474605584 37.37363926879485
39.4967666888582 88.33832368468323 10.06555548548614
41.06382067919855 86.77866662725395 11.252252848194326
40.41648352130985 86.06167229324467 13.555735404399181
38.6644648807257 86.89301577802458 15.299894675459104
15.823262699676823 94.8345310155873 50.91650880209983
14.470388509971828 93.23712384514785 49.65629139362047
14.356286555125974 92.65042586725029 47.044044681734945
14.542285096091863 94.12864807356925 45.02310401474458
39.159468551672916 67.95571690409709 45.50239093605788
41.241411349059916 67.78670184577562 46.70389522847076
41.96405869681891 67.12226898992115 49.32771877021758
32.62833144528372 88.9050527096054 25.39856126717074
32.539561409663904 88.17219250994114 27.759457393177463
30.704672879898688 87.80059621715357 29.576646522045827
28.45387507893544 87.6801647592034 29.532508102075276
33.0930485231681 84.40890499539586 52.07355634577912
34.52864766822407 84.78002837156146 50.28361507085242
34.61978134469232 86.32728308897573 48.291790006428045
33.151197119057485 88.20996808033294 47.65573063486247
45.79524702056015 65.52068055193008 29.154407782650797
44.55126478627189 63.36362042282819 30.798271468175543
44.22722109814805 63.673888957149174 33.384737437235295
46.59914565211186 63.901414487994536 34.71726404744186
15.357541180026109 89.11764179935146 55.382365393471844
15.173768491732146 91.08922293253877 54.54446737850673
15.007709062111697 91.89229440454052 51.97534455865425
15.218372449746106 90.59126496312699 49.814164996538466
28.857896947267086 68.43410230059696 24.11454177309231
27.37051649682228 69.61497968450195 22.289428655983265
24.808403435878144 70.22866342005365 23.237245338762804
23.82171733330585 69.58315038504372 25.34137323472354
15.729856646163567 84.87247922287025 3.3380120519592875
14.457414696639331 87.3520570112879 3.6265842176228897
13.745753575676021 88.60895328547939 5.839122192999557
12.996192805964188 87.13532582946675 8.379555609083672
16.16670522398272 75.10272293798123 47.529317960400334
17.681939094950433 74.57116030883174 45.658684883554784
19.603658545442123 72.9285442587569 46.25283733832534
20.097946966626182 71.60623327595988 47.80097178276578
32.43768764637118 90.91055911494874 57.5848489041133
32.58473226455701 88.68309666040393 56.53936516635607
32.628676010493066 87.76542970576484 54.30306757544538
32.72329133956171 89.65036483858054 51.91267357949008
42.17459784123445 61.95232534940017 32.944296383290315
42.248715006687576 60.469232729656916 34.757066666680196
39.08754460615143 66.08562989734332 37.12816057775582
40.707369853664666 66.3048808586647 39.36306747782514
40.41931982831374 66.03994771616092 41.66144729495763
38.965445169644305 67.26294790116826 43.01951388920296
33.86847246917597 87.53503550879763 14.606566282002783
35.57046951927609 88.24155439096027 12.932783236880747
36.3807786950773 90.55099076914337 11.95204939537402
35.83777355573623 93.00819216355072 13.156433198254616
16.000672137524827 71.10377731855199 32.71632579239483
17.491084736630754 71.9807384394616 33.80674418485317
17.800283182255257 72.72359906766374 36.59998386480849
16.362860220730656 72.29853401999239 38.474255866537966
17.198782835993658 74.91280213166647 39.26392997813026
18.95456037751245 73.21027963158444 40.217576430824856
20.272948859569 73.52562482104878 42.415585132669584
20.347495173891645 75.09365074194736 44.42170990513661
15.016948741075382 87.57977147225736 19.828916605116948
14.135489419183854 89.35625335455771 19.981266426176077
14.903968485863823 91.78393028475851 21.139239687641727
16.18557314114202 92.14495966742643 23.073785370095855
14.542029134345142 65.18435969850373 28.23044820938111
16.89872729394901 64.04038828990295 28.066619242997493
17.63969337886763 61.75868671773485 29.462179947429714
16.154759371335444 60.232294670020316 31.042163709396828
25.700970683318104 76.7162425371435 18.5154418427794
25.55173569359062 75.38096141038034 20.1223426275928
26.563977962177976 72.68134980468339 20.5262056138973
26.74885123501683 71.00520240425664 18.531711141017833
6.8420445374012075 95.90461234272769 26.773131605037488
10.81366391934604 95.27050002515723 28.54304923899862
11.219760544365306 92.97702978350533 29.18636016192965
37.90120357191603 82.32398474725285 0.6294665962152731
36.489589900902665 84.79979004748736 1.3734869134566037
36.92202708213134 86.74173795418307 0.48216432909430823
1.2479716891791746 70.78341288446983 32.39385716119356
1.1751943921421304 71.82320885995155 30.58363459917418
16.729330932724842 95.62176483311097 53.48346278523631
13.343272470167255 94.09167011281646 42.624404931335945
12.13908815815733 93.95554797797674 40.281713538553404
13.225483117047338 93.47348325241468 38.053411366263184
11.626763245662767 89.85556582375781 53.70625109075493
12.584236733128987 91.14294861598194 55.43573246323055
12.278783204076706 93.45701575526337 55.66758387121831
10.175014385484587 94.91003691517218 55.63824765620099
39.187781566373744 69.48830104858132 40.738141791841194
41.46254020688653 68.97070796157087 39.770029094754406
42.759924488188496 67.37786839782318 41.97117761142346
42.49536348739579 67.54406525993656 44.149540036707265
42.976205508794386 66.46059299894662 29.38379861509456
43.59870179915818 64.67526749743959 28.09708376144125
34.40501844433264 87.41425675427433 7.947501686977444
34.8590950020552 87.93932268073682 9.882335035256611
37.24297195976157 87.04841355073567 11.242018646411431
38.19024727903627 85.37225509414004 11.088955198053984
4.039125403310843 91.94459558994986 16.00389673668764
6.0412339130073 93.63588651191179 16.873364442055802
8.360721227270599 92.11546023066622 16.972626424827713
8.640639802471851 89.6417796996615 17.19994535478932
39.311309453586794 84.87800466325851 45.588937011876965
37.18154193520945 86.15615404919518 46.198949368941356
37.150218432281164 87.6451583987789 48.49416990931329
37.88312859532912 87.60800543520236 50.44628059419331
13.498380164785013 91.76512341958802 59.63232477690208
13.884205194686299 89.80776019977944 58.31046098491681
19.273072461284976 66.87789680610419 44.49041689312389
19.44114444646785 68.62390419034793 46.425835303024996
19.543809985544783 68.61460893011414 48.76601346294464
51.01321497470459 83.53489418280945 17.52580777189116
17.53073926352338 88.74032785131357 12.627021106575052
17.178303538249125 89.2804871355835 10.618611952862821
15.29561671620244 88.30752983571385 9.460392842227934
13.983538286619606 85.88918493202314 10.352593379133955
11.976109274963425 89.11609466489422 0.3552306074756548
11.726826374665556 88.02562891783346 2.702282999565068
11.337367253985052 89.20085395872589 4.702218708336923
40.32009974191106 64.12113026282415 29.307757415785268
41.43976419211615 64.98831848408433 30.961341650953443
41.08811573451827 65.5620362773355 33.52993794261164
38.852229839214985 66.41160604431914 34.463227266788685
37.267803251163095 90.85280867218157 19.046645829374672
37.00213441675203 89.90068873723496 16.872062455637163
36.92475353987766 87.05897493465861 17.140490155065713
37.276924990225936 85.99964366476993 19.190967894883823
21.746556285066756 65.86452779562858 18.778886989253362
35.247637985812766 90.19039211278161 25.282636935302712
37.628102456010595 90.2706878759395 24.095736576941356
37.41466724719568 89.2885526698484 21.86593819492233
35.61136372236088 88.94987380459149 20.503435976417006
0.12346449247651357 75.30126126331275 50.15092934759089
0.3133769076836084 77.69708305339351 48.95735606430105
0.9846796765723281 78.03535218452556 46.79236477498687
10.56570358379302 72.49260787441473 6.348340848736262
8.299614235550697 70.2199299752353 9.898433529807836
33.02651278630913 83.45642510554751 25.97316779200513
33.12851921967159 85.25077447287576 27.556175483064063
34.636736787157304 84.38128623665803 29.961436767383514
35.06381481830903 82.16797768618558 30.27300550421274
24.65898080200204 74.54078025345852 36.065048902857406
22.74580354592287 75.85323688478083 36.17525401298661
21.1944126274609 75.23868628422238 38.66803032715327
21.911960326636926 73.55156430706259 40.17623373720566
24.469350119865847 70.81664313398647 15.725749468493083
23.691405038756262 72.811048493186 16.80052457159822
41.0726382634185 74.62647486730168 46.278153081292885
42.363237208649345 72.85677158784296 45.95538345251323
42.59254585666282 70.51791346368755 47.25427408113253
41.55611587950291 69.94343459350218 49.148860523228784
21.095748646809724 67.55876914447262 22.609649972077182
21.18117968853376 68.59104063881752 24.69570232940701
20.627467957394575 68.16671608934672 27.03002492120423
19.449795517740057 66.12905783269488 28.40388571295276
23.060133966454543 69.06315210416204 28.029931469893675
21.66126048375954 67.67109966296097 30.419991475884924
20.521873043968032 69.34077847651234 32.377689018217886
21.372167493782197 71.26194792564337 33.170944455224436
39.5575641296269 89.00719514102161 54.43145761796155
36.87447944696873 88.94830041326097 54.45779161292911
35.17560713792845 88.98218433617842 56.37270217271725
34.86962234894432 90.2166391325492 58.17130400121005
34.61911556955678 88.88803423156821 60.31514082820899
35.822736245786764 90.65476491313079 61.17172005185725
2.175654812586366 62.09798081486693 42.92223071576176
1.0805338763127783 80.6398967020417 48.52562773476244
2.311563394512843 80.71094930134761 53.978142309706676
17.252156414754882 92.38453963283634 9.168705086196853
15.123618413288483 91.64797692737399 10.82429375793158
13.99891723410247 92.72201038443491 12.597157112723917
15.002716399236249 92.4033834282365 14.476158943936774
36.2122235154971 94.82911777977938 20.888291180432535
35.26165960238138 92.73887564812036 20.209620849532044
35.52466665582634 92.26150554509967 17.47427412656667
35.81765752923416 93.88064943882367 15.731753999829197
15.79660149443731 95.29283192186372 35.5471928924201
11.857887264366552 94.0450780807998 61.608824301549745
11.143574617635347 92.37178687070148 59.93081691224014
11.92308460065086 87.29924806850836 31.666482838538517
12.907787141825258 89.02323720826504 31.2358800952705
12.619259781219466 90.57112732365925 28.816533623947677
12.064528486510545 89.77239793648835 26.584801266618634
9.111746187563798 54.05244130374878 38.1121855050905
37.549974391871366 87.58824802423743 40.87559377527603
36.776151992309096 88.19326445296343 42.646864575641594
37.651651641821445 89.07727658997929 45.0759918501089
39.69783068197788 89.57729219459458 45.93764433826173
36.977675029552444 83.62842547520921 31.79436262150985
36.36908049788325 86.0637984561446 32.23708936792149
36.82467661106797 87.81591118713206 34.28923805409088
36.909579715904535 87.13214512705501 36.78524972956088
33.74021585864303 92.4449341174851 61.207002662863694
32.73015637351784 92.96983051770461 59.56960581337294
22.56184675807157 73.58503042792726 20.69976796811115
22.58960523378882 71.6615544466985 19.214779297038685
20.60048787862294 69.5995657645789 20.36532043559067
19.170900868498066 69.94627787916292 21.95836499330486
15.688478754309575 91.35297544244054 57.18335310143285
15.19880955303836 93.34961544966802 58.30240346431855
16.877581045721744 95.51088328939534 59.000507338942775
19.720171469304177 95.48542819342433 58.2141296373914
11.11707460772223 94.4425547454148 51.69562769892057
11.720130904475361 91.69564881821672 51.52779246085881
12.222618355820774 90.43461333787644 49.700818996008216
12.152971761295968 91.1045639517376 47.23990026179076
22.85278077485628 72.49826121122823 23.282315787214447
20.72416937075834 71.65583200174405 24.291758216534486
19.85810860005974 71.67955220302464 26.89515642626693
21.220394599091254 72.31076782879099 28.901594216293976
11.627065637834553 87.69236403385419 21.194930285486155
11.815856184877052 89.5163861856678 22.771382218480486
10.000557808417533 91.1999766283379 22.850377192719147
7.691330027885093 91.31273423669413 21.75202199811233
36.650483595031915 81.13003473655124 41.47934348689037
37.17932039646214 83.50204181634513 40.944628163091146
36.35695540742354 85.29892012659444 39.38967837961773
34.589931497631795 85.64766433789565 37.85812903422864
19.144725337748877 79.90782223353877 46.36600532106513
18.27746222189988 78.81648642307253 44.58326241406092
16.489660385563308 76.74416835309086 44.386596491444976
14.061792092656834 77.17490768497449 45.57715866960882
18.166151856225806 70.38883374243204 39.306478386765804
19.762435098318118 70.74354991659366 40.85710385656032
19.601853802665996 70.97466749079722 43.255334116932666
18.242195681905674 70.29888078204371 44.674262669164925
0.5753481897645121 71.59107649240563 26.772972527399773
18.09994905234701 73.21511829955027 50.73742922966436
17.96612733252835 75.46486406340247 49.9277513729345
23.36317074541347 67.71341121523842 17.114346610428814
24.54576062914497 69.44144191339703 18.02586176989608
24.168193488436962 69.38790009052806 20.77944829466946
23.9400971189314 67.52276482627539 22.13785032308945
34.90579826482595 84.73446125112177 46.3439272162312
36.06670895767831 84.72734687773446 43.67529158495282
35.33705390023515 86.2151783052462 41.78014731704927
33.000575592638754 86.99298297439996 41.081312068334285
37.58404195794854 81.38238837451193 30.208176468869485
37.93849616097081 83.3010038199905 28.254863027740388
39.873375692500275 84.94242674832779 27.995234228857676
42.2114068372522 84.50584482484095 28.22934330036287
16.79760509224063 91.2486451561903 47.17178976826485
15.598712359061286 90.04857889487295 45.54423192200019
15.614754520157645 90.81737325831298 42.939359555339934
16.9924141198777 92.12434678407394 41.46264305991638
41.87884793483376 68.47234705904447 33.863563849211644
40.984363181161974 68.00742378088826 36.013795720035986
39.349468945550385 68.96935838829921 37.56326363782907
38.06132618658374 71.29232333932748 37.439681805198205
16.662732382987503 90.95131060680036 25.73001871988913
15.267436494820704 89.62972462453591 27.245737975008705
15.596497393823718 89.10932987936899 29.836049388584858
18.05770865254758 89.4786212119629 31.15415992011053
36.71817310318318 94.29237473720073 10.322762949660587
35.702816263475675 92.00563801908812 9.604077571457488
36.24585127607917 90.4956119050876 7.729917029649988
38.018326449465185 90.84138036822719 5.830185705809656
45.98411326468741 61.94964183053131 40.80430807049621
44.16223665674318 61.92660163967732 39.57373389096133
43.836457690444995 61.2707112361529 36.62178800057878
45.97493786091237 61.290356821085744 35.18780984099683
2.011150762674721 74.76902112545802 51.91312177224699
35.30011051065253 91.17367033218292 47.645047403443414
35.20747121891327 89.4332063312582 49.52891666760806
36.07572839878423 89.63197330741303 52.073792541206494
37.183997102236404 91.30554973051034 52.93342367136475
10.979909072222549 87.72179755812937 34.47456493383473
10.17560000709197 90.37904603226875 35.477337623084026
11.334190834745625 91.29398256680274 37.68548902836414
12.584639839792082 90.1959301890657 39.154263938846086
18.323534418537484 89.10035245508824 3.359718755064779
15.936515903607319 89.6762064809528 2.8197052117824146
14.735163324325342 89.89365658833783 0.3417443349063546
2.799551083443064 73.96496629329133 25.15130189165234
2.3049783655636027 73.62799864451259 27.13517389428723
0.7260560016988716 74.70019750896084 28.76631936114557
0.32836335353666796 77.10299997802052 29.207776898677167
0.5769069800999256 74.17251194399219 23.43124604028384
10.032492878467208 95.83272621494726 35.712323855874985
38.39988085293319 84.4229554002645 13.6148567974662
36.58558105097616 85.6497712546824 14.27074494139656
34.78262467128629 85.61389322223559 16.390781804034024
32.83094961147253 84.36579671001046 15.324241447410047
31.24308937611458 88.78426529257108 33.31232898576826
33.29733071114323 88.42944211272915 33.29347146295423
34.538052488623215 88.07744681620893 31.371386880178402
34.77643957509538 89.21248471938111 29.193477371760594
39.503095471930415 89.14300307716609 7.1072391805218675
37.45381587009339 87.82525724096121 7.05162928065652
36.66033159470567 85.72651310107199 5.791047896402919
37.91171760376711 84.73419221441056 3.82383566578352
10.79957903163049 94.03211191863551 9.087490888785412
12.555030738610327 92.558569502594 9.198644127442599
14.983353427661907 92.76091661532337 7.663111211471342
15.278472435750295 94.51816508597369 5.830650169690169
15.610447968365984 67.16980182027989 17.20824877563608
16.57057562895626 66.30845587788875 19.155833281139365
19.142783175440393 67.41849612323843 19.522448101597142
20.150129408092127 68.94292811377329 17.948810800225885
33.152321960553074 92.78258661618004 9.581732040338476
32.67570606617856 90.90261570391729 10.392055079105623
31.936099554562883 88.98888984009763 8.572880583365425
32.083500557025005 89.76713974465483 6.073090971448522
7.446638337940718 95.60651556442694 18.269249387302867
7.956033258159767 93.98707863962575 20.39600225195055
8.261363341786822 94.73936358587831 22.74401646848935
12.056301882408606 94.36724199285794 11.297535849664673
11.124910393495668 93.25572310048112 12.9404993206198
9.142725225968608 93.46854616029015 14.910791474179607
7.612250239021844 95.2192967012044 15.416198392830763
14.15558517266605 94.85584988297428 32.26438257720344
13.155092268819228 95.34332791321687 34.34294471851879
12.232408418611346 92.75202875094497 34.960439113933525
11.785274031817377 91.02425648945756 33.42892762992683
18.14326953227412 89.85613369201711 40.44402462705463
15.585291178202073 90.07646152430019 40.29502642255823
13.873455574911366 87.91890912888323 40.49262782024397
14.169901171553013 87.07332409488677 43.351751892719996
0.41963138148365375 80.12890713660784 39.74802802645373
3.421967282737493 73.36591576845385 29.878560289787334
3.435717289714798 75.83231063377436 30.29252052454472
1.1901166332219977 76.24315101852426 32.12576381516531
0.6654499723506752 75.32585839739784 33.935784117330186
9.801226345660762 90.34751798526682 14.643928817208987
12.196998986826408 90.33675980960585 14.017941023629493
13.578057261353003 89.7943148962323 11.831761041773387
12.918601656287448 89.74893459610468 9.53638315900136
21.790936012979742 69.87483078113904 48.934313561552344
21.293358776088954 71.4335582044554 51.10209253289433
19.12634708462132 64.44781690078003 31.095055098482664
17.667351647623487 66.29738165496663 30.71768918271201
16.560826537409987 68.05310871347773 32.16966840636381
17.243423751676104 68.93284209201823 34.62645703537927
15.47964759013505 93.54572619632951 26.089264880777964
14.987079698816613 92.60258572297799 28.049165657672447
15.505181016444073 93.28367378544922 30.702969805865212
17.27248285020797 94.45430175064298 31.391085141048862
35.74737026684004 93.22649079974249 41.6280187563762
35.76669137526733 90.94441292183967 42.63560496080246
34.94727023660905 89.9477184287822 44.471550277727836
32.77105614000971 90.36345531247902 45.86987289286773
16.336298427679193 92.83963720331815 0.7646336094174166
18.58199568800333 93.80014244236536 0.9482903908708599
14.60339463530966 95.03083107459905 23.79556615427256
12.915493748323653 95.69445639587822 24.914467680126297
12.742167738028623 93.81505053626877 26.19215323585512
11.406424218720927 92.38824628638704 26.573132414187768
38.28553148327348 93.34914646021106 60.693494087216514
38.78538731995907 90.8379013131874 61.06459213264989
17.645594980842816 91.95463808524778 32.3735019094726
15.71011019849746 91.15235023842784 33.29120149768244
14.528976686674376 91.22533745152259 35.668587642817684
16.003617591909233 90.55121254976615 37.4532516540314
8.049364663842997 93.95911279927643 41.52953247112319
9.293477810149808 94.12368322178837 39.31033033694296
9.172358244223728 92.88835214045379 37.09910829414025
7.791212318641293 90.87224907220073 36.3113668354098
21.216804674821386 77.64187453212597 45.92301677921794
20.11497132177831 75.8172668440157 47.323397136806236
21.05186780185957 73.96906263528727 48.93978832480956
23.46729041702561 73.02829158703886 48.99665324823467
37.65089018695549 89.06301608281305 0.9475482739067411
36.58280911444731 87.7237372637461 3.0120178021795248
35.50401087395052 88.36869092790033 4.721346118168209
34.5751557148699 90.98466261317708 5.462334243846306
31.468616133981094 89.15929067663153 60.64946425012645
29.859032703164427 89.33115809309923 58.67207557510963
38.0398107016568 88.1469192435762 31.478267640152854
37.650125955476774 86.12941855054106 29.611033900454256
37.368925238411826 86.6091672141333 27.047152988433897
37.111309789184695 88.50450593375272 25.79933297050206
53.40605725890386 49.025005270781776 58.04199656970547
53.376125353069675 47.08556397648352 56.219719332473524
56.9290167450933 82.59127631606414 61.07761023318775
56.52887731085143 46.33735772433566 60.880295105396996
55.26447512421374 47.07665523722512 59.488722347925155
52.79556723123004 46.698659972514776 60.43831390344036
49.790061591870106 50.13029176731838 58.44062503739967
50.855116763541155 48.346489362417216 59.49314472403523
58.590480986901895 80.65019764879402 60.34077069469149
58.52287120422103 78.84721230638752 58.49393007202235
53.121765374578914 43.49545980134758 61.40530517312997
3.0104664876599356 53.978665818661796 57.93147561237898
5.116028766175485 53.747410379065045 58.93612956786587
5.873581332704023 53.65689734209777 61.48473434366489
29.60494582631731 50.00893509920047 48.812608489351476
28.355769238134435 49.408860362276386 47.2499722023172
26.186072084055233 48.24455706195496 47.796941878584946
24.45196534084592 48.47789638225181 49.29479260640201
19.991413480637807 50.15786251043671 58.16204589886019
21.456050644614837 48.974291070161065 56.65602696184777
23.74713037953944 47.97438292717924 57.91959948653431
24.2126836709013 46.932592469713626 60.143598638773625
6.103468154670338 49.94508743228848 44.41401909294768
7.652504463102393 49.39461272429624 42.55747645300744
8.386847198626342 47.240618181930415 41.64476312616039
7.237974906191913 36.55703260873375 59.27375015879807
45.78697047618634 47.64706099224222 52.97742815559761
46.968265014793225 47.24800287144329 54.732868548784054
47.54310878843735 49.15174270652749 57.11565915569789
47.010258060076 51.21665810829022 57.29282374624242
7.235445937357916 55.20138429431323 59.08996223200586
6.321582330427877 55.22627829969112 57.08091841968641
8.04448853456391 54.17306440238197 55.27088884666786
9.9397516518386 55.249133618261986 54.617351440288324
38.171051547578514 62.01627040913909 58.36797024499663
39.32549206863175 62.957824257112186 60.49917503443393
23.384480913872974 68.32977132805264 61.66528404635703
43.957937844708475 68.56089846428341 56.64815071544581
42.57968490602857 67.79248917474864 54.331344580639495
42.77828470380019 68.34713427800216 51.983939858681104
37.47626417108668 65.53867752231376 53.422210485641436
36.97725671706137 64.88792078552603 55.938929844057135
39.26244277180677 64.45504225824322 57.31376935949992
41.27076653594239 63.513942262855295 56.60198760391572
22.109750881240792 50.999510307976195 60.28868788953271
24.914607645377256 50.86446298298803 59.95692299391309
26.544251776635303 52.31519913244222 60.79491133890589
26.354350904990188 54.871120557341754 61.610471340125855
40.76751584581199 66.17692619119856 51.03023273099008
30.314626587728167 47.425313348795285 50.08092639827084
28.90475105286288 48.49111485860303 51.34767133820609
27.30803915592907 47.24751976608727 53.46017077746024
27.383951992918288 44.843193783820325 54.1483076428965
1.6907020373664705 51.80941623706983 46.35336789320567
1.3475133063236586 54.66771410636742 45.59925536859811
1.7122795035858294 56.4589428089686 47.543388050517564
1.7782441539040816 56.18567926060167 50.153651143835255
2.7574113437865826 52.83816437739561 43.994316733247835
4.85912409289452 51.933388225594435 42.89299023973342
5.582916927617709 50.94570445392913 40.81184159498615
4.112403075585696 49.9329149589683 38.80058602611693
24.441849015583532 71.1539292910276 55.192699015290025
23.85769664911642 69.30925110623375 55.90983022166503
24.222399331314318 68.0030153823098 58.06374036099878
26.792143106972464 68.53251117189323 59.709420481574924
25.313629068324886 51.277979428971925 45.914172744582125
25.263758930099893 48.990638858373046 45.28662116637183
5.9602059102886065 36.58733889637305 61.70556653374312
21.299989886420978 64.0577255098677 50.740768109782074
21.86475958211354 66.10756644174455 51.152432419300986
22.815077005644085 67.53193620574758 53.63406240728234
22.75924020797201 66.74976152959627 55.808899462191924
4.465255806254537 34.78960944652396 59.90423858090462
8.501882418306074 51.60246625085716 43.90137030876039
8.413105440319619 53.67075011782868 44.77896923409901
6.161504018379321 54.09290111435571 46.55500764986169
5.901119877356309 52.91245681214536 48.17106046137062
6.156225580217419 59.21863023541858 43.903815650961626
5.3990432518770985 56.85120793173468 44.115669493777986
5.614240535411133 54.749035468137464 42.850936302065556
6.535030123485629 54.00653120228998 41.04537303050835
20.500874365461517 65.9682599114665 57.48749939659082
21.42030632119079 67.74774187802443 58.0143579665942
21.187649405759164 69.29565559249902 60.284593430095576
19.167235613913967 68.6943417575979 61.794833156585334
40.392148792865754 69.2065678086297 51.85904555897639
40.04337557786649 67.34589881580226 53.48501994456783
38.36779552228459 67.15170956315605 55.42780845665053
36.174337651334056 67.56948270640514 55.33095825741697
11.517794984635572 53.49949060792095 52.10529167422271
9.385611549557822 52.630818602657946 53.04833733543639
8.716022726082565 50.808659168327885 54.85169859377738
10.453431103546597 50.2517761478821 57.11038818161609
7.378668065402503 51.381527857780355 61.957556965602926
7.574750906325617 52.3598288230988 59.50926938787205
7.55041642027587 50.81824276659045 57.390866910938094
6.577478862191872 49.12036693929105 56.6274461039371
27.530611930621586 45.423105983051286 56.680307247881856
27.054332607847414 47.09956809502327 58.488962304976056
27.632360765439564 47.258625659601464 60.95941080521292
24.09621017537483 44.73852595605064 50.77524190845832
25.359514677228674 45.74556975018356 48.818430851622836
18.790363739322324 66.86452721763418 50.49593092733102
42.206042521016336 64.1570183551961 52.257280803265985
43.85512532497053 65.47551023268637 51.33482225800656
45.67231216710683 65.2053803348608 49.32564499756974
46.591504827587535 63.59166282865546 48.462363574315276
4.480686478280636 61.18819747792345 46.43482825460842
4.8142769808041415 59.156414330730485 46.083655339767226
4.480539565870647 57.189227734165534 47.570521874578354
4.348006508692481 57.1125159210332 50.25529524619621
45.11538873763484 63.77102907833655 59.72001150773103
43.29986633709527 65.14639399863225 58.70805132958004
42.78069061913727 65.78491776174452 56.523013204622764
43.820876061016996 65.59515030177643 54.23867812774549
50.25623102495472 48.16302447740069 53.03498172895947
8.380773863809432 49.13105776138996 38.84678770528313
1.2693479992834356 79.20081966701683 59.61770919945555
3.556612742468165 59.96143604835408 43.72766095723327
2.8692636178078184 57.926757316771635 44.592238636427844
49.38014229259259 46.74493393384194 61.32672166635545
31.07274615401688 50.50481011248485 46.480528103853125
32.37743203476823 49.37051800270165 48.88738500060923
34.10378999658975 47.42835535106482 48.98416360439504
7.50692285719677 52.50265059614648 38.399126192371924
6.354247528073711 50.3093422277614 37.32924015575485
24.809861702628414 44.70633939691598 61.65171936019112
49.41524390739567 43.82762502351239 62.020070469768804
42.504564603370426 67.14204100003728 61.1047636269144
4.776155583183913 56.111958663682 54.95446284620584
7.116902734697666 56.56301902980233 54.02903498797252
8.250644941655429 58.65488945718352 53.03017953504943
7.666631120041033 60.631991080047115 52.26042568577168
41.38617441915963 70.49863548923621 57.045389640185206
40.29683535122535 68.03686300962161 57.34173889695539
39.6233946270136 66.72550989564446 59.12631770065732
39.25717319481905 67.1609127341611 61.491530843841616
40.864033301361886 60.78436387917136 58.89239237527881
41.87127260508263 63.06371696397327 59.55528594028555
43.31298216510616 63.76312664006022 61.38362574327257
26.195529775669804 52.930463483327934 40.67151902636324
26.1714165984758 51.035640960729104 41.643551141097106
27.20585407671942 50.166452443748476 43.75950180137638
28.993636755920246 51.08222851415826 45.04159370713155
21.099652406570108 73.34780680944891 54.442504757116474
19.395370725142783 72.12227639991673 52.89147013666687
48.22841623082687 46.85433578699913 58.095871595468054
49.05498972354393 45.81055622750804 56.23256441672406
22.979941041605517 71.893751499624 60.6888503586837
23.25439874886548 71.98644791144768 58.52801261183114
22.561356324209214 73.09983574449635 56.655068642153296
23.015059634740155 44.22307843922641 56.8267093616385
24.743876231215403 45.8007878382431 56.58404292325756
25.08640668429734 47.90231722978477 54.89721557449534
23.712572877019298 48.38414948489256 52.834148033397476
1.3541977898220474 73.87474872821136 53.814684522125
25.377679221832956 70.50103378265693 60.769359319961936
26.3278139428563 72.37964269189085 59.022348193391
25.227359411072285 48.902338254383494 61.92918683446437
37.51485635198578 65.09184814544469 60.76455958087002
37.257557579485905 66.09557904057304 58.41656128026295
36.52530905964406 68.06441088356497 58.09006278401825
1.3315898942958528 73.31594226920788 56.48138371314547
0.43660738395245624 74.57052221752942 58.35867744416926
0.9157925968789697 70.95461972815241 61.39049610743241
31.212371729356448 47.169651999839715 55.65013878020826
28.915821812958498 47.88172439780092 55.845855071613805
27.451906762402043 49.4906066474469 57.411438234517846
28.744054292436147 51.20132639789872 59.435038045184555
26.054175159211642 53.840074726509464 57.15577372496486
25.762790346267995 51.61322342403504 57.2220385115035
23.814316175011584 50.104513680922274 56.39691204064066
22.464342763123717 50.4562526967462 54.48214076670658
47.6515221312142 48.711239328699186 51.38739183072291
6.999484839166074 56.833697939775654 47.148668792884216
6.477777825537294 55.519182162507526 49.33646905454042
7.823883928135834 55.76174787076678 51.51768952685997
9.585015731243875 56.42388498802118 52.12045301342667
22.276320853214827 68.03763040147051 49.249226379749466
22.439084123039393 71.32070991197558 53.300822520918736
9.462712016378873 54.9142441924231 41.95946800750965
9.130629853516812 53.04547169478853 40.64905999546197
10.251392131017294 50.67913492732562 40.71652439424783
12.404525725246781 50.005958304933316 41.04157993473195
19.849271445440724 70.20931894259286 57.13807786697229
20.719859745195095 69.60868430611565 55.04919777716827
19.618344151532906 68.82783666410417 52.75350226875617
17.21482175323414 67.5628782125471 52.761249691211844
7.325889305021891 52.25198869878939 51.29823009075579
6.02004580716361 53.85944211064218 53.045816067444456
4.122987206377022 53.6235922901026 54.5600875768204
4.31700776160377 52.1060886301119 56.370592089587454
60.21709124992499 61.022222031120236 19.410154929333157
60.14185552292454 62.74610300769502 16.95288091732876
57.849147187725954 63.86535653301031 17.822253846486714
56.37993653272895 60.057837530892996 0.494375157386474
60.16339166938186 59.10882684179853 34.072895390737536
57.32279351022782 55.68907373948613 34.15846899360921
59.76962317651659 55.48288294526577 34.524775800788305
54.48714012692395 75.79069015856297 7.432421381592959
55.62420848772147 75.55840767410115 5.383750222005411
56.241695461976896 76.81383659466512 3.734467385648437
56.16670096660174 79.6125328352297 3.294645967219808
56.32804771070402 78.08121444123827 8.82089934555852
55.279616836916496 76.30136500214502 0.8207879646963436
55.14736629821246 79.11929709609308 0.27411857851427024
59.92170629832788 76.77860567839718 0.10091042016552536
58.93361806234365 53.8789714006501 0.7334078704580124
59.50204644118868 74.91781402011402 9.5813910706773
58.338890831129966 76.39475681336715 11.585791105834511
58.69219928140375 78.62345610617616 4.867763774945192
58.87065802711976 78.32136030289928 7.341002535489208
58.325221749518924 53.69867394575818 5.763143778325172
57.773359432143124 61.112684285935494 17.11425398957489
59.05445920920373 58.94369351919356 16.449911697785048
58.275292956046705 57.05671137996071 15.06618125289574
56.119475021814296 56.792775078105876 13.540223667536031
56.954451534286186 55.90352401485995 1.1567960394209276
58.42355427560957 55.15626562099121 2.9154009392423936
58.04531690383062 73.67803344106889 7.086658430097871
58.21242947177857 75.95701056938773 5.531819269274533
58.60662732905442 75.95106089212976 2.7959409533641377
59.531363171486404 74.34551790318855 1.3230078680978812
57.658390494755714 58.52317090706735 11.516611891491664
58.850415385089335 56.919579315747654 11.485741231836561
59.1340642045758 54.93542685471045 9.204714205343986
59.86420681028735 56.05613908978547 7.042756337337971
58.721712621070814 53.5817133776333 17.541915907832216
59.69552050478012 54.32972268801326 15.353859970657707
59.32428725022172 53.32517486277135 12.875103497038737
56.875531803014646 53.70881067767847 12.065669454010122
58.194129009563234 56.20939080644559 17.942971482008467
57.79138565018559 51.50424580799978 9.518159912236541
56.87671615271701 53.570071997674646 8.202988793920508
60.04777534073216 59.30392397527111 13.43901836256174
59.390629492760006 60.86294502336397 11.773916842154444
45.71885016015459 41.48434330304831 0.7444411188100909
44.37592034521268 39.93644895953279 2.491492694173334
44.02724833643624 40.28444507810328 4.977198513733561
45.54288154206173 40.73230795443972 6.528137762802437
11.28829081239827 26.511289313456054 7.956719422882452
8.727180557879198 26.15715012869253 7.103240971716041
7.747580520887852 26.840504172833015 4.915525254770548
8.530830071681446 26.907737509249586 2.5408880517122205
51.08111985657831 12.058179549042666 6.84930323206617
51.311606381676256 14.329332525715765 5.54674398749599
50.960212220557345 15.068477593512423 3.45816199834013
50.43769407149225 13.905257481157337 1.2970274078107669
28.115500219756765 27.649413573869975 2.751400549330165
29.764911838719375 26.000215540899074 2.218223570656657
30.96863460195973 25.361161244286066 0.005268560379171594
39.210656210508056 66.50881052278902 13.5015999509128
38.44661299528047 64.61917454746154 14.438723240112616
37.57946460728003 62.401660002275555 13.690565996175037
35.97391059860902 61.69656842070227 12.158410910760944
55.097689971775594 16.992819356675888 6.9238623562256
53.73719241937741 15.678212430836036 5.187926498345746
53.3370802484348 15.838364365697606 2.5925549213591497
53.55912060948746 17.505020800174233 1.0879852849039287
5.054429596354045 48.87253602595143 5.912444140581577
3.279890591659541 50.68203251793491 6.028292338438362
2.2799534712222043 51.784529010016165 8.157970023737429
3.8281944908941523 53.35366229635468 8.886706725244014
31.07291633161054 19.716848743039158 9.979484573116054
31.936831320725297 20.188708426529107 11.860815794100368
32.456207081127275 22.472156491191132 12.626824439697522
32.871044845315275 24.6355613188657 11.327486341798982
0.432310307121592 54.26051453587757 13.169063199292768
53.26261176280232 12.437834075789107 8.09327396620148
52.37950977769481 14.600754441229212 8.271575173543345
51.92601547971609 16.184921393558575 10.289350973845323
52.66358222731297 16.27054199512633 12.58885472132958
26.76853697339651 43.90444026577214 31.262511411983528
26.192894399700638 44.97946309134199 28.95108810319805
27.288714970120306 46.91527598784844 27.593201066179766
28.93613854520275 47.51009623880779 27.033878619482675
15.63243986020061 68.73950693986394 0.6923521576968562
14.33450057310436 69.27587706769813 2.1379213855916754
40.83969781893165 75.83751695551364 5.879532288985324
38.59965297745937 75.82791084174029 4.435351846216016
37.612985825792265 78.23838959135107 3.651732533177926
39.10133060574919 80.30413455267791 2.773555706905821
10.826498303533356 29.559104656135084 1.5453570299761479
24.719686402453636 48.445475551766414 18.835670520508163
23.3611732793701 46.600635245012036 19.59195379106619
24.112771739902296 46.20714573745444 22.419001792508425
24.410761624983397 47.627015742987496 23.93062372866221
3.8612876826754534 52.84769217207271 12.464920268727967
3.6975678699995633 53.93405215793784 14.55444177283638
3.1211167565653435 52.69010864316515 16.52478302160553
4.495400550451895 51.301746270359345 17.382928007023448
54.84462310359697 21.87446027712305 14.862096638596485
55.25171923529665 19.382054767553004 15.655491467736331
54.68341730962068 17.820184687010475 13.126935283744677
55.12573791360138 18.31278365143385 11.143500351616991
31.737789088153935 76.44132580571588 1.8428234856494978
33.02792862834662 78.41591454219933 2.1352931720837898
35.79624842808124 77.43429251024487 1.8176715072277594
36.64077345667511 75.7450631522435 2.432365958943451
46.240815699525804 37.13112114328339 17.981750925373568
45.23831885244541 38.099357955046436 20.030251418123637
45.439926228898045 37.46512444351173 22.42872163320587
45.994818259953384 35.09660108967119 23.537105207052846
5.7486052902237805 55.72605410490325 21.743432926619917
4.571095869682587 54.287070889893585 23.613451127208236
4.655789144308187 53.97876232216063 25.71405113413804
6.489747796410302 53.61387923640517 27.407753604236646
8.044481005866835 21.946004300311667 7.292560641111144
7.778338144983165 23.876498359153903 8.723946357481116
9.748523696774573 25.164905136939947 10.196790672343997
12.143608697173688 24.721494248766653 10.279648439676114
18.984474414975068 47.79537023970754 8.989254103109253
20.623718038971155 48.829008560417655 9.650356036028695
22.456615406940003 46.87995643398385 10.772157712371712
21.532055340665373 44.66217627408112 11.514215406209082
18.548677337931945 39.919464936257235 7.670907970276193
19.438681495502845 42.24457005404058 7.831317802894448
21.222685122115895 43.300279417768195 9.004870717027936
23.192685978847084 42.480551275400224 10.207733255998832
30.90306010643941 18.79744168825471 0.6098573293341114
29.58201464281167 21.313033972719396 1.2395787398765328
29.946214904745087 22.40004988757372 3.3892498844473247
31.493203563417186 22.1770798321856 5.292015734073928
58.178029661940606 17.533996633556157 13.077302182729774
56.610537394809434 15.958097436096274 12.10537155082435
56.5843910276027 14.744839918627695 10.37592513373601
57.15087520668433 15.0447083030365 7.927693390190692
6.712104282788702 30.916757331656015 20.220496569395433
7.51423365868606 28.947651155803825 19.420562513793506
7.443418266981738 27.86700374561254 16.844630664417053
6.998683859657613 28.71637377286179 14.729794173945752
42.40707762119835 36.23727305668742 21.704994489867275
42.97018853860008 37.27481131476782 23.578943541417818
41.19783522825722 37.91190432682824 25.842611807472327
39.156071599612574 38.2046078301518 25.835500678461788
50.53128184609973 60.67233292719068 31.933587803997273
48.71008063706967 62.55918373559984 31.032975707714474
46.964092395911756 62.46265336590417 29.4325748766273
46.076942172030066 60.67827990538564 27.721504720510907
53.34491695540687 21.261900697566283 17.07369463692794
0.7775222261347929 52.30627882697548 23.550149019431082
1.2113776436104662 51.3047611127368 21.307550843934358
1.6798595011644708 52.19985027361674 18.83523072382553
1.5935755758103312 54.80597581473956 18.299661493815712
45.81810675039966 46.7683912792325 31.58641449425289
46.349908781752426 45.225669884453 33.34234729311346
49.4067365524661 45.428163388781996 33.64773050465979
50.630899067355216 47.21778278326679 32.43697011606271
43.56635601413622 36.27736138748828 1.2588736606787456
42.59349872836288 58.628511094607966 12.189245377038876
40.57007194579521 59.889390424520904 12.987088416364253
38.054765434591545 59.889617056397206 11.730564246498771
37.363164696585656 59.659782809461134 9.974457924925138
40.82613708974704 77.28079866827778 0.7051289885239934
38.9975328831496 78.76440096075653 0.11143407069087757
50.96433730869034 40.20329520595759 14.696251923735643
49.412788708342205 41.16477142259874 16.610684730982104
49.84241315335568 42.428433291294624 18.711767439391387
52.0412522221952 43.57652101153757 19.596742504795063
39.53301538811114 65.5033499357332 23.0757963804773
8.096354483662667 30.54513618744582 12.8988229915403
6.923493832302606 29.15696973918997 11.126692918644729
8.43895387821864 28.453669893686577 8.820585996773026
10.604602693968461 29.341950994506202 8.156200083191683
23.958455243539298 39.98381385722089 1.318306582625481
