37.271350382078246 12.254567583062949 17.980131058309574
36.232507248001355 11.168416189556863 19.97406079400036
34.9844844732253 11.987314831116858 21.75659934670289
48.28763398206152 46.67842398560438 45.63449407143589
46.03679070761269 45.05465094817089 43.99096796645307
46.058819345169255 21.930747359789837 1.872019948621356
46.50724642579733 20.541092427600827 3.4976324483733565
44.86083265222733 18.61926030665985 4.663896243738453
42.76984908704896 18.38057775658641 4.792174175947602
46.500051805105365 45.86002986334617 36.28564535128557
55.213141154126035 43.05449040961649 58.26874704047237
56.692764022227465 42.36934258230461 60.41728974140904
36.602941566236474 28.251511221050905 24.95337059727429
36.1164279089369 28.352463860108188 27.200093018905037
52.12035633115132 43.66163548751359 39.655926687643
36.34560725166354 11.65744646661874 42.60202836586984
37.14077422906709 11.666832990454731 44.90291965006346
36.653318275649674 12.111067937191972 47.12307619108318
34.4108222016328 13.069680179615347 48.244582462098464
25.61554212473875 3.1949420905188544 28.941730523323137
37.966388863577556 34.74038636749594 20.329891996774716
39.820298286500496 36.4813929968955 20.117071364960566
41.03428642219419 37.57905324247949 18.23563068000609
40.57195316524668 37.951660386814666 15.944752090020735
28.870258311497444 30.50129440790782 0.08735250442635858
46.71268388944692 19.51459996767359 0.866786408944412
27.373921602566913 23.240328102584577 5.179694889365152
27.59299672639746 25.46201312426183 4.973924627705613
40.75576225600967 9.03274301853784 10.952765211535887
46.0466526715329 18.26393263784923 42.53800957539372
55.66013479896945 25.30630003034237 61.47882315902565
44.92607277582866 23.6056707740649 60.9645301316656
48.812777112693844 43.58030487389793 14.570436792436979
28.1896456393527 22.905117469322143 2.832438143006017
26.44029445161593 24.774095016549932 2.5447650333189467
26.30879962449644 26.191344104710847 0.06771291919995981
27.513496869108693 27.95139796283342 0.3873693480399358
50.50844559850847 46.00367053429026 7.372424181922564
51.370697716669426 45.24861882506926 9.870134296567118
55.00739264293569 3.8471861770909763 55.38780972900697
55.84103077902276 2.238399714411783 55.59207623136899
56.31393215358939 0.7118993356322787 58.332756869177494
55.483797578108344 1.4914657048238518 60.15433234402531
46.71955200559799 46.931946865331675 40.851757055879396
48.88075038147435 45.97020728074133 38.76177212786414
48.063258285028496 44.70963722543251 8.099943907941956
48.828736778150535 44.6051169700788 10.499813094512238
47.31590394849882 45.241148247314015 12.824989897062553
45.12180351949059 45.39228933576733 13.256218263933548
39.03699776134569 10.02389492201702 46.55447222981418
38.58990819788122 10.675884867920344 49.04963297753471
37.647474757621836 9.392845068352056 50.93909300899509
36.90306913139374 6.9993599822553545 51.35806451879275
53.31744671356809 27.28014104200538 56.60839210640101
53.264732353761325 25.310266549600826 58.37052962892265
51.893068247419706 24.66778978146081 60.24572553685857
50.04053282247721 25.309354833648044 61.276701514468954
48.071587991248165 23.1330257617914 3.7293799492392785
50.325938403165814 43.86419148973927 37.64782037311645
49.03606423475443 41.993981240230426 38.816421500463946
59.536297031287845 8.435380248978412 49.5897193872519
49.54761088064313 44.79345367566994 3.81097937302167
46.68903350916658 16.347751623305655 4.300314620308953
58.84717662118045 33.20841496479904 50.98001855467056
46.32788818361773 45.40309922440563 15.89523548588858
45.27130223162327 43.47380921927691 17.03947016008937
43.76572697777702 43.54267585350358 19.253230420509787
42.46782175542556 45.27298714940797 20.55942376497848
39.41219962756206 35.98966681109097 26.747691578297946
40.104012339961145 36.54567763812525 24.663125907724428
41.94975112116295 35.32765319439703 23.197365357569563
52.52693787549438 2.6594847088530322 57.701042004462046
51.153081163896246 1.720711572519885 59.332750438583844
48.65088946301669 0.6684681760488014 59.374645261514885
46.801820752491004 1.1639858534352743 57.55671824782424
46.407071399420644 43.13785522168377 37.65526871949228
46.924971849618295 43.695046943132176 39.56228220459964
45.48173862319047 44.59819904493561 41.52646103758153
43.439302881931724 44.18766385447364 42.29717448412778
25.224315631988304 2.3206306948430053 24.789507801407098
40.10684328649356 14.797173942966168 39.111957093787495
40.7652129852166 15.822542562255357 41.40794794669555
39.57446532887198 16.31797098400018 43.477367919881225
37.57270718934885 17.08153852786916 43.889912740689816
27.642420266650532 2.6631188365029725 23.592513242107806
49.25161918778653 19.314271232857326 58.873475245857634
47.28574978041485 18.787730857650807 60.33530505423254
47.27399253692435 16.76581426453565 61.80027626263652
43.4234111219576 14.136498015702365 8.03388230734294
53.89925997360843 24.438997237306854 55.985831609097346
53.37997534028151 22.336610771119386 56.56012309209648
55.49544802370016 20.527174487371877 56.20609811975707
57.904536635468304 21.784331034861843 55.113846413237106
36.53188173890364 16.751919359708097 47.501656992688886
38.89551158536577 16.57221934540631 46.950683522205594
40.85664374209692 17.93278613603121 47.44163732322476
43.319827250225885 43.26528572057443 13.006450218395514
43.86208239332113 43.0583293285654 15.00765835091625
42.65313205801429 41.0737619773917 16.7539237077105
40.524243826967634 40.52675409902432 16.908200770410023
37.14629377657135 30.567059973041314 23.452142300487413
36.15899431660343 31.44445250932224 25.14299285884497
37.070573120129325 34.06869176467827 25.813295765694363
37.5489085327659 35.57994518275758 24.626171822549423
37.78156031604721 43.97761048182673 21.38406214028977
40.07591790038386 44.12769405341139 20.105163584252402
41.12270386227591 41.61596539821911 19.531614264431212
39.863947220069605 39.47474011372815 20.39862607669531
39.41732593492134 13.335737882465452 49.6680070268226
38.753342129250385 13.789554969620355 47.1591655155381
40.003743982264716 14.0036856716903 45.01268183896271
42.34098431541288 14.563061377230392 44.49629374196207
55.74738239821874 2.468806673953006 52.744803308456184
57.64029033771805 2.3782614454500415 51.473671851120876
58.79836871952307 4.249572760776974 50.04354838441471
57.637758603468356 6.148515393121747 48.7545676827564
60.21139654198006 24.939567648988582 53.448046289493384
58.1385273361259 0.6695512241104365 55.765562578611075
59.02003878756155 1.37939212328353 53.24366842543577
38.55503645583637 38.92186772596743 24.983956182766327
38.627025969454984 40.347966792707155 23.532368875275854
45.55543146060079 16.285512921994286 41.00397108489904
43.491428915777405 15.374129484193187 40.63278349528518
42.396845804097005 13.370277209179973 42.300984600918206
56.16877033492843 22.231456228387223 61.069589466544414
54.390858460810875 22.097270585496776 59.331207412511915
52.05682488825066 21.00448149634878 59.45647015865387
50.615754696509704 20.90253953551463 61.225306726003
53.04246128936497 2.3515839318881806 61.020997835628464
43.361522946815484 18.277871974920277 39.931717030768034
48.083264044087734 44.73606942432304 41.9454099164941
48.80775138091704 42.61460676321665 41.27781846854915
32.397859860128456 8.197920603505349 20.758123215547972
34.0050865119003 9.38527751854696 21.637485717261097
34.60922525026573 8.523154258029802 24.042655349959038
33.29797813677625 8.011397799958598 25.639879730512988
30.78613026513816 5.240060257506479 1.669362634594778
29.470396525641874 7.386755804618057 32.28723329907156
27.918997056313675 6.041720428978561 31.24193322238275
31.915719867999655 5.310882016945254 21.909204771585618
34.36048391282999 5.153829648595143 21.09292860308706
29.01887857240486 3.7170162732394423 32.57375879442379
30.613810187674027 7.621111526078328 28.097179558597407
28.387435652218414 7.43838912237111 29.1611757699143
39.442036039319675 5.429447744080032 13.067150748599511
38.76690506507711 7.119494700053609 11.362181818942396
30.776104439583907 2.670502191283566 3.078534212767092
27.282177941936784 5.804832287103956 27.383716453826374
28.181956915705968 6.4885211643375476 25.52565442253918
30.472666712139524 4.272169528569636 28.484932500772135
30.727741376818418 5.471834535985081 26.01476984488648
30.080766105273707 4.676858054309114 23.83851049976302
36.73272166999782 8.319260258256605 18.977974891362173
34.46826893689394 9.275807922677474 18.643319831793395
32.25966271571047 8.225661118312004 17.665215414125303
21.289769554101095 9.076673327491314 10.567830892959668
11.256989495481655 8.926214335499044 16.59693473391226
13.876434173514298 9.95790303084284 16.640430680260877
14.665828581336676 12.0698428268728 17.048224650673184
13.228107414784239 14.364745274271344 17.33619943389252
58.990690837887854 1.137808727668499 18.106928395960463
18.456032798856622 7.9518333104845595 7.628788808297366
17.787154012209346 8.897617803898312 9.588279092539088
15.825287548711342 8.01074148763022 11.474928557574906
28.813775649024322 8.201974017696845 35.60755245562542
39.433928119972464 7.5736353179863665 27.57022809259816
36.92569798374315 7.587182725324588 28.74199094294193
36.20714636871981 8.561981506990392 30.93755907520679
37.17765671969656 9.658530662220182 32.67370407741709
59.065941499996825 2.753433517642932 28.13102650065423
58.90883627400759 1.1547250409230756 26.57571956792255
39.008291726457735 6.684729009195459 20.146051963514793
37.22857419673671 5.5116263898974305 21.06759204195059
36.26157126784124 6.268382353745614 23.685968682518048
37.56135492012631 6.91981504410591 25.39111025428337
16.024621930352303 11.795837705404756 14.798916268194523
15.016148598910474 9.902858887974144 14.017809094320203
35.83399024517933 3.434995962076695 23.05014150800535
34.9019015205691 2.417161317374392 25.01292790941058
31.593983533466417 5.394746473354262 33.50260538587711
32.35112268168068 7.6636376991449495 32.88331872752124
34.24307268632526 9.098270411541513 33.679642300741655
30.863701446437528 3.3100849964438517 31.555989160137383
32.99352304029692 10.28472419763755 30.844398205211828
32.74570813943817 9.165573238729488 29.000855401680866
35.30094678235483 9.970709482463386 28.7039767184728
36.08707700281818 8.870535556307575 26.746643936799867
29.01282295378527 11.076186476181634 35.12850716359614
21.18047206244715 6.986498491023205 37.627663641451065
14.381791160446143 8.388210533727634 20.18907149648998
55.72831022737481 0.08561366805414378 24.014868268496492
57.265443744430186 1.764198424916007 22.943257249777293
59.63919326715893 0.8642688454380933 21.656235489881325
21.377406896796128 12.164898038407944 8.092664300178203
19.77809859257089 10.541423734941548 8.58723018427547
51.533690204972544 1.0630534885719463 26.63566091654201
53.711327228515074 0.9948276624872093 26.094452287205087
55.43640086524752 2.4365294969919837 25.15989139709793
14.432585961660093 14.454823838776454 14.223201810393444
12.417294632349723 14.274767187063615 13.378848282957112
12.260130839765193 12.217909226351876 11.741988972180367
14.741261611473135 10.95980690447002 11.105703610948998
34.70841175063148 6.637533640517742 31.46274767017807
32.609650816677444 6.076174745170965 30.300509857298735
32.87058520094962 5.549075559595695 27.521677007671894
34.361303045787935 5.046417373493336 26.140950210937138
37.791355882531604 6.167352641881345 17.94763452630344
54.12207605483999 29.189949244849295 34.31970510632192
56.21685537497338 28.34295537498154 33.27837194735915
56.788951144711 25.62610731687757 33.8232887869054
56.692900322509786 24.358468048554055 35.988309402268854
34.13843655760718 21.70795767924175 51.41732842040817
34.02987483535278 23.962714564943738 51.746283788753935
33.86302787082489 25.172151776341835 54.18140454341052
33.47097057454614 24.32075125022128 56.25690154917228
26.482820397152064 8.65878963889978 59.98976756535494
27.910977391395996 10.143910518619695 59.051785192173405
29.035811722122208 10.542252220169026 56.72405155354288
27.88546841977972 9.52096039228699 54.34213852242587
34.91376806716152 17.221916072498612 53.19721176894147
32.7246918901445 17.129136463217222 53.99912896589738
30.887664227247186 15.173005333610266 54.43613561174565
31.1371794037006 12.67013512572988 53.79290608282235
28.246287265063227 43.25109297117943 42.094442340117446
29.013251516933632 43.449102554151004 39.71969515929724
45.65894897751857 16.243122481899466 38.5114692434379
47.344578801180276 17.051564348456342 37.00118540773474
49.86473143585597 17.467735516128574 37.7135458053819
50.986766423811396 16.772059725812866 39.522752709821646
24.924198642440416 10.676541704505373 60.80041968618505
25.75270777017249 11.739537217116307 58.9580596233978
26.906932266941077 14.125033304124848 59.93508757059248
26.353074068543023 15.691066488235853 61.81882453421709
45.67379564175501 21.124823387995217 33.48555869950093
46.96537099325562 18.54460129738279 34.31056130251565
45.950192213167306 16.45494037452808 34.140955803461445
39.98318821065342 26.758503091766087 52.30181441111741
38.22933644291852 28.883289015123733 51.73808816990734
38.24560714748213 31.055169352862 52.48600256154571
45.192373356694716 47.01584751551407 56.006264276058914
42.82818514207982 48.10973810113746 57.455162864146345
43.190258925001885 47.959180112793526 59.614162676825224
40.42088405852562 8.945343096950163 39.12461758332856
59.6043573559779 27.13925684925618 33.47217423172407
59.03296680683362 25.171340993671034 35.16166861523173
48.05369559510923 14.951584230765787 33.060645319066104
48.529466443196625 17.27548303546631 32.42203863547915
50.470721216701044 18.79763463197468 33.78497625691709
51.890890724810234 17.564166077138466 35.90563183349776
52.30552948360877 19.084977189033655 39.69457514200235
51.80410045958147 20.00823832696765 37.425603110531014
53.30188876930699 21.274458070955934 35.614949684710055
55.59253211337283 21.655115713516388 35.50304649449442
44.493624305361976 23.58479486928648 34.425293171554145
16.055148185412435 11.235600234348128 41.56755049080883
57.771991870156604 3.633756856330702 46.983638574528435
60.028196752142605 4.570436620875168 46.91008217880231
30.966558019985005 26.960361948605435 53.26061317556194
32.41205385953366 26.978473210057413 55.23863258517613
31.720395704629638 26.564578360789124 57.72950179220034
29.870524140196782 26.00743504923991 58.98706017087388
21.65887366733317 14.575370585440094 40.82736143182042
22.91128807971427 12.763792984310287 40.55249124933169
21.527464280743057 10.548178463566334 39.19313387340524
19.520113569516138 10.09157394023304 38.951524352712546
35.396760247194145 18.58799098026989 50.71565459538584
36.330393864009494 45.38941015248336 59.8367430058297
38.277424326612845 45.94501645739559 60.61078815307319
40.35852533159948 47.16862029479734 59.89084516077251
40.70887625705815 49.12663040967803 58.860978741732154
16.44635577178819 9.207630970498203 39.84746497847525
44.29002984726808 44.24802923678374 56.3632368789613
42.338587903378624 45.46534386677389 56.95192882328112
39.75763885781003 44.362194953506744 56.87700191380301
39.175649899467466 42.034857732305994 56.09409906010069
35.96877034275313 40.315916846164356 58.967070585758776
37.41232557628551 41.796422664392715 58.1083786933647
38.73420783374771 43.32836389788002 59.22077713835373
40.38867179637396 43.271600378614544 61.15059115131093
34.52410144226234 44.633123536255766 56.22536658443131
35.58608709505124 43.871098581524315 57.88151406998337
34.65256753810584 42.42157118909989 59.99502111425352
32.85576220803864 41.655065033927244 60.516690469976226
49.962272307542335 21.521105825385877 41.49284391577716
50.33190323759111 18.717000617232465 41.410307644383025
47.94052848051484 18.02674787689781 41.28525026135112
25.34578336060152 0.6962414616743077 45.13321631935456
18.249232752441134 15.40262023237948 40.31032947760068
52.4127410939148 19.363072007154738 31.81025185451536
52.70981841612399 21.20765307892439 33.14203367470541
54.660999097484094 23.20754975141997 33.162859045104085
56.40326261881486 23.85615894722785 31.410452881307602
33.78672675585151 15.242642564819139 57.17670091006898
31.004260277766463 15.233225235128202 56.998074190500965
29.227298046336227 14.119327380303165 58.245569012258485
29.18816185022939 12.40190273671686 59.88888320895158
34.13435644003923 17.13983808177481 60.204588558376415
32.64106417177499 17.527326803964993 58.319164509202665
32.719131526108654 18.797151271083024 56.487364814198756
35.22655568141915 19.061476687705706 55.09641415566104
25.775611837503615 37.557631720460265 46.140627995790716
26.05396028585662 40.25740037041354 42.31110067686897
27.92217731538007 40.47043650049351 41.39610631715276
59.50692607991768 9.408290006692521 43.52367161690434
50.44441326057366 44.15663935434725 35.19127851038274
60.132848694039 8.323980512360688 47.09911485028468
44.121964464764154 44.246416513236106 53.2069499847418
46.11859409388348 44.026708458696774 53.75950345894191
34.619892374497304 28.125755283245713 56.1975122048074
36.04526743948197 27.57898697588424 54.87178293516385
36.0066584885575 27.71358559571172 52.335306861651674
34.36670917464487 28.933422779618063 50.961660732950804
52.211704188943564 27.80122619860917 33.21446274053785
34.70478288515453 24.7259031059182 58.73520057688345
36.05358538519597 25.328874821681744 56.823247482344655
38.358742673798766 26.657069276171097 56.39353140009216
39.70150138171735 28.164761363080455 58.142561691963444
44.45707058155416 22.75122072124293 37.525296130839834
45.669052923285626 21.158642503939657 36.25353590015824
48.108003759066456 19.920178142743755 36.760894790844915
49.52570381704572 20.03812216332955 38.738421602484785
25.18736472929274 35.10570293331569 44.80515848977995
34.556737225081704 22.32302897185808 48.62263623218733
36.876343520447726 22.69202417333934 49.47517376895886
38.33632205689371 24.992577661032524 49.31680876478737
37.84672052678109 27.295310317283324 49.528316906743584
22.34998374484794 19.625632496812603 40.077882290903716
24.508858638338168 14.401729998972186 39.18968609617143
52.148606413798944 25.38493923428124 34.494815810193906
50.60316728968482 25.148489216705528 33.08547012321984
48.94349759278902 21.051112786715823 33.6198610723158
40.47885953307821 46.813244296772304 55.296937783508824
42.27285307828158 46.417959405872054 54.2261941984633
43.249468374348375 47.27140400578371 51.69879331530319
41.406009283586194 47.332387749553355 49.57757659626662
37.205548006948206 22.28856307745961 52.16552398898748
36.23037977209509 21.21272478905652 54.007613554189696
57.62848245915705 1.2870523677372627 48.36223333193265
59.910211363561096 1.188260648667519 49.64463395523146
38.2218709829509 31.09833844453039 49.61751241512792
24.85683167459903 38.39191954288831 40.53735010164834
31.69068374161437 16.49581376756027 60.892211052915926
47.75198494498195 15.09440380398171 41.74985534295545
29.012737975462187 14.12607254322177 52.312522880700676
28.608006445424056 12.260162962502717 54.334544686101694
27.423075751444355 12.801056206814883 56.54907399247493
25.35965639023931 12.346035276879402 56.35385920061721
40.62992937087593 20.459098279964845 35.32924074205251
42.96010304854258 20.59047184971433 35.84450067429871
44.29021676568548 19.469705941275183 37.82040053154164
25.329960394122004 54.57437331337699 21.403302888616686
32.769512684558904 40.10434012468954 35.686325860922416
34.495160967651124 40.477021882519935 34.17289236807314
34.26560046437838 41.1668335403287 31.390518753423425
32.00297661144111 41.41249489058709 30.325177471346155
18.208925179922527 4.815597265649962 33.27953282711613
18.62046717052857 5.750796929038547 35.811212993995845
14.894266831735012 6.596951002059417 38.28324266667019
16.36401496466598 31.593390465092835 13.007779478777842
17.872091783469845 31.03009108415289 14.735669872145888
17.65430959447049 29.886450858546752 16.873367751687866
15.891227198096026 29.029236273622562 18.15973506302872
59.09009142928864 26.494259794072693 29.512609174821318
40.04365420546283 13.518923459748352 17.64579494120273
41.43322648105146 13.585432312750795 14.98595046821202
57.5806694578366 21.59190452557298 25.839433916813324
58.1967817606479 23.455888826082244 27.37877181014287
56.99481140023227 24.88363840516577 29.13035791371556
54.72812712690022 24.723205642835236 29.87562303431848
20.400582758633885 25.421127513099805 21.992040914508948
20.991351015899458 27.630588276165373 21.516272742979893
20.946043869049426 29.09244066349033 23.536266800937632
21.35051419982067 28.300005267519182 25.920133582360588
36.88298365086529 35.99176902416256 29.757514491495204
52.06037633751439 24.25754474456318 31.785781573784128
38.45976150268116 35.04312280181051 31.11131073660842
12.111278334703234 28.53603471040844 0.14600059374823618
9.249972880664968 25.446564770500167 0.413659371038738
10.588789916506554 23.90485756097442 2.073352082851084
9.201855306622454 9.341261762918732 10.975042413400638
44.65464428194609 32.3168913745947 22.1176404674325
42.77517538484923 33.407022544571205 21.45418890690215
16.744624206719443 29.580125258178576 10.538314136611017
18.577046186999855 30.801469112146577 11.496814543963316
19.272682563082025 32.82975716303902 10.2512802623063
19.37042056055089 33.29925794564856 7.767386691620107
26.278097719875838 51.768717496173544 27.06573335503851
27.5043025203754 53.66824234449619 27.274716795366267
57.34339064220515 29.482375287240977 27.878979868638265
55.591672056055216 27.771982841179362 28.83989050262651
54.535226376361486 27.109797752180455 31.23137869975359
20.39517357256258 35.9848026083992 8.419920053350642
22.30481662713317 36.43095716379424 9.482807597404785
24.860166778465025 36.67521233997294 8.894639581115321
25.832841631810734 37.26083630768873 7.046491167657367
50.93108958356178 18.099059391530883 5.849541036697683
48.8021879233872 18.077934482070187 6.9172361558659174
48.03563123703152 16.704532901604285 9.144914031475883
48.956784158537474 15.96547979182059 10.798519812118586
48.34948277192976 12.905453979982964 16.582008321688658
47.605160721351666 14.265079016955474 14.64422898937308
45.01886491787991 14.32566047773893 14.598520076343192
43.42473594786286 14.801972938346278 16.523643358168414
39.23548623902312 32.399777088316995 28.99147775903361
56.57511363687775 4.033541084485676 21.475173040512338
57.565261580863506 5.54618173105045 19.79308056607606
59.47125509019428 3.6892577255331545 18.39635294103129
16.90773362240999 2.5631172662962753 37.92928125746277
9.078660702685346 20.194447202670705 0.4089701402867937
13.796051816879583 2.0933403263118744 13.072479955055561
12.94658786141608 2.8693741216884296 15.139790156382523
10.967420997009794 1.4433316712405402 15.814791768610911
15.88950204543777 19.55703717361529 27.12221041211265
16.074006468469204 22.312255151479278 27.26245085097897
17.291490809544978 23.817002599032943 25.745955330565042
18.20431793121221 23.890719382027786 23.306511602489326
12.244760191950324 6.443513551630927 5.76565487870313
9.890991101899937 1.2187593145442601 22.203680596789745
7.613455353474429 0.27446624311394935 21.92570768760421
20.139220104030183 3.948695793672198 37.253655517110616
20.914172681604423 4.261091314039205 35.1610328550067
21.525610898075143 2.1670514442483104 33.32198858560201
24.908409732714198 36.73469676976348 13.314615414201356
23.41953167914488 36.0163424223593 12.258276957084384
22.21181304780152 33.68796445925463 12.473856076495126
22.974817766077013 31.974593135182424 14.429426500933833
50.59588534752881 41.943797515557804 10.370551583906224
24.22514844491679 34.58083481438551 18.32453813878097
22.270274705826687 33.66229478484156 18.523341028073816
21.134119060998675 31.95705159848837 20.473276527980715
21.69508428558649 31.6965119589883 22.524029252957217
39.675582439724316 10.127663121648949 16.30761312685932
39.450577876491366 7.727017247706586 16.14312843055527
8.77864704506671 3.1391292999724736 6.266032033059507
10.216716203600743 2.6116655363228145 8.19156356723728
10.947727164140925 4.290188489873679 10.199141865125316
11.262565494974243 6.704947889000844 10.39327071797598
18.760748642873903 32.34080673299679 22.58207373753705
17.159004025758755 31.00512312104425 21.87419054616299
37.82595867912376 43.6455819158454 35.885910407676974
36.51268191106361 42.424232651627335 34.49738929213964
36.88642917164199 41.532213267626425 32.12537141902461
37.36738233402959 42.77790536044185 30.16621098309954
30.732090767620342 39.63617569432671 8.406255454308237
31.120479201427294 38.30786798777235 6.568228389074615
31.79507542001338 41.50247345674688 3.5412815943901577
45.55981235754629 37.82818764281204 18.357994791232112
53.29453013808485 44.27959696638125 7.431613959521428
59.62541000967422 7.2241017692108676 14.555319339889929
24.759834596647856 34.889024918506344 39.40684314258651
9.935698457250359 7.952862330067514 13.834778057857525
10.499853409389393 5.86878657134764 13.075708790556725
9.899397709915313 3.189566356937307 14.208575230306728
8.387453282018512 2.434767976172827 15.224849675105885
56.58083705841153 42.005871922788586 5.9892823703107085
20.506877468838262 23.232114566090175 30.542064448039042
19.65314665139292 24.456770876759624 28.844908371877878
19.755945598773064 25.105264084113376 26.572341029355915
22.19973655578732 24.29983791973744 25.022107910916755
13.652921257431682 1.0309375771443263 10.509543965804761
13.251209003813175 3.361161915789685 10.015475383718426
13.587346313704389 4.770266452537118 7.691595469459459
15.105194347048672 4.4224923326660655 5.8686659053124135
13.351737326376355 7.612967407592375 8.554523821013928
15.013504450709469 6.412066059718302 9.240105535675665
8.833388106336063 0.091005496101135 13.116646254184152
39.0638874699822 38.721518463699866 33.55421239589693
37.12410571269588 37.51693116228881 32.41282337781633
35.0737195921974 38.12647917236176 32.83810460486378
32.98667617026518 37.447993316135815 34.008921516173224
32.71785269659218 35.82777025304471 35.94858285442098
25.646771791242074 0.9037485302789923 30.318722021873302
52.18468486409959 42.77618650202574 12.842630111751875
53.69372273730286 44.3892458821774 12.713727824678484
55.0760550713273 44.49206198796089 10.204269088341249
55.263650117101406 42.8864789001712 8.493126951201385
57.993635695202364 20.188501725785382 28.13027724279212
59.79762121399599 21.456483961935955 29.358097006236157
37.23506811944838 9.76421264047369 24.457465686047513
37.049370271640605 12.384235965706473 23.19278643011073
50.790281813043975 19.04078726474353 1.434130797419763
50.87416124050074 17.662642076147442 3.278347407952402
35.35930188643196 41.697036598492886 25.86257440364373
36.53180607344679 41.228700338003094 27.97577199196669
36.4172677940941 39.50318089958468 29.666989233029145
34.78782001018018 37.64759707723393 30.085325125424845
41.672677931966554 8.089213448380086 14.829592900860932
42.145391624631685 9.791868869651934 14.386626562554168
43.59838556352676 11.695527856887674 15.78091354961002
44.83819367762212 11.392082559693568 18.035608533927793
18.164600629591025 23.975819691322027 32.72726224493895
17.579363092858202 22.941149536755795 30.20213380451428
16.389300758570815 21.518802186385194 29.69100155896497
43.06159543827199 8.798178842059974 12.020081574047117
26.844922002999496 42.17103730891791 13.091237849272623
26.591826860756836 39.97780563744297 13.444098472949463
28.372166383553424 38.098287495462976 11.855396703885964
30.32783846279362 38.96380312817081 11.10638189445044
19.593776439652828 37.26317387189334 10.592088867090393
20.088195557799306 34.992449439420845 11.74194813942855
18.959502585749338 33.579289123965694 13.282169971058051
17.226637972597324 33.92949948282216 14.854618800140413
48.24846176117897 43.48526651874208 16.634623904930304
50.64479794313013 45.21283045228917 13.110074178118342
60.087391307904994 22.713033137627114 24.299947472963687
12.458344528810434 7.8631015042437005 12.658907529043308
13.555052613898399 5.763309698077726 11.469279765328015
14.813024487316362 4.316516899323038 12.221973651543863
9.184505405609288 1.1441748557355744 18.15813557501518
6.850361142021504 0.7146142735960088 16.926764591172716
55.95841228893702 27.46424537953856 26.18136368784547
57.89090569076436 26.11696513252708 25.957961605142742
59.31576551223207 25.269157470365542 24.008741993892983
59.30244133407621 25.376209924964957 21.887177086228768
29.50202307081021 15.78320078501979 36.101473150627506
53.51890359905239 17.805606469157805 1.9377265012878393
54.391925227312754 19.922299747315027 1.551725572497274
53.952196561612524 21.695169552781657 3.270899967806431
54.18506751195819 21.961467520723616 5.46619981802182
12.315178421446008 23.0503481661805 0.5666517444198831
11.570772795217914 20.656863080083795 0.9856232542175424
27.98515037739226 40.93764413983383 6.235950841825803
27.932436017585484 38.967769647429265 7.998088364347422
26.560771911243872 38.32529287928926 9.873284272283373
24.708236486301374 38.96685793147648 10.904260249893753
52.62618578767496 24.078576999901628 1.044468778336287
51.9443822043495 22.38410877708469 1.6413013180035734
50.46448621922885 22.71206036718482 3.5111683623703307
28.01749183960823 50.811348212054064 25.04347743916928
27.209471713499354 53.24050635402116 24.534204590767757
57.444791426034925 4.85618485446348 25.933751395960638
59.0838870797593 3.547530320154416 24.997262511146772
60.080550527993935 3.632802388142136 22.540746294510456
60.15037682154365 5.353060203678547 20.927050256985126
46.946036517392066 16.196796281401255 6.57054400753854
47.03549103022639 14.12209245352223 8.239569664928196
46.126249422563625 11.826589515015295 8.180525328993037
51.47291136821676 25.63071699181832 5.6740097459344625
52.65197529399676 24.929412443654936 4.191433529810308
54.49785752161385 25.858706913832243 2.478441623689099
55.61035879527658 28.144151537427376 2.210649301998095
18.2860304228427 27.286171742751407 27.27417836053812
47.14559621110478 19.187081414746462 10.544481353782658
45.59405526857343 17.210973459420405 10.459803095316165
44.10728609466445 16.0034770854799 12.10443423678564
43.244288149560916 16.786516591870825 14.19096909918245
55.403663093314705 4.496906254275822 24.17116004652088
40.72404681152391 34.915058634818486 28.95394816755882
58.93377338649871 4.949008484361529 15.299783618218523
30.400416175811337 38.23076299232156 35.41226056497082
29.411805097867525 38.974546935110794 37.18560954675184
27.233997898760556 37.670954741731 38.392622988245805
26.36133001644186 35.46149239372197 37.458012776747154
35.662536921973874 38.82127381443454 35.93725135730338
37.44941873898844 40.00957182937079 35.234217278664616
39.18712502316885 41.11197604690963 36.428331688379174
23.31859312684086 14.325971273877245 9.002203996939686
21.46952441631517 14.821488951263715 7.184276983249038
23.9193228516107 32.97177433068577 8.501033981282442
21.953453444239017 32.445233955479246 9.96286378965734
21.941696200748513 30.423317362364095 11.427834998061334
23.672090751823976 29.54689570148454 12.906697864567915
44.504280722559166 13.319208016320612 9.80033154007031
43.30606945431951 11.660992863942452 12.137536729016881
41.367940425886 11.816533815662767 13.025516639813787
59.975067884663744 42.652522698917295 3.7369557019133834
28.566963637432597 38.096500335135296 5.613390344522156
28.047679004105674 35.99411386894782 6.187681827521259
58.2542149133162 27.89160921844505 2.714221636023935
57.98867280978687 26.310133409558173 1.2791341131217393
12.936331310982128 2.7089924513616133 18.02462005909559
12.372310607429576 4.639722081815754 17.108413583407152
10.14416646530131 6.252940680654871 17.755840742024787
8.585084179302388 5.758398739650678 19.476631666523687
20.480785034329156 28.77405694902623 13.383766987337928
20.563461807412 30.541245827527806 14.578529187451855
20.809798517595457 30.960802452397576 17.30848410590341
21.327726904379325 29.619523747463 18.8821815217418
37.88840857417256 32.304986064930446 31.299143224584327
18.13194058954597 31.998941754912497 18.60516698838704
19.22385449160588 33.400283308586644 16.54010324165174
20.52761704288451 35.642874267780385 16.719198819845978
46.34646263216355 21.20434299974459 8.50897353439234
47.51827461929526 20.443453100932853 6.849280803922888
50.06098138099396 20.74023554148914 6.074926415737161
51.724759205888915 22.4363833663779 6.563454003256819
42.732490617420275 12.822779426168244 20.2235094477779
42.10794921159389 11.240372738793337 19.04916042155685
40.02980045420412 9.332097005404849 19.57775996075869
38.205387230245975 9.554132387023255 20.92934088664607
50.343682372645624 12.216547663526837 10.103269415931932
48.55461968766743 13.486931265847009 10.534748762620186
46.27659432684243 13.314702723122736 12.201051476047072
45.50876898372468 11.313884840841224 13.39174921739783
57.10252301545415 25.32527031492713 4.122116224114785
55.763521173425296 23.78395262339007 4.13867447279337
55.979481774680025 22.491980702476383 1.4660841180694566
57.87494413404924 22.156835001890762 0.0812728219645723
30.836473998752602 35.88895932621567 10.697148201969204
29.058562124635046 35.75477368332522 8.958766147936712
26.724528552074833 34.66198459417723 9.084028894078669
25.28345836033387 34.56004263334307 10.85286546142781
15.48653142150459 24.80124758097091 22.211039977658523
17.10020791909643 26.543390144569436 22.768563089438295
18.204541903879804 28.136284278971505 21.5080464970369
18.827797945244754 28.38895390712089 18.967033456130856
26.346542919074526 18.211687513727508 16.09376302684633
25.17192797092191 16.28052329500484 14.700017273142365
56.25339179624654 20.15264826811595 30.274690223815867
7.4916980374233875 51.778636399722636 2.63720494427773
6.565225445277486 47.071036557947615 2.354868970532656
7.552206963437329 49.905364508419744 0.24474446549683262
1.5848526856406577 28.588136536365866 1.627286416389326
3.5078023057452485 26.608035279753185 1.4664660882601859
9.07672100829101 48.22893160933345 1.6352695705617333
14.748382876599111 58.19585694619232 0.17644766132469328
18.572191172805244 53.3164078632904 0.057833973468852294
12.406962097476624 9.630479439382519 48.658061130429644
11.446475710659332 9.14676908866622 44.492721596334015
10.397065328316152 9.936734038531226 46.827143591551724
0.8291262626695796 15.874591392478356 41.856236971935694
7.0725554300839875 19.890693470869998 39.136164050841444
4.287458439746955 19.939409020078486 39.33272049032968
2.7765157204187663 18.10981926186585 39.92235793969552
3.0139438836528516 15.883086681995382 40.04346358646765
2.174962186702819 20.664700944562792 33.627104409908235
2.250212848811785 22.280325734537225 43.651202514602005
2.0931076228225507 20.68161725781737 42.09589558187032
0.4363726239098196 18.70465112718738 41.59216544740744
0.4497150932451469 21.2910906418103 38.463433263725065
2.823464615973889 20.391161062332387 37.1764115038291
0.6899642992505108 3.938911116887255 52.76662310316638
2.67495072426612 4.914125336912363 51.6715654223834
3.221178512671 6.955056740028244 50.68779905117118
12.146782003602466 53.0083160519336 61.898441535433015
23.587968461683666 38.43247589196262 48.33711214098368
23.059973706912768 37.14475616321336 46.28927779227409
21.62534468308112 37.75449479237434 44.21132124143506
20.55571292575274 39.404888429519126 43.56865301166119
6.829190552337252 4.57798115053052 42.102351198607714
7.338706791029316 6.868910339695023 43.13297493413024
6.337935696672498 9.147513456228761 42.70613313957991
6.925109256537726 26.646461425214362 50.154553035598475
6.526514379383014 28.766230300973124 50.80532449710959
5.8720306909668105 29.09413687129146 53.45528968536815
4.678596273936805 27.837370167783774 55.029410095730995
3.8295696353066595 46.798931139115396 46.83921521368028
2.788628704792866 46.666149066150474 48.992350245671844
2.2172381556485794 44.69823321056533 50.68184462917951
19.304695957473466 35.45538109819232 53.07278513914131
16.936092400842234 34.16824961558428 52.53734538286867
17.368526257912222 32.35771093438385 50.416065903644075
18.984118730549262 31.02367415896915 50.07123495358035
11.086584790722577 30.25608065655128 51.883528427197554
9.184785561022299 29.11787076927908 51.951711332405665
9.096042978184128 28.50180163721937 54.70424959814403
8.499855867580287 29.569268875843612 56.106305086935244
15.21827976994381 51.8708099886928 58.16972508979815
15.324210761643764 53.44178704281682 56.64967785474256
17.20792188792079 55.41284044920299 56.33365549312246
18.492917044319636 56.18486601684597 58.65892505644598
23.497595923607275 33.1942305292754 47.79437819455963
21.64457863400233 34.48083515744679 47.106516829550145
20.14364808817781 36.02613377818824 48.81000090886996
20.494027712531334 36.990064448810266 50.9899579314249
12.049328011739648 12.005364952397663 49.01724940518376
9.207766006922883 7.941854384967062 44.453110875960796
7.545776237798508 8.504234514100842 46.558619045619
16.0202564209129 56.79663925001619 59.25046719020699
14.813449149667376 54.81362277807394 59.668702217975415
17.576343503457654 38.70062408873906 44.20376987626287
19.183888929627965 36.765981345427974 43.554175260419804
19.05867359938002 35.078845777637774 41.27396436401697
14.961399159252062 10.816338654887472 46.767495522491025
14.102809915479165 9.96677274147571 44.862203833373975
14.807834794272337 10.144774102091695 42.39664968012748
15.062441678339356 57.31179121290378 56.525557284376056
15.958138666028491 57.38581877931378 54.62557074119903
17.68246892966323 53.14321310700307 53.219589898237324
15.227231623546828 52.01984922237538 54.1659680839497
13.363447720037419 53.789286272028065 54.2001348081733
13.461884668815797 56.03623513724867 53.1996677409947
15.688216351825549 25.3722643475664 50.17706998659138
15.32065283695063 25.95962573132842 52.69081479282234
15.89154692032296 28.82450354206208 53.14586474643138
16.34936115972314 30.15073037852456 51.13015600630849
4.552179930407996 25.3760748306445 60.74025205880292
3.6290806030267944 26.59192485440423 58.410534234049564
17.497197134846186 36.078303245832565 50.399933507910895
16.13365673415942 34.58811324843417 49.22724303312884
17.907344630598494 34.775542445009265 47.363183655878906
19.021301328270876 36.52989262003657 46.24298163895138
11.941378279368015 57.496850704379256 61.07580596515899
11.404854927433455 57.62029696267222 58.87518335693992
1.4702231606597405 6.200721588898944 45.233587021924166
8.812363720599885 51.91768055579136 58.651721929220045
11.273258677876772 52.811712843275586 59.29441051339051
12.64759564234224 54.56429802593323 58.322815880267854
12.784419990991431 55.91510805161031 56.259429057321086
11.412898346144313 10.135849667856492 42.12561345879151
9.4836246214175 12.182255254500106 47.68452585173419
13.260100935083727 14.273903140072044 41.55175229525285
15.8786508332083 14.035890437438887 40.72004866093469
19.324928261507882 56.18513633989879 54.60524229117886
9.474344697737129 5.527098211151509 45.91965588519921
6.87992464710423 5.793109269235 46.02205819127864
5.294914230269195 5.562582769163291 48.154395119372715
5.4899152534128755 5.130536646729028 50.14795371538641
4.752344503520981 2.4495203735820876 49.97706808790834
2.1806116195635084 2.3827522828034065 49.96470581832197
0.6419760724432816 1.141878687169509 50.4262873907131
19.737453837063097 55.996796975113895 51.88036501477331
17.052041029109233 16.84518118230291 41.75471373385567
29.143593644664474 44.643928773080525 62.03411353760226
25.134702216869165 39.01059270313932 44.39338847913783
2.6911974287326452 28.935182223586814 59.04384763085211
4.922472330153369 29.47289110721171 59.09087344057207
6.5886107366717255 30.78485323210116 57.67885862472865
6.249656638121516 31.315847767741523 54.96170788132049
12.599613628851818 47.80949690536952 60.0050427835985
12.039465172638291 50.28468571584958 58.615271170129986
12.677930480721738 50.91589921803429 56.67643238085334
13.747558620491896 49.70127211953343 54.43701079710427
7.081367974234797 30.149453987402254 61.71917478835832
5.29261741293004 28.18883012911554 61.751977487881106
17.133920177065413 33.332709625496825 43.36817307422495
19.70567446858159 32.60936781760507 43.3538330589846
20.894813436527016 32.09517434686655 45.78184535843597
19.728800494200385 31.90026804100558 47.91644300890976
5.212613443150313 9.216599786269327 45.513859771915364
4.088239477166387 7.392084197734485 46.17773696632291
2.2443454849964977 7.098276029296044 48.20046538238128
0.03406443167624864 8.358390686971097 48.36722433009688
12.94878509046139 24.26876169122057 54.094184677493466
11.488205025803587 25.867144187278086 55.19815284690259
12.6294775866109 28.46448763593427 55.727947132362736
15.080648329209282 28.876481939634417 55.63491796453238
11.790880108452223 30.428607477308184 58.01360202088538
10.53936790096013 28.429566630882103 57.61305814617853
9.090713506189656 27.124380006611247 59.57150813331051
9.280869396578339 27.15257333241459 61.898539302659884
24.19370401864976 36.887429781997916 43.30507461124007
22.583122444248403 36.62350012894215 41.111882714643414
14.313811801286061 31.203314481824705 56.52822073881993
13.623723540061208 30.16408811359063 53.836250204069
13.719881060598222 31.10787919651953 51.879429037142714
14.388999437867346 33.813581535903936 51.00632741781807
4.679886524788841 49.43065433659493 46.942667221461726
26.07678649469587 44.38452525750109 40.722766702167725
25.518339150478617 43.06518240583243 42.796409259937
23.239149212808844 41.14083389729749 42.543434769070245
21.398080562977942 41.0744107258512 41.39810524254938
8.711629081339442 3.0613239466067323 44.71705111010262
8.837900268019483 2.6912733774127426 42.142143266583304
9.879039486134246 4.8612179967878015 40.949389456535734
11.199150816167975 6.497446868238422 42.04828134407745
7.715160200305094 24.055725748806836 50.94189140691304
8.653487198719105 26.019514066044533 52.35916615356486
10.650793129907138 27.109389814586706 52.73601226833381
12.83930431749234 27.039807443067073 51.54564665233403
9.578067355466889 49.44274164067499 59.47438732628707
10.070913323664103 48.34954638127326 61.103029936514325
1.3322157541223578 2.914010109170244 47.5779473889151
2.7473107637302148 4.458549005021737 46.5591950378965
4.868173585232278 4.33076852552366 44.9872619343731
6.200788450447901 2.877109269576236 44.14546821035979
9.867527683626818 23.718320983011676 56.90447953586731
8.687671614156587 25.033974794973673 54.765919055560175
7.0045584074192355 26.86565908822595 56.240934726172135
6.301358083031439 26.73776963436075 58.41893464971648
12.238599458693201 29.21054878059494 49.96881167580618
13.952546266022411 28.2503863103027 49.02901887138061
15.748403553180184 30.257498297431063 48.530945601505714
15.650935476174967 32.372195039151826 47.41751931018474
6.19555592230454 22.798690333535724 60.29607038133077
7.484151948585011 49.46656818069129 3.844471791393803
7.699993409621177 49.45950289744763 6.583895729976578
6.441511700110243 50.57872861744788 8.008337708304976
19.9320365492971 46.72031696810515 27.04959606472531
19.62895532514265 48.697027166997145 26.60179126013365
21.049726695658155 51.07774884975833 26.710364078607785
23.373894587401274 51.627007510785766 27.328237125363618
16.49188620329695 52.75561385265979 4.423497041932541
15.526746588709969 54.83658557267245 2.8931153067812585
16.66664252383374 56.93536799966282 1.7344848263875836
22.038694313401606 50.665327120268365 23.99488694246345
22.992017234591728 52.65721866787856 24.698898091213547
24.58648877696266 54.38764492815794 23.606060610591822
6.495937475797532 44.62393687311149 43.74256074556412
4.2407380218492765 45.201016234413146 43.45646350397049
2.2743627781035998 46.021152010966986 45.03278518876909
1.9736758536773147 44.61097667135293 5.386007477663915
3.6920304701575914 46.67198019209623 5.867495546726974
6.017277066503775 47.08410396537072 4.538835775978299
0.7649408066515629 41.118796742467275 41.359609930761096
1.3810531094628669 42.98278104297654 42.89894782409064
0.1790827490472325 44.41053062206006 44.65053392766333
0.1406342776836251 45.92517605056904 13.478420336180815
0.09597413469542589 43.56366007554726 13.793056485603419
0.527661991020114 49.00926750413527 43.39915588258604
15.396596639330701 47.353962061377224 33.949920134091016
15.078962924749892 49.271766689526544 32.749985671826344
16.866505906497476 49.42981469503888 30.473378158923513
18.574636481503568 48.134583175526465 30.016403027130902
22.271184624722025 55.24450412444107 20.727365304497365
0.5056584714187681 0.04687273134821988 20.540215953200338
0.13250739382711624 1.8091864773921074 18.54421572133154
0.0067676657229477745 39.54985247663642 13.075353690957066
0.7445075314423123 40.61112500508695 10.952241964455549
2.8037429980992012 42.35838367654261 10.72684360134399
3.8098555929430242 43.37877575327927 12.428006817813325
0.7495329296784706 25.073073947944742 35.31325658002383
2.655526439009242 23.21614994242745 33.916528954979064
6.359850703042211 21.100165908826902 0.3759218575892114
11.666478105032526 52.031937662221736 26.892099461064095
12.487863202062368 53.056875830176004 28.51976927348654
14.533720733185078 54.56343652011706 28.974418888018185
16.671614241963223 54.68514561912726 27.419842657585384
17.388127544311807 46.36117071724954 27.022675149078516
15.877943855108455 47.62268580620871 28.592809911092502
15.574249682470912 50.44795366434557 27.897917655493742
17.411889319624013 51.42349532342626 25.979777752811977
9.598184248518661 19.676624395570915 34.402816235271466
8.71604707683466 21.376557887570268 33.4797111139563
6.563262109947929 22.911314922187163 34.27544387929075
4.750268537518449 22.21446857371405 35.39591251765803
19.68163512117479 51.77614422617907 23.647740564912787
20.95728503000184 53.84800081291399 23.25958534265099
20.554095496524 55.47889466430184 24.749368606957756
18.160201093930226 56.25658891013038 25.843380733185036
5.503744281337819 0.3311107141125052 23.11244104818881
4.809776570668365 0.6804731720200027 25.538009896431113
8.840015802839213 52.68474872483299 29.525667222071554
11.01875680994697 53.38356191645791 30.59006342112275
12.252004503365235 55.71260917903226 30.665819034838933
11.524632610400344 58.073877115285946 29.90952084299117
9.731804739044149 53.20316676827392 7.800598559255012
9.942962699952213 51.569365886847066 6.167708877332093
10.288831080105792 51.50151795687768 3.70294955843311
11.599658738760311 52.77850253086846 2.235080571842874
0.08151817745784573 1.0462698513059348 30.26772947214754
0.8245329377933158 1.4091906740221172 25.659700688040925
2.8168945819392888 2.4140360829749503 25.026683767815367
15.723056384709524 28.91004567467903 23.43634581568096
15.060816107264507 28.71622572260281 25.649720334788526
12.754608882223728 49.164294991542704 9.387425945251632
12.407254488924679 50.146253962305906 7.474334609235594
13.817247044038474 52.28042652787508 6.47794268597149
15.983691325000434 53.231621142185574 7.3719351864970655
9.076590717344247 28.383383846546998 27.43273752499879
8.419079151758622 27.506788749047363 29.68175576602824
8.02419168639977 24.981405418332187 29.88186456958006
6.903557469393734 23.613352298311877 28.376230588702736
1.940314762477699 24.183329082193577 1.7409915900482582
2.8096813584891813 26.75099398610516 30.075495353837702
5.522335859023636 26.17754469879456 30.740925134246655
6.909139833456676 27.319982115669387 32.3339914174513
6.634408997261533 26.004463143544722 33.7870454358465
20.396173857052933 31.314973157116366 38.435875251663575
0.19179865325936593 43.74788973221939 11.038709216072336
1.2763924008688594 45.90241410993218 10.705990016473915
1.5267852758830676 47.33138500780697 8.738375171516067
8.376092142677457 47.53074913445153 37.99890519142386
7.278170119028627 45.727308540121655 39.263576059889196
5.221730070952203 45.44684151093504 40.22162379956319
3.7574935984885935 47.048123955855644 41.378028728247756
1.2895668375669236 49.24063794491763 13.81920835265384
2.3676902081656626 47.839150475396444 12.356508349640107
4.138675493641739 48.41132465357301 10.711290661818028
3.986042586429179 49.85439371879736 8.71920189205403
