33.94244031023261 63.72518452289511 91.11779187438769
35.21474480109311 65.39940397892111 90.60958769230909
29.61141209369726 65.60037570657265 10.4182064617422
31.37025980896294 65.36755507356933 12.384881714443457
42.99506350795035 78.01576858463083 91.46144922789578
43.42095255685629 79.5844736758772 89.77525186248444
45.243005155501166 80.77960104083657 88.84694042771027
37.60422209648111 77.44529536094724 13.048950519320996
16.012613930744454 0.605286466482961 88.02716990879641
15.330243149017345 1.858267549071401 85.69398029458401
16.281279413818513 3.6073503736969 84.61024845071854
17.567576628470214 5.544863656902691 84.89981164705094
42.56975320824285 81.62818075800057 87.41699747813533
47.06403376006015 79.59605605497254 86.2831963138737
48.95417067747585 80.92590869855135 82.3343171272031
69.92876067748631 53.844030846149856 83.49847715066066
37.66695527426591 67.4581791270447 90.69930683843027
68.01870856624855 30.037699824674668 15.683893401876322
23.446345963548907 8.355978849061792 77.86060749319833
45.17874266127608 81.94596884554961 83.11107854217268
45.36527011375052 82.2615719256344 85.0024407824263
8.333751704425914 1.0270803816901186 85.3046757772107
69.71429985879543 37.20400976430114 86.67531652578649
69.85500992325733 50.34323836911358 3.757431832316856
16.145409527538472 6.694112853058233 78.6271010607578
16.626966208839846 8.9822927844527 78.13775233689896
62.81243910203254 27.87361731097153 89.78890863651182
65.27100931645154 27.52322522033835 88.9241705014351
66.21018811721376 30.127315341564568 89.05562385975936
65.10792167649201 32.07140846891146 89.2385869899158
65.28786929998368 51.34137581117781 3.9100024845264234
67.49427658314853 51.175046711821764 5.198524212229837
68.30405689315498 50.24907326934131 7.113944538751477
67.25562090503439 48.40274954437271 8.739643582018472
29.700951117554677 67.20303382590653 13.50313960167102
31.549838789613432 68.09310598052716 13.300661221558055
32.31855702957771 70.81401270369038 12.485416958358499
10.933564232787399 0.9409820820772836 87.21218118249472
13.323007634019078 0.037396301937641444 87.47900950863934
59.63696860006087 28.071356792798007 90.40150049657372
61.3765196903319 30.164690964711326 90.93018192384461
61.03603207754326 32.17304892514246 91.4518590295325
65.8292982211078 32.735686212552274 92.91437079484054
67.18543664433622 32.450992227904585 91.17136638683786
68.47828576202517 29.88555536364226 90.48359310999489
37.89118957004118 80.24885954322711 11.606397316705486
39.79372265755783 78.66642780739024 11.35211815303999
68.69238244508672 37.035023161553276 91.56228080716492
69.49007060099491 46.906341592960594 7.655105423707743
41.04218305159765 77.33249343917983 93.2179572781448
33.65074740482027 60.65988433623105 91.44570966139125
32.25554762762037 58.75438729087029 92.93641392993304
33.194022458539756 56.23165092540865 93.30169701589766
13.680261136282855 4.742470932002864 85.13477107559216
12.926537418882582 3.0039675681117264 85.80097900742459
11.402811615995022 1.4023985532800567 84.2144255825612
9.62434937421183 2.0051889942146284 82.8127469134976
17.248476653454997 0.7745397106529258 83.44086018821092
15.642918094363386 2.400429041448966 82.0536686455853
16.42798133718474 4.126370586280072 80.11373154560943
18.44279453171642 4.175553423655662 78.77406688012063
35.58005907031585 75.38388107756649 12.769087114150409
35.23358747007499 72.77087970611989 12.346662929064461
32.510133287165246 72.78172409425709 9.524837106436769
34.913446841589305 72.60935963105038 8.85490306780328
36.841622818696024 74.10077498049658 8.739611269788536
37.20209168578606 76.38330134680915 9.888273200729733
2.5018856152105298 3.0010925097317087 5.1753580375130595
4.392665343052423 1.8139929949074707 6.828796531942257
6.685831456861575 2.344724362780935 7.532476763324179
8.278250799572488 3.9385206311079126 6.98838903773717
38.22448347843999 68.54040134278868 93.13729630248436
40.29076130391973 67.61360636019047 93.15864163172733
45.87624498836444 74.80094031032709 86.10273987025471
45.43249219720291 75.7788513570787 87.92390986013827
44.53467896043645 74.65948010192726 90.37279589314059
44.5377939643234 72.38837463217789 91.10250271817404
63.78271340821045 34.02748851103456 90.04351364078379
66.0617929112714 34.79520276832359 91.04569374724608
66.18722014605912 36.297780270467634 93.09204264965683
65.5209574917746 28.14268685108552 8.899965359090745
67.19143075014163 28.479921359022143 10.720231497307774
70.08381069821694 28.039494180612092 10.774172561912092
19.81737742174192 10.493254839813781 79.1135571785387
19.538494783630632 8.684441106441636 77.43661573932933
19.50329127914641 6.449338384786148 77.58518422412902
66.562586330607 31.4305559751254 85.85473565375541
67.46140009784067 29.26292475357888 86.60621890589016
70.06689038153463 28.280708788309333 86.29500656094456
13.683381852706404 10.013653855237527 0.7415007969005106
67.08845224821117 33.41080712149337 87.65391113794443
67.97236945826513 34.99990692892547 89.22772521886465
67.87615188344779 37.69774792741066 89.1777464113971
65.76322393703842 39.2242310043622 88.6080858221791
45.72002779569003 78.99829229222958 83.47266635226653
45.759408136343566 77.44256512789265 84.9727144014849
44.289107122183744 78.20848705472183 87.16394720956411
41.782075443770246 78.58718756544036 87.24291101924473
32.73148712631535 68.88845479069585 15.553014380691256
68.61542266889963 45.973937619329185 87.65185167638681
68.31005002537297 44.87473099357403 86.35897237703
68.39250369395765 41.68720287538473 86.44294121582996
68.03788283057014 40.48231390030425 88.23268676417098
48.93070212143873 16.24008617189627 26.170769142145936
47.20780495274688 17.33909877356153 26.209425293965964
44.75323732671137 16.593084702872346 25.77181171783581
44.0859412832867 13.956133263797096 25.826761506843912
34.89733919209197 44.809082872445885 43.231938589829255
23.47114721081004 42.29608673142505 26.60950998523913
25.784016898527216 41.512491940756746 27.16728575038843
27.372658120622972 40.17325139912704 25.490713240358176
26.74032145936393 38.5416675287187 24.037642667316234
34.35693275997408 19.91951529435304 37.71014241040801
35.36396605277684 18.753284545596507 36.1751958469192
34.91610560394413 18.028672287613364 33.76347114013697
33.0927228885425 18.54409804882052 32.05529878846766
37.11998437683923 7.25147762628532 32.75020208973422
36.0493177392068 9.304162108561352 32.040072193371735
35.93755689958319 10.785942082467864 29.963771985034047
36.862204199866405 10.417782181905176 27.80001451661676
13.21975208578329 19.66585161311919 29.574692345534974
12.09395061446603 21.677959701374363 31.0704223119222
13.393461152142057 23.443914960865193 32.1621438251584
15.760151326441099 23.39104144207004 32.97040314922233
49.87712900600115 18.755325391726743 27.071205536248293
49.3737198605233 20.33222577024978 25.017647005363575
51.14253441241547 21.85935982911551 23.737658037993114
51.66646735369139 23.306637673552494 26.499317626221792
50.59841549639775 24.49771286159967 24.65249371382502
51.5624541594197 26.44131662636215 22.950432329754886
27.515653998696923 38.601882143886144 21.688434476432036
28.08817877841246 40.55020115205411 22.352297204255855
32.88016469495896 5.76052237241373 34.786527621158434
13.748869384996143 25.802902139509897 33.96864762039185
21.003307838887064 40.171311297433476 27.883898859539514
22.8436587646665 41.57205915378209 29.11026747204385
22.850922608687338 15.265940986588651 11.974190469337307
36.974893241092026 14.645160574019354 29.55707751451182
35.51408785901819 13.389601565711564 31.429949003378017
33.4979059477703 12.401852231090576 31.389011953146678
31.355727149258257 13.017889608982502 30.28374829833561
20.70417794398839 38.067073256503384 29.72917264059173
22.873223012513296 37.11209410199522 29.14581197551369
22.74265314102255 34.27612055703189 28.809966335881267
20.69881738845083 32.87369221798344 29.41504987212133
10.40758070288469 19.504595200906554 25.906874592868025
22.77070038571596 35.35388908408236 21.8148834178632
22.352060114727458 33.41851204548857 23.495415592043017
22.940617810391927 34.303446171558605 26.14091743382236
24.653806868578123 35.43350741970364 26.989920294236942
15.405870336915052 23.107533129538236 28.95149953492366
14.560529083404361 25.375911712191417 29.168112042707016
14.647295774167945 27.06997639020028 27.290593698824658
16.612882032903865 28.396124955887945 26.476582822583588
15.72318278167506 28.40376312141632 24.000989877109227
10.396845068746668 17.24686794497226 28.908621449450138
47.25101366041478 28.781002557462493 22.548190415684548
21.295339938841863 12.543550339369007 12.55036081385563
26.140606319407535 9.688164415861165 30.27448345215233
26.823995367016526 8.204399597562372 31.404493576974232
29.448857302066383 7.981255030762474 32.664806320879755
31.161136377924453 9.814106371241797 33.01825220859647
22.353193510928815 31.196637078884514 24.90707203956706
20.875665937014794 32.664714868279724 26.506529600695526
18.758529267542198 32.72933290684117 27.460207270680883
16.42717834666994 32.06904392619626 26.555072530280068
50.62952598312141 24.920290738994915 20.313880057797217
51.53084598835454 22.53293217532022 20.440927311459305
27.426796201130625 43.43656374924815 25.292671714201838
50.16515895097199 24.254912134649558 28.229179746724668
48.61780240718823 23.596373263497757 26.524751354969784
47.146875659954745 21.37786916074629 26.427717313684287
46.287182664981415 19.793432381230684 27.740909148914145
38.563491122885566 20.44145988391768 28.012555145153488
39.12067870481953 21.274999842858044 29.642150085752288
38.33751254775027 18.79221368706813 30.81147535532145
36.3262043902181 18.177809845198418 31.548813890680933
37.43435641034761 10.455155326147153 34.12306057580334
35.93424246790843 12.450069588813047 33.81242500850135
33.169102546830786 11.299621590615718 34.026564444395795
32.85622772933036 9.157486517106072 34.93967674497587
28.697073324618426 13.119261498251973 33.89565812606676
30.08197633670834 14.524808504043978 32.35895342337919
32.73725389243288 15.531203163592794 32.67783518069396
33.84566147193732 15.997201875913607 34.70024159147248
27.84753873080644 35.66888345900538 30.142306326804697
26.29830136869434 37.03821723155583 28.29530136849442
25.001449846533077 39.19886281022521 28.741464920406393
25.03074944786974 40.741564896644256 30.414236539509186
10.49010647894613 18.239042407478454 31.700856463317958
43.08496971727144 25.240262217683227 31.58174540372779
42.6445779504675 26.11663987023575 29.770084687673005
44.26055967305052 26.687167212644443 27.47715272327544
46.556757416516284 26.474916971760067 26.923377784807645
42.9609874324976 20.67708756284462 32.75469507514788
43.26001909979896 21.221629549482007 30.672555132522312
43.66304285769702 19.251319747806104 28.592936151398288
43.70165740524439 17.036284397070286 28.833272112657657
29.370406707110142 33.42580839359898 28.936185196011163
28.00961963646565 33.11593593604197 26.870930060997377
25.39437445162554 32.2504221044354 26.82254507753064
23.972392473768018 31.458036040093422 28.6311121972322
33.35214772624335 10.153630792914976 29.370855878985434
33.37200418034963 9.224350308842919 31.4515743399372
32.96080210940477 6.796308981129108 32.439674238310694
38.53739777191178 12.758022060357796 27.641807643163567
40.445942992917665 13.498885366150557 28.4619210739666
40.81215518232396 16.173755213207706 28.927048104167252
39.655835865825985 18.026676303282166 27.823401714456658
42.53476108027654 24.672612940299402 26.344025377238967
41.68753246059373 23.656644363227624 28.24273869389119
41.35286377381986 20.59509761446996 28.227033393594766
41.81222971700623 19.479141872786574 26.49991685513076
19.027369193239725 37.88159500302698 27.403212287080176
18.413333074099604 36.5326815867191 29.000986116425995
15.653571673299513 26.812523237242036 31.575215067523445
15.319427553892378 28.25533423197985 29.930819259503558
16.811723253839535 30.134099526529237 28.83324606320959
18.759063727423 31.169494850579902 29.572016300695562
49.2702094554169 26.683085406666873 27.47823927613001
49.257469057388754 26.997642228973465 25.108885263417623
40.88364466999088 23.826898102710846 36.10208914843557
41.38045302213709 23.364051438207014 33.51389268090481
40.715169379794204 24.2986431369001 31.274500470207453
38.753263190482514 25.747113250809985 30.781239637320102
26.513539658534715 43.185145506088176 29.24075917615979
25.265452497909184 43.24655519887624 31.284941878173065
40.105890237932186 16.697859903039667 31.288793124014326
38.07999365571293 15.80525373555121 31.525330132904948
36.43340288139438 15.390196729944702 33.53751919326687
36.74867163210717 16.116898695092807 35.93025742789153
47.96707687044706 25.44050379602941 20.854966519542355
47.436810952110676 25.84060855199248 23.379749904833243
46.16729953289723 24.534313504860776 25.00037795183776
44.345342121438684 22.87642198962179 25.00211439801991
48.11993046346262 16.917738024208205 23.681940225784658
48.48748919072814 18.881068893355923 22.85324299856559
46.51754438992491 20.64766623159536 23.797077768188313
44.467563080587055 19.61187796219156 25.193189620046116
29.949186087918985 37.516854743518756 28.71240546135757
28.855278767683515 35.983764483873195 27.427872407669852
28.29743531957759 36.84652382387983 25.120737379238875
29.47349112692832 39.28576219489392 24.179614354301766
12.480725585121347 21.996204811841945 28.046085875663387
29.792394448579348 42.18153911773506 26.65288265351433
28.78851079325653 40.05592844168275 27.80879286390874
52.94797394024279 33.86854330194035 42.34199246570351
43.232014467229696 3.3776863709929765 2.4685619212923595
59.429494824469984 23.465769375367955 28.972695320800433
60.341035442329904 22.84462797278516 26.68431390139267
59.82443253451825 20.788237521853134 25.375820382746152
59.02559308743965 18.798045467794786 26.05825830864356
62.30076652201273 19.913221671270165 22.44407125816612
62.95874403979969 22.39697442737186 22.11414805024002
62.75944559892064 23.280717040928916 24.783074173584588
62.89461197075912 21.854525238952657 26.970402398416123
68.7483631471963 12.985105237728764 4.556087437088891
45.659068979298326 5.57518274482167 22.379148619263287
46.47771245671525 3.8961794304262583 21.252962458051787
46.80952753665064 1.2031073206840688 21.915567800560563
45.881401090132606 0.43159619119092085 24.537137806847714
46.74271911494397 4.116463826106141 18.589230216271414
45.382879476542314 5.5670089058101615 17.78162819432889
45.40191148121031 7.11387672653911 20.02862618114106
46.85040973280928 8.809743327913687 20.39212673092521
45.72731860693221 1.8702925950093487 19.326313964286022
66.70819167197848 23.765182686647407 24.180115176348092
64.83619119410714 25.061464835364138 24.18229161000863
63.87180690677342 26.714035822299316 25.635806897530387
64.61343843710074 28.353513062332944 27.278076084504605
11.477326614670595 25.97009362511218 5.547632463916949
13.49912410407228 27.718810652686404 4.958194373576031
13.91069135445635 29.029314754572347 3.2921896445878787
67.01673826516476 25.55067415242339 12.06117159896448
68.23774353644359 26.980364149930914 12.959941415559216
68.4212100077935 27.28877234511734 15.740593897342238
66.92838604551044 25.960020300315684 17.281508787745032
50.533803518615876 22.792780880019972 0.8181924712637506
51.79167904181414 20.415693019241445 1.0321539002987337
50.886985330975904 18.441817159946453 2.3409702833704698
47.41197464136179 7.274252080608523 0.8450426734583762
62.33796712860219 29.954286722804344 14.798592686354478
64.25012727422572 28.865166975673592 14.252751260194016
66.63244650550375 28.98063596211343 13.713170842870847
13.341030979803662 28.458078020335446 7.798643680378799
69.08310395481581 26.876170531915612 21.592855427219764
66.8176658900253 27.500038924292802 21.761108142479593
64.56392307187413 26.015803115998665 21.36195009390451
64.08610279568379 24.272684534391352 20.085089451879295
63.34238252913985 29.734485453392512 19.519900476552568
63.80248862712989 29.656704712096037 17.269490669608366
64.44209558863705 26.76656543806922 16.13793594426059
63.15158224153665 24.710432044736383 16.913024324378206
55.96801289191496 2.109834789140331 26.825035766713277
53.682572929653254 2.3949521329215093 26.507116935878404
51.775461433810726 1.7376337477582975 25.260041671320362
54.60258070879163 22.6667400813446 0.958679607377897
63.73227630088151 24.23535975824094 32.345276774276975
63.99056462353422 23.932520763612242 30.187931349729205
63.03014662667219 25.10542155732254 27.703435869900378
61.281240545920014 26.481801977324114 27.211176576571322
68.65540987388094 6.773462421818424 3.487078506334417
13.494617478220265 25.613377852353278 9.99898364567969
58.909552192941774 19.448633511210833 16.63186632944842
57.52665482732419 18.880817303169472 18.95144711531829
55.297271206384316 18.189420107938762 19.219827275672003
53.72007415398298 16.869500859523907 17.40211968706104
50.449880475817366 15.154101878406054 16.55068350388621
51.89072108416938 16.07417027008785 15.513384541407452
51.61773491964568 18.000585289868 13.458748765696233
52.92249509852405 4.555511776639378 28.245181502814106
53.92438324252919 6.2740772781045955 26.907793126946192
56.01386933363393 8.163002054271267 27.345534949104
58.104405444659626 7.945329518708532 28.65113615349787
59.21344253563119 23.069958802409392 20.538034955839127
59.11166817315301 20.86633931977844 20.08715251386638
61.64419729414596 19.907437707421856 19.71321381566895
63.591394320142896 21.41352505521904 18.53005469515672
66.94869450938391 30.449479059977065 21.442878474806292
65.93862186286395 29.258694193614208 19.691505866227235
66.43814981251202 28.822580835496076 17.363007661587627
63.572892088889645 21.178907689996684 30.675364769561703
61.21013809454356 20.420043105685544 29.823623521410553
61.273527971408726 18.237983188567444 28.414888182918606
62.81469556563856 16.133315207068108 28.667578457241472
16.118020202241524 29.607187339051652 4.308269006406896
16.575409313647256 27.217420100498796 5.854194365155601
17.60277287800354 25.197203059089816 4.750106196769567
60.8737196337723 29.046185977263917 25.94528731875265
62.08023371586194 27.96116816373895 24.18344028051599
63.87361499810922 28.788332407644525 22.252223525655857
64.26725365837922 30.86824999417443 21.842819956338488
53.94880935125846 12.076476895619694 22.30542824105934
52.55539732175285 10.741426201729187 21.21615379543333
52.15864829215248 7.980576012126862 21.238751441006073
52.33305008010284 6.44963472932488 23.3559550755407
58.85017623063157 14.961027982125879 22.476407351485154
60.5628371084448 16.73443755206415 22.11964917934011
62.604853089528696 17.298582674496195 23.630297626106753
63.12344156042455 16.84044735841643 25.909747374914048
60.670207430876665 3.953449156903493 37.763697965197935
60.01296233089162 5.04010692067923 39.93871002872902
62.71714863485192 28.63291735362513 11.477969650227326
64.53526196525932 27.354304108102248 11.369422925060652
64.72238642074464 26.34934181717077 13.122300180750287
64.24688967514153 24.408124920418548 13.993100457031929
57.137266543543426 22.432037109870656 22.279983816003572
58.57065396482941 20.74879256631241 23.028539783003712
58.468787951619255 18.078852879668364 23.06818962707809
57.10535922684004 16.628977804101837 21.940890611854638
48.605448091640895 12.375032397638346 16.785442094063125
50.90715121485755 12.450423712441413 16.848473214470406
52.44055944284718 10.196472279073706 17.587756658878824
50.681057850378075 8.543785002438918 18.873608498463497
56.386100366335874 11.491649634647793 17.553527013236412
56.77130600424422 14.007293410841738 16.51296743533701
54.62479084828633 15.32526830655609 15.133432414361176
53.04747798416772 13.831026513610126 13.585169178999987
50.37491143415082 15.153789863698432 19.491216329725816
51.457981621675295 12.84631142804318 19.36318707922459
53.84679016033114 12.179148403347229 19.30254645896975
55.781483757132214 12.959596052748044 19.846648820976046
14.936396832314523 33.56618002907699 3.3880976456282133
57.70426524580335 24.32265580290028 24.730357853002275
59.315568892903606 25.268382837264884 25.728834850830857
60.44675308211624 23.66875322405544 23.715687138789537
61.10698774509577 24.456485931476163 21.602525537834275
47.47353333425577 7.041690132820732 24.865043653209895
47.86827792996844 7.372633474874221 22.540433869654333
49.716300942562704 9.577287084998405 21.51420884010528
50.51427331469027 11.317739276154791 22.55595355786185
48.81031960446692 14.379302944480038 22.201343286531333
48.87852415764422 12.444302971030657 20.578892630286763
47.21108733628966 11.347965449198618 18.9559135122712
62.32638618185762 6.563845926654831 39.22738550065171
61.921113573986645 7.518493605889513 41.323449379401055
49.03778046666417 1.0496232962491232 26.455909350213517
48.27786240738644 2.736490550002561 25.06127635269147
49.65849225293707 5.2692484864289915 24.593745117290606
51.299587844661005 6.211247219687273 25.80228238309001
49.30459927407936 0.7353539281259296 21.239300103197923
49.13966012253665 2.011394052632745 19.22576011341135
59.93701148133602 12.242749304890925 19.135167764138174
58.99713951046449 14.05006514372892 20.067054530267562
58.94013709243992 16.730035695080172 19.585665803976166
60.62600790552062 18.006509724439198 18.12998555540025
68.3548705655608 10.126479777923786 6.199792673748082
69.85355518258702 9.22193088922027 4.619754144274992
51.77775485478935 1.3778412778418436 21.502067656883607
51.763268217648815 3.4510747649757705 22.7610038055689
50.09834619000486 5.484637602285268 21.952216853097582
50.042546282652594 6.4213215553897784 19.933727654457968
38.397353762305976 28.42879221418726 1.3021576048101264
40.848275592366385 28.129630679810237 1.3191878391342442
57.165084397852354 26.594565802299773 77.54602252407287
63.0369019154259 52.319236721165254 52.8891770901167
62.08849718756447 50.00313311683781 52.44618647057356
41.70901156276152 0.2724314420321987 77.0710619756331
40.067034232979275 2.4738219828500556 80.2570652257892
38.108589641612305 1.874343208364814 80.79877791880442
56.8329960834955 58.21135469790971 90.45378222307849
57.50791749754373 58.04637374834781 92.67086934423173
50.041678027586634 46.54718859212432 91.48118973792369
49.37981965084298 46.68451514949354 93.25280088764801
58.437414966146164 35.712300874822624 52.302144683906064
56.652619978002036 36.08804363307703 53.858157125499446
49.791544490622854 17.425140903179624 55.50188654023589
49.18513495482269 19.89923448516428 54.16820608546999
50.48219353949637 21.224420239776553 52.76710821078619
66.47716908895934 66.20230050008718 92.16070874504244
64.28535204712253 65.97352631012181 91.12629163541618
62.633795132051766 64.88130864806337 92.63913507341175
66.279198595999 55.36373958941409 75.54131628071316
68.10778736529836 53.98283042290182 75.04442357318196
55.45336620944215 48.30674964192281 92.10501867027195
57.083096012566195 47.13719858361018 90.87341753403948
49.769958448481404 12.827704373615324 54.96329144273609
50.184697425136626 14.380662160378096 57.01928693677378
48.92764692127547 15.54476125567009 58.79700665547338
46.57449641820279 15.73892131629034 59.15581933165456
56.139612841339805 22.588197341143132 84.34092527759485
62.08859141873193 68.45029426991401 88.65039925465847
64.53384922533067 69.38624769578453 88.82106566886134
65.5971722156312 71.63062100667393 88.41840152760088
64.39644520849032 73.57848871677285 86.90688375362681
51.56943710782405 48.308124934630065 92.65084583999662
52.267265619260385 22.13738598757585 64.02022267632748
51.9681373564354 20.925899878621518 61.76486860783567
52.89949260102787 22.039265051979843 59.7644580157859
54.21676738865374 23.6765583697487 59.64180226162555
38.44325843173359 22.833326889163008 88.99097610924396
58.12994009636024 62.550169207296435 92.03712768610303
59.75828589423841 63.88762573585927 91.31820232830908
59.988394853549735 65.88821612161233 90.74260728743367
49.652187665624695 17.839797134643277 64.88713894579551
49.928221135848226 17.903848015129142 62.31460020600499
50.45971202154184 15.292767881270478 61.52060575404161
49.81644261219778 13.201221956383897 62.73569243961281
50.569352163958655 15.604559263521104 66.20587906763308
49.15170854009213 13.831000696411897 66.1029804262176
47.428368183285734 12.598618866760662 68.11209973302819
47.35873425183254 12.72536500577101 70.04232018340556
50.72839798197302 25.931932429456744 55.36674446775544
50.34141983435907 23.795983397340514 56.17538983565249
48.42941271535634 22.048091030993312 56.16583148083117
54.135686502666815 21.169698669550677 82.0092208125638
55.34582279346854 21.97446512521462 80.19222281019832
54.87844601157038 24.95777944224351 79.65138245066417
53.17150147055413 26.186807458352895 80.33093117343203
44.578318784441684 0.3930096315103482 77.61994844350858
49.162965708940625 25.86279369088128 59.590990258085604
50.58822360986492 27.12705331198683 57.981769389397805
50.559793644190485 29.653882127218907 57.40758044018562
58.102825158320044 38.523222219533054 51.862884949501066
58.41810367816911 39.43827312139404 54.35986803472241
59.46116805497488 41.56931703427166 55.06630465980343
61.58242176943755 42.65640289965494 54.57951109633742
52.85960200099714 30.732161972531458 54.79475886461738
54.551611316730984 31.244778107704285 53.052814597342525
52.69722165677664 22.346503323722573 51.315751135196805
52.092193799021445 23.628925609307128 52.846498308529256
52.33626185412513 26.398298499889666 53.0338893869252
53.59870535155361 28.101385106922283 51.62353029696007
55.394268726803695 34.364286579524865 57.89382803255081
56.90120298727461 36.599813512412915 58.29114988656849
58.83421669264463 37.39773590353542 56.525473240828106
55.66560888480861 41.08973785366388 60.660060255666
56.48903206165194 39.927592821113706 58.275107807136244
56.73711894516385 41.150342641218565 56.04560722905521
43.892976936768946 0.2045615150435092 54.242373196043886
46.110546534544675 9.925557804530467 62.6044292397455
48.22050299844598 10.934908739884692 63.797559859853884
48.06126897827044 10.027957441795904 66.58296394224394
59.09476535814642 29.019010014323545 88.74763373327949
55.24408080549377 45.41361321192074 91.95873825704206
53.69946483047647 46.37785064760653 93.03662033582583
52.18764516983175 18.163050094580473 59.56357043076625
42.326575385414436 30.215124046221543 0.5130701686525558
42.15719423175585 0.49543975012065805 82.1578911646116
46.14479510714161 31.305391765663117 2.6587103240982852
43.461386261822646 31.027387521774337 2.988025577134285
41.98435985942601 29.399535875873063 3.7663942628219367
42.22202287463291 27.611780403179157 5.289888339244401
54.115747563745735 28.18957955300353 81.83753658679471
56.04946657912675 26.498344859714617 81.80057477625112
57.55711133311004 26.01873321029838 83.35775158661407
54.37155064186254 28.846146759686597 54.369947765150286
53.13374977429345 27.110203104438288 55.71765349014865
53.51308241988566 26.09780487495236 58.3538920780511
54.94279924126697 26.717073133330356 59.91489398697279
37.223149716100295 26.167307886279826 89.99472632118824
36.69869940361939 27.035051191643227 87.24184225522178
70.01351524453783 70.47867647976099 87.03254383550963
68.52128073011903 70.58767693465404 89.13732038016177
67.75016790865259 68.93956189309529 90.54911196111097
60.44057240909482 44.32864373610413 51.69585811872631
61.26648732328093 46.94908121765466 50.53298012953004
56.18945753529428 61.36109571368395 89.94108354521818
58.536484904944615 61.601594838144116 89.06807140511911
59.32480730066302 61.56243468699715 86.59579006482504
57.70583433857586 60.93913937336285 84.44386580435919
67.69227814536558 71.72171874897555 86.76549904395503
65.74859775686696 52.885032653421895 75.5582808954404
67.3389979955258 51.579663823297 74.07318294176646
65.56423372411737 47.223099239037026 74.15205622742037
65.87661765805935 51.71422086811069 53.59617190470393
62.18068120831464 62.53827040674025 90.81578288203845
61.025965129738736 62.37156810078472 93.02867489631731
52.917900634693105 19.849937991228146 57.169230058222816
52.51401986938057 22.177616176795116 55.25361765415372
53.57499498688399 24.309302571409017 55.26892979690538
41.5977427264742 0.8860671083235089 56.772098655720974
55.23347497465004 28.06051726742622 64.54869967116339
54.16534454280391 28.016614970117235 62.17279180880666
52.2216671481763 26.685820057983815 61.1663643012637
50.44198120749045 25.572848914256056 62.117567669762096
37.02547716688113 1.6819310058968304 67.43268790398484
37.0320561536285 33.82779973307868 0.1999759031360742
58.43634030914607 35.9283776381643 63.960629612185365
59.427378089859225 37.30054679532378 62.116550273925114
56.75596646793189 38.29733094071655 60.94660732569937
54.83694314308328 37.56044393555752 61.61215605370548
37.376893118003345 23.705901626348727 86.01586505244957
41.49359720736218 33.08124488351323 3.2132532144834274
39.95197662725847 32.26678150520344 1.3416532026417318
37.952358493953945 31.19521340348571 1.263174301845847
44.635577570032424 37.32057839501912 2.065547858447348
43.84883735701948 36.59169408560596 0.07700178389346587
40.691296750349856 39.53113348013934 0.0774529991992525
39.76117776232186 34.832002433376665 0.7646576621335072
37.2696049832821 35.50350539189334 2.335538871638815
41.834238042695794 1.5517101773068505 60.27241335081737
41.10309320554128 1.213011336154808 62.39467312256622
57.64780791140426 44.706614484751725 92.81508505995936
64.05287362941097 66.38874304815057 88.055444953127
63.36627288863419 64.41871517567745 88.55508267157381
60.86247797311924 64.19486254918583 88.80883017924958
59.00842863701236 66.00622913786607 87.66261242965079
53.91419310386021 36.62663592465215 56.5733258332696
53.58976949446808 36.90601893017345 58.84312445877703
53.98838955092223 27.010735157690778 77.83818281166835
55.37661364669929 28.45423015671566 79.48697777806468
55.954032053124955 30.737610643764633 79.63839964127932
55.307698320039364 32.794989863925736 78.33062333564243
64.59484367328874 48.16156199394358 49.87784175164017
51.58829326654519 14.251182276490683 87.9682447590653
49.16307596711692 10.276157986611608 61.08416603394947
60.86732189220463 45.032501369353355 55.88413396503244
62.05017640496623 46.0198357865192 54.32380289938374
63.70453514418033 48.57345764923733 54.409687770652916
64.08660284982994 49.78025890718295 56.09444894720103
43.8430874197542 12.33201786014496 68.6771375299934
45.65769130012855 10.566578342594246 69.67295734139374
50.15257845563579 22.85282959213178 61.82613269832124
50.07023552320426 23.22918727466353 59.380265160843436
50.141357694010495 20.900121075010844 57.66694053144088
49.54767878032575 18.710943562420482 58.184710641631156
56.51760699901692 49.84381598298928 88.50310905235276
55.954238899549416 51.11966008551859 90.32129457643622
53.42005886981562 50.354606096071535 91.3684635896808
51.68248272460573 48.55474786554669 89.92963129386628
62.585388935048385 42.87298895179127 56.95816730474108
60.24052379905345 41.94093077904827 57.451031076109466
59.256829039106215 39.770926849190424 58.486310601707814
60.02196841943723 37.735568456354834 58.84259643620319
43.9306968465834 33.66367216413679 4.324346731980539
45.27565226454329 33.74116849808558 2.3876878487495836
49.275593742078954 11.176031060357172 72.07269390211043
48.933011095459825 10.323343508479569 69.91846024885012
52.68837198966755 29.76472387129353 61.02658696533239
53.05113732519659 30.24030555258226 58.41057830432021
52.89054499025601 32.250764229770475 57.16807959585459
42.98693809432798 35.80731918814336 82.98067939006073
63.96599046603646 42.98853288285128 73.92626592439119
32.04571667398178 11.23962109317609 45.78175525984566
31.9950097670416 9.925903161485184 43.83971848103004
59.99637887399039 24.008932993739595 67.86690299657586
58.116717380048655 25.28297423518352 68.86059884580276
57.981513265027424 28.092212940326405 68.67527760381466
58.87020702292703 29.554068727518544 67.3531860317245
61.6751941295161 54.40087634467116 52.112453383502846
59.841551606054544 49.38238515560575 51.993207095299404
32.94651363036833 46.3315362509701 46.24493460935406
32.986351302194514 47.32400338642622 48.42693514590852
34.11764463823329 49.275109329603 49.25851318035881
36.04696869321057 50.148663684915675 48.97209122973901
67.8099331226582 21.357854958118978 49.12373693223102
67.8316819229035 20.130296715897774 47.19945065082354
68.28372790628859 21.946322268620154 45.079931129472634
69.60403163947358 24.200335486682597 45.45813756737116
24.833188027501603 48.43934520942606 53.50776006431571
66.36039293192658 14.248763904306847 51.15656262219092
65.04443230811547 15.358047054648106 49.41801019914424
63.82620043145673 13.708481828993833 48.092360804438705
63.087638578079854 11.205440840428071 49.10237059066428
41.252183305635086 49.985053064053254 74.46059456214137
42.2270935229174 48.030861377254865 73.68761342369218
44.48152752080119 47.19879949165 74.87759385159593
45.25966842531609 48.225528316175435 77.34844510171428
26.150429809234765 36.977630508699555 53.03684654647169
27.67510748895166 35.93243568909403 53.80524905371687
28.447853820688092 33.29824524429919 53.16447772588077
27.744086915263335 32.05517656420269 51.39175811856384
32.34608514668635 27.526217775743863 86.77014146519888
33.59372890498415 25.57955818965616 86.21761662455435
54.388408421889885 55.95674602529842 73.04893423922104
54.94313974282878 56.833660257571154 71.26339587474271
53.85738856023705 58.9805040264354 70.39972240915475
52.10508088683843 60.73630045395283 71.34315892461288
36.788820141799505 34.70133025033758 84.71114234321408
38.10586265799972 35.314986705668275 82.80743583232866
36.41723924773241 36.73926018293657 81.17974321396314
34.15343366221629 38.1456187338948 82.14488605598278
54.04715649843747 35.58964271794154 53.84967483834628
52.50579047147416 35.52511535027759 51.99174204419618
62.45777799019094 69.16959696979471 60.40051539313299
61.0310381261063 69.00726811868499 62.615259397380136
59.91907775354812 70.87053574113035 63.05907469879155
60.79113029083805 73.51948752373 62.79628612997628
45.9481330328694 68.50519465358639 45.31957220156769
43.92618363069422 68.58165880424728 46.468972967003715
43.21543145453538 68.03631716694913 48.915127635767696
44.6226084100626 65.92078559799076 50.02311476657857
28.423146272906557 1.1433499105475413 56.94184571851294
29.354691318625616 1.2035562378135463 59.140117166636394
31.350814191751663 2.2120664272280126 60.239284315352556
33.64727949930953 2.5634051605298125 58.95108941273626
57.46209942907292 23.080243193116168 65.86870459989792
56.12938869604807 23.156924061520826 68.0184407308448
55.04160112741611 21.17076634794478 69.47768469288842
25.846204946035165 26.47051856163712 51.090730823104145
25.21189347162632 28.54848245778635 50.63432672604261
22.9064553265404 29.83273371549473 50.52104137398342
20.648804728693836 29.18378490374191 50.05543159181942
10.768955456524672 12.242781511742015 56.7663821082324
11.42517664661869 10.760340782675542 58.76594406833028
43.02861889894617 51.90205827107012 74.51893968524993
45.302002528791505 50.920988837737134 75.76809564359066
47.42749094987748 52.23170594347748 75.07977759517425
47.88272832093513 54.45539315668158 74.60284882102054
36.74229887745885 59.906695221245336 54.70298200428816
36.53132697096964 58.19988673675671 52.75676211060854
36.347376260958974 55.6724875219387 52.624441894112366
37.24329577790613 54.26182724437389 54.83496610395487
36.12733516573871 0.672984095902959 62.19959532989799
38.08029026427863 1.623916171746189 61.59040245007727
37.79039386546014 2.67611448393495 59.0387541691836
36.30248086711511 2.3929242627922074 57.47645788306559
66.18121777955899 55.37930682352186 46.80464032897088
68.45798781587412 12.037943877733332 52.574931748009554
67.28303854545675 11.996800003482482 50.56717735410916
65.61097551465976 10.470018740417048 49.17621239667327
64.64303414160142 8.703376091397656 49.56208940653231
59.860871876334784 31.071306549679328 65.35019732077701
59.760192065081746 32.069015126768 66.94749696073998
57.30432389938263 19.13561037358323 72.13799970267975
57.32694121581721 21.480996597607785 71.13119534393707
59.12634555646749 22.903960327022197 70.34259620802074
37.179929096651335 67.00896218980355 49.49194786898911
38.96177446556263 65.08094808134406 49.33713440677374
40.97914329621115 64.4296163089701 50.70519013848557
42.60601624380051 65.3178168761833 51.81855653019313
34.275583935307225 43.770266384106506 75.34638049104878
36.091168364243885 42.82595247634923 76.13497106657131
38.65894308324928 43.4001729319608 75.55071582220828
39.573742122883324 44.897992445882274 74.86818401335904
28.088753033160906 34.17243528185976 57.45063998770368
29.35965666065217 32.66518768470111 56.64912778816737
28.03950885488698 30.311141189220038 55.40177826076569
25.887973539377953 29.5698981064452 55.633026583110215
58.49911948329614 28.423326251184776 72.2629133411583
57.4070249285141 26.84933061812963 71.08517098584143
56.8917694319411 24.49442275508157 71.23423136243649
57.0314938715286 22.800130840118715 73.38079146780863
49.5440073552618 27.69013974420882 54.24053806906484
49.8410887541667 57.61456809715765 57.200323239704495
50.63322042512108 57.628178667674696 59.337214601800206
50.270686400320336 56.351509096172876 61.30996280474819
49.08599658822181 54.47414657808581 61.88076491398075
23.558980460129703 45.603262604886226 56.379682974145005
24.632831706965764 44.97875252672853 54.06307815032369
26.587975566759372 43.44130890186911 53.459593342198886
27.755840553225234 41.70023773032649 54.58719658227441
14.268387625206804 2.396605295086843 76.93461977187808
54.914207030386066 71.77446243712473 59.688081118547
55.21488692224539 69.70050007562514 60.79740164838082
53.97879084498681 67.47654934237467 60.91302081276244
51.40564802926112 66.92571892305014 60.027292120379364
35.77369153848127 58.83765003907322 49.107134003501095
37.13140383796003 56.986086809485926 50.22478199755903
37.034826652034496 54.33413150988214 49.86350778471186
35.53450570471615 52.83327384932077 48.683381236053876
60.99844728565114 49.27060154792094 48.900856823469894
62.96138792734464 50.671420689353376 49.93527706177939
64.38068874007516 52.4471018766893 48.81725126974908
65.01965474787373 52.85043739510625 46.54925016615238
49.138344564980436 70.11494373143782 43.741172874949754
49.03647756253288 31.642529906806804 58.14806751463692
21.798175911730045 23.846568437209722 58.787638073995424
61.928092090061995 9.625649253387056 51.31149481418855
23.93878487614386 24.93704575712409 60.35878738536413
24.917765102043813 22.604868745030835 59.74727287518199
26.88839606262727 22.275898336845096 58.12887784165909
26.72415714020944 23.413284081791645 55.7360591012197
29.10160730594153 30.036407376644792 52.59604146206992
27.506696040316967 29.1462154832363 52.97324869045574
26.986065676458292 26.52656249645173 53.94896052339826
28.60047723057465 24.99534737054731 54.76712091838005
30.101770571448565 2.9457620701989096 63.79886136616992
30.789395252215826 5.0403115532688325 63.874519208186264
59.707917530909924 31.122601089966675 71.56724441175915
61.479260686836994 36.62347650391347 70.16927195369068
37.534233783252205 64.34270725883268 46.02548520159753
39.28496152920873 62.98422476280365 44.80073950781263
39.03164038720323 60.377913763575485 45.69890469843508
37.25262232361679 59.091714356763234 46.68842706174413
47.15769678885541 68.02431862071126 68.12151309273861
45.64935986704656 68.43756370016821 66.56232295096521
46.74932286930603 70.71157384247871 65.20116581539396
48.58032820516114 72.19546701309939 65.99513787800464
69.61258485721353 14.486709507002795 47.0721074395704
67.75248577592382 14.716780373905236 47.556344863640064
66.98118412662978 16.731278814107757 47.60805541746659
66.710817518177 18.57298381903727 49.17509878246784
32.76376777737192 31.932063256939035 86.61443502192661
34.15664949079465 33.240352382048634 85.63548530090134
34.43069033976325 34.25058407723343 83.52634519901925
32.938763072321905 35.34737270446456 81.85484154501563
48.4525678957551 31.219738622459282 52.62307491284014
50.21141561102079 30.98691798945597 54.58975016554139
33.7576234670754 45.40636595563885 50.31813502275041
31.680787495353144 45.64364374079447 51.67604513204437
31.243789480881443 47.76493410574873 53.13224703792026
32.453841442101435 49.744971416910175 54.06686825348855
47.46310149285359 68.75468819612885 62.404302212482584
49.689153420045095 68.45515973149806 61.46997070117925
51.6065217701405 69.8656187398078 63.12133184761603
51.434844097451666 72.05018378624582 63.95797906380087
40.21569204535655 52.00982142106867 71.43625823590408
40.87566696676025 49.621043733720136 71.824689620785
39.329287866970944 47.388763373185576 71.64602551654859
37.24217016719473 47.444845375882835 70.8105161126998
31.177566637080822 5.479842161155932 59.85358762399423
29.700913771899415 4.668853256665858 61.32214949357118
64.33140864056598 23.65385687693418 43.01347150189908
66.44071438303368 24.137340534733333 44.21406696473344
66.76376880463556 25.169086716605946 46.79138645299718
65.50457218420705 24.420833815279344 48.522776668993444
56.44537789853896 43.06465827683386 55.25381897041894
64.99275337674607 21.9392473335158 49.07309342069808
64.89617238938939 20.887292124760126 47.21607383881007
63.8367931543136 18.350302909329404 46.39926551921026
63.20300777734889 16.654739056613355 47.88008052353251
46.39414215973324 65.63346927638455 45.02609481472352
45.55488844167776 63.01118845989873 44.486123963822536
36.59328623949513 27.36918835855767 84.11096465780916
35.22619185013888 29.656761571700684 84.08241392071768
35.55081629671865 31.74785942040116 83.34772743330602
37.166104208759755 32.941944705361394 82.42595526292558
38.948611095400025 41.68848346425844 71.14386495319984
39.32094020848375 43.8015332673958 72.37362903783837
40.93475669836536 45.697950638442855 72.37744616743441
43.18635416675729 45.72660626551918 71.65131015347805
9.506177814609499 8.865738120558364 58.37288757974988
8.562266223392387 10.503686603501945 56.75288209555595
8.538200208470611 10.466752953436684 54.22376508246534
9.549839245176763 8.795965763792308 52.510541063863855
51.44115543583228 55.028991852897335 68.73682762969719
50.08978809699409 55.65393296806487 70.77960858808095
48.00056101755814 54.576622914647814 71.9622439349561
46.19765607588086 53.09155631882106 71.21594879022666
48.44460020192956 66.48978191131778 63.18243733753347
48.77468294329983 66.84953334862475 65.54939125062114
47.86971516133518 65.47786585104446 67.62772184166114
46.697012173187574 63.35081412914626 67.79262551166245
48.859424890867004 78.33761775799057 81.50609600334575
27.45207312542971 39.98839208510271 56.930205876698174
28.227273156168945 38.72388859904175 55.120615855648644
30.174611811550584 36.635344716371165 55.12063421985385
30.59801675395577 35.28849943301446 57.266595882809206
61.58135487475406 14.385580043385428 46.68728620441129
62.3627129200998 12.393601748478487 45.21281780042234
61.8806213687302 10.106635501397733 45.466116052245745
59.44300204843304 8.848857165369017 46.66666986946517
18.349431022627005 6.051381448522268 72.58389677132054
19.020452826703526 6.5904472693323495 74.72081932487488
20.21228697093959 9.257350228080348 74.97646250756954
49.930339808122085 67.96209686881998 69.8038330108764
49.90884007647858 68.70362698843466 67.63658584053407
50.81168150689079 70.50173182629028 66.39330821772829
51.84759084932683 72.36668241330159 66.55965887482428
68.20015787637884 30.77995804337163 43.26084921815679
68.49405024813045 28.335777548694796 42.9321516998684
67.91154674998211 27.5039670991521 45.63070465489683
66.21253998567678 28.491986434949848 47.064022907896884
27.42407069223977 1.5993117369687682 63.378513900295765
28.141142028066504 2.1677114006755827 61.24178432653431
26.67504244066857 0.7106464450461317 59.20084032606721
62.16208401194179 74.53960942228905 59.34254910937073
62.33518216383595 72.04381050242041 59.24816394942078
59.24479086099424 69.17796326271755 58.379947053327065
58.56473324777992 69.91099743543425 60.71651289326122
56.97119547217108 68.26321773066991 62.66842154671357
57.39894825876042 65.87552470988796 63.182195128987104
22.333680170626693 23.017129626773823 62.444374172429505
23.17336517822378 6.355974561863377 76.50796541329606
53.11446444385879 66.14161420597623 69.90983368894008
51.86619183498512 64.24996167562993 70.18131313985141
52.64573594481953 62.14355022449049 68.8297064797937
54.55338627859901 60.84039005505003 68.73167186921772
41.822733284972756 61.877718326830774 45.01962163805019
41.953381766705185 59.27137402600075 45.106629302951305
50.274500776275765 51.748336775637846 78.99799375929531
50.98400889039737 51.398847124887176 76.37876569297305
50.67323475609736 53.686637665082415 74.54098709979066
52.82169857901951 54.72065692658792 74.86011731082031
43.24853834958603 56.193409593347674 72.44315236004
45.294407275342095 56.580429542461054 72.24436710073587
46.9661176981856 57.369823579124116 70.11071976601352
45.73542367166151 58.19412460775157 67.72658062692017
31.962321608133774 25.69069202605746 83.3525831512615
32.835809734466594 27.81692530401144 84.20254070753575
32.29780437511177 30.236425136192477 83.65758900604814
31.75333097619392 31.325094592334747 81.62364923344862
64.97198473369323 19.786241858409646 42.09361279928118
67.04549455056953 19.429896707915102 44.107912308117825
67.68381555181743 17.630977418554938 45.26682749974338
67.10003096549202 14.915315820610369 44.85101647433302
24.169981527635485 43.32266817121274 50.517912602870034
24.758870465818465 41.85753218763974 52.213420674121586
26.307539107851788 39.84195666334235 52.43577086525185
28.499575297827302 39.48154751484845 51.36347869097286
16.153712537165333 5.45929380861185 74.4908604597946
15.522420471064295 4.778164476963764 76.2910839837193
36.84037159996057 43.74645264456937 79.87585612332711
35.166523518315145 42.395599198619216 79.04409085938137
36.081348298685896 39.82377664276114 78.71867375639481
37.97860050115938 38.67400534253496 79.55149518683577
53.00680724152454 76.17405696853571 64.96082248922416
53.43527659753414 74.8607514552483 63.21167197726181
54.66224689651062 75.88076964856717 61.295388927776216
54.50946534672902 77.96171786848309 60.23325609843679
68.73414042549214 53.8920163998773 59.74007744968563
39.30255139018481 58.7808023116025 52.62948784501072
38.30205105395516 61.18229722281862 52.42541500880264
39.266701655835966 63.46353976298262 52.771803998938715
40.98261889286243 64.19483173341162 54.06954919560154
22.61902849753313 43.22850307144046 53.874425309304655
21.570592509412542 41.38217934647186 55.50012435257166
29.409182289393964 17.74161424831459 57.274994674838894
27.985407065124445 19.203763005156482 56.14176609694425
28.55790622124665 21.49320917414138 54.7991102496491
30.08012239749361 22.950820738171203 54.792008206285594
48.54210691961253 32.82239674179316 55.708008052768946
50.39099459167128 33.71246889641379 55.50552967265601
51.15971283163557 36.433375619577 54.69028540945642
49.971083251927816 38.1522261831272 54.8063262803027
70.18939270786026 58.41621476842433 55.88306279021797
70.00118940489861 56.52798074997545 57.71674313666137
34.00595767216976 54.10625181041274 52.20338836555341
33.909869637982574 52.519815044274985 50.503213550988725
31.965595024702885 50.79285742332786 49.934298446194596
29.903964784327204 50.17241885281168 51.12251634624272
67.21230359006614 9.542084629327247 47.51118467952067
67.56110219915988 12.077577818812234 47.62929488952556
65.78566365756615 13.07328203987107 46.29046366667064
64.46373110789243 12.252199110772127 43.9839622072973
32.27779076984788 38.44647031003478 54.9546499799934
30.735202107616097 39.128542091209795 53.745437960843525
29.85138153728915 41.5391953127484 52.77984506918664
30.699483496906204 43.74882519597754 53.539495864125364
44.482776924724966 63.219414448108594 47.56005485378854
42.19948017407829 63.66708999798513 46.77382089387224
39.89925955915591 63.23137512121668 47.44555581542867
39.16235588243591 61.05160010282056 49.130929745311896
