16.987003154134936 19.58920552677957 65.7533158169745
32.22310737821113 23.254285155467556 86.56068237315786
31.056301753914017 21.786912049531228 85.97450538202588
32.1343658502117 19.51042223195882 84.43967576872491
34.211520336956006 19.667809621686892 83.46380356625197
18.975080792681293 2.0345235198729066 88.94257790439372
0.18211703922649525 19.123042061283527 23.18639172155439
42.120759345164636 89.04605844307301 82.8046543295871
20.406429499184732 31.487651755977225 64.30201638524738
19.642713336513452 30.180270418559477 66.2251177535471
17.495226859638272 29.085821200057474 66.70862791319107
15.399433080171335 29.080404857504565 64.76042625148203
9.265127463682747 69.66213568990713 25.058486255971776
7.732796235427654 70.80625809994234 26.44452652450201
6.135023943565638 69.76009376771715 28.382440332108803
6.356178641979632 68.0989131316927 29.54553997748348
42.10092929933967 66.74412927793671 31.795706534131103
44.594556711668915 67.85662436625823 31.630620227396513
45.650841458620256 69.90239359875068 32.65125868711117
45.83649959080368 70.67385463385106 34.717670031027
39.5511105593851 54.21925678774608 70.88899691538357
37.98582990234729 52.50274642240169 71.91916230824205
38.322412440396775 49.89189298813607 71.37937784208225
39.69911695837068 48.74267191591276 69.67584658108044
10.254384274196541 25.40696020799704 88.75411985149994
9.86679481609364 25.533646645991478 90.87460580010851
5.8700625422385535 23.547253167456123 90.02254138925224
20.166715018999344 96.26944254025496 90.23566859275044
21.77581224432146 98.15409684844037 90.45623716512628
24.47894089830477 98.19621869716079 91.0014134975488
44.89235022026172 82.57660259554198 57.17494168591566
45.456606143526926 80.78670626518392 56.15047979925161
43.149942618319955 79.26804627803824 55.00814189791831
40.93738058728586 80.08173090189224 55.17267124324187
26.906590780987013 64.24999152101012 51.868178758942044
28.51837949004894 66.02214163496608 51.252941692482246
30.54067414655767 66.83766218400537 52.39684247677131
31.94561215086418 65.81801968918072 54.487788015678426
49.52085777350889 43.584368165150515 50.475176019457386
49.666421734823736 45.696921223241496 51.262678272358166
51.451127790777804 47.59746755768038 50.48937228144709
53.02964669518839 47.47203669372462 48.69363471573205
20.04971471650434 14.635432470483902 38.75985839315735
18.711942645910074 15.438625054016631 40.51661671959989
19.141318835777245 17.276910982302315 42.14593027442131
20.091030416852334 19.100238051560442 42.475209937215915
1.3151920070493137 82.8714390452592 37.45975239436154
54.71098405608572 48.70012385081464 50.16317800948982
53.71791402964562 51.09905282075658 49.61065271710675
54.64779803899612 53.01491776316258 48.84938306321152
56.81771639487728 53.71670118805875 47.411952229088534
8.447722967807561 104.8888022401503 70.29709169208743
8.242652424539594 107.20721325378994 70.78660817856525
0.5009546250257579 75.28647239202846 57.11626012770117
0.79109846167267 46.067029447793 76.76859540621794
0.7756436913355804 44.718746323853644 78.57056629446123
52.60683078822867 36.83136544674478 90.53937296623468
10.809440844950533 64.43545126574122 33.75618470598485
9.89934941444523 65.65142599995211 31.930831188092995
10.341698917695139 68.01679348718521 30.797252332552045
12.12677867590951 69.74000244429553 31.15134029122575
43.59583494055159 65.87347560085031 35.87216300880417
44.951492899058785 67.3172796402618 36.718402781771296
46.20965689761286 67.42831244791962 39.088156038096
45.91210292094304 66.27515577282345 41.049097276788004
18.8485719240171 96.82024748017542 58.22903643455794
20.39943081298743 95.40503917958218 57.51598043223239
20.47873935891974 93.33487557994003 55.76920658979005
18.78677958053542 92.58480367477136 54.479527775338454
38.693763927449204 43.62692698690739 68.92441581420249
36.79893950892721 44.26257971325266 69.81178476660858
35.916571692350324 46.27272889829716 70.47461615859278
36.08147837355756 47.50076423790545 72.31681051866063
21.89428249196123 5.6496542100679426 81.99190974718434
23.496584908812803 6.017377955876459 83.9392645143717
25.302489644587506 4.420994392640619 85.114915019623
32.73468783826643 73.98297273878309 48.802833600350546
31.068355784916616 72.62638172568961 49.23725188811279
28.647283097908414 72.4917668716401 47.79120069523494
28.176030103341674 74.20137436340906 46.21825276034507
30.055740407043768 10.47995100570658 83.25453540031008
6.669891593251716 2.9264868542501965 37.82508660277271
7.816765786356158 1.1159707317025436 37.69532177079627
17.494881199616117 30.05478803059275 69.13846334633385
19.665191394828987 30.21829380401465 70.19605715427559
21.387624627652265 32.11732800620526 70.41098670811816
21.510952218760842 34.248736950002794 69.88963756158667
11.14618641117161 53.02403267533443 76.02854626614457
10.914860089050864 54.934428364692614 74.63601474370303
12.452459884503975 56.70704280454488 73.67645587903864
14.913068910414683 57.01380404717065 73.27374468739747
8.790592195846063 20.4270903380032 26.1825508007893
6.6131118075904425 19.235609078583312 26.555639787248722
5.645227580864367 17.148423431183666 25.804842919046937
6.550590664886831 14.916605858021487 24.64408582126858
37.745552431658524 39.90130027580421 43.0232541531893
39.37864055119085 40.02445547957819 44.58055709765203
40.485861971052266 37.757806512536995 45.74295196961839
40.596273100787016 35.49821408118295 44.69496916811674
17.939737910426732 87.55204191826056 66.29078974523377
17.50153210200311 89.10537539318257 64.68573894531082
18.921201961009505 91.27811633804838 63.7181886387045
20.582873585221616 92.55828566605634 64.40306866748527
43.774968403568955 83.75715927052718 89.02575044703207
41.776399126626536 84.41978329860659 90.27967849913368
39.05778953109049 83.45795388051302 89.98230429125842
38.2174219817465 82.91901778574172 87.84977824848858
11.433144522037923 100.94560623766868 41.31724103522104
10.655673605372348 102.50381230692818 43.112486678835936
11.369596029400647 104.70992548097786 42.23141669293149
13.315831132581069 105.68945162999394 41.84439480003227
4.5514639282794285 83.38116162756447 85.21056738189387
3.189976480797957 84.47731064850312 83.4573173240473
1.676477389029512 83.80370192003849 81.54343274172898
0.9787358580330737 81.50610969189255 80.82819068490141
21.00057126734799 39.71895412850765 27.949079416003258
19.412445383302746 39.8447224481296 25.77875129702581
18.461774485469004 38.320263792236084 24.066884040306952
19.177662628365272 35.96251549432016 23.275371591283413
15.744923956223449 52.45916954780111 90.17530175499444
15.493744417490944 50.150161291453415 90.06009416746943
18.350421341338414 49.11771931931826 90.48442749560797
32.818725296891344 51.75983632129995 69.87363611029964
34.98744815953187 50.760592636807125 70.70720857976724
35.990619453771274 50.31393203534942 73.01764628322941
34.503562586992444 49.69068962761715 74.9116325682705
20.732791512904598 44.30860671582331 26.717189145343614
19.438299489352897 43.14697503161452 25.24045268925905
17.406988216813684 41.589933933312345 25.204465123990673
15.352542015518086 41.858290638532466 27.388473352879245
0.44940776343595207 15.941871873723192 70.32626091697794
5.056536251427836 82.77805533248464 58.437073167624604
5.883294668218266 80.58414791300483 57.23038373841888
4.68684367716681 78.07337239343765 57.08102010963835
2.880054892183658 77.33110130948913 57.53761691500601
4.915348676826625 83.9060918703771 80.91041321762224
5.695769215841919 85.05814232089008 82.63116462293124
5.932167228094298 87.92561769650615 82.0799920571613
6.315661290831199 88.65275869367514 79.60510800378783
34.22384163548518 53.602284267585055 24.832799637213324
32.144573054269294 52.785037033621165 25.49883138616943
31.177996477597116 50.61525470041755 25.606165557597535
31.66607269438475 48.6851369315747 24.55783770284148
27.106453575247656 47.45825069779481 72.94638795288103
29.517256421955008 47.366082700420286 73.3921745573301
31.313943903593298 48.62043834774953 72.05464911804684
31.75567232928694 49.30586120498803 69.75902672148888
40.61760231097174 77.54135113989959 62.43636454922071
41.799325389951456 79.48947180267683 62.00324148343713
42.0589791561138 79.74917523419364 59.02922883562785
40.52154728920472 78.48474093622693 57.387089205900246
1.1076603064940371 34.22232722379204 54.65152719179166
1.346101982469561 31.723244957754467 53.429140500476414
0.023096500803730078 29.72258557741927 53.75066510432472
4.437683739618086 97.2944018984885 38.79038731953669
2.777886786539949 96.51443608478395 37.41688128571038
1.187677329955696 94.43405017797666 37.54752928236351
0.8315560387953972 92.68451335298653 38.94758667140561
18.927014501069415 78.15459972924333 83.75624563190098
21.449118160505584 78.83082559703632 82.28184621791469
21.692006636204763 76.74081705043132 80.88901663977832
19.608844414997247 75.10478836545049 79.79597593836752
31.283215867704364 35.92371431497059 47.743164275733776
32.237739692488766 37.88387489859066 46.78638966704492
34.89957424563781 37.49442904223071 46.10201680054433
36.208335017213656 35.41292659139303 47.07380504389627
38.16140047371163 37.54248302753558 50.880576712085386
39.10521807542775 38.889892140686 49.073607569450054
40.44670156231302 41.22465105265918 49.27425207997838
42.356990605670326 42.09251238208488 50.70880510919753
24.60294661504698 94.30772143047193 61.31981960586215
22.742876825262513 94.6635995704481 62.33597005851513
20.325332465028044 94.43291667013378 60.94942269937404
19.619640590201268 93.16774673214387 59.26625437657978
50.46139215911218 68.54672511198338 29.578246842906648
48.396813908983056 68.09013779520352 29.877422970797376
47.31557659954678 67.77364053116423 32.35280853400108
47.8762651770777 68.70706451922098 34.53258429635254
4.752177783662498 102.35761344944966 43.77253409714683
5.165456603847094 101.40143767677522 41.59787287117442
3.8916702951713806 99.55470748232206 40.11215917518482
1.9097818251452274 98.14464983748537 40.57809228795842
24.03686576235935 76.33094867402026 31.663961267314505
22.131880337272168 75.97838425517696 30.398189505377182
20.13288187826701 76.32758871401545 31.525435043061936
20.384920758761808 76.62564660768902 34.45672972604159
2.1370843715275636 103.89469595092825 63.924099903660895
0.036529539199293797 104.55257172176617 63.30018751605946
30.619427862637647 73.31007187324364 84.07576290129605
29.24886095392578 74.38652660213806 85.02795447763819
26.7405623113096 74.75085968322931 83.93898176258222
25.75606999316735 74.1708410178645 82.03461971252527
44.247484727435896 28.30377166827823 90.75160868972162
41.75525921986228 28.34858487557858 90.92145004193807
1.6372471611523824 102.01525121983606 65.60665389651076
58.5988536405963 68.49996800725289 57.3102014210313
60.53790086917614 68.18560845844316 56.32561298323879
61.4354543775529 65.39963738794319 55.738846999759595
59.4962897780654 63.51090181732702 55.678800963761624
46.704988489704576 54.29823571970909 72.38642847517103
45.472873323920886 55.725623569696516 71.32488336289987
42.73243383917429 54.670059316501444 70.93260114012912
42.22174337567209 52.476587698774594 71.29160185184762
27.77515621129893 16.33141633479214 83.68025180494182
29.412772996024774 18.487682399878643 83.13094254458962
29.13255487547789 20.66394250730466 83.44395960591844
27.260148967088185 22.344675848614152 83.96585859666362
21.562196256016417 17.00330164506532 46.38214002272188
22.063724136983478 17.708132523627317 44.22837389950449
23.852934847374314 19.64875870673503 43.37402315423854
24.312217342315744 21.531189461416993 44.12347016988965
9.29693009562115 89.00901554028185 81.83421589614686
7.540106027049018 89.36037591722697 83.47460958319054
6.550974937692359 91.2608019789667 84.90165504159984
7.47251757165736 93.23050682659844 85.57884882952257
0.5898924207978944 71.23153997368553 53.05105031429346
2.0208181918557147 69.65136502832613 51.958180189795904
53.72920274505265 68.60962554587088 82.08469932622985
53.72445365995006 70.88431057269894 82.06282284240606
55.75178682330538 71.6208159324384 82.19318236034576
57.89784796916343 71.04195935899808 84.1335237040564
13.67146863833591 107.5851474077448 44.19688140575275
13.181374798220292 105.6490051404577 45.76706877319031
21.96954782977174 57.28663515667122 54.08252114693667
23.940500995713364 56.9078810096259 52.871788639102164
24.90228328050256 58.90478644832217 51.26638397273818
24.929872629889392 61.05722595641355 51.44729202203551
11.317784951704299 59.998463204311186 35.13886438046813
9.47043733627938 61.233403131993526 33.53315763176234
7.886878100764089 63.15959173234549 33.954570004569575
6.688847729986736 63.87062643796901 35.99014736973812
26.287718648998844 94.11514935587199 88.63716067515948
27.09214818205529 96.19371426076538 88.76221424573883
25.303395010297432 98.03802344420647 88.50547134732489
23.312968153061863 98.06196435059731 87.02263605905806
2.52501604336906 7.888121247521118 71.30043192083065
3.0206653286744385 10.198767486732773 70.73397217471866
1.209215448733616 12.274318144492536 71.29665207322331
7.031461828530877 106.42876289028834 74.87882582459267
6.913948151479911 107.7640148399838 73.05901067324834
29.86827796929711 17.71119074124301 78.56080654708676
32.450350951729526 17.0998685369838 79.81503369058287
31.78136543395618 15.777409089514759 81.95417405575131
30.297213608634618 14.186319896451472 82.22479891773573
0.5546382567345517 9.031659093956987 68.66455466130618
1.7438214350184122 6.925551522188457 68.82558232159231
2.5044646679564933 5.540928992687804 66.5935125730736
4.092830263957417 7.030034094693828 65.80637345344354
27.718698421967517 33.97716139995264 67.86728215900501
27.12737831857217 36.156651559981945 68.05853467822864
28.937442138056262 38.59099133038484 68.13320323225267
31.018514668180618 38.568865584659484 68.88504146515264
14.979468919171477 32.26218584718942 90.3513961201795
15.651763526607972 37.07457474786057 90.6523186121268
14.74923752196702 38.19097078525531 88.85626340812031
43.16164112208793 60.21965532693429 76.11945926998659
42.61956960623963 59.400144579303316 73.97486332540194
42.29916148201427 57.06786333757668 72.9043076684096
42.35933989439357 54.598828994486524 73.95257357746608
1.1950623388736 38.48851160528405 75.10689481974858
6.509754795209865 105.84776729193402 37.97225363958743
7.0553646019196306 104.64413073252969 39.78911245017973
9.291292987903244 103.50748622002692 40.48658406832162
11.513171975783598 102.9909289913663 39.111812062185614
52.92951993252023 56.64776133067557 54.51463872910506
54.49896272759506 56.435786768181345 52.78643364358098
55.806134774827484 58.02871135579076 51.19116311870837
57.220769308988054 58.571202388994976 52.71417121837644
13.00329808837488 96.35278362319022 90.95820692043442
14.852606797114053 97.49770287797921 90.04896961694352
17.081332445763138 97.87793411336466 90.6445016593007
6.329919616186192 87.35471340829866 87.47088234841623
5.755374293027666 86.7600419100964 85.376265604545
4.0530077913450455 88.2192768629562 84.04256951554778
2.8158795624555815 90.34626137180621 85.33972733056122
18.35290368319814 13.63604020649137 42.56886708478565
19.642930762465195 14.93459132216431 44.86560282726693
22.394649514695573 15.008024503707151 44.89476704431474
22.588820607251662 0.8610095426283039 86.8022673430256
50.88117833181364 57.02358604371326 49.7890638882156
52.804764372494425 56.26347736611986 49.84022118359792
53.47880817510361 54.11477346654693 51.08972848585512
52.170028243870526 52.66416011397973 52.36086300617785
36.83965582201654 77.79759231272224 58.78065061310933
38.300113854268595 75.54337198086404 58.90787942820643
37.65739184925264 73.23598160549061 58.32496674885301
35.15085288086791 72.31078307709328 57.69057954444672
2.142199827547265 14.6560134253487 23.18177111512184
43.753787418992815 38.715441541140635 51.38733312126954
44.31590666991486 40.49931595081248 49.69753168937364
46.76559421199883 41.21945321770027 48.56012953971138
19.10879380462971 33.87947316545657 63.39867782233479
19.207036567394283 33.55248353768945 65.47781265436038
20.755830977028268 34.901857913311446 67.04569389641775
21.355817063307317 37.32181344510499 67.12307942928972
1.2105732805154494 87.59658843285735 78.5346520598161
3.374962332156404 88.14302798822992 79.2590438305589
3.7165474368739053 89.70820620696509 81.38410800968103
2.1040472230574214 90.74741023008627 82.75344776679822
33.71178191959283 75.5061328445649 50.82772902836733
33.92175051659735 74.96671779350471 52.93517149629282
31.409190432208348 73.6991929266732 53.418686069047425
29.40858953309321 73.86128701768327 51.834474402965434
31.34355516555411 27.240471050580016 45.850705453801716
30.303740568599284 29.686849732345358 45.339269249243145
30.832858817663787 31.885979630782472 45.870277440608575
32.69926579744712 32.90178696410768 46.87001918185427
10.596951874669163 75.70568657088425 27.608828729857766
11.588735302989086 75.6380511546687 29.651606012786438
13.67276474537189 76.68534526488838 30.742974849597356
15.333433890956673 78.01732623470704 30.227463762263334
4.0767222889383605 0.323386208940559 40.839448701946985
8.611373827543586 1.8948255609260343 40.643639596134996
8.486681505533422 4.365623931773364 41.037641764359364
46.87852878380712 38.503514589659986 87.73807519027133
46.524965254709585 37.214721243952155 89.49101761617075
47.981034059707845 34.59679168954185 89.89876357041892
50.06151233034185 33.96685274852201 88.51237626585765
61.126273627901085 70.17253452029843 78.86909677427215
60.27267261016763 70.55948385593229 80.95682749200702
18.407861067200066 28.240892491298624 72.06453807817836
16.502969327482358 27.87802480261835 70.57600109552095
13.964759244891509 27.99484240331727 71.05966809492686
12.768742228921973 28.046525101135483 72.92614625446774
41.42920654363071 59.84007878079231 30.78152787441952
42.090329935207535 61.503979064264 29.405307405851065
43.87468778425835 63.26079604090491 29.274444791873123
43.586749781033426 64.60314896700042 31.533981829401707
12.331655812032633 50.58572635481711 51.3280331371874
12.506749528350413 48.193051688576354 51.73565691263566
11.110568156557235 46.2804355959225 51.599838178857006
8.750958178530666 45.64844302906127 50.40657336817692
10.153489202099678 54.63998618248252 77.8768771691104
8.367371366770623 55.35190386252879 75.87802585450328
6.0469655284937724 56.169175218636646 76.17734562998768
4.274032471842857 55.33711035867133 78.24913634174989
7.988890658469285 64.01180542524172 28.761301632875362
7.640965218211375 63.04186562011735 30.985152063526403
6.656274795535875 60.60541754712718 31.728359925311107
4.994650722061386 59.25365977084132 30.653929725924964
11.605088903324685 1.6115502766855274 45.25179382493078
11.163908768891732 2.6657907055596195 41.15273131675952
10.553915815437357 5.2534128490476695 42.007639086243586
9.137619387842392 1.0673416678683392 43.79809560766572
8.47616978267866 1.1145930184727615 46.474599212217
15.775258598624141 86.01255782642481 64.73249213217527
16.635752080580154 87.03115436927621 62.9425919875854
15.505152086347268 88.64913212523824 61.091448987149796
13.888222870017742 89.81555021801432 60.96053338104931
1.8890695548726437 51.42282162907634 73.51711879726946
4.165787537076434 49.94611748879113 74.26538434699174
4.2791152261126815 47.8923285279179 74.99690884819296
2.513348709488143 41.97905803487747 86.32420561719569
3.1092951977966847 40.43690917233959 88.08707302533514
37.24745547290751 24.172572699973024 88.87136407511849
39.02512043329047 24.813610755665024 90.3435086822903
38.88105658350798 27.728889633230867 90.77015882218637
38.10049848466063 29.211265638254275 88.8770925677177
0.373148851532311 80.01544615864306 77.68745976223691
2.732937540560668 80.70353374455897 77.35453179271383
1.3139979989567547 40.833464807646415 78.12130216177285
22.436955478391702 7.600476135820487 80.20394213048628
22.852186364591258 8.248391813188418 82.31157302091589
24.163228917320183 10.031342346291911 83.40048348653744
26.113007382968533 11.613084243545178 82.01811936008882
34.335008134508875 17.431060334919966 81.75270755243245
35.71184841968752 19.23829450207859 81.0267643271048
20.2391395660905 104.69602177851382 89.10320193606333
18.137934183144637 105.69246834900919 88.39040716300914
7.638631039998228 64.5182110102355 74.64545073685846
9.116426831412534 62.577159030092574 75.89285600213091
11.576461271835019 62.421200501842335 74.63569124989858
12.779240197272044 64.48025560685713 74.28894332558473
44.80098895321244 38.78194850411066 47.27071345528732
42.8828623874068 39.143492428181226 46.02963531176215
42.255982529139345 98.29118536640364 45.23645427742161
8.504003716641776 13.324775868089839 40.932255624958614
10.64852157874585 14.403803340153493 40.46822468246602
11.145927763943705 17.242694133767728 40.20765078500591
9.956808212830591 18.974702873978256 39.56897643160232
1.5579291724121551 86.73477517143186 83.9274795691316
1.0497448806031424 86.52926010277844 81.39807077913412
0.8220133129970817 51.663635740507715 76.32243159439528
2.4998838308133142 52.7077262147657 76.02610683156674
4.426239443993387 52.287302220705534 78.22489305954312
3.7995107152929632 51.62914722830826 80.41045699356488
15.410959177356926 82.68933963805745 53.49449013454288
14.06014401588327 83.37009732597946 55.46145152360127
13.736922763360768 85.96866419416024 56.52670911419561
14.688159653969217 88.25175723897419 55.60253393942727
25.43187455201456 85.96894227296764 29.433324982208774
27.05943934350795 85.66948863301309 31.718519986531685
28.872158927756793 86.86927765377158 32.49709221073247
29.792019246311988 89.46618682881 31.758158156722132
23.83925307330436 90.67365193728246 55.74638549115748
21.556124965400244 90.98788516846467 56.5969028257576
19.128585729942248 90.16281559828765 55.84866995431784
18.27133567965833 88.72993812743354 54.366200144958064
1.7222750977680514 88.07027274335067 32.89568151996044
0.7245248472725133 85.89583434156815 33.35487257583003
0.34508628574847133 85.01858957357591 35.83185219440921
1.1476991626917024 85.68024588685367 37.933613394195376
3.5912745626500038 99.6744736997635 32.741806060973026
1.7894136069093323 99.75131316191667 34.597191732630776
54.31308045915794 46.77760183752045 83.08225654025189
55.042728761617376 47.66025493239622 85.52570775547586
54.79536561998552 46.619594562523424 87.68690236949814
53.432727186365895 44.850178438400775 88.62482080419502
20.720446187452506 8.439129746265328 90.71005227600321
20.176149281900017 6.46403547280702 88.95699904441692
18.093395813626028 5.479288409885324 88.30670458073895
16.264612771467483 6.552374183928018 87.57869159784741
3.561510506439638 85.2979288738041 78.82974570864684
2.6786705409763445 83.48045552626066 78.968514263971
39.357606640960704 58.340596072272675 24.628795360585666
37.38245592730051 58.0071304871669 25.050958047155426
35.10851702177669 57.98210102658968 23.56228331327258
34.53162017222731 58.287352530989054 21.717240234886173
8.893219191033669 92.76264844278292 89.71456878638908
8.97718577162259 91.24054463518715 88.50232891130686
6.961670468841326 90.01833650976796 87.39620506556139
4.685818309227204 90.45300360540456 87.79432278091565
38.6219229900115 43.29077673192917 46.32631467827288
40.005697858904135 42.674994948100476 44.67394241226241
42.6820446612049 41.93869030371521 44.99775278846948
44.0526390511993 42.069033570291275 46.831077240687954
58.464839424480694 56.27363031900685 54.200313686215374
56.95843079142225 55.30825938413409 52.41078905738021
55.745654116722285 53.330560355079484 52.185501824201
55.677292257700195 51.5012889206693 53.01646616503585
14.147860548248213 8.799300295792152 40.372034720752055
13.226849969851171 10.790544284301804 39.65259374360142
13.2765147146095 13.254891513864996 41.04494555227895
14.764362133308394 14.022150410361236 42.599788260867115
8.16831646230638 85.48068929699208 84.71079351825989
9.431787320447256 87.33757266686263 84.15286875605115
9.764223882340676 89.12999216011893 86.38476494521964
10.301217443265362 88.46558729891821 88.49825084319444
29.68512164546204 69.18058414148555 54.192808250681466
31.673801997462302 68.36421401983866 55.56258877091896
33.476797280065234 68.8451791807889 53.66861097958786
33.7919711272541 70.46923288714815 52.190516747510785
38.45643793952717 84.33703145625442 85.21211243544631
40.60633138212656 84.82471370530372 85.9152837143233
42.706519521547015 85.99873347982319 84.51982719429402
42.75709828693231 86.62468622034457 82.26989923361218
20.098833526829424 49.98418342695821 22.62001549698956
20.915486854415256 47.735595733457245 22.737914372774238
19.751189513367834 45.153996653188976 23.48539618421105
17.67472958686077 44.66839011485079 23.578273031844926
8.821207650311445 17.295985032944156 73.75977105970787
6.528514899268926 17.75619002371927 72.97386603692449
6.183551016085692 18.74120407307204 70.58531150695367
8.164330882234607 19.74646224338495 69.17243187634298
11.222974867774724 18.536698600493633 71.46493214269219
11.927741447677407 20.305495441442943 70.07846825759768
14.21745288253618 20.81232862437121 69.15247453931282
16.008320671359357 18.732707466698216 69.00739290445314
35.95341922829217 47.256719231857545 64.13886663880845
36.50941632198623 47.41402290991824 66.86026933113065
34.69654627184916 48.33692695359983 68.51317528272762
33.043969389539164 46.48087712525896 69.29994915790249
29.504706496492076 26.530645790767526 38.62819272385664
29.63065514133925 26.63750524254569 40.823142356180405
30.95817125565041 28.14727993918758 42.720873659535606
31.501717202750772 30.31021933151709 42.87257843461541
6.84407427604202 96.14641445208053 87.91051348691396
8.573042469278848 95.3408185564037 89.28134191183968
10.320317983901786 96.37361171961074 90.87393745962208
16.111496994611525 91.88174506494269 54.00319572919814
16.674058791325244 91.81788206348301 56.30291904311276
15.313792362261202 92.03862837952636 58.619238220353694
12.902586068872207 91.73518211322492 58.82482567849713
35.107467553871615 25.946420708322293 90.32758232592923
34.49116050283638 24.869129810430415 88.40089575397411
25.05107477630819 100.81523758754653 89.18085436172149
23.739434414993664 102.27850188573402 89.94028189399492
21.20025273594166 102.18572786340744 89.46510533983196
20.043038934367843 100.81192542571124 88.01041092870749
11.270572251177276 79.07029564727162 59.853125462870764
9.003907875348093 79.34567903625955 59.95172688231125
7.004871999224612 78.15476493750833 58.74632953233802
6.816131811915299 76.64612916065661 57.217261273043654
20.403972169867004 76.10501382520718 84.93559471645665
22.21527343130136 77.0465946885214 84.37037085373979
24.608116938279096 77.64153775888018 85.67665751523666
25.53584256352891 76.72902369045893 87.6559270028784
0.12607716168735716 78.70633498664168 80.23084137926557
29.472621832477422 31.98151447226367 70.94747145578629
27.51993155357305 33.28774122367965 70.6315500119004
25.01098323149909 32.698420914344254 70.21580217712622
24.05030329830803 30.7801757683869 69.64332106874143
13.28029761710969 80.28621455951712 35.151070204936744
13.766973044925775 78.72172602469968 33.366620884480184
15.723849733373392 76.7876181200056 33.294494736737946
17.43460930799078 76.11989785161794 34.654508323612625
32.98513874569836 90.02216923254525 45.238073204928575
32.715808493778255 92.45941220698789 44.62716600262897
34.99384684548849 93.88994424913852 44.11289317107642
37.41374450745357 92.80262615535094 44.26260119327672
45.819353214010135 48.19783519472301 49.95132427451328
46.64161892990695 45.629306165990144 49.15112483215898
46.313598693955925 43.304178510096115 50.32721104545319
44.494632698464095 42.643350074246975 51.98764285305879
31.45283232456766 61.560409367549454 23.595036238733154
33.75656800624281 60.48143487933312 23.44662896882554
35.909994927315054 60.65870006856677 25.544641072080438
36.78507736408774 62.5458835519438 24.550260400609837
22.15861436174334 97.28248726566088 57.64219693808763
23.42914272990755 97.85383315931061 59.588715870623844
22.050237264302666 97.45330934180146 61.895007403041745
19.84708525650513 97.11149577990085 62.15941863381012
13.915671766969352 95.35060640977873 88.22134753203935
11.452959495580393 95.20019133546457 88.47691257138675
9.948517642729591 93.5595312894645 87.05629483683539
10.888518570995146 91.29345201037046 85.66773994677239
31.968501281589567 42.214799294552805 47.23415924843911
33.47149609764401 40.445106018213764 46.78469141766172
35.77604360978133 40.03543141008697 46.824934459636424
37.822046076333095 41.33883896336546 47.938959898186255
27.541996163124992 10.510753154990764 84.30361321853911
26.980668160662205 8.656335691530975 83.56065262500336
16.461002530534508 96.39264296927556 65.5537877454801
18.579866167769158 95.14776336716919 64.74850215359028
20.818213441793684 95.75169212531893 64.18844986278339
22.084911357395654 98.33171797130629 64.58892262639688
39.69900223653659 31.678621766264925 89.30800875181542
41.45461383839465 31.12089241032374 90.58738577310142
43.466834516223315 32.19961120182402 90.77059013161123
44.85942925590979 34.02196406002245 88.90745462360476
8.207898612120058 5.54922529053569 38.078600649627525
8.404775049356667 6.902502311605152 40.04359095503024
8.784699929746663 9.625125791825297 40.25894166491908
8.775722513016765 11.4275004718088 38.716370056135325
18.77220845581992 103.52811490853416 86.37860149757181
17.597830285170605 102.25409664143758 88.20994345006213
15.9041828395378 100.74954075984681 88.45868978580508
13.934097535184574 99.73911483139146 86.60894373524705
14.767376403645935 68.1785637939084 79.14712462739527
15.846874939426677 68.14029830741131 76.79549263753641
18.336670602241234 69.16860530804442 77.05272935511124
19.330749027555907 70.34555703086842 78.93506882075476
55.998708461381845 73.85733146102602 35.87188477439301
54.81258076525672 72.80436743650883 37.620781033898766
52.35333123857254 72.0492849574056 36.790980204224525
51.51852274559995 71.08426724975044 35.16240931155591
25.148382879421593 28.016823251270075 46.23688105996681
26.52596933833849 29.387073865343552 44.93790237010927
28.19772839669189 31.118064210495056 45.71756952654355
28.859910560027004 31.916969696452274 47.91713550512918
19.72837507130567 60.88949341292841 74.81436587747777
17.68051659006508 60.94834059245804 74.4209683478015
15.537523911645591 59.394251131488886 74.81226991756701
15.191683054288752 57.6496410521698 76.02520161290965
15.771648163454632 76.97455460310299 26.805757251932846
17.425821377427933 77.98820452468438 28.520213589464067
19.351581748286335 79.34380411767904 28.392775232976923
19.953948655451406 80.89150058367095 26.90587814597387
27.61118387476475 81.52225332147103 29.817046069444856
28.44477289900754 83.44567824922726 30.922728424569787
30.207541052099952 83.78196155580842 32.84570137747323
30.625602368522635 81.28839263501898 34.5707376710501
6.436992870795883 99.51752694827425 44.49900659169645
7.507507015960777 101.1960311383539 43.042081363479625
8.815588221392723 100.97532792106679 40.83743441375911
9.681178687506048 99.13231748261525 39.56508108341079
62.08368893960676 81.30770246623166 38.43695448855803
0.059155837387416685 97.03913205294316 37.0951574795929
29.528955192509166 103.78823574633985 71.97461343087821
32.342093026404065 47.562702654116606 74.59636806764703
33.36978015926902 46.944805962028724 72.68545412427916
33.86474443916785 44.483362108668175 71.92295197817721
33.54686879982014 42.71366468517232 72.89307563964216
62.27910288616461 69.30114624491476 82.56341434669666
50.482818462855455 75.1324040069238 30.805396461205333
49.92498551979797 76.20898235745595 32.5553314207768
51.713046075343605 75.92980890857382 34.372936325189215
54.19858109253707 75.5722243664776 34.1287046330667
0.6459024021757954 106.84126807758116 64.4370977504457
2.997128438419908 106.06689222968987 65.21356392119455
5.1174723852880035 107.34236984531407 65.47550673406393
17.827937766142696 107.79384935901412 42.412137563429525
57.525900332093855 55.1731359749517 49.6059593768099
57.81067681758899 57.37311508389393 49.67886951808466
59.83468597715221 58.92362427219774 50.61913511821361
61.71659121308391 58.33154942188366 51.5765843665586
55.080224872914904 74.17996629819396 85.40955909631619
38.91708924301522 79.98643934881977 90.14889041505438
41.755951756711724 87.0046665481414 88.81087545829125
39.68659529173556 86.79717336655021 90.08667119372124
4.1194632601109875 25.541210032041086 29.498550233178314
3.7873693312383536 23.209960110346163 28.915786996443725
1.848938198521303 21.56971650425208 29.587401499549703
17.46554507415937 100.48359422979462 90.75078519673175
0.13246514219448546 94.69654074839569 34.4295902114352
0.9360769065658153 90.68649876949725 37.01862149401014
11.203294019863533 68.48305990798578 27.762257790930093
10.452497846859464 70.59241359755049 29.02006065602155
11.285764417348396 73.01062313588717 28.87832527020075
11.41110794412329 73.34144822108662 26.533820941993707
1.7486177473338373 75.83702345809512 51.96285425834491
0.5786833940764506 74.9789819570199 53.72158469805043
37.174488243112776 91.90947910676172 36.84388479303325
35.64574647984927 90.74050956883426 38.27706984599176
34.135681068533735 88.79787537500704 37.81321016583854
32.74068370003617 88.30317031809865 35.68951959272578
20.507511758099064 3.9127815338234857 90.19584176898195
21.77915506086378 2.608037457853623 88.85468715855355
23.340260966516126 3.936932770075936 87.21276284473178
24.461851010174385 5.776948121763335 87.28374883354775
66.01689614349856 70.36143226414917 62.88564857386857
65.90487675380822 71.87107260134874 61.376976557183596
8.641645763174274 22.28447678433294 23.901438258877437
7.438218364510308 22.873579393398384 25.501581762952398
5.7749512061962625 25.072925192753573 25.98826706170787
5.659330695107982 27.069118668068768 24.821282024519302
7.719250330950026 79.14167690971898 52.47018309525871
6.97300274394342 77.29486423918105 54.32674611408031
4.764002237136677 76.47654724448994 54.947152878812
2.48641081623244 77.00570517895393 54.60309355809247
43.5313086036803 50.129873731027054 46.34021638690168
45.40200956992367 48.86856170870164 47.28405779522225
44.78383143747031 46.5447323715073 46.931647196032294
43.46184919170665 45.28811898006216 45.036789736435
33.892728233488064 36.167173218733204 42.566769742419226
35.64296835035481 37.28007486997027 43.44214641441163
35.06947304217078 39.95672321583333 44.30199820032722
33.147169703664666 41.1471511639646 43.88036957453091
45.45018802556806 43.463303195237316 45.01303204950259
46.81162450140883 45.2169948368347 45.966153067683294
48.914186703912804 44.03636526432876 47.94390231003133
37.8841843695941 34.57827700257951 43.33385514196854
35.44044367072288 34.4009554059369 44.51785645609063
33.76089371065129 32.7315175459275 44.10506138482831
34.17839782456153 30.459938994922485 43.787696145932436
28.504169226207587 20.89264065815998 43.88852106088255
26.554405978999004 20.639021542825272 42.69757177097543
26.470091751254362 19.101673035979974 40.747274192934
59.6507382732895 49.0963364349594 90.91245042566028
55.1317533763846 48.04967789669606 90.46944129127614
54.14457243527198 49.83349932988029 88.78684145734006
63.08904506667127 59.267554122467644 49.64602163142631
62.52366764858248 61.426496346623004 49.62913105001708
63.5353868502854 63.69951884771098 51.21815149207283
65.64019707226268 63.77451231631614 52.134619627985415
1.489269330807519 2.3347840582363237 64.72860637543678
2.547574025388642 0.3036021460360418 65.1827744486996
26.72276019411968 39.8241979011944 42.44377111227439
28.764400067527127 39.16487388500886 43.547647373705196
30.457420621295675 41.21464015989498 44.859591809128986
30.7487177538369 42.99796957112193 44.123725960611246
63.29414944889806 72.16328425911848 61.06315241258477
64.08117712813042 71.74724573281313 58.39228522362526
63.00278350004886 70.51472106844065 56.8419704594793
61.43097141728511 71.28645537112209 55.43670258536125
15.792626275579664 85.80253459261647 60.24053265407539
13.69625284808999 85.66189394251315 59.1788848669862
12.220027221185081 83.60163431343267 58.297348574860735
12.162334259519927 81.56749908758235 58.57804065666361
56.25999681476458 76.93294169274016 35.11978370133033
55.46815297603665 78.7856472887514 34.236586393589256
56.26108170774255 81.37400942909886 35.720419276614834
57.62458689244171 81.26524195660431 37.62891251514759
27.641431945393837 32.37848380616649 43.114257653063746
30.02465702694975 32.64519631944913 43.18138428457569
31.50960118309797 34.87965352112734 42.96062421852143
31.288811443959553 37.00935958033344 43.431705491440155
21.61653682857477 45.03839149391463 21.309124892953765
23.65877192930641 44.91082470427105 22.48140062324766
25.649595024572907 46.66373467124119 22.723534089553606
25.519079224089104 49.0453772515405 21.911526908228858
29.3604265511285 23.369360397483835 81.1645730336139
28.66548954935345 21.112970584197857 80.78419854308807
30.738330344837816 19.332882604062977 80.85541150830505
32.81974384463592 19.653330087000345 80.29258935500577
10.564813319147756 35.89969228065468 31.51233187311759
10.235413083666575 34.524231911212716 29.662226387339242
11.36065295479637 32.071205375468175 28.850713338852724
13.78554186330427 31.82765162343473 29.031550096715304
6.447060331348432 105.33270504742123 66.47542220839944
6.28257604845741 105.58383868781353 68.5948044897079
4.004179120678706 104.46690946736167 69.96385175496586
2.7321184461735273 102.84081184697061 69.11835634065221
60.67483272080188 67.30835492215617 78.92631302781655
58.42504969249415 68.73466594006541 79.52769483809227
56.346613229139855 67.83406969491719 80.96831492833785
56.294791749161455 65.92653062346017 82.60236391505944
67.6335103352993 56.320670825848595 75.95512501298465
66.61782052501657 54.42308272985338 77.56154608819644
27.005872323726017 40.182226616384774 71.60601142498055
28.05279166737212 39.3590828502576 73.47022001842406
30.095238353773762 40.17626577921378 74.31351651012803
31.15112369549249 42.218354713341476 74.33945630610093
4.16351562048462 104.81798827215216 39.18155739482149
3.8939187483974496 102.44272469028208 39.181482407358175
2.4982689339586552 100.8567288946222 37.985700266278876
0.3463292269747321 100.89537777730658 36.3744718319677
23.326391829679018 69.67682334741146 69.27967073834898
22.7494835292584 68.02916256358017 70.71444292192278
23.554997315325572 68.32352705708085 73.42164629310302
24.794440460006218 70.35440857634202 74.27161713831849
9.222550432004414 108.49903795649256 39.91669917469502
6.982382681094151 108.44700446658253 38.64083157160726
42.41375932926541 82.5507734564046 58.57921704349964
44.089548323957196 83.91816135735455 59.64565066912501
44.7605414043555 83.23509138879521 61.83024273112172
43.51650953100246 82.76476349252053 64.23648575693375
36.70651856790816 41.53001467695488 68.59042469808682
35.49667090396798 41.9316946984483 70.55158613282099
35.02073611271847 40.43593315362368 72.74156348125729
36.76017175065863 38.89353798520271 73.19578752588443
54.10807640746333 68.92034521222376 75.43487614611047
53.4271229874029 71.0820391156138 76.40454437188754
54.41525420297894 72.49315017061187 78.13012652411237
56.614239321437424 72.23663462897441 79.42462413683023
23.55054979146685 72.93309977215617 74.85773308488164
22.71835395564642 73.53347103681025 76.9762789169625
23.777563224669983 75.06432805245473 78.76977535627397
25.730248812389494 76.43008559075126 78.0025498203264
30.202570256164122 103.8346952821591 64.84358444323024
27.944202161408498 103.40321286236667 63.889534191345
13.534139647480297 58.50079989013508 71.03653240144794
13.606791419917968 60.797724965310955 71.87384746508742
14.743817757070047 62.76191437953448 70.98000871425415
16.863927953018546 63.09195960287551 69.80427249758584
26.977089554308016 94.31300798537067 62.86692174269126
27.094831066281017 96.54855818818672 62.17698819502692
26.075289625903856 98.83155653460237 63.24478375285649
24.85346755974659 99.18575785736394 64.89845359957953
26.326810820671298 46.93315463274895 28.119504892564105
25.224430006151707 46.86821054240562 25.7292248604578
22.727247968315666 47.72744242207774 25.021795710266026
20.821290243541036 46.9046620037783 25.926125128340715
38.45921211770306 103.54928191303672 43.75083963958343
37.946108589212194 101.32252852618313 45.53957342165344
39.450705938459336 99.28795715082198 45.3337599051711
1.8953086088086992 106.090281401342 67.67031459295151
21.859491125342704 49.72622847246498 53.38219736724955
20.032452499877213 50.59724371175019 52.19641838114267
18.593676862225387 49.441850975682456 50.15027382404011
18.388275132463015 47.60483848386512 49.28181063428584
9.880959783994783 14.428411419714502 46.849578303281795
11.869991089531375 14.899596713063078 45.0842939893594
14.051281362381244 14.263859569120001 45.14356436120422
15.231638467165567 12.579671123340447 46.69713341118256
10.053193633986407 57.55412646306125 29.31289986648846
9.967484301509707 59.22194673515398 27.64083892047698
10.113277118142376 61.880670834691074 28.462407583847156
10.882066653380155 62.28092914458949 30.794388224663624
7.1875770868940005 20.467696971207385 29.137922623018213
6.467040219121133 22.707601115033317 28.09326828520613
7.120703525176325 25.2003000836768 28.497835999509665
8.685210556296669 26.195763215391374 29.617845159444297
5.750393709797603 58.81031211321448 77.19761226015126
7.148055119619858 59.41249914745517 75.28847420735016
7.548918072066489 61.06054007059074 73.82743728453543
5.610845652879034 63.02612933776324 73.12437029788657
19.453196359203165 11.316513699032006 86.02032833069012
19.0217365556046 9.354288340685066 85.95474779959581
20.992398821143766 7.565865636553552 86.67594563098548
23.11866114496451 8.144171759988675 86.91190589986068
23.447405072686454 54.938669013860284 47.856035212250646
21.643421489844794 54.196974301553176 49.42724159058989
20.340811404067885 51.71899850405332 49.57844296348281
20.00401400119173 50.40238121678549 48.00589657055454
32.99834617197042 26.314685914885715 42.32593722274541
31.29476782559679 25.277021446147693 43.0054424236329
30.11417763740566 22.710837691258405 42.63157061250664
26.51346244812781 81.49190773279943 24.8642051055352
25.889873835366878 82.36496148586465 27.10298857105658
27.31675963943489 84.18803659709552 28.619735375846144
28.72243467430917 85.85896470884397 28.09353712727431
19.816585296364302 89.92259550715015 61.067021015538906
17.555778116089616 90.47250803066815 59.66031235864981
16.963756206191356 89.06603049322052 57.42519056293669
17.006672083272555 86.6017566561749 57.294841601864306
14.08156655939219 20.226934215386358 41.26078362165776
15.911180044082604 19.377500373391065 42.041426168907975
16.646079221779154 16.493715013663333 41.76532355990639
15.658380214417445 14.983273532423944 40.20350145406612
48.771901059748096 40.344370533254995 88.00204154458014
49.420874328611376 38.69843426225692 89.53866497973623
7.237335016311521 6.28582898235554 72.12531680916055
8.255028371201313 8.351154046591079 73.2184678467575
6.78123666681694 10.533623055734251 72.0392664792151
5.646588941347117 10.527238050782282 70.06716086889264
12.593727930769587 62.208134199765 78.67535824712773
12.939714638111084 61.11371325883908 76.56277858251784
11.95952020176714 58.86959478443453 75.52573532604295
10.803378129007315 57.30382860936465 76.38256659252453
32.12764021170952 102.38180625066475 60.79865945117971
31.846302696162212 101.8505942188593 63.3843541124454
33.06298879302459 102.56917392775573 65.42812525569067
0.1737137699081045 25.42365316990086 2.4071690288089838
31.617264562923058 99.36713095349725 0.03917096559391777
32.32834930427193 102.03444672917021 0.730791007733578
33.33424388483196 102.61215123485225 2.9583112500215565
35.331137217833295 101.52929341105309 4.360857266523331
21.71055341426498 106.87132343808467 21.9855711693197
22.03153459245875 104.37190683864047 21.055430409950795
21.51254038121776 103.21871449599192 19.260396505972587
21.348324792539543 103.98694836412224 16.62676936642735
16.600816465242787 65.84223721499689 9.01756811584718
14.823616675331232 65.82076552742099 8.000813190621386
14.029664851599591 68.04169049479847 6.828018358686136
14.802555543520187 70.19351294746836 7.234916874935663
3.305066162789121 53.18327600863231 8.827566722259395
2.765673511811041 51.649456358942295 6.775957947801386
0.19497241485097097 51.3786318740269 5.794947347975723
35.20266987263256 48.04939054052252 2.8934034941088544
32.97900491502052 47.97469690850489 1.7691866587728053
31.687830702950688 45.94523173437979 0.6542433445714463
48.3293213903758 97.73526879385504 18.82217096114417
49.06609703785131 95.67731994569127 18.293898078358946
51.52642814411951 94.97180264369877 19.527428284157654
34.95015141545595 105.03127006661273 1.7409266445826537
35.58765825175686 106.79834613615128 3.445535997542532
45.223095782350676 55.98702740400172 2.504836720620792
46.06182718514523 57.90531990028283 3.026779281008775
46.7484316663604 58.40899834183523 5.5985577448285
47.65025166395433 57.20924564740999 7.4578303135947674
27.46429267863514 108.37427901554943 24.229260346388383
26.137935372747986 106.02338199286972 23.489546882516905
24.38546936601262 105.81024611163859 22.00129322751049
15.12221577531324 55.35885601122226 4.992645081182046
13.327774445456283 54.610666059223185 5.77555035766577
11.389495979615262 54.1634822574445 4.562560286320554
10.923885558891373 53.36380809018858 2.128681780509276
56.93908911913032 73.98641462333472 6.324799040106531
58.89745731808726 75.03078664522944 6.345109669503547
59.969511653709915 75.79655672612232 8.906263508260707
58.62682589742627 74.72950027969482 11.122470025730975
9.116966484902472 69.94818979473283 1.8169807246978014
8.42561303046143 67.97888521000424 3.428302903032994
9.65698844695 65.50537308821097 3.76963786163349
11.95946842105048 64.79028432298246 3.2074703064502526
33.91318148956691 90.59036245934762 13.326498571737785
33.9711658928772 88.16223358454899 13.401384345149618
32.260194537410314 86.10047925770196 12.365155197325514
29.788773945884998 86.48782009126518 11.490003285723951
53.721106000592016 92.17699324214603 20.03591200959211
54.364501882376736 94.23776226213553 20.207464728313642
52.39837281384782 95.25707406880743 24.38876182839343
2.521374755603835 50.32718660218655 3.2203776172946523
3.4865830891681457 47.726752192347895 4.087209535544221
2.0328345313062934 45.64079654988439 4.917688802859391
56.83733172822968 67.73693608390313 0.8567956502134835
54.87827135520996 66.24568919403023 1.8864276129281328
53.692810917028154 64.53368039782097 0.9645337440948868
14.364891755608294 56.72875665946521 7.445389824960654
15.204372382972345 58.859047130860866 7.8853255378338325
16.933532868222688 59.401931437689065 6.046135097348228
18.934284749964494 57.69420169106778 4.911762953337195
10.659541232870154 70.09766158961145 5.142516760085219
12.834153885388004 69.27344414482448 3.7543817218427855
14.816387810681254 70.74888175499223 3.0793869718971663
15.947604949529067 72.42221159077285 4.156880626522822
21.021443735387113 74.30786069514905 2.253757863431434
21.33571327551948 72.10626826626482 2.907072256490478
19.09602911903034 70.3357230665654 2.9097249792401954
17.202975104733543 70.22532592519197 1.6300614362646302
71.89153803188209 77.71534705699297 18.473733276291828
36.26133242769438 54.358405294545044 4.378523200826846
37.86221633380512 53.746938821057824 5.813682437355282
38.661189541542036 54.91989409071507 8.210158601218026
38.14948033135471 57.557102326778 8.844768234305006
38.7246340102857 86.8254708761434 16.906242458764606
38.84255405871199 86.48041843963799 14.622212273330334
36.866623761118056 85.40456521207447 13.097148559482612
34.758956601901644 84.46363889841614 13.564798381236098
53.399778817165654 92.03317561318053 17.09148277436436
51.754091176288156 93.50716051149465 16.998174263257738
48.87680259325661 93.43978953766197 16.962944198933457
47.719420689186485 91.1371156778729 17.59477562695899
2.11738136361409 42.378919502347955 4.155996817467231
0.3144722414614197 41.2515106139552 4.1608762772265635
