0.35244657767597104 61.701996553695935 37.84082509464703
43.63490876964492 89.80192289211105 55.4417260790208
41.02374164917862 89.62350488324628 55.454852300899596
39.57318285986848 87.9602096751926 56.53737497696468
40.1381883604134 86.50211553224652 58.86104728941475
37.57385368567028 66.64588809143882 49.180486839879244
39.346516403807286 67.91391348026539 49.035288445981706
41.4001876663812 67.60454270894216 47.481964733620366
41.67784478781533 66.22725211062685 45.55467110784784
1.6595715637468438 69.80478379314796 39.18312554018379
3.353201423087057 70.71860536317378 37.63496481021623
3.676396160422004 73.07839831976246 37.448038355576124
5.936194915080126 76.51100331280962 34.29234219464391
5.822303217664637 73.93101307894378 35.48899609845952
7.011934893140717 73.04737299286597 37.50325343413353
8.334650974236277 74.01316267694132 39.32872590628495
59.02894701047168 93.12304118138296 57.259486924141555
59.45017889026311 95.59753833351348 56.771222201577686
33.52854320866431 73.93281797016952 14.126521720641321
15.50831918269111 54.5977054105049 50.061647524242495
14.458959179456679 55.33665163942609 51.89107075496109
15.27704095144281 54.70310621243263 54.47369093898644
16.81572328577241 53.27704894004647 55.144030843769414
56.223186007091655 74.29915833246547 22.62684644339091
57.78176786208584 72.6143647584871 22.676877153728505
25.095554526964406 65.94826750104198 47.56406449540908
23.887695681643656 64.58189935840299 48.67507238788886
21.805588666408713 63.47442465114904 48.5031547479219
19.527972521802695 64.46963103583042 48.04906047367733
10.564715725295894 58.1065093099434 56.04930005125471
10.446167853219208 55.93980933460697 55.16513994830646
8.695159612679767 54.047203989301 55.103241251458066
24.130485826085454 90.26822621253753 3.620092163363814
23.40047105983117 90.9236264400546 1.5290279177906465
33.144917162348726 61.41978536522736 55.4088572287095
33.546741052162425 61.511314334832015 53.15124250826742
31.453213610673973 59.94098708064314 51.84652464101494
30.26661767836226 57.91220233183063 53.30807488523145
44.185899631484205 79.13654248977252 10.511294434913982
45.481402529524594 78.78262740530987 12.130066484899212
3.1110264992557326 63.062032660781256 35.750153369050174
1.5811686439489334 64.9988705098274 36.73157279172974
2.2281868571022247 67.51596051644735 37.13323009743616
3.844167540195718 68.77096304090314 35.77684010872419
29.01369658882577 64.6297574360062 55.275092758282824
29.289494801813497 63.02625467225652 53.55038256016751
31.537856002453655 62.8527057310353 52.33996878133837
33.316516325221684 64.2935945602864 51.75395429339629
22.083785777966806 95.73005466661597 13.425524607237655
38.213006366853946 79.14820712660364 13.469776226144045
37.648114031699286 77.6300214610652 11.437824395642147
35.762296622445504 77.90324062814227 9.635419096897289
34.27412312290424 79.52197947909872 9.130882610015076
0.5060092991308844 92.54423355106685 45.369294304674725
20.473364339806583 75.01121219787031 34.515347237835414
19.179067725909622 74.50315517279587 32.54013830969096
17.182573720035784 75.51392331016707 31.637788586382875
17.643659558790013 77.87276349021093 30.67499876784201
51.68908505433039 87.36630651116619 6.593952795143364
52.144063633882766 87.00641885361583 8.743039960995334
54.10489992826904 86.80727385175473 10.172967869338455
56.639353944362774 86.78580176911707 9.43276795247237
24.84214294403687 62.18231679037641 48.24014457413823
25.836373251800303 62.039547621870604 50.527374141918905
28.547227465184992 62.04067549921799 51.20438504962698
30.50117257671093 63.09810510331069 49.95391228534597
35.08159233586867 84.71953269990303 56.19291943836955
33.51672358573235 86.08900172279692 57.41801842451841
31.24947337487706 85.57003418839102 58.63690848680102
30.200658095020923 83.53959593300476 59.120908285494664
20.495708015544977 78.2704898368729 59.902833865775634
22.2576337347074 79.74218208549956 58.05965241298256
24.098058095414075 79.9287694207269 57.755199690863705
42.251061114627916 50.715547832560034 47.586909269407556
42.53949123629442 80.41809515854011 33.52217820358518
40.61825141219859 81.17382569013532 32.803870900290335
38.457578379412 80.34473910641508 32.71845078245647
37.225827970611626 77.93386817047887 32.67709432137693
31.3241371118523 79.77658301229174 8.877347269761463
29.88190517400479 77.87024191025588 8.742030555894562
11.296716665433769 53.231605916699074 54.84903145307606
12.883640477351198 54.63476711579598 55.66341713083143
43.32624018956831 85.22583823125083 27.980936131273342
45.34822184012595 85.87353869072965 28.9785326992795
47.53970643651702 86.37737683491488 28.115179292685315
48.36605696263326 85.56845470699184 26.342522631006343
26.512533285846203 86.28384178389409 60.708632231234894
24.54968215031046 85.38653083771831 60.74262608653118
23.736874352338607 79.703803361144 54.068911611590615
21.916319620368345 80.00368856092497 55.38858353231599
19.859353173719096 78.6370054232585 56.24009663043643
20.22290524390301 75.73666108802088 56.84203330403612
24.770746620080647 85.87803922340352 37.97219574699012
26.904336191118034 84.23847623650093 38.508523315282694
27.79289733085421 83.61709624768714 36.0494998359648
27.403871108532215 84.62058706351692 34.16948400247086
13.929448822502847 61.24908872049622 50.22681195613158
15.72580544113808 61.050420523857895 51.74727396058822
18.247004122167432 61.663314370202336 51.67767569214131
18.604263678330287 63.70987335086352 50.70833338290223
19.21487568303331 53.50798171404464 56.105777185395205
20.607858591919204 54.78824996025967 54.6354767206512
23.093262027234896 54.36643524386213 53.41641217886257
23.847415107878565 52.12871808163138 53.04207770002858
59.613669573619575 85.58665020553299 15.085455300249686
58.23963783903683 86.29540573668076 13.037852939626486
57.69291834169003 88.39618540423233 11.906262207162762
58.56405914498239 90.75822991607225 12.218989855128225
29.258117718355173 77.7321573994357 11.973398814826004
30.360144066009983 75.8779780702513 10.976984248395716
34.789745615845106 76.36180708212164 11.7826114853605
50.03701014396083 87.7671170941466 26.04479806037741
50.65713478001883 88.51705640851226 28.414770014289463
51.73553780840535 90.7450102220032 29.258406357076534
52.42205383061189 92.76458989627866 28.171305686316344
59.49634743785461 78.69225506703941 46.81641441424924
33.04159474985317 59.9916981203521 48.73781965179807
32.93996969319769 62.40658279992793 49.62944912655736
35.15858656007244 64.1620843128588 49.82805135867508
37.4513389267114 63.85851640344204 49.63003616784843
10.671044760337557 72.27460632621569 29.015553098702103
11.333770723234455 73.72708912277339 30.62649383696925
13.872777634014222 75.04967208167506 31.054685773378345
15.285457941633648 75.16512961741219 29.242326998861216
44.99241042436993 95.55093400488798 60.255709007684686
52.66649496294938 70.19948056972042 47.94016175529462
50.63159235320027 69.36492178890435 48.50173123648763
49.28837592504377 67.41756002467109 47.798523570576826
49.468772229760084 65.57542095598261 46.211209640225746
43.759728338680894 77.15127929121594 13.397488985753975
41.43755047582242 77.61591637353236 13.083167083180196
40.79678876631558 79.99945524962632 13.308732668018067
42.10278405391035 82.00851603504982 14.7427657440047
35.30216015471352 75.66292279403845 15.144144753062736
36.33618762141214 77.40487004779007 14.288111596068664
39.00825860046911 76.5082868462915 13.695851793979504
40.04726414097441 74.9964512504571 14.752255450895369
4.685047164032986 58.911427176210786 41.29460673766098
5.105774838725999 60.95841826863496 42.02327389206433
5.668407812092088 62.18429717526055 44.29525622151633
6.713134724292154 60.93312357894098 46.42135070606718
14.537416250120794 77.29732366945206 33.44491853738031
14.643422463352028 74.7605263162007 33.38185987342758
13.005497833458417 72.9416527543987 34.3132558113178
11.040748312951505 73.36642485804072 35.90986061980444
7.784269435867481 74.86745954033293 60.584155384418295
10.39117134822325 74.56298409399946 59.870787239934806
12.231181505518279 74.8349403850176 60.94160256028984
45.74103362323399 83.43418736685281 30.86117118951207
43.74197446599047 84.26552114139993 30.557085146221812
41.46927189223079 83.298672704693 31.061582993514676
40.719338773191666 80.72385822238967 30.1340255770566
26.240246618480043 57.04404895325586 56.5921700260989
25.198816881770167 59.3118693807543 56.992163555940806
22.333334423634668 59.42883051599464 57.397361759756
21.247309958330064 57.87389218021611 57.01922503463829
43.98213143841558 94.15033064166175 56.506379778343096
42.61389792565476 92.0938989052919 56.63185743385359
40.5191385425654 91.49501403666878 57.212287684032624
56.526388606279895 95.38266733379768 38.10886516439007
55.5968693491889 94.91717123298372 35.73457922834032
53.58629304541387 94.80353526276026 34.74525514821665
23.30099380297868 73.61953449515234 29.88882062360353
21.447326482378 74.5798047690217 30.983162514578343
22.627684191513858 75.9707301733524 33.01471342648765
23.39638195882385 75.19407793394183 34.65469483535195
30.300250820163228 85.46608526938999 36.43710366099503
30.45247889089516 83.8214381957941 34.49494841115899
33.018442070782065 83.54450737846983 34.00725465255743
34.66585136141657 84.89797189562486 32.92587596832148
57.07668148446635 80.09604169166812 41.46460383032033
56.194191952417874 79.25912559566733 43.14870820974813
57.69716181485951 78.13611651697471 44.71470873894852
59.51333008671266 76.1388479867061 44.443201509684606
8.107707527441155 72.80718891576451 58.92397666696724
7.233907603270868 73.01600497873783 57.053595917052284
4.18876520152503 72.81530300157189 57.03430191019206
2.8743010703106555 71.8469611236698 58.47153292209816
56.576061651146965 84.2568907918649 13.85515557402971
56.33798770465874 84.34984940218095 11.80442447237164
53.755656475970675 84.26539896146053 10.528283956095994
51.36366033636605 84.15721318692792 11.718677913229344
39.51677421574456 84.88382535952823 39.31074465234013
40.78723375951816 83.9744828774054 38.12137692229728
40.775544865856645 81.44001572786625 37.199734130378374
39.177649378139186 79.67882380198546 38.33876430009937
35.494190419838205 87.36944211425921 59.83089019613394
36.89309764692435 88.5736305156807 58.26242456819485
38.786425129155425 90.45383375753495 58.85703499624836
37.144367718951614 94.47077548416377 56.45784244591313
37.08569926553408 92.05881744132675 57.5682129326696
35.440163371335984 90.65104899609736 57.853794481209015
33.90174778021891 90.33320990967364 59.49326468194325
59.79734886790169 84.09764302923598 47.99749681072015
59.83453241237799 82.92906390340752 45.51650094911883
58.65034468568572 81.42702962878643 44.48555128387062
55.683563061285376 80.59147966720526 45.40132641430456
12.944446158556564 77.42282714992025 60.72772667276955
10.558271268423777 78.00993287003577 60.4506439168984
56.842498319276075 89.82025480012118 9.003001085846636
58.27474629220385 88.79512073298135 8.437872290710125
30.519082639162576 61.076148825033435 55.518378463766894
29.0343898714787 59.097261174792024 55.62393328576429
26.681797746869268 59.6226901586591 54.659671891630346
25.581967494970296 61.991813643555716 54.29208978207123
5.394522185722656 69.91243352460755 32.93873604429926
6.73102023202265 71.97811867257457 33.87811356622144
7.784941533310646 74.00831406436208 32.75158210682655
8.21258752954803 74.48082907016601 30.398233548697082
0.03363552325750707 68.10098413201725 41.844463117179984
55.86737556005283 90.82643622086718 11.816257435190526
53.67399925682497 90.114452481013 11.085134047264305
53.407942666842686 87.57992697969905 12.320228757165962
54.20968268269836 87.01561583412223 14.544812030511007
48.46982620656014 83.17968411865105 27.680529215983984
48.31810691538683 84.39338184285096 29.923654220954603
50.11008752479054 85.77266188885204 31.241531563596457
51.994277224690116 86.78252850397695 30.26623301790941
48.56024575755175 70.90604969073718 46.119735575023604
47.609172431572794 69.57966621026863 47.10142838513917
46.05901379164689 67.77655599809358 46.5476334868617
43.74567309823507 67.83859719046748 46.150346683732344
52.95551226531809 95.04022989098458 31.246319828366623
55.19293819254205 94.85215685572254 32.68736275149463
26.24498198807232 80.23983062907284 55.71789201741011
25.75815433466914 82.15721226303243 57.12518365606178
27.316828063340022 84.26742127382454 57.70284570649435
29.1652547700088 85.12518022305527 56.782680061435606
5.025760744614186 93.82319710421682 41.527007571503546
3.001243661425918 93.01383728510078 42.748373533528564
0.61975525279361 93.22319822898267 42.450878543448646
18.343419766718387 77.98947750069924 61.389651504957
18.362208035757067 75.84993738436896 59.6092410168952
35.070532073557544 65.48389615517044 54.104578835280286
34.92393038619871 63.65351589048001 53.995757346873866
37.3007857918659 62.53305914936713 53.14912408808087
39.46622549312301 63.50474648040138 53.705389497574025
44.87064220836584 90.61260339806483 52.89968937141992
46.305762306726194 92.06265440513319 54.636798294390125
48.381621668720555 93.45591657872603 54.26727799674013
50.29040691012463 93.74917241770162 52.33470418421099
25.657467210376883 55.590693288976745 54.11200402124295
25.23271405331911 58.10083232140479 53.11924787301805
26.270749233771877 59.261407301135314 51.01660920754352
28.381328680017884 59.20142047616139 50.12878697591407
28.906974520053197 74.48421418538474 34.77960981320957
27.309668103414293 75.33800332937672 33.64268356197934
26.03445998370358 74.74030878372902 31.1960412416219
26.252699539654074 73.5461286673793 29.622338683420082
20.19665480119433 93.63491940849126 12.915288983772491
20.311580749604293 93.32240861026096 14.880086600990225
18.464205579189635 91.75776201202807 16.577654547957135
17.079490448968173 89.98168394278147 16.03308399072167
52.55833690589992 70.24539547103575 52.42437745852651
53.46779542037265 71.13955861177952 50.436732617213224
55.85961804270214 71.37780401483649 49.54289113231082
57.89339516189647 70.15294820792937 50.08400963606305
0.0678084605035227 62.055712988578755 42.08554076464934
2.0716783008869752 60.290745736074754 41.43638295198622
46.35612207482679 68.77341419504464 53.97364794804223
48.05841448752484 70.24894399963604 55.02434625635448
49.68260022744168 71.2432494493293 52.82366306155423
50.07104923610416 70.24486331613438 50.96832621083663
12.523013179557648 95.00226364325506 41.2245366112521
11.236747860446428 92.43299961759008 41.85995484559376
9.059624825486567 91.90378923149537 42.20579726981595
18.83611024421609 84.61749864074332 61.17286658464701
20.50403443220626 83.34611503451299 61.71444979560083
50.501009357703545 56.40271535232084 41.08986922638369
56.160037255117466 56.2331497754298 41.92162069476865
36.28333718247389 78.19023368240173 35.527947528307
34.1750593544263 77.67781441358606 34.17730698939153
32.27681952194342 76.06527539384183 34.62128342793636
31.25844365923529 75.02837483737852 36.828795841807825
25.615254173035794 80.54068108304149 39.62140540035916
26.117853595851997 81.41247528596078 37.793434543438906
25.471389847321735 80.02600748994213 35.17690906153834
24.004193502710894 78.59624172003366 34.907014604479365
6.7848998757823775 79.28724829780762 58.30019847420222
5.779080223763175 77.1475516076548 58.91146126097125
4.474040030808309 75.47237182175806 57.9525769840784
3.4636587911132555 75.14278142778542 55.64887638211684
14.038668097638512 70.5011306768242 16.321185778922224
23.19655593667717 92.45811613670477 14.529486410701686
22.87198073827031 94.41356482908479 16.095763258403053
13.901354156068308 70.38892231700949 31.775675912650307
11.698697212773537 71.34194135004445 32.2849129274656
9.520737676612091 70.17543575243572 33.49580832079586
8.99255696642302 68.16992866341354 34.20711910751168
0.4415508901098897 68.70340280753939 55.68304812210826
1.315722966493592 70.21262617887409 57.02945601610207
1.5159852481405531 73.1176177481921 56.497685427464894
0.9566106685507824 74.16803617045336 54.844610283188835
58.566945017191074 93.81107273087035 30.997680418511113
59.397130321223706 95.62083675513068 30.30637242693748
51.88849151367572 90.56038269467496 6.892840237742257
52.21371598810889 89.65122825305342 8.900788621053643
50.38995641465792 88.58834003513176 10.259000710910893
47.97302191149436 88.57397973481196 9.870318133753472
24.360856013602064 74.46915443697074 37.70648760480588
26.04226265688054 75.78903676104969 36.0779864280946
28.552431181581447 76.49268830848034 36.46530306816825
29.804075135211743 77.03921610046308 38.271276534050415
35.939552871095884 87.33765540604544 34.89404951196116
37.07402042487161 85.76252118151935 36.64902726263877
38.692941102403026 84.1036230755686 36.24723570695066
40.3553782131742 83.47134609806108 34.2154889976094
53.43895837221106 94.884436527563 59.963326518082276
30.59482821502128 75.16892627738963 30.375291138885526
31.46260573086391 76.68364570299224 31.853213218439066
33.50326243732759 78.4025323557809 31.851309047716356
35.62156361584778 78.62467654407287 30.69988887035213
26.62249087928822 61.270952929041385 32.49313819371997
35.59575911405632 84.12457393377896 38.63157536664654
36.965050141678134 82.35624889972524 38.45026449786043
36.74719377069262 80.9968890942009 36.16015820593038
34.70609805765548 80.61391495139132 34.78714562110726
50.07617676980516 69.93075745531324 24.13956807458755
20.196145194867626 95.51148897055305 39.9965345444917
55.263032672049526 93.38962422873155 27.885297014696203
56.48795715905779 94.91208129402158 29.0815284040499
2.5375650046163716 87.103765898206 43.64740940664017
0.9699736280685364 88.64953065219511 43.99222959963252
42.97431252625914 64.64259056536149 47.86762484360319
43.944948863929724 66.41993434626892 48.46404273569177
46.126830254876765 67.1185850701711 49.71548419922642
48.40566713056071 65.96573578748136 50.19212142647261
9.650719415608641 55.563220683030885 52.65742987457691
11.9406861499521 55.4860392325811 52.64921805040682
13.535255126048925 57.647390237412175 53.34818050230944
13.32848069345976 60.01130171594552 53.22052510965718
60.120617682732586 72.69727369756704 24.04055219660019
57.52017190564036 73.1399245238871 25.239072963902863
56.581428571855284 70.95573665622435 25.932179469479482
59.701542854633814 56.40038061903497 44.85035102240258
59.7432449206717 54.34099853431107 45.812415192276056
59.369218965141634 81.53449274146088 39.950666987069596
60.08797640527693 81.14294092356906 41.9590150453654
38.4632866160607 82.63941758544588 29.30554808239817
37.57485636141146 83.0244532134392 31.837388934831655
35.48397017277752 82.12632588568556 32.87729089838688
33.61632717037822 81.18016126543843 32.24068419080132
17.373443761814848 92.1241249908374 20.163503825137763
17.203575947880463 93.66821112156356 18.00230479904512
18.876642860757233 94.90127105883268 16.834828457217014
20.97783822370943 95.89438501729694 17.32150981118253
13.796625639520904 90.68466921627835 45.93282484298153
12.970567914758446 92.9957770685051 44.8084975528026
13.959529950980158 94.98559486877353 45.86099071600808
13.608762330791578 95.40000079717468 43.68556240945837
15.519775813218718 82.17562497860015 61.2612848012369
15.242175096652002 80.32313428671918 59.91080584147153
17.714424440365253 79.49004277595793 59.4716088762114
19.630839863593085 80.43561278615526 58.38699379733673
40.607516708959366 69.06741040067517 54.82950739777331
39.48330329415947 66.67031681450153 53.91752538170298
40.86780862125849 65.89132013288915 51.82544485086578
43.04118848377039 65.60944108977752 51.496152428366536
27.695071732553103 87.18768224590472 58.14847369251665
28.699704931228894 88.32635161777651 59.72633266005317
31.29720089862314 89.58959825098299 59.16834175160354
32.21537224400757 89.85086419507999 57.477252131845525
38.487407586212775 60.37041669240151 51.462390896462516
39.287303640411494 62.655088659552426 50.933949284023036
41.586413702441355 63.73063360712897 50.07915959102954
43.97370207609659 63.03630754404085 51.459948656365974
47.56854723105224 85.4871823828281 33.084487802885526
44.97707418482337 85.37294552040093 32.841192886581425
43.0359247566225 84.23999015145785 34.42741790948821
43.090659101319964 82.21917642920957 35.324417858714384
35.80778419879187 67.22071159380401 51.79751438237882
38.37026905691459 67.53447877382332 51.67327105755684
39.86015905352702 69.77563108018241 52.183970383686294
39.57906475502064 71.99290204490457 52.05156337385397
5.6326362594317345 95.2567122563278 48.68233329032074
7.287153030842916 94.79355544965101 47.18985025023396
7.0654565443048165 94.79897393774068 44.463466658148164
5.531884272348344 95.88684663683836 43.14862843185667
14.697920855620916 90.96281115665543 20.680082511930273
13.53202217402843 92.3629784699289 18.987619590533516
25.84071065708533 81.24312512101801 32.70147599854093
25.001611271849196 79.10443888089573 32.18485857929174
23.15370725457331 78.10125856645531 31.324724849049467
20.947198791827837 78.94902346929993 30.11287118998288
51.730298667728086 92.22624914068285 58.65217466770848
50.238942056223806 93.90627484971542 57.20651510054609
47.85416456399444 94.38087617154835 56.94645800818466
46.04229836185711 93.58597802859389 58.07011409841054
5.251855014877872 76.4597202470187 62.01680468700862
7.369702875019193 77.9321742718844 61.0765816211919
8.309392339450005 80.02450174103465 61.81317951461565
29.733908249544104 78.53804899430001 30.816171186121274
28.22916898969637 78.04207362022582 32.468844229962286
28.074551753603703 79.08684798110495 35.14014284059052
28.80310882419636 81.13957217676267 35.75194996594535
46.20897745324163 67.86036094253186 25.51652371661322
13.919768329757005 71.1220091641003 13.504683640951857
12.017401231447181 72.72069347742142 13.601560623171045
46.722958294470615 95.49831960231396 53.81474865883362
44.3460998991988 94.77936073763018 54.05581572771075
8.936772987450517 51.88135003705498 53.44958165228487
11.012582594229817 52.66703588125603 52.27976918628725
43.839436761256266 88.76948013521469 31.54635310218515
45.11491379155809 88.51405014127319 29.749720082041332
47.78833974131573 88.54198751265082 29.32339518579332
49.61210877479245 88.42419699359746 31.08140153748147
59.98500294813357 74.51703046159773 20.297479705204708
2.237689914081419 90.20506927233832 40.99492304224496
0.1333282438171007 90.61756726771654 42.4173448373584
7.969113381238684 75.65965724315004 57.01954603850234
8.889411700440164 77.65620423066089 57.4555735143879
11.765155357956502 77.31760239565692 58.17526368835892
12.621742288299771 75.0312080812469 58.083592667216244
42.78098382766843 87.54150868548062 7.655760322255672
44.21050883641251 86.28340873180892 8.993130374439595
45.292386311954935 86.82696948819233 11.151499164242214
44.068761687996776 88.55137192518616 13.002134503075025
11.902312354264295 94.32667086319186 47.635426417554605
10.358485852479477 93.54480083522756 45.434080529452835
8.868481804205793 91.67182028935291 45.184418514837816
8.605935371732835 89.50052400876024 46.19033991293478
14.425644542725859 71.27014143226668 36.415957519151966
15.640343043703071 71.91519262115462 34.47835888008994
18.17333717000712 72.20971476309177 34.00365190609541
20.016712778679935 72.5134371810577 35.065496812086636
50.47822838693978 68.90796362459123 27.488378885663913
51.90640770392676 68.91747101809484 25.895160664137
53.95562609688118 70.60344211094927 24.96261149036671
54.59698630051782 72.8286448263966 25.537148679388988
19.17231452312367 65.3758476998632 55.290732788618804
19.150381645757427 63.97275507051588 53.31694556159926
19.571420875276264 61.33155174794057 53.91807691715674
19.552758512037663 60.15317344325349 55.533519539284676
23.388394738020935 86.60526763111329 17.636188292011877
21.09596230929947 87.75038207113057 17.9291193480477
20.603714004112895 90.35858110107439 17.486887486895473
21.88295016700398 92.18487649667128 18.02612417030301
56.25061805868845 87.38069394510718 33.973071301102834
54.920693703057914 89.40901184904722 33.41402663903032
53.36658610925198 89.8612997844477 31.131322596543686
54.54673630431709 90.97984664587187 29.97508640179943
51.46411481142333 54.363738662266925 44.01068633466756
49.29165975184333 55.69289564737357 43.61616913724979
46.957833459405805 54.21920104562548 44.57538470932641
46.75422663331433 52.273509058130806 45.87443390644396
46.435243149309514 72.36451802092375 53.86090695547868
44.797826549290725 72.38807859754229 52.12986621968283
42.32448251121357 72.17672794021473 52.154442761155956
40.60794503521631 72.73225722106748 54.479370357284985
6.397157907610916 66.6858220692223 40.10170046555598
3.8637278617177215 66.38612153076772 39.285220909996454
2.235782023538042 64.49315065088163 39.31636019701805
2.573324684987163 62.19000127726518 39.041525226849394
28.48111676735994 93.14176874025782 0.6988795356374066
5.8368368793052525 73.33894219999516 40.39492818539872
5.678276705748628 71.36316760433368 39.175013029646756
4.640096272830811 68.97217598567897 39.85650728696885
3.7050103469953815 68.1351437857295 41.69075957694707
51.5140197583572 92.72343767123883 34.86717527598524
51.174180373305695 94.63836765546903 33.58878173846378
49.850533752794576 94.4429180762321 30.930404353644064
49.63505136455697 92.2957126617904 29.739855831060833
43.97819244275671 70.88752667658069 40.81525081024141
42.67497543949178 70.47939787380706 43.109733189666365
41.16054847955216 68.67112755347964 43.98670342940633
40.2084443108866 66.7429668038826 42.46902047691635
16.675431260838693 80.38759031940135 30.646950097581428
14.90943395862605 78.30940971480274 30.93492001000673
13.518657264092768 77.12602603899698 29.261849789216846
12.699819570326962 77.50948317216545 27.354236271705506
40.308044527046235 81.45622530063844 10.772732445807218
41.35415312037151 82.63183797329827 12.0582890340334
43.715430232785025 82.2414623734761 11.47990686759449
44.836577275234795 82.09597388158969 9.252656673222678
58.98127258240275 83.60264452482853 11.915668406410179
59.05096080856684 84.53412089879367 9.234972970929807
57.78933141828322 92.8475722973495 38.56789716292074
59.5848677181852 93.52191245028236 36.84692922713097
59.01003908302716 93.26463294262307 34.12110534528908
57.12920664768447 92.98311757043099 33.057065000160584
1.5296547400448186 67.87485591695705 44.01046257101782
3.760926862474167 66.78826715777895 43.8955481552599
4.073359283900633 64.35137761846572 43.17025932265576
2.439991189969546 62.36277873539975 43.687600331872034
33.8477396791097 56.9938057972974 36.601957154393645
31.77078706503147 57.33877987120193 36.75216197847113
1.4363120357361525 73.08787736149664 60.245777420313814
1.9189365770250626 74.63841391460635 58.540548872366244
22.84593140001255 75.59905460744511 27.953666928367102
21.255487977819836 77.54599721994717 27.34926482912588
18.64986629635404 76.79099164663484 28.63797852324125
18.091066819213065 74.7123226722197 29.07144532907049
49.17885606177874 86.9882955218245 7.2455697848894385
47.71134112233101 86.17090115116214 8.769381107187614
48.68786990892584 84.31719925978939 10.131532311143433
50.790240599054044 82.5000200954841 9.254908387917869
46.40333132985851 88.14391990691696 14.34054854242814
47.68002349846253 88.11134266229078 12.4970433592328
50.07659199774572 86.33895863285863 12.398817857865343
51.45098950828667 86.05751351968968 13.97741590772786
31.015411523563458 86.64917692517753 61.77363944461335
32.36588911914257 88.31903215790702 61.624397366398895
10.225828613073062 87.56237140861067 44.54173186800377
11.230180683944617 89.51509299279351 44.4300048707649
12.933949708566555 90.55778038675764 42.7012778712894
13.627786964695874 89.7467065772949 40.26036055776564
40.43111267960465 70.14120157532203 47.66930173629861
40.60785598561965 70.70182281484766 49.68512484106461
42.3321121735076 69.63728766953663 51.185771291927985
44.824463276297074 69.438907660485 50.87389446325058
35.19299466047142 86.81941543748158 30.745067148420592
36.99923141148923 85.99809531496 31.615303906943517
39.84227755138069 85.82611272226352 31.001207785848433
40.96850369068315 86.52163486503592 28.994117801445032
44.241093435189164 75.30620116635582 47.217319839591646
44.315930146059614 73.34590724666367 49.60022249581008
46.64988259083746 72.25747256900968 49.141048017183905
48.896179633773244 73.15882708351731 48.08127231241145
4.310967928175594 88.9420072546694 43.122255359155886
4.955158362557497 90.19894367383864 40.97784221489154
6.9375174522123055 89.98681594813166 39.433436174511975
9.461520036901918 89.80907509315116 40.39627470954813
13.420607966013108 94.70037121157705 38.817960449038644
13.698277175059097 92.51996701301073 39.71068822014787
16.220853196887845 92.54657038947136 40.872301916971175
17.913046938839035 94.57397364696469 40.661848720631845
10.120827350596878 71.7217136340924 38.02387336462435
8.606864181237528 71.20822830657187 36.01626202061836
6.974485695823307 69.47865561065731 35.387615392328875
6.026824536895157 67.4630802689291 36.795006259211696
13.675834922466779 88.13999436765788 18.04381859781544
15.165272315521117 89.6813771860375 18.354013738011837
17.75408113581399 89.78654657987221 18.68913127035994
19.197952121237993 88.15967131925554 19.948852368135697
29.270788192488627 83.30742188655385 61.73372567973883
27.405942220824578 83.58514516271863 60.427427543344294
24.655729840278788 82.88619993357366 61.205646737112836
18.16387846309504 75.07412812378816 55.124308554741496
17.662296875593736 77.4256047923912 55.302850171195786
16.270474244545195 78.46842008775545 56.96890051264823
14.521729016301165 77.7257839070469 58.54934841985244
42.94150320777067 92.64400894622963 52.21659487176689
41.84371890357171 93.28428082619195 54.088738851472094
39.22331439858845 92.89971011458411 54.953850581995866
37.164513828231605 92.61357682099344 53.83411479317931
28.231097922366548 80.02461052098631 39.20773826539376
30.062739574230914 79.74707031407584 38.30465966848717
31.293764248506427 82.4127200244525 37.49170243830756
31.367386366733143 84.06260984188167 38.65919811503627
46.14803433494761 81.40901764656333 12.014495715638386
46.43165058555391 83.61915208939843 11.277583442824346
45.31298746826878 85.10424234395178 12.988788702454302
45.85871210375645 85.74526626556441 15.191669913531694
39.95724216509398 22.2875331904096 37.09803465061603
39.3275545555207 20.3394597601086 36.753057328876146
36.98556359504479 19.153251620126884 37.4136158026174
34.65638448829909 20.185977647487185 37.634448636185255
56.395944959356726 65.86203435595044 26.103183298779562
58.693397281787696 65.68382709316441 26.335672978752587
29.810231337185478 6.916936487933469 13.750848030050266
27.586790563451178 6.297285725541676 14.69413851895019
25.507399027923416 7.895846858634472 13.764631349271031
25.82232136687346 9.258756083838406 11.48616502422706
22.684652356113165 35.97201469749708 47.28239943082779
20.55700402294257 35.33482465813265 46.220319808785
46.72158211648235 40.30531877742885 16.268622252700013
45.06958349871891 41.44131816336494 17.32979363787089
42.58325993569524 41.29237597107454 17.799683538653266
41.232937956110696 39.084451986732226 17.80668505886003
27.089180718374195 57.795136427332835 33.40223100576723
24.60282811820956 56.799927696207156 33.516556128411466
36.902272690604036 56.681798065560514 1.8035538662381188
39.30496873220189 57.87207658122402 1.9331977753549376
25.601416640612555 6.581732703197048 19.58499670295809
27.369139004910355 7.506125344592816 18.59263313763403
27.39308737553741 9.038624927540269 16.1227939125746
25.151366657429868 10.252402387479579 15.208321832745039
27.341457549978244 40.98645476845288 40.938501748569095
28.044682130451317 40.67914791361459 43.08839359247383
28.884317700134233 42.180822076708374 45.1221819141713
28.124659430693857 44.74097769915289 45.51894897180878
7.0473193431624885 23.683078178584623 26.285954451578608
6.255594606594885 26.03889305351394 26.886763881429182
28.280335194750535 12.354339164957354 10.405894104575673
28.678854655748687 10.494155791930519 11.682353720449484
30.80813629782827 9.130268394918215 12.10244462901158
33.03972873297021 9.24740398653085 11.356499892395156
9.053273026832832 50.01718046082928 34.77515212878492
8.577024447040213 49.3559929078633 32.68252904842833
7.003018402722187 47.67662302725912 32.24549867105068
5.1047482789001934 46.86762033986974 33.56295582890215
14.818223611039572 43.92676560038089 11.325193446212552
14.301949048886955 43.53725886762973 8.756355299520077
12.317877022134123 42.61330934364544 7.504230233199245
10.033129045310528 41.823478501766374 8.177881486510813
17.630015454641256 70.18453381131943 13.588893675333651
19.682416579099442 69.55976581508597 13.8323162203272
21.644771050794365 70.01814668314063 11.774027104362071
21.418227355152045 71.65688265039209 10.14374422150308
32.35722085076929 53.91334939035602 31.459390733693386
31.81792783931702 55.81830117902455 29.720781962808566
32.58995458644708 56.34149936711004 27.315770934725712
34.5149081151842 56.08018381613992 26.35434854122111
32.00151882092695 33.98621480970973 17.319599282616903
32.52952557977701 35.819934384618264 18.09642338004379
32.28420176254133 36.126038456123105 20.527029069513333
30.370016021739005 35.0363949181024 22.03520732997057
59.927133724141704 24.850012358946863 12.749408248624363
57.35608220850195 24.296923533628885 12.941828240357735
55.490414013745536 25.53381714647747 14.361712837059143
59.41285494504525 24.06172565202584 8.907060878839312
38.59354304162019 17.735923589555924 40.49881627218601
37.17507275360095 16.88976192771275 38.829236405391754
34.48864578242721 16.604154066440426 38.49993532244569
32.88554522139776 17.670243649800824 39.53511527207979
36.53017750858996 58.399173365749576 6.051508827440198
35.03062428265839 56.63918569920426 5.904294485361521
32.29838697451977 56.757141154552365 6.03736319363787
30.467424018760866 58.70381754992596 5.71711841733501
42.73033431815671 79.49489493258726 7.0931662792310615
40.07135158986519 75.56833511909117 10.43247470762575
42.106483294597524 62.35786299559165 29.00533065408083
41.196036905256165 60.11250610579715 27.922483075217666
6.866784011543985 45.11818989342232 34.56233763809569
5.116391433637628 43.81789898747036 34.88082887190498
5.154414382838134 41.069806156993444 34.25552539713068
6.808559635770312 39.567005329226554 34.46034490978433
2.3690670353434506 23.37702098380917 22.47627732068683
56.16736448043118 49.76315634100446 36.28196290452085
54.49167642085365 50.91442128484621 36.04193170667344
52.49105460027802 50.36531932653127 37.82855195248102
51.47436497074718 48.798600151995394 38.57914807721805
59.88180366353269 44.26547944694806 17.52498153122134
31.772437406416344 14.984101487161254 13.392152129888965
29.57584458084178 14.474304681514395 13.65108044724166
29.311980311719946 12.005936873611601 13.85923622898548
30.936569100647844 10.198363053278477 14.635397662429762
7.672083992765745 10.441512131769427 0.03055890563654698
8.523046394952576 13.081594767041398 0.1645695210179653
8.409718398735055 26.54576605191506 28.662940352928334
9.148368974682619 27.064876171623048 26.47006894022281
10.507584779960373 26.127028521184158 24.900293874612622
12.34867879025275 24.233454707066286 24.974694274225886
51.805508586921526 41.18152110545652 17.765470505391736
49.19434146645523 41.003103096591744 17.77859672727053
47.74378267714509 39.339807888538076 18.861119403335614
48.30878817769001 37.88171374559198 21.184791715785682
45.74445350294688 18.02548630478428 11.504231266250178
47.51711622108389 19.293511693610863 11.359032872352639
49.57078748365781 18.984140922287633 9.805709159991299
49.848444605091935 17.60685032397232 7.878415534218774
7.155579080615524 21.427034302420367 1.4684611578766371
9.83017138102345 21.184382006493433 1.50686996655472
22.85033586596406 56.41138161241488 8.833562003253208
25.611338256313807 56.18250882914363 8.591299575880397
26.418131865680536 53.373027495006525 8.724136428108935
24.461722716105985 51.5984761667545 8.527930972379757
16.505250791512882 25.392760890286784 1.6524703326558867
42.825227075930016 11.292204410270607 30.994921699770728
41.032472310030386 11.677758150007213 32.79637294084763
40.93445205785872 12.911524286476753 35.08288759722638
43.02519154891104 14.310392760873125 36.250877113429915
46.067543071705686 29.843723459762284 56.91681091899769
44.13711922112123 28.76736090795721 57.62698126800381
57.749748532282226 67.60271134320277 22.653417325010096
55.498291228754205 68.7951270553246 23.40968044386781
53.03384856292666 68.15837211184181 23.54872815223204
51.81465068778921 65.92539109892289 23.021960914773956
36.718144012525926 71.9909224555485 15.690452524666677
36.147324301572716 73.2468430944612 14.160026041279872
31.69216909486277 72.87266153179213 14.406328821505367
40.56634315017868 56.73450848656934 19.585698884752105
41.75135803101274 57.95093342656247 21.215972420623228
39.75072252863529 59.564255174422804 22.868519426484003
37.96148261630504 60.18568921816165 22.32085234919103
23.678918999967717 5.977303623850368 12.385391950613428
22.629558996733284 6.716249852771553 14.214815181332023
23.447640768719417 6.0827044257780924 16.79743536535737
24.986323103049013 4.656647153391935 17.467775270140347
56.806281380885906 52.933030958168374 19.109992268097738
58.49487978474435 53.12545770400674 17.83456443776755
58.148694324897505 70.27502495298127 21.244625926920545
56.796582292044135 69.0742830171081 20.028893053824252
43.53891515267772 61.795584445437306 20.601392122154063
41.78200723912144 61.21326461446142 22.79335904626494
42.06790142917277 60.78360917486616 24.939815699165717
44.09990630272037 60.20496254267417 26.436829551830083
33.26615434424101 17.327865714387453 9.887808921780008
32.058295498920266 15.961497571748454 10.99881681425979
29.97618848368532 14.854022864494508 10.826899174292828
27.698572339079302 15.849229249175877 10.37280490004826
4.922623902681619 37.74122397804338 11.892991505404888
4.338291524683907 37.5063416661133 9.67640001170759
53.307461936314944 24.78884161573031 37.032123239513
52.24478437141287 22.6777403213226 38.39126790244355
18.7353155425725 9.486107523288865 18.37304447762564
18.616767670495815 7.319407547952433 17.48888437467739
16.865759429956373 5.4268022026464715 17.426985677829
46.00775852580797 51.70410335793957 43.138679734591875
46.484307405671316 49.79461749039835 42.389267831264526
45.055563130126004 47.18086479585638 42.34466667717406
42.89349697819277 47.02065069563318 43.34408988162226
19.70858334455076 45.02215875311801 27.94701534736034
17.828742457950643 46.56177805414117 27.97677442612378
15.98614803392475 47.085850740207874 29.81593810554467
14.815970310290018 45.62385910699278 31.35002210219719
41.31551697962533 12.79938357857283 17.732601655080437
41.71734086943903 12.890912548177479 15.474986934638352
39.62381342795058 11.320585293988607 14.17026906738587
38.43721749563887 9.291800545176091 15.631819311602383
56.88104364481353 61.24632159075983 4.106191506778222
56.89957406681772 63.25380013743931 2.4550571488860418
58.89579637915016 64.62954328550333 1.1142435709325387
7.999991981654439 20.92035732515422 21.386725954867703
5.947045138016259 21.36743104169434 21.441666313935627
45.82471567754927 77.9888533415981 6.786088832034604
45.14867827522437 79.76068884509965 7.967973291017523
49.49669585887416 65.61770823804174 3.619306225825246
51.767434791542925 65.74268115763353 3.5733268481263476
53.63389341208039 66.93211697438733 2.2241101288037455
53.68166742817696 68.98216181652418 1.825456529764843
37.184296406102376 16.009355649351672 17.59883718465376
37.46009461909011 14.405852885601986 15.874126986538448
39.70845581973026 14.232303944380762 14.663713207709305
41.487116142498294 15.673192773631854 14.077698719767223
32.17007826865833 51.8396001002652 7.856120402617455
32.28736267651851 54.09632256066799 6.614579726660918
31.997101522839266 53.81988178338178 4.215649481445226
32.01771488075602 52.000420149390635 2.846043279508541
49.54288960269452 26.16370972447393 41.04401452369882
46.902968816820696 25.76265168956484 41.038478121341456
45.898450820660976 23.883598068022728 38.99973693547744
46.99666782594671 22.182089749207385 38.18921726841225
8.67660911640749 43.92383176441231 7.693038731045657
6.87428769664327 42.61635904120989 8.907098631514327
56.60831638448561 29.180182640434715 35.203597279840196
56.073722230122584 30.456596470969995 32.943106965716446
34.78478085885185 13.922716888349504 38.6762948163647
38.125752165752104 60.737096733616774 27.736876105325234
36.599428336448796 61.21060723656668 25.882418871206912
34.20616149383445 60.753384861551176 25.03939829824919
32.54583452281102 59.007875983402954 25.927250283948332
0.02422869547196874 45.26061968052229 33.653878397371884
0.25568340731895217 42.61266781080005 32.81118863943994
1.344430323112032 40.67444278215415 34.191466838755986
3.1229000779715377 40.79276347744643 35.98904227436545
33.012742761313476 13.561915003721879 10.56388900050916
34.00697306907691 13.419145835216073 12.85111856828984
36.7178272824616 13.420273712563459 13.528129475997908
38.67177239398754 14.477703316656148 12.277656711716906
26.25519292330096 58.73032897635247 25.34447518702154
25.595003188849173 58.08271450581249 27.29693410473711
27.415944227948085 57.444869528999796 29.002440946257924
29.55262134113653 58.04011748693874 29.35642604709855
43.25219215314528 36.09913091324849 18.516663864740483
41.68732340300895 37.46859993614239 19.74176285088934
39.420073192153666 36.949632401736494 20.960652913171952
38.37125791229753 34.919194146350236 21.444652711865597
29.02979867542848 29.296731287567003 24.42809301231532
28.666307832821584 29.650088050218365 22.22657829214657
30.428233551984007 31.121780298845035 20.383396839353495
32.26865791269068 31.308367634072365 20.078944117234634
50.421660931904526 2.0951460459054974 9.910653695778489
42.8122976865102 48.705929462055614 45.842114935380664
44.0186599115534 46.344550575925325 46.15527484331063
45.662728406804526 46.40067205674088 47.74375448184249
31.20396000823509 75.7727902323014 8.334552724542931
33.02371420778342 75.45976087514475 6.680865902299152
19.467316482710373 4.611204130044538 17.17277587944699
21.054240294627803 6.014365329141443 17.98716155720236
0.26392106240839647 40.25183601082434 31.07196524868744
23.852001948864594 51.76939886797508 27.019257428105696
21.405884235095254 51.58098530156287 26.997083246199168
19.843058841683533 49.463850947471016 27.453494473066858
20.561787226493422 47.38913137623685 28.872033481067376
15.187524271709961 50.810776949303964 30.883319888793913
13.915067822666431 48.77370070609074 29.971963250306167
12.183499914183777 47.21414171786081 30.523708598996365
10.442821700718525 47.44427354698363 32.88451464677946
43.05716760401771 56.43618305536077 5.736278725042707
41.67354102222204 55.59442568318371 3.828120516946843
38.70903372672142 55.73353723922853 3.949395419079421
37.557001269272455 55.84982418686366 5.596624839771322
34.489955013154784 41.05609203844678 40.43081085705349
35.24932905802151 39.57969169056243 42.0429091509561
37.996092922257546 39.22434560383271 42.95880697836577
39.97588084516319 40.92739480961974 42.54088059134292
59.05252979273822 67.69128279809127 0.7511915105895838
57.56562738392438 66.9437588164686 2.3650854790471283
55.806448443415405 65.18886116271607 1.3545947834953487
39.801318333684954 51.095725428771786 1.4771484070190157
38.20800427574781 51.81169388484626 0.3147228913446671
36.66821635107107 53.525700617906246 1.365796351676791
36.46614851776536 54.36029493995189 3.421870494435955
55.61922282832557 29.437711906512757 27.517341055783596
54.58818019615563 27.55398261981895 28.73156067585836
52.236687961922584 26.53378466852505 28.47423782346215
50.0608063524268 27.217615598114715 27.1577800918173
33.95468054962297 37.86801937497604 25.808725741413493
35.685500854495835 39.408296366300085 24.63611229199452
34.683133103122806 37.66343999723955 23.032376657605827
32.72028196758707 36.76612905106378 23.066370512902118
31.005748639805233 37.802570786333135 39.888254574342575
32.57481297927897 38.74196100903834 40.43756104235696
32.21317882848496 40.30716203007742 43.03960393554287
31.28320233110439 39.4713518141024 44.88656021045284
49.39451518814908 0.08646412206534554 30.542826363421938
50.77442205150208 1.270504976544861 29.620421509272717
31.907474169615213 31.08340157448946 16.392656037961547
30.08691943764495 31.383286774270434 17.712327958686924
28.029952990995703 30.01660363660396 18.563841056807366
28.393505061179614 27.11625930136635 19.165777730407058
18.8658449250116 54.56920034648572 26.5887445930811
20.33167378806227 54.289004134626296 27.828177722514244
23.022102194859396 55.46306497807897 28.08725938303181
24.369548796794497 56.068475465724575 26.03527340358594
38.497346816823416 13.40250933084299 39.60101245960873
38.966781038587 14.912700973361325 37.9993346283453
41.02606120250581 16.734428715114063 37.77817355387901
42.99320092793315 17.293276138315917 38.94771044365902
32.941346437357254 37.257637436748986 0.29594017336105144
35.07493600839464 35.618074449846404 0.8322677416536274
22.10004863977945 12.628686933841681 12.550556382502512
23.896405258414685 12.430018737203364 14.07101838695915
26.417603939444035 13.042912583547803 14.00142011851224
26.774863495606894 15.089471564208987 13.032077809273167
32.88703859533348 54.28788549852268 1.4545321900971255
33.9697697067007 55.66732508700776 3.366098523998242
34.945680830897885 58.11816163179522 3.1752344768249303
27.385475500309916 4.887579927390105 18.42952161176614
28.77845840919581 6.167848173605136 16.959221147022134
31.263861844511503 5.746033457207597 15.740156605233507
32.01801492515517 3.508316294976851 15.36582212639951
32.95800295581087 75.16050238551237 11.323291048749015
26.601203117481603 55.04272859963436 6.222095742486343
27.343329422940755 52.85393760874939 6.467139817222856
27.306760731243006 50.999233378158216 5.0038000025599025
26.734078968073884 50.64399417319874 2.324157577439686
19.593032517905744 32.229088548997865 43.08065974888874
21.167277945793206 33.238292854735874 43.99060816280343
22.329121502650963 35.54409046343167 43.15600988379714
23.2655230725859 36.16561709691766 41.56885969406905
24.760521622896807 33.789182438233986 48.66209618591623
23.476495179018563 33.23703861938918 46.49567254217496
44.02757203502359 39.0996075890174 40.91818734447355
42.5584564751005 40.21803848849285 42.24755842400762
43.47528222781734 42.01481840010827 43.75750209358354
45.61461620067082 43.21889527380294 43.61788627413653
18.614484477669137 51.598557756074484 30.670828234435167
21.001290052458614 51.45245838842151 30.222475392148954
23.05549058488291 52.71530025877842 30.25371539732487
23.282539434536364 55.37316012431404 31.42843767248157
36.82368538580681 18.22993888544826 35.13124558516817
38.57065899571441 17.628742246181552 35.767149051399365
39.6549420745771 15.186733138552096 35.27184603923516
38.21711619148208 13.153471737402588 34.07925911482823
49.145096485734996 47.66148950671793 38.62738845669821
49.284639472552215 45.576087109593296 39.754593282483164
47.214350604475236 44.7104501969099 41.041952589781395
44.763204731610884 45.27179128671972 40.34759279605385
41.21219456712978 11.371296333697561 11.061564078169004
41.11056951047429 13.786181013273396 11.95319355292829
43.32918637734905 15.54168252620426 12.151795785046012
45.62193874398801 15.238114616787506 11.953780594219364
49.26477612115971 54.05351815310249 41.49496773576645
48.32240069865009 52.32041242361978 41.94773560366006
48.17041879393992 50.13827096045134 39.850933532830126
48.69845006613181 50.552137428904956 37.443517644199574
26.08524480651948 33.60374228289916 45.11089854705331
24.53485622982611 34.79847874638691 44.45326655031715
25.241928893622678 37.24351583947335 43.67139356462403
27.599535093011017 37.9288448727766 43.35755771299992
53.16301024164653 46.93053221823344 22.579453434055615
53.96530066967627 48.5769784842573 20.39322733993371
55.65664578069208 50.1090279992666 19.940731576688677
57.558518223893586 51.33744582520935 21.59076004490235
