57.21493360699503 82.99592086818818 69.99837222260469
66.53164959868366 98.50683491754485 85.44092475113325
66.90546959387059 98.69468915299345 87.19003324802604
68.810397638816 96.9154329554697 88.58588692697072
69.6787305968309 95.24610877731217 88.23226902166103
65.64198513764146 78.88948655924146 72.33299670008425
63.903818163391804 79.21435552074523 73.82088191070379
62.564205653527026 81.15708617162873 74.47545617589206
62.051535725110085 83.16542826098055 73.35435181312668
69.45927225451926 100.36724740800422 91.75036080009436
67.62768718261971 102.20366804418612 91.68651564397325
61.837664387090356 78.24444384508988 72.13504750832374
60.38826105261502 80.673857531474 72.04470329510112
59.510368052521024 81.63948565123503 70.44166562496747
69.78972951521922 90.78741191629928 88.56118185282398
66.19247578940846 103.33018600607181 84.50617990969978
66.45500522034874 101.15210490909172 85.8061229324365
66.35702264405194 101.779148633187 88.54188570178894
58.620566451185695 92.53680707901866 74.7804666490512
56.68671102298942 88.76339899819462 72.48896286935259
58.32734490445738 86.85489658809698 71.36642378926936
59.84178406553768 84.73972915631744 71.88643315102848
61.23691914519755 83.43344561290078 70.80678873770002
69.15228767329116 88.68915320762687 90.1338017845172
63.51710773443167 100.28948691227123 92.75645133456668
65.10044780044171 102.20437270970102 92.85431657291004
68.18865515546237 97.23244951045758 91.53590808163216
67.27093655668075 99.07295237925189 90.32356792962992
65.12334952591239 98.98510380769343 89.12796786233878
56.55236500404609 92.9900287504336 76.39341126106474
69.03152660123425 101.8950252261917 87.13195129114104
69.50376014594589 100.650292612927 89.14011112079174
67.05786098474748 91.09821699336194 88.5543579452036
68.18433978937071 92.68761961972616 90.77842124351935
67.36064494491448 94.34542985000226 91.84337872996166
56.03823822869991 84.83987674374467 70.33312525376799
54.43781166023553 87.17239280499626 71.57232232340853
53.95749053495224 85.34693853982431 77.39159120911415
54.486201624368256 86.97997092922981 75.51907197933274
53.97194698152841 89.53176122447734 75.1889763484707
52.89477911783357 91.05432470058463 76.22234644287062
62.61463093543589 75.12211334730355 73.5570520812391
63.11185083155764 76.85670819440446 75.04335145834659
59.034115988464 60.52657263076019 91.94865344441996
58.37391772526829 68.73113743416538 91.82127385389049
58.49920845652728 76.00166988820655 72.70210947973452
56.62146432119017 87.08703468858842 73.66281810935932
57.99880112775225 80.67494733343683 78.25183912830418
56.959514854381176 79.6303821342767 76.49200659855731
58.26585160899551 78.00519353805385 74.55805911514199
60.324631766313466 77.48357682699559 74.14737831177952
68.10996495406891 85.22365953724648 92.56435764644544
67.45126567140927 87.69048797209442 92.10327416091155
53.67477300445075 84.72839776630632 71.7008603391953
58.59247829282586 83.24459697956543 77.41419926985141
60.01759771646341 82.01687400786662 75.93753862453654
58.542064270325184 82.05061468923232 73.4582609130981
57.050294417121016 83.50638978421946 72.69627219574936
54.37516075585997 80.18365007844642 77.32746581035154
56.0973644353284 82.11941428633048 77.14383850641632
56.20088309968976 84.14702885387237 78.36589089429803
69.76639930496421 87.86722871692002 93.25274472816783
55.38267060424414 68.08756401647481 90.94875218053384
55.06488169265594 91.90361299353737 74.58118287991725
56.060007679325466 76.61121948031716 89.56633156097159
54.87765611898471 75.41249976615383 90.90694168816023
66.65180889778514 90.21026296563403 90.50735032930872
54.64756724689659 81.37645008018751 74.09997732671548
56.941220792754756 79.80190902687919 73.21091320100803
58.0531292819887 57.31928395563515 92.88566066490654
63.20361925668241 67.95516251946401 66.7302097578136
66.96653933123395 66.30337758524287 68.30791832693097
67.74669738406405 68.50365159870624 68.88755321988675
63.99466718576639 69.83853729152393 69.25192893039369
63.26850044859576 71.18055036378585 67.66771778581605
68.5067891891136 65.26122229801315 70.27341693807178
65.8215375864339 71.68809770637499 68.27806409855172
69.86515184625938 7.276262885385099 82.532450339822
61.96367189225074 76.5681729912544 70.64537064797045
68.20927101807835 66.42537724961905 72.64773417671968
66.60105330412259 67.93859717942361 71.43782922737678
66.24702457109491 70.6545580388327 71.99714284538342
69.58690697453372 4.706758377484892 81.32436084340884
65.07296582234818 77.20580137812964 70.07716064448529
64.63850067527726 75.05482058713743 71.49904740973612
64.98927498438367 72.77183792559359 70.89493663197499
70.2003306769604 64.95533501009473 71.60252720505501
64.26082004374337 66.19076854807362 67.07827543407832
65.44619192598178 63.4761124145574 67.34808019194146
61.08004462268643 68.77813369705387 71.99789498384413
62.57686610090079 68.09350092899734 70.66931075928869
67.25829389058836 63.341101564661294 69.13664415400561
59.47168703927737 70.18230397661048 73.40679248015165
60.52797613685849 71.93072441754701 72.08036145821461
65.526576078314 62.493981700766454 71.46391775362315
65.15646622026841 65.06845158798565 70.10723122253341
63.17871739333427 65.97365039873496 69.41117931140286
69.01099017299454 18.021859557082422 10.632167838135551
68.17351219405073 43.42516476599735 50.63861491386815
69.32380508802784 41.1705201599828 50.227222090853026
68.61245031557613 38.671829072430036 50.67390598454982
68.53066904771126 16.19640529191046 16.451436723841177
69.05938013712726 17.829437681315973 14.578917494059759
68.54512549428742 20.381227976563494 14.248821863197726
67.46795763059258 21.903791452670784 15.282191957597632
64.52013429114413 71.21717832161688 74.05588136748318
63.12720234733664 72.74647040431373 73.12496895453425
69.37879136400811 38.13652408355752 53.293500306662835
70.10447611073978 36.106800357010584 52.03678551067491
62.74668246427983 68.86070354510738 74.4788912963246
64.1299280251717 68.01251017513584 72.90966709677329
65.53172789628161 65.67603155889205 72.683197649014
65.7806703187926 63.81841707043925 74.058030979634
65.14262224355149 23.6229535633731 73.36232908471943
60.526550230992264 74.70858729850694 72.20057004444148
69.2393728471828 14.346405177342511 74.93750540416764
69.25921652027938 14.591059348801016 78.02707125360048
69.59004223639965 45.79367795854542 44.04460005122298
68.29172529353177 46.008288963033245 45.822481280039014
67.5588128605042 44.05891560632878 47.73045078924171
67.7461767524968 41.927980201815615 47.800947385716434
62.051551673791266 49.60184244333387 43.28808679442674
65.97275899695852 32.15342201440777 51.532713763565376
67.8327967916584 31.105664872204283 51.91980057072056
70.12065325295816 31.969694688846005 51.26620279219813
69.25695735619523 9.918571881796751 33.490595616688935
69.56156989036315 47.378657252267566 47.84434622626592
65.69867248162183 45.89059032941848 48.58741131143143
68.24795151720977 15.577864518392472 10.76070585392233
67.39997501584357 14.239639892398388 36.94831260158227
66.0914312527696 19.181630810973353 40.42977134983299
65.23664803318576 43.75698586875136 45.645084467541125
65.20990826097795 46.34266293479729 45.502484423850575
64.27469918193627 47.84010700667648 44.0910642871212
63.19333092734017 47.77160871262747 41.92107526109172
68.94833926861898 11.033116830532585 16.387311325078564
69.8178986703886 30.398388697245657 53.52098747471725
66.8611463731015 21.063382318855307 76.94159087559001
68.83729803594682 19.332308169515485 77.52201426019629
68.93081400634485 17.492503876268522 78.85015163544841
69.63806020541494 22.75307974562352 13.641028394644277
65.06388257440385 33.023831457689774 55.45633354529229
66.60083041284112 32.677144486815834 54.209260934870834
69.0057155257642 32.46314224906931 54.91517336259014
70.08687019197005 32.04046845233902 56.81751305371935
68.19226466847591 10.524118358910691 39.63768199930478
69.45083463174372 6.261966518239984 29.966787202887254
69.22074575965561 12.225916832273665 13.159822841442491
68.19356371285994 64.32279442910298 74.80036428684771
69.72956367738338 44.709927751075995 67.39244343281929
70.10701936690616 33.47143564849674 69.7661038476599
65.10363900831035 60.945082934238066 68.38027317094186
64.86106998555972 58.7674449424722 67.39934856045795
65.62329905586756 57.82595514120109 65.42825844164112
67.77334840252092 61.23611763594772 68.75189508046826
68.0684217092697 57.25062037758565 66.01746567632321
68.773802317668 55.29217003148654 65.87065635107668
62.307789747410695 58.221324410817736 66.33699224431417
63.64141190896921 55.99832926098885 66.51318576680491
63.81445079235087 54.00880103462518 65.45654227989834
62.68535549273944 52.755659653864775 63.83197157251896
69.25070571981692 36.13298299671229 68.6922408735962
68.00353640023977 59.432498007960724 71.14445616229906
63.75313403938142 57.198322377652154 71.59729064487793
65.07630073247726 58.31140162351083 70.46744216293591
67.13583855002999 57.73191528963 68.93112910461166
68.25543446937407 55.96550054311498 68.43844504710682
64.30814294660735 60.77569418355209 72.00107651212326
65.0117152831952 53.67070382689895 62.95280513669029
66.21244993948788 54.31246933378431 64.1629605185145
67.32754993794546 52.64398885761233 66.04747495334627
68.31846615481471 50.85742690957012 65.84961396453727
68.99202925562322 51.685120076820446 68.60596089173156
69.68462257701546 46.209386428226225 69.51399835967138
63.47771096494628 23.96530925675259 75.30670439067205
64.54927022754931 21.45532395301567 79.16704912516248
65.76323019477441 22.801717444267087 80.64886369144956
58.777932987300666 53.568896867480525 84.91365682874444
60.0997113427897 53.523993246582215 86.72946121078391
58.848657125689485 54.4035796826095 89.06817733250756
66.58693553004682 50.20645949074745 91.49968386010966
58.860710362744946 55.101639220280006 92.35908613199376
62.475079182478744 56.28238099611433 90.46152770319229
60.294658936557944 56.55672809416489 89.50747950719402
58.42288383798213 58.44270678063558 89.74016349586438
60.033649716469924 50.38216823696601 87.39891808645432
62.02068509425717 49.326483922198534 86.66250168079013
66.20389637787366 39.275471014609714 87.29111070367716
67.43632914858053 38.871271308549005 89.69749293362813
67.84156073422366 41.54144891456744 90.7717333037715
67.07743071808292 43.40312801272507 89.77071153468279
67.74844867775032 37.96353314831643 92.66140957994286
68.2335872702194 32.06768965835512 91.19845258279003
66.86542042457128 32.98724040130392 92.74747954197214
65.77616842191858 35.516014300999664 91.63896295911013
65.62365197499795 36.06601823799465 89.48559529180972
61.81100844060358 50.75454559276785 93.05916968438348
63.26514974192563 48.4538506300622 92.90177026352677
66.49501514935217 40.24845885605861 93.24025174330858
65.44857500353545 42.59905799418528 92.0686378167797
64.3621374178686 44.30702444245095 93.20186688482461
60.98285222606733 45.810022690896346 86.53349534810886
61.13692112231031 46.71915896353254 89.02193708335814
63.04252212002 47.08649435793586 90.65784677806293
65.33276169037086 45.77146920722367 90.9877448298216
67.39884993924842 60.949622392352005 73.14569016307881
59.56024352499236 51.36118688032673 91.1301770053029
60.51507199965713 49.64080972701094 91.31133011571707
59.92835707045131 47.20046609021246 91.51436349227603
61.98717440119443 54.33803010859068 88.65041678427572
61.46223923031296 52.51587180696091 89.74274421372728
62.5112119248788 50.151431152246694 89.64511716715661
64.6447834244941 49.252434899738 89.2626828000588
64.90716608667074 51.77675744331817 92.52270987447346
62.6339180367736 53.0493007399084 92.06269685448667
61.76286778586206 55.082169387746745 92.71009697483098
62.859826662363545 38.60414240788366 92.37279349837928
62.97324726019903 36.2662674458007 91.55041004920879
62.055833762628374 43.38177081211349 92.30127500813815
60.403382135649416 44.52942193500882 92.05375158680556
61.84898599582099 43.28289745115241 89.72230197475471
63.83681889457011 41.56723727896202 89.96810932608913
64.0964684738508 39.7698801668447 89.0587988842256
69.39826066602544 62.85479559400597 73.33214421670057
55.36136892662162 87.28016345517952 69.30552077671395
56.14503062480767 102.21218226114196 47.803593147252705
59.926788084856156 97.3074830808768 52.95991523614579
60.177865750059425 94.64797250235317 52.01178845275137
58.95338370308437 92.75712620809145 52.914206049394856
57.654332747157326 92.51773267678796 54.93005051011057
56.308636633364216 96.31573824024338 48.229067964614124
53.98431034872459 96.70654582513758 48.530749620174475
54.61068803102572 95.91905867617128 51.096196175655734
56.89765312636839 95.55522110668205 50.81955304476386
53.1220614095575 99.29780637271163 48.3029422889277
53.53114162303734 101.87711010930437 48.64557583749096
60.19787582215479 97.81083531684338 50.10933533390127
58.85689262388445 99.31174079533884 49.14061386408098
58.00321789971551 101.68387538450902 50.32827992719765
58.9821152832064 103.0540825996059 52.23421945698447
57.47659002323588 98.78373892381462 46.44892709460332
55.52459649305629 100.01358507279332 46.66886904914836
53.98821630804633 101.51422050008026 44.819735818601416
54.85530325523568 102.43515103086283 42.892206330845816
57.084808750882246 97.05702677825882 53.114282600796535
57.376248470252875 98.24480565086212 51.20307207989755
55.84553410557916 99.99773024384356 50.15706974697775
55.39225029022132 101.79672948473178 51.17115133515079
52.166112475670744 98.91428245363853 68.32029346621574
51.76788414513877 101.48276865003967 67.95140809783663
57.033734788654805 91.32319451236589 73.10761775943567
57.959972181785695 88.23656946965042 69.53269095751095
57.545735187865006 92.31794921302236 70.44695390803562
54.97482280564474 92.61740939972718 71.27517790721633
53.33342449709611 94.59386053380182 70.79178086104815
54.15513374810154 97.18542964137805 70.44851551098921
52.890045389201994 93.15032792571174 73.26552993519185
52.186504801396 95.14840739364027 73.0498842964677
69.93454743938064 18.129630207265684 8.365366291440967
67.73152688706307 81.26244643832507 47.69104862659641
66.3672149247749 79.80650328898375 47.75484712735519
66.72991698058873 77.34547080208452 47.94351669809052
68.28575610352526 76.04692525658854 49.398811877165905
69.66946758364985 64.22158525475733 38.77443540601244
65.24228897410038 84.77461064724993 51.627585117143596
64.00107855013177 85.27445283235822 49.64548476731428
62.49944961832988 87.26140177282426 49.043034058414435
62.11103110855783 89.24186537221067 49.94724860829458
61.29934071918204 83.72331753739532 50.31157247481823
62.11958379603552 82.97938943697659 48.239169560028415
63.275425277943 80.96401024754678 47.38734309142942
63.93607771884998 78.87785863827281 48.1047134656047
61.3390958757102 78.99592852188387 43.41212163280963
62.62395004568858 80.53654929670518 44.28916556140087
61.8581860631499 83.25760625563707 45.07801499767051
59.412661416268826 84.11977785277392 45.16608487697572
57.58453430144453 91.37719588573938 46.34036232042294
59.58587648423986 91.54300207638443 44.97391306363097
61.601696487450674 90.47857096676871 45.92275083787014
61.936095769791365 88.26388060562559 46.68772263465747
59.33497605168085 85.3946116156909 41.54232433638351
60.83766246707209 85.97028749230424 43.51699284274818
62.40469228243252 87.77540089749287 44.139769028331926
63.42788102427336 89.4435624306441 43.03907189789982
67.09083309510268 86.31137090538235 44.07873784636621
65.27309377697382 86.70380104319604 44.80473984162608
64.50000639194926 85.22572554402704 46.85642629464992
65.36205382523877 82.94682680576305 47.38944895754182
60.899860685376886 93.76315390423916 24.21005502677624
62.76987896931645 95.12679202572394 23.460388767150196
65.84308943898141 94.7788349224714 21.242891386278245
69.29032668127405 84.78776767470565 18.102031410908015
66.91598252893363 85.15653665425769 19.73972490362927
68.884736964194 86.13695250595582 20.627677672720665
70.01038550212681 88.60679443169285 20.351982294663664
68.54021641396652 90.90935360718917 19.806720151082555
66.93582620203019 85.40119082571623 22.829290753062104
68.49437296411475 86.12146592017079 23.619005900103083
66.45684189635081 74.94697016610074 44.11878080753283
67.58616345406207 76.9681521245072 45.280512948669525
67.43133200451591 79.37247263942015 44.968110264634205
65.57730289769249 80.69642955454879 43.93562020753115
67.3420846705081 96.20504074047628 26.20563287498082
65.89635435064174 95.2817848770455 24.895633644400544
66.28051773791127 93.22563251818612 23.1157953435035
68.35691841322222 91.94140562780831 23.063303371545647
68.40210893459675 88.3191280502177 45.126885669129855
66.33098101747031 88.34589310487718 46.67890215471399
64.2563725010516 90.15288484596286 46.59140183096604
64.14823188264924 92.40097992523081 45.79631224652485
68.94841218901628 83.64920914508862 43.7129005428596
68.81220583408945 81.80817419981112 45.25884881798737
59.972457460047664 86.16042101656751 51.221656100454034
59.60547192885092 88.27675325117445 50.1398771423848
60.00013320663857 90.24514361630278 52.06045629788092
59.253575915460615 90.44650469742568 54.1276069326172
69.94144458701489 95.47672946809044 24.43066050066407
69.88140212903943 97.71120925177597 25.175561248625932
57.75166351930159 94.09991539034758 44.75196058372664
57.78840637976409 95.25891583913472 46.91382708099494
63.59716416398053 100.0083897948935 26.097334636393306
63.15217672461592 98.20085272376329 25.175340541055682
63.21058756793269 95.56841034120681 26.227151620036526
60.94873379477331 95.54035672801409 26.885639442719306
58.438834869376045 93.15974975863759 50.22832827337779
57.505563298508825 91.14862741321173 49.40545421606815
67.40017605274988 87.7546773867704 49.40283937884935
67.5268911692833 85.24855453342104 48.82310845926737
68.9723169393834 84.30929189134422 46.31577812508265
68.7232108517522 73.73809486361537 42.733674547406
69.6794162742448 72.79397154144156 44.595509620116836
69.90286550433444 70.18547987472706 45.67727510028368
70.20146849679142 68.28970285313844 44.554312207865436
63.18397883964786 91.57505546000722 48.7088299762094
61.39349744188386 91.70945096631336 49.43842691360633
59.48422097784509 93.23695290306121 47.68038095966241
60.869263135864834 94.75846743473522 45.69351822176696
64.62449752543961 75.949511443273 48.33967884961144
64.98347794599631 74.13653329570809 46.55907866161982
67.32671857339155 72.75644005942114 46.423650881028564
68.81957394932444 71.8767917099197 48.12356763238697
62.375962018393146 91.99862176146503 22.091999349133804
64.53775605485231 91.87351379577052 21.74381037505163
66.51390771769762 90.14243964643066 22.324233759657908
66.60742368809564 88.30263535318372 23.652371134910023
70.12734023060781 75.95687587635373 47.525460471963484
59.38465467386084 91.92273235063588 40.196124609017815
60.07392735284833 91.29453350101997 42.22548319168209
62.288410135830986 91.95443929155358 43.72932603226864
63.24564459498105 94.37298252926135 44.06868668430098
67.63708545493355 89.5704888188636 25.733746489863815
69.6911617653369 87.74758825732033 25.48668660155402
69.74137802592357 76.47740931364746 43.76740732461259
68.74178813961257 55.1325914159484 20.989715015833966
68.01423361954336 56.47512987570317 19.136501855784466
62.65707772755935 74.75628218771523 4.2372128317891775
68.10620995228612 73.78235830583111 4.015965374016551
66.73929098842976 29.763749205724693 7.380138980942767
66.34106265789778 32.33223540212584 7.01125361256366
63.3116794318272 64.00853371167749 0.9138230853002309
64.35178542386532 61.9876862877482 1.1796529365853825
63.037573276088274 59.54286817887976 1.4781001150947684
69.84382371207033 46.94602836061421 26.657037372727224
66.47543565649819 68.99888478112857 3.201969022616475
65.69406376570363 70.80367627295566 2.483345343561469
69.42070211192603 55.444449460371985 30.088707150397887
67.2335415054088 57.08970218995081 29.465286005408434
64.25700892582388 56.92467935249141 1.0649934090337594
61.71116450189918 64.86630862717392 20.710887142399223
62.228134155783486 62.95779019832762 22.15916338100545
63.61916261908685 61.286055789136704 22.142199916962145
65.74054977315373 60.608697781899835 20.98745767845027
67.54228288769207 53.46726374002374 28.619616398209843
69.60446183785196 52.644203430432206 29.311675726140113
69.08409544774165 48.03936304577916 29.10139694838043
60.062331748471316 65.98362257346992 22.864834107414026
61.3651961163458 57.53247824752123 24.908429164658955
62.99152032514839 58.59036953622128 26.000113427656466
64.78791947337194 57.82914413095115 27.46934084270724
65.63447262162121 55.576057901926795 28.054192990012666
59.635900207575794 63.964592260574676 26.395204243602183
61.39632656352174 62.22697650228537 26.6092301937838
62.37974109463066 60.86426151958893 28.130827135554778
62.378832855833686 72.18677767981501 3.0291233353760134
63.376680894839716 70.39418441851471 4.3005120007154005
63.8595288699948 67.97250541946204 3.398784280668095
63.31760844510703 67.10138923678447 1.0790525688667423
68.79546579521855 51.28742166156322 22.592242533473367
69.03321214933133 51.30337915238975 24.869663628718524
68.3367591902999 53.68402973139556 26.15041758142711
67.2722544600512 55.221244126586505 25.384075813347255
69.52129498328512 60.34716872345685 22.21346502023369
68.43758251261004 58.272732936546475 21.922086744463748
70.10642517593585 56.363431183776235 23.13277759498612
66.41416594148636 56.12589195490227 2.6615287858900034
67.8272693538517 56.27875703740435 0.32658370325131303
69.89838287674128 52.15056912543012 0.03445276598230339
69.54800131840376 23.466876151813345 10.335023421943346
67.90660300985512 25.443327285887975 9.85162637577518
68.72831226086055 28.034896393464205 9.508361025716228
63.463174955971574 66.1438217072022 5.904624593298668
64.59109157196359 65.45163380522685 3.4838330554360075
66.64056072157395 64.86433383237619 2.623260356288827
68.80279543079743 63.794091111924565 3.913421448448768
62.30395894994056 64.84396193500561 24.780485741626503
64.78736289030599 64.47590606661107 24.928218480957437
69.94719183738935 57.84564333200234 1.3825226589426196
69.616929820602 59.92047888219719 1.3098878343791092
67.68713877668154 61.2793062559259 1.6903247572685147
66.21898803936193 61.427887696841914 3.3635885243589927
65.54321246247693 68.72272756218062 0.5065667523311846
67.11878708811142 67.32741404406059 1.2042837426751685
64.81281306252798 58.09864813877855 18.39665036119411
65.20271808051723 56.603450935571885 20.094665364291718
63.608660588809286 57.38976746883876 22.205613628790008
61.90727025018855 59.15178082303029 22.30372043496361
63.94638268372803 62.297789338441056 25.94810657755571
64.21518242405737 60.56867298010987 24.455475929699027
65.83811762316896 59.01409915371865 23.532119711319908
68.1639094303907 57.91399521742083 24.55957051539881
68.97937189980503 61.50627062019152 39.46797081466705
70.14511080630702 61.271432620895716 41.647887359313636
70.0892585943104 77.05731053051815 0.7911626468323574
68.37348153104547 78.76085892682872 1.4496567736609165
68.45920014555999 81.37573897528905 1.3326126610003612
70.0688389989338 82.9463812496924 0.7876985997379793
69.12998125283845 88.86587439141267 0.15260635765657504
67.43816272021785 85.02689244203248 1.9793143438398686
68.31807732192576 85.0815871110817 4.317195291846608
68.95351587990528 82.90729217801743 6.331250235200935
68.46336749951004 82.35086270620317 4.19346516134634
67.09363574472451 80.19219830072372 4.598580597401724
67.8385050920251 78.53045456499589 3.905442260788454
63.60968916366388 82.79135374558571 0.5215488926086195
65.86494238577644 81.55369171278393 0.46555603496758835
61.7227398876448 84.97252317859865 0.5549141274155768
67.46322390196102 23.999794677797897 12.325375449918868
66.75968331415501 25.997874145726435 12.10972981119472
64.80647796488606 84.41747608273526 2.3892295940595507
65.52852730377735 82.66612583598753 3.5510472498352468
66.28391161941344 82.72797207974104 6.147752876870995
57.341196108849275 88.9353432553458 0.8718116171296402
58.55515607607436 90.2817367465972 2.3536261834167287
66.2391003309398 95.07546731611129 16.97588754736275
65.9394283409712 96.79174123146312 18.179179827092774
63.868188271727966 98.94941798330794 18.10900078774407
62.214939346375026 99.15630165429397 16.38880145682433
65.06180524226762 101.57117174930616 14.970959537839429
62.42424968343139 101.5827962025218 15.187921060629549
60.806397454792844 103.18470192190568 15.130479383534725
69.71027903365419 97.38160851060827 22.860170687461604
70.18799629796378 95.91787150715288 20.900541488065745
61.02551315151935 99.54770896068524 12.903215074757195
59.65734630587124 100.46725970363404 14.452242033939301
58.56809430321855 102.99603360332978 13.343725451077296
58.415577856297915 103.54603754032478 11.190357783776888
63.73370597153175 101.06293798458921 21.98908099577198
65.77279929283301 101.04170769445058 22.29012698105771
67.27409785436095 98.54950074678128 22.250086113318176
69.08521138986558 100.34855572251274 22.841258908572996
68.2914052011164 101.81358973747105 23.541744812275503
70.01531599518698 95.33966308703921 17.262522233798464
68.40980600428581 96.02194894703197 15.527533548323822
64.27933964481502 93.52529092573515 18.926732331871513
65.4331971582003 95.1188388791444 20.82611124643898
68.03657659953993 95.1888755883519 19.98349950014249
69.31975864053663 93.41415899016523 18.92191485380864
62.20173339079649 98.00694504868326 21.523077220909844
62.41971613441904 99.84129233538569 19.910935084414128
60.78153484388015 100.91137848278255 18.07237640553063
58.57738530542696 100.30153966548299 17.29041098926569
66.40944156322814 103.26130617759809 18.076244676173626
65.97214775969766 100.50950985808375 18.771052598560072
67.43041959878181 98.68079513307768 19.38740278534039
70.05719504773072 99.05677984342766 20.500765135718307
63.57277092651534 102.73397676445343 18.597466680662304
64.8212894402974 102.67772904281298 20.235170154565537
0.4777822027374336 83.76682043535017 84.70948727193647
33.78234428121525 80.05778058200784 86.56895214673197
33.82953303441723 79.38810933398456 84.09379537653753
34.53694322729477 76.99228948370177 83.04583898816365
34.79445975815279 74.80224254239519 83.87895601562525
20.77074874215245 74.28295518069717 90.34811109414406
18.691080402275862 73.84358325531385 90.76100658810488
17.528222799463464 71.70057279363233 90.35148196145951
18.101880416086182 69.29844803761837 90.94857671780717
30.86591874120877 85.77983370168694 77.33681653129507
31.111335721899362 83.42770923591115 78.63666905461494
31.839273830518966 81.1496393439911 78.02458476182976
31.401422023088124 79.77345132938927 76.07689986805516
1.2831860897659555 85.13913707636564 90.71646897561321
1.3625686437806044 86.34705405700461 89.11347223104718
1.559941893095912 85.38061447694861 86.86572256597604
3.050215130224529 83.19803867114565 86.11660825655952
2.518847341183653 89.03409966776829 89.22415709704684
0.25832386042579386 88.88795906604221 88.22757905036981
10.826653990631018 60.49321340221241 84.80483557582119
11.43021062266994 62.88043313570592 84.24569413549486
29.47426979589764 88.9311416673419 84.7178320550928
27.99851401170715 90.25924721380657 83.20127417599952
26.10901768599592 92.29825614023898 83.81162464000556
26.188458587666666 93.83205406018591 85.42592652128975
13.78157359933267 80.73219236450598 70.22590249248593
13.376526224765072 79.3011168337116 67.95914005799477
0.5887811211257564 79.30812357433727 85.03840010309942
3.0190092859048927 79.93081546599117 86.6645265302832
4.971056578235946 78.44216836918876 86.84310759371219
5.8857574752314274 76.62559259942881 85.50936662531214
14.310799417644716 67.69130571621221 91.47067348432353
15.81009743508726 67.93394889559387 89.57122074321947
17.483106778150624 66.67732840386813 88.61605404213805
2.9489063696138955 74.46263800012512 87.39582063046586
5.84558625131942 74.38683632008929 86.97892331170901
7.115220937896122 72.11671359857131 86.1946331324391
16.09066791159666 71.98928363640414 92.6178161796835
14.900124372088598 71.02946267891711 91.25282323785297
12.604747528041441 70.00934365790327 91.08206991954155
10.634328738036785 70.57569621191065 92.91745694344598
10.4967290459494 70.599595714433 82.69943599652831
11.428754039141515 69.61715020268217 84.3615647900485
11.210749063512564 66.86368103139198 85.47531128788751
10.204004652529031 65.1855754959194 85.16830123716113
31.07001538779856 87.23300241960456 79.4695659360034
29.06154605025187 86.0333482703474 80.17164978559886
28.645499608880698 84.59057404806228 82.47188849288973
29.595847446675947 83.82672117259088 84.132435511839
13.992088290223231 70.48789307066919 86.43461013317624
13.662473344002974 71.18432761738217 88.39833141132793
14.450509642702531 73.13802827791359 89.7398387810788
16.587856759566442 74.5513599870162 89.49383250973514
10.511413712316918 74.91855198892237 64.98928440627334
17.61836291398269 76.13280399914935 92.41385858473413
15.99752487460852 74.63979695833815 92.08609014316528
13.248177347793074 74.66640657593763 91.25898861855477
11.857834644171168 76.172335272946 90.73666451649594
1.4460577800069658 92.25049319176307 86.00079083512834
33.48886964623622 81.47417270405549 82.235491983385
33.19316642427648 81.40123791722169 80.3220985448872
34.12398975650573 79.13759649684246 78.62125603528035
35.959574193415655 78.42440013514532 78.6034717771698
32.020903651258294 93.30470055026349 82.15003393211718
29.249355718116526 93.32072522957245 82.75811965018427
27.5504509405862 93.8182535491064 81.19312496104992
26.905602610884326 89.63400810603574 75.70923781855255
26.895202361568007 91.58725698502705 76.72378619474725
27.387230950718017 91.44557822068032 79.23627822260431
29.115551942382396 90.13988867422974 80.33457658920113
31.214628656395977 74.27710112390533 76.33678162152329
31.278166484177156 75.89837450057026 78.58567118560647
30.21395567924715 77.5280378731579 79.17760137964189
28.15576952758882 78.73458347057566 78.67772720010221
1.5977136713756215 75.56814579255264 85.4124278166577
10.058547497849835 77.30813499789635 66.26874480064664
31.26376653417801 78.34438372215514 83.00072816624414
31.081361063870112 79.6926828866737 80.43991145259416
29.1329004187557 81.19925896582153 79.73426856027926
27.56861083098816 82.30116446576794 80.70911816694148
9.410914326839311 67.88437941249424 91.51573824697408
11.104725905988605 67.62447210861684 89.938040391903
11.262366821543855 68.57598553464388 87.32078208348298
10.769297124998054 70.80692800068532 86.66481246077923
0.31054774633586163 81.78376991121814 90.4081710452109
16.24732050834088 74.58627855902358 62.903099029815344
6.686410776890862 61.3225108309483 84.617093786356
9.499112095505987 61.6604472623098 87.49238176450827
10.043733961324648 63.84236868610734 87.82164770477654
23.32187414335003 88.0837419082863 79.04346984086853
23.96083053556994 89.42328459893966 80.3905932661358
24.74740378723881 91.75985852784893 79.30342165721729
36.687786044901756 77.19657085023638 81.29627502968002
35.85459691589989 75.90545390840371 79.55314855547145
8.75644288572462 59.852885175280264 82.75117421396585
8.688072652429893 62.14515763932077 83.22752008866628
8.35797006156365 64.25448425377178 81.88564009477567
2.7813212527280458 75.01534215967848 89.89570042873949
12.204087440463141 72.34747553162684 84.59349192601238
11.260374628003099 74.45119261195356 85.94978595231227
8.78404887418162 74.94403763448342 85.61422674555163
7.050541828945101 73.53193208381948 83.98137754598756
30.08636000985245 76.37838304502569 81.56104071309512
32.547434385942935 76.47765844199675 81.2248646583292
34.16277366703494 74.6569010865681 81.1564397165751
10.652956136806646 73.47588535509908 92.88393899453908
9.788009833886944 73.21508452427948 90.32847040252717
7.864386971638127 74.34951714409951 89.21761781299146
5.6920904562631724 73.39247027096268 90.28599124861863
23.766672992517528 85.68067088931065 80.42349811938708
25.85869148064038 87.02569174456958 80.63739168034448
27.424246912639454 87.52051472693303 82.627577414752
28.1005897783326 86.45508237621002 84.31529358919141
13.41246705490758 63.57042876810643 86.47125722655218
12.694137866183846 65.67175097799822 87.26395886086364
14.038467951104758 68.09050613835555 87.19814329763905
3.150539171981405 81.77124932296236 90.56337285637406
2.45599918002724 79.35731620702477 89.34847000510432
3.5099425686483174 77.55595079766714 88.89514105682473
5.40524252122194 76.18778363187182 89.65804263906986
34.69205273714414 73.90229227204797 76.41464264329827
33.677699602102905 76.25971569887407 76.70098487129381
34.16506849846855 78.50370773423599 75.7749151842179
0.30281175185242626 89.171004270965 85.61732937106719
2.340133695487518 88.06753229580424 86.3798510346503
3.9158840148172476 86.29591830373735 85.45229761123439
23.8985026057472 87.23811129284404 76.57032945661379
26.437055290035495 87.24000196874984 77.59669542681503
28.11474851714481 85.4945968256994 77.8506734021774
27.95309597027001 82.92725011454681 77.87057126427328
12.027122559773659 76.72550982188656 87.66300356797728
9.556388518326791 76.00251944150618 87.9560123420442
7.529482007398718 77.43768990555539 87.83127317276228
7.405924109389211 79.91820255150107 86.13879990751366
18.847427240147546 72.86640667874727 65.48330501338123
25.133871524880888 88.62603226555962 74.2431441193293
22.41468770049127 89.56619262404747 84.66710714756557
23.603026105218735 90.71022004798137 83.29400786440634
22.727226527868414 92.55506081926077 81.70501191814688
20.08911303657785 93.64387564437483 81.65322780813196
24.241827876440404 95.40387998269394 80.91902109493468
24.35575052410136 94.2922566587984 83.1575670660169
11.3547346695022 60.526279572016875 89.97126496028937
12.60121263709997 62.79552059518497 88.92900397037846
13.263915109779362 64.87958301930783 90.33082577940445
12.249809440619279 65.93701559707394 92.20870892852017
7.555940555385268 74.91936089664335 65.49317722700647
13.29268094313541 54.19721763072067 89.0993924050895
12.311712463491464 56.57456322187681 88.55693478633518
11.443343128765514 55.874965884744675 83.72543617444465
11.209049482433226 54.02354532680603 84.97549057596277
13.609616747945902 53.17170565227082 86.6563530442661
15.69359680012339 54.5555941461799 86.78728683247454
17.813036018254383 53.067676363790774 87.43493863823858
15.628609849361 51.86130591322127 88.28956614710292
38.2488484679397 67.10878495567067 84.257521389
38.39158318982953 66.21270087757982 81.91513730906989
38.60338040350393 63.72880992351507 80.78308996321923
15.797541783621284 62.37605163495563 88.58349430230398
14.43314940780676 61.14684037245628 87.4135802062853
13.821473827887376 58.73528270096224 87.18004012144287
15.099777122598587 56.56856221175971 88.52885351474174
30.255295455050792 68.45294675223774 76.78621767900175
32.25975492247797 67.89568080810841 75.29374156376394
33.94530797303876 70.37271043108483 75.99115571733232
32.86872104106048 72.06601466142105 77.45601824986886
14.500864845959534 57.65202583299875 84.06404222821293
12.199175032247718 58.38636940416942 84.93233734508026
15.323195784936177 53.13216121821564 91.38864936155234
41.647315257302566 63.84676971743192 81.43141303498014
21.991319131575818 54.790242655294655 90.43644696197302
20.46801016252434 53.70468927449519 89.4331261907916
18.061878604949403 53.65696416108305 90.0449810047656
16.451122255966784 55.241846047163605 90.42683929968531
36.3821714425396 73.2048388647047 78.60989295382802
38.417562521992245 72.30324424280029 78.34732851427688
9.223407257241767 58.35220877507329 81.099021014446
33.787667165202734 72.08921509038511 80.54300201122015
15.685503643059846 62.610439293383294 85.48212512232813
36.8826687070002 73.15084099892384 75.11870264506439
41.813492935149725 68.71159261436993 79.48657564562956
40.098939353603555 66.89245759942574 79.17666429353045
38.18030763918977 66.48136612910356 77.60678191714895
37.27082230531741 67.76678395827494 75.54424613966187
9.101233509734621 58.12896525014991 86.32408508051549
32.459471411571485 66.98857325084543 78.59809376546697
34.25773007406536 66.6205819666865 77.10140426534218
35.70773073562524 66.08388281759804 79.07676703901245
35.9650773007476 64.28888585153669 80.40142797570995
38.397410014328614 73.42571985681288 84.0227793666667
38.02207910634842 72.53953985661119 82.09119754535928
39.072269199795265 70.4802254435764 80.7887971904434
39.88303073250667 68.3714513270929 81.81266314034968
35.666322719261316 66.4865389973085 82.02533674948525
36.19444655211922 68.6085668884549 82.63764531977407
36.156078916180846 70.35850572010682 80.75659129258825
35.020073595491084 70.51580660254218 78.62779583468078
52.873113602966015 82.68931710939356 72.4636717293503
51.34555564333531 78.57876024705408 74.68489072188144
52.78904150499318 88.41670811100063 73.10296737851682
1.889087477760651 72.49732118657424 88.3290509857292
41.48398186314986 102.57280251647427 91.44807742495485
40.95192193779189 100.63313094705101 92.9589824470741
46.190969442090804 92.80820285106002 76.12269606117415
50.19473385933035 91.12058469679918 75.46102914280769
50.08657464835581 88.38695059666303 74.89624814327517
39.3434812190633 100.45619480274382 90.95514287514416
40.746152610013915 101.52384009183187 89.08085165491372
41.14651830913058 95.74042517206385 92.78600690585851
53.64048395610158 76.91307971299997 92.68291740585511
7.058880384308675 60.49097692182117 86.65843514882945
51.261056402369725 94.44593233695343 77.06205816693463
52.50035102632232 80.32825702513654 78.03194358919265
0.5654509108707477 76.38794037495802 89.72996297844328
3.0078089588637646 72.88924708268148 90.74977865292786
51.457636812296165 68.69203480277994 92.22002366480235
53.01585390086649 73.56746944029118 90.75089256891255
53.27018216928001 72.33334701486676 92.31644353071088
54.74551722039436 69.82155589009857 92.47553950077328
50.89778626093665 82.13580120824585 76.74251222538878
52.51748063858358 83.25821456339393 75.90545764428701
52.96769311512613 85.12291236158713 74.37136419157089
51.46391710644139 86.32140129736213 72.35646255020555
7.2285305165845894 58.76528428796473 84.55989113603499
52.679441160030336 80.43159822596913 75.18009128898824
49.01444881427904 69.34424849699786 92.83299195822383
9.25704286667713 53.28292783288263 90.33152032214194
11.475461176632173 52.252790077432316 90.07600296176055
13.35087073507728 48.97955411321375 91.57882969964348
14.010328046705057 51.50933072128756 90.55846519342515
8.779384252318183 52.18167645073937 87.60976831611727
10.168863631285898 55.58891489350641 86.76538466281592
8.327090427679753 54.703101446807885 88.41284973425456
14.73082253907423 6.211787035570459 89.85673595404236
14.508516793497058 4.573139430618836 91.90140477773801
13.12241219551738 2.8364766917419746 92.51117693790086
10.959164050744592 1.8729283607785359 91.39629564422178
13.758348074875364 65.55559806959754 55.91696377579713
39.50080712106184 1.9498601374020663 92.87324605064074
39.8469274771177 4.076228007067903 91.99324900833338
7.297452405880623 5.828460030413523 92.8744871692163
40.985962516676196 10.639855463059344 92.33318472131654
38.54104671684803 10.190759983117827 91.0668127099816
37.36384970008597 8.823927230094235 92.55572389739116
38.41690374902859 6.317542600240771 92.09062089830607
39.445278036524286 5.7706049664711365 90.02722172467563
14.961564868228772 8.20869758682575 91.86723689517187
2.58716372566058 2.3660992783123285 5.535435987607153
7.806881251703696 66.8052223002867 58.43345495775074
38.28238166390202 13.599838323736051 93.23461762454343
35.7107503502448 4.988678543032048 90.93609645564594
33.54275398398144 6.76893327557167 90.91212098333457
28.65924918009535 37.619697287498504 47.09158524666629
31.3844395005786 36.588364784825835 47.073760297337536
31.90642488979046 33.881257899880616 46.38281471386512
30.225289573880342 32.22006796977085 45.74910155886367
11.903879717349215 17.877013327669008 20.977988516135717
12.27769971253614 18.064867563117595 22.727097013028512
14.182627757481553 16.285611365593844 24.122950691973188
15.050960715496446 14.616287187436322 23.769332786663494
29.05937548207773 30.973767250732614 39.77328952879609
29.735540743135335 33.25644844417805 40.36011440254086
29.979708335562954 35.33870321483122 38.90585062542494
28.863274002691657 35.71776194884364 36.431560795610274
52.16103926176853 26.253679694625003 62.921095928524544
52.523741317582356 23.79264720772577 63.109765499259865
55.46329192064349 10.668761660398589 53.94068420718178
48.35552279397427 10.907247334093991 25.628797661458997
48.402711547176246 10.237576086070714 23.153640891264555
49.110121740053785 7.841756235787929 22.105684502890675
49.367638270911804 5.651709294481347 22.938801530352276
49.06924961493662 27.411186653188054 62.553591892598746
49.7299020558436 25.325035043914063 63.270962266774035
39.98516225191807 13.80183347225051 51.488566044199025
41.888729038718246 12.555857300881282 51.1264210809479
41.84379246747377 9.771055427571948 51.40710405802851
40.585517744405294 8.523439110756792 52.441947664944266
47.13292021270384 25.443104927525116 58.57837043397896
48.41777438268222 26.983725702346423 59.45541436257021
47.65201040014353 29.704782661278323 60.244263798839846
45.20648575326248 30.56695425841518 60.332333678145055
47.838224547712876 0.9053661028779487 90.59536019828863
48.57509002785155 3.2944900726891677 91.07651332790962
14.287490379291548 26.152572782520682 26.85992473644884
12.160500580501507 27.14498723041491 25.595905713173604
11.492148554416383 29.3020921619013 25.032929792108288
35.34392725491146 5.132421932783337 29.407956608871086
33.26425891503487 4.693050007400008 29.8208521028319
32.10140131222248 2.55003954571849 29.41132747618654
32.675058928845196 0.14791478970452532 30.00842223253419
16.26369669634226 69.97913883509676 59.117612851284804
7.516759841770203 29.584067154425448 29.305845772861655
9.621690885143217 28.996245720021133 27.8958006304171
11.064807945532117 26.720441507230635 27.86327897855804
11.913668720891726 25.870336864529367 30.31950288376895
45.43909725396778 16.6293004537731 16.396662046022094
45.68451423465837 14.277175987997305 17.696514569341957
46.41245234327798 11.99910609607725 17.084430276556784
45.97460053584714 10.622918081475433 15.136745382782193
45.1288003886745 31.841788021332153 56.708573137552854
46.63148680406573 32.417463897945495 58.68324164391751
30.806191952565026 29.049007532803135 40.257078121061916
30.194464578728663 27.986819324299127 41.96473668726885
27.70049083779853 26.942293260845627 41.8480110721078
26.601654389230713 25.81848211433268 40.09378848205827
51.15587816223242 29.394003211404296 62.55569775871117
19.758704458836693 65.53251383912894 57.131652165822786
18.032277714540548 66.2700323496848 58.20138173434721
15.394555575021627 66.31976903469356 58.246090386501024
15.85636460252497 15.988603828451808 29.776314490340237
15.935747156539618 17.19652080909077 28.173317745774206
16.133120405854925 16.230081229034766 25.92556808070306
17.623393642983544 14.04750542323181 25.176453771286535
46.69368502237052 40.21033030988042 39.37630382794557
48.56370330631009 41.573968431365195 38.626637568319545
48.975843296304234 43.325706654399845 37.050667837377354
47.64570203679434 45.09024560803078 36.14734622760092
7.936435772192571 0.5272645817528897 10.012519940894535
7.423765843775636 2.535606671104706 8.891415578129157
24.616139629061273 39.7333607260145 45.059590542663294
23.232994389016298 39.11893645851434 43.17686502249706
20.685241977890072 39.97450083274098 42.358136419525
48.61305626229593 40.88026144592955 33.33079738535041
49.57045909337402 40.895656523819596 35.353250151476
51.63691377597505 41.22601132811264 36.40914018744758
17.092025853942665 19.883566419854443 28.284002611773865
14.831502373184806 19.73742581812837 27.28742456509683
12.99991730128526 21.573846454310274 27.223579408975713
12.412697492177188 23.4644831047335 28.466680061348512
40.35126210221226 5.60968523582878 45.170350061688666
39.57235539919569 3.7308611556571587 46.68274257875903
40.09272537554005 1.1248002432421602 46.51724655143428
5.760491171280572 0.04403594159815515 7.581767060103585
4.882598171186572 1.0096640613591898 5.978729389969938
36.54077149116663 19.946067594263408 48.97390022101521
36.245569191405544 17.58134682639394 47.83134957237842
37.79015180386467 15.80441745934412 47.547210429867455
39.80049208379571 15.059796131000569 48.828366641122216
44.047448308656655 19.780608419428066 23.77767756981982
42.571692524466165 21.108713965892733 22.26111969072654
40.68219619875493 23.14772289232514 22.871470154732584
40.76163710042568 24.681520812272073 24.485772036016773
34.8990313676295 14.821255391323522 50.44366227132948
37.48624148690594 13.873548248972561 50.53306847486749
38.057560458028505 11.202594832254961 50.64971411024344
36.3372343423832 9.218198680721125 51.10556927251245
28.354752112091685 11.581659116592144 9.285748007212945
27.949704737524087 10.150583585797767 7.018985572721792
32.70150804838846 30.925998905520252 46.85052183546528
33.824599955056854 32.3334618467985 45.26744330749561
35.314409449233274 34.46860185524725 45.57110237365792
36.77125463128716 35.29632268459481 47.09895968929638
15.16195963388477 10.157590326423428 24.098245617826446
17.592187798663907 10.780282218077332 25.724372045010217
19.54423509099496 9.291635121274926 25.902953108439206
20.45893598799044 7.475059351514979 24.56921214003916
19.444323962083036 64.79100405290453 64.33209193195836
51.47351302813528 6.2005781482938325 88.42483504819039
52.59069756230686 4.774923364694168 89.78977473809414
17.52208488237291 5.312104752211287 26.455666145192883
20.418764764078432 5.236303072175448 26.038768826436026
21.688399450655137 2.9661803506574693 25.25447864716612
41.796462283324864 6.97180788770239 47.073187319822296
41.68126974972907 4.517272206227744 48.43973810947388
43.29902581041509 3.210104232769475 49.240758327283025
23.579098242265864 36.823729149082375 41.05583633112709
25.474603173027973 36.31852947570575 40.17050263893388
27.640824812649928 34.87187391599084 41.4202295463141
27.800762917237737 33.55219316987798 43.188182257029965
23.122942704602817 38.41946800188845 38.914298599917906
23.35587444164055 40.606447486660095 40.90827619605183
22.737030872944363 42.63189212746784 40.60165798729026
20.687024441426505 43.73020513311592 39.04341307848882
30.663846424355672 2.838750388490296 31.67766169441052
29.473302884847612 1.8789294310032767 30.312668752579984
27.177926040800454 0.8588104099894391 30.141915434268576
25.2075072507958 1.4251629639968089 31.977302458173007
16.02569100329068 66.04229181193185 62.714619681184296
18.293827397282623 65.6639839394422 61.79150998611694
18.98193541062379 64.05521893098766 59.815416915041816
11.564705908074009 22.700364416195967 20.04324367470225
11.82723533901429 20.522283319215873 21.343186697438966
11.729252762717483 21.149327043311157 24.078949466791418
10.906015173180021 23.39154865506743 24.954331248155558
34.40663405091302 22.45839708633536 39.448201510617146
33.94788318967505 20.433420217150744 39.585656768059025
35.7185220785466 18.096358697980637 38.91551020096281
38.08761688042728 17.899268124257603 39.56001175087475
25.06990755870841 1.4490624665191485 21.759281511255328
26.001932551900527 0.4666169547683287 23.421410304775527
52.70980686592726 31.60371305989896 34.90597370479861
10.987622023319219 31.479339566014684 27.97527773375017
45.64319390055757 18.08246917169072 18.52941145073042
43.634724563010884 16.88281502243357 19.231495300325882
43.21867812163971 15.440040800148445 21.53173400761675
44.16902595943496 14.676187924677032 23.192281026566032
52.729650539023844 31.848367231357468 37.99553955423145
28.565266802982244 1.3373598227553494 25.494455647903255
28.235651856761987 2.033794369468322 27.45817692605495
29.023688155461546 3.987495029999755 28.79968429580583
31.161035272325456 5.400826739102351 28.55367802446216
25.08459222507593 5.768018741008529 4.049129921000357
14.262775051454094 72.34038499682518 61.49839128358495
52.25066623334446 21.394146571741988 59.285029608702175
