3.22357118844225 13.773615730434104 28.8295154853546
1.1984177956212159 15.181221056788136 28.70054518273634
9.136692422396575 15.058791145382896 29.068309586086098
7.457615084789897 16.833589993288356 29.39263704654836
1.035574478343659 22.102897907198322 32.3558972981833
2.5002932096407235 19.97841369145142 33.59563369122524
0.3743093918244121 20.133152957154376 29.936266409876715
1.5456323052959366 18.369949295159888 31.567778794433977
2.445874871261436 16.424691722869508 30.81324074146551
4.9581322772442675 16.24879466816014 30.15557155733213
5.9630691993397225 17.23338708192768 27.06393708518455
5.907887716782437 15.102492139884923 27.755640002860062
6.793295356976405 12.68614769833652 27.008135688014377
11.119245068860415 31.686590937897847 11.34382717298486
3.2899836374441316 85.72511636973627 28.698991490563202
1.2681714989512007 85.18277777156848 29.40177648290248
4.035489061124962 52.4818255845317 1.424045297126988
1.285197927496653 57.998519140681715 2.7930105745100255
3.286356517002082 56.85515005181796 1.984276807108205
3.933197094926008 54.938782186895764 0.2578165406844831
9.244300175955933 74.92713780816186 26.792847597888947
9.140990046205237 74.07319819903165 24.374791488554088
10.035302164073249 71.67302220960401 23.34473539168245
6.303321464798204 37.40078996941692 13.990469711497832
3.6045903871230114 51.90148698822736 5.5048989445894865
0.4233963170888189 32.964185717894004 16.363439867604367
1.4994875482750563 37.18819752098174 18.58753030705798
2.252064250876432 23.447969724842782 8.60091755255533
4.482069233878442 23.36399611369217 7.058686837177956
6.072225687008658 24.981166535909974 6.674369944772413
6.450027898507044 27.434697917810436 7.785759663823519
5.352272151255881 78.6014274556068 31.41610931083995
7.554999293189464 78.31646017268002 31.65517455828911
8.877287847437646 80.63473796418502 31.278189682447103
8.218692728005651 82.8851383202129 31.744773065589857
12.838234442507291 31.305140990584952 8.862232620836009
11.421742927449097 28.712591314337686 9.1513893359186
11.030480662937599 27.071882419040524 7.40210752688266
8.925546768379215 27.720236717288508 6.285110945522742
1.3520686983810986 39.62085530295457 15.970188740113246
3.3913450695979077 38.62609218513665 16.467423886351824
4.121593217404159 36.225563233384584 15.231049932211205
3.2131027260588114 35.68182525718773 12.831247995413287
5.3478570206303635 83.15455698902136 25.004973578475553
4.429095096279713 83.88421277438596 26.722227117660932
5.827214440909998 82.98817288086467 28.666008400418427
7.981397304479139 83.71408222337173 29.372720584335646
4.23068549604227 83.58376954913358 36.6396279959756
2.3945007337812023 84.32552888090876 35.47804833460369
9.672424837024186 21.6882885068171 5.433194453270706
9.964806530790048 23.929983774242025 5.9825689121081735
8.42612995023104 19.822229927599658 10.373186123883224
5.069257722865327 26.9415952499648 12.241576451414778
6.9084976522208015 28.2604625577705 11.16306173778355
8.797247408224006 29.407612369623678 12.461013429991997
9.188497402339568 30.238153511623754 14.500865297953116
8.328223761247523 18.475048952642513 14.47918234242069
10.558340631868038 17.98440930579255 15.866251801681573
10.797098410368385 18.849627199689614 13.354018632787177
10.48580564717812 21.03604983617911 12.20748491644132
6.2233232121028115 74.25012504378638 27.156047376072934
7.273208336316628 76.64625943535813 27.010919827402887
7.263851695693627 78.04814249606396 28.72310319699106
6.014225353539325 79.90946958891328 28.88021129506204
13.022095158622294 22.41727452531609 10.741923951579247
11.47323574040805 21.773675378018236 9.00167964389793
11.124026405724404 19.565482729343962 7.677159961663038
1.866628304760103 71.59112583433117 54.030122536053575
10.13880102450169 82.0997077563702 29.271289850461404
8.477818238966952 80.79729406023307 27.83632668531946
8.859115962512707 78.81846692120241 26.312267675269442
10.591695241940394 77.22777855232506 25.878226682483774
4.8669884490651345 73.94180788240102 23.594906061492978
4.2169999994999605 88.62962460085357 35.06465756152372
2.973575762421619 86.91261805789198 34.8145112105319
3.541757314202078 85.5601904547103 32.42511367185172
5.109947980793397 84.91185134472974 31.259021858989602
0.003781691099840748 55.78882360315661 4.510022641085726
2.3817078590560787 76.82808604045039 19.134007301362125
2.803695466788656 79.78495720727972 28.720409996335732
4.062677623213588 80.99622253078884 30.348732751716085
3.6205560059520034 82.53319456764163 32.00835345537815
1.5726485160005832 83.08362268202887 33.33699216271609
3.976879001269005 21.337781189825417 10.168110127203162
6.022418818651454 21.77949368943522 8.597761166230468
6.9669811254777825 20.14747255726194 6.835994225713669
9.874091022681764 26.507316221332456 12.395849591384922
9.642024202111292 27.171700284139106 10.174450536245814
8.397003379450119 25.58031293487419 8.272317402830456
8.075154670256929 23.36211695457476 8.180048672172994
1.3611460247078617 39.80991721139083 18.83916015295113
4.651103638748508 30.39536238474596 10.66783974687238
5.2985249598311235 31.83553895017257 12.742437887897854
5.5934100261684305 34.19648817234277 12.94900869309555
7.295622966302699 35.778491645678336 11.423056476503806
0.4697008428082226 71.79135523148437 57.078418631023396
7.696763912544299 32.75977595608962 15.751887201209273
5.145245958799294 31.958323081513814 15.534361566373674
3.200857115345735 33.44682211756494 16.124547616257548
8.01337874727008 82.08236378791337 25.06849364486643
6.918670030893238 79.90620909369278 24.70242579489633
7.098713860686465 78.06174714553455 22.835326664478576
8.599951695924483 77.35585175854061 21.621294025152352
12.255403710553075 77.20155178987963 23.255772901618727
10.404771066779151 75.30244462541894 22.284172038369203
10.978633037509917 72.8889622977428 21.304736574349846
13.02979696091949 71.75349352874751 20.765636527933726
3.3191445741898584 78.54337312256683 21.232733408761906
2.771878125230211 77.95036098353692 23.591995070866783
2.6924799373537693 79.33539523521223 25.833056321413324
2.4627579934623176 81.78592637200467 26.299282199156316
0.2508402359884311 38.24369139164285 21.24729030815984
7.980225180097854 38.17537833083865 10.78643241091069
5.097032270833003 90.34738874977621 32.885086884780115
2.7230005277835607 90.3707280584855 33.01497523926974
0.6798386536798485 92.50096791335697 32.9356896064978
0.9843282377558271 94.89317003475897 32.97329533279942
1.272016984355994 33.27140583518246 13.659905684181295
2.7675184481856383 31.598750347944296 13.611754300113525
2.778382357694859 29.378834443317977 12.54346310137777
5.492195591838503 74.67949881112578 20.977797295770127
5.414662561309628 77.12936013882583 20.547121197609425
9.535030685103152 64.17314139156109 41.502922905013634
13.654796048551917 87.11511967623737 3.7569200187768272
13.47809949184895 89.1812855794656 4.8129412483464105
13.413685538843273 83.42758220508898 3.5794467128364533
10.897120842402048 84.2430375663544 2.525208415940547
0.07001891449852377 91.06789231071258 40.919667612485625
11.05987223792456 88.61022854729077 6.311880291939055
10.418417972943683 90.54027038172526 4.966944464722896
8.83291363263772 92.747865615102 5.770374212950949
7.666471310564896 93.05095470470907 8.013695359108482
15.47314910822005 83.65305609376937 5.86267432118681
15.013987375414349 85.80119006551105 6.741812525518416
12.318872533830696 86.33718433511851 5.768961918980094
10.714766073658376 84.97461805785201 5.683276203240226
8.500217917690037 94.20406709377505 11.318859876593711
7.146817168023939 95.02234859763446 9.613177955082268
4.508574902556718 95.29850022328576 9.066642304044585
2.525036510274344 93.98931456921473 10.066177532708103
3.453591562848302 94.01025772293242 6.793719948438758
4.601297001291092 93.36424714739326 5.470029316724782
6.852812706158502 94.65913520422949 5.108962676087268
5.938062966574138 92.35565855977126 3.2106064525273186
6.705610204014047 90.78038672168792 3.225607074841186
9.115748714596371 90.18583873898666 2.733202597077214
10.587726510236642 90.94536863573545 0.9528830783165779
9.973503312003894 94.68935461648176 3.56434054192039
10.70094902250019 95.78075996529212 7.308265023548888
9.573346792873307 87.7764851353527 0.9565758777216324
9.69245349896901 87.86793994017417 3.7855155222686387
8.935688058302869 86.69043098561488 5.10025305433268
1.9402274934948738 89.6813106127255 38.98948303749853
3.435728957324534 88.00865512548732 38.94133165343077
3.4465928668337478 85.78873922086102 37.87304045469501
12.041220135148194 92.73750728776794 3.2554502336016116
12.037168123895853 93.39700311420611 5.92522739140443
6.273838514277847 88.29056367710908 4.614052362225534
6.420070946028093 90.4539280225859 5.8634008702679035
5.05938213901592 91.7009595666236 7.432563809377728
2.7040126080704057 91.6090349929115 8.489862122842666
19.720550040774633 30.987330502191337 52.8132925606214
20.859417706394648 33.54818668913011 55.65792168797474
22.845945797117984 34.7379425595408 54.73927638664673
19.63950831255819 28.255636047527453 54.302510212723604
21.485621833981185 29.171045820720988 55.05604255328766
20.593771018305194 30.70279978381933 56.96768421606109
18.006491240526437 27.833091507326692 51.81328404766992
22.962274817658788 30.343111991863076 58.37023648318552
24.313850132909558 29.378638799904145 56.539846312342775
5.374766776660997 10.788439938716806 23.316413213372037
3.190636261831447 10.90700024196512 25.008457875908757
4.109590773492039 11.89107937276039 27.278401985671962
0.24234913359863422 11.7587946084743 30.824869037837995
7.258230059254121 12.096055210892093 25.179789700228017
8.744704868534647 30.181526850933867 42.93066574549098
11.078629308105647 30.68353435632767 42.26803779915126
12.23732152145341 33.067116194951645 42.11173821661228
13.87563891306227 35.85584749812027 46.29071005140839
14.253432718609917 34.203301513099724 47.10098509960073
13.916993182860969 31.669105477145795 45.93667258713823
14.796228681636693 30.923602098546528 44.39581655551597
13.94825298952342 64.74703136068553 31.831128955248975
13.067667577393264 63.2033151362724 33.36206706303136
14.675379242274158 61.822066182382166 35.07413964738255
16.60480604302773 60.97590592845734 35.100503358753464
42.40764483367279 25.07677917069818 29.557411533385437
41.22982852712622 26.813389230374383 29.088018538536375
16.02798697779683 25.942552499372347 38.51676897255691
15.282476809560691 23.890258211350805 37.34476281359573
15.72313114812766 22.585881176385456 35.47373319572795
17.147830058337522 22.67736060696935 33.601423525049604
31.83832887931316 58.33170648712403 21.649551346614317
14.201051080284294 16.395990284846302 29.72082586823367
39.79061360426642 25.990191447484108 31.61238046886271
37.46294661322622 26.28409080201145 32.31380566089226
15.18591956190765 52.24384938985375 49.85678663503662
18.69484919034398 32.72504254769887 20.42375491299382
18.44563081387129 33.795024615107 18.130469111474888
19.652355488282502 33.26849556897728 15.771168221096518
21.61916374429331 32.66941610248592 15.302755237612713
8.747858953380149 27.63096812465874 42.01109360686979
10.087599131371158 26.23453378318387 40.22630925303317
10.923043759374181 24.01195668827323 40.27534028554528
9.968240945459243 69.45528616418689 24.64719626984376
10.72441933910695 66.70253855716165 18.492019064170993
8.150991428444716 66.11328005924553 18.98944383270937
6.992142789566005 68.63447013121103 18.611968997072836
7.7604177846319935 70.45279758276021 19.51656178740753
24.403288092428745 31.449042686735574 16.17657525876377
15.021218061086627 19.648685542421088 38.29790632366921
16.834551712020062 20.065744221430133 36.4054879026308
19.30786547992128 18.976589529800602 36.62184324948691
10.576054915900707 29.234307947950047 56.28167133566769
10.853402486020187 31.12558529761971 54.77799058706703
9.355379114558088 33.44101926863954 54.5650527314757
10.48988384655503 34.62083790724389 56.05238332874725
18.276464092170183 62.86962820286238 8.800589538499143
19.89519609498529 61.166505430210854 9.961555320557316
9.465976366385267 51.574704029254455 28.741956689865354
8.964656233182568 50.76187754287435 30.34090029101113
10.506047337757678 51.15515729834242 32.268548350718504
10.82690499934277 52.5612531055111 33.86153689681729
31.7024587654737 37.53369501435731 35.267748913923604
33.67915048600399 36.643308617139205 36.68386527889327
32.39126581224673 35.70546778072424 40.83185650297587
15.987690105492707 39.89098654462235 20.689193281249743
17.867183604561756 38.527652755245825 19.734436875555602
17.964313588128224 36.57712415674474 18.05716811921921
16.078265032166428 35.22412015062576 16.690952875765507
20.591633002125874 35.29006992294424 13.23402468412605
18.692789021733393 35.6298821187336 14.698671761883979
19.370279162875498 37.81280352349575 15.9718470711742
20.985644152945113 39.633415929043025 15.103786617872823
6.954938261093193 40.50648928939915 58.39908729156085
8.969760948794756 39.74727024393493 58.96535755108727
10.686104016623835 40.966126125601185 61.09330776862965
18.123790704312984 30.88521526514788 45.1641473099389
17.166798426082334 29.29103272016653 44.40262481481272
18.15573738774422 26.651760679983752 43.965653303069196
20.345898657149863 25.838466860827662 45.48101614647645
4.527095349843457 65.83698330900361 56.2489810913954
9.958414449959696 14.22838226799711 8.641177151369524
8.869513170462046 16.233369478048242 7.607846429203549
8.571380744405541 18.624425136845844 8.083668793682708
17.306432951960222 32.920729733614536 58.90288823653842
15.77515220448147 34.91669143974394 58.66641599355846
14.811359198885352 36.64832851856285 60.216952488985214
18.226931646031936 59.03141756658264 34.47329160973513
16.1323883467084 58.643785835239505 33.78065976444259
14.105717062140183 56.69105327803781 34.356604086822415
14.842875821547555 54.39632146816771 35.32768414134029
3.338956211529553 68.31762129107868 17.925135437951383
4.579612835865568 70.00360517979804 19.258533364723384
4.769949875698404 72.3963629857694 19.533087499929188
4.79735832458975 74.17313380270053 17.52330021716934
17.271622885264485 48.178926654104956 31.01995328177402
14.737829385255969 48.939696224351096 30.145812620045895
13.352315874360398 50.65771901991299 31.587259853611855
14.348353865398263 52.68334350379394 33.09977702272681
17.00636994387004 42.39980636727013 19.671062016576936
19.108624542038733 40.81433802006169 20.614572092721684
21.692294631948094 40.65433537705856 19.511374727667825
22.240175784845064 41.11283247832197 17.092785513254473
33.21867650553705 28.904009927512163 35.28756014131631
34.75234562049683 30.157399960669846 36.35392298768979
37.70341989604764 30.16383953087168 36.30305745050209
39.133961886422966 28.703293933224746 35.155958117284186
12.871558102346631 58.17875730956601 45.31961568860975
16.31088531808385 66.0193139411683 9.016219738310289
15.576677577190706 65.40030959590827 11.108703171106397
14.345149208981963 66.33901125249393 12.907541820415961
15.990624397329526 67.60459628142384 13.404038100403216
5.98018587673517 61.1623016424207 36.464842594964274
5.253950445468232 60.93737448529429 38.91522943138447
21.607952739356595 49.18952076872676 11.891711297102292
32.04968926515523 31.35309471204942 36.89543826872367
32.94962649288125 33.153954345309735 36.71327408458637
9.345963586629303 62.77649959303399 46.73159929373129
8.42685644157093 63.34573120633071 49.136669675360025
7.057035232691237 65.30877418905693 49.5658296616806
6.0429772857998865 67.19834471625984 48.645990566689264
3.858846770970333 67.31690501950814 50.33803522922599
4.77780128263093 68.30098415030342 52.6079793389892
34.8977955357694 32.990969132920206 28.131460074515207
33.57252828015258 33.4006750506342 30.06016480739762
34.99261716065822 35.74018142646962 31.48449609020207
36.853829920312 36.89808917310475 30.443838617736432
12.816787727972905 46.647459850765095 25.313203031549197
12.825577921610737 45.54101585456428 27.344932986289407
12.017912906539665 46.208060014605714 29.69641974740894
12.17526117977421 48.16923206635773 30.500500130788264
11.96418338172262 19.029362828425704 30.60651561340539
14.337830024223376 20.0301447415376 31.903442887853036
14.79345000568077 22.024814509664893 32.58147678189882
13.289686884681464 24.135871104565833 33.33394943125383
26.24759028650479 40.97879503929851 41.709819066894255
15.418071732237928 58.818283883784154 8.35868470378248
14.385176223327715 59.1385875383599 10.829988729047589
13.517876067262968 61.69522081808847 11.266009536473787
13.730710093672638 63.5801075231985 9.94367409879514
11.064154260612387 70.17839629039449 13.218297189839646
11.65643107049034 68.7856611388829 14.774703218905659
11.45576594662128 69.16839876024059 17.468273685629445
11.427639343798697 71.25786049950699 18.66670518200768
0.2514548877384623 19.085753856104915 51.57992156549254
15.073477144438575 61.55295095936747 17.24501178567431
15.658419103381656 61.60663303187868 15.227285672515944
15.069679578737302 62.936458409415756 13.204270524107164
12.997212782962547 64.04599519670445 12.39207213247277
11.3225444386078 45.56915274354749 32.229404326803156
12.513050279818827 47.44701430671301 33.81179713391037
10.9872995651929 49.84209282969549 34.73807800006243
8.232384883686022 49.64465057517863 34.953104135169134
10.761930227975542 70.22267348706822 9.69251138503046
11.634759633279709 68.43719729664852 8.242806231239898
11.830679749191221 66.02513191626845 8.922624844012685
11.194353188928698 64.93421591196484 10.451465446560478
7.465132663501545 70.24380958661168 22.638110147132647
7.09240351917561 72.43387292111014 23.08873794040833
2.2530898890607327 72.75586280258595 24.218546234026974
37.52652214238469 32.10030821985286 34.27095356550196
34.99511117346061 33.16430368128958 34.641528853261626
34.20983163393271 35.13665818064091 34.60438740356493
16.58039602299687 57.17738570108617 31.738577995770658
14.170350367810844 56.45058689873559 31.75201305742069
13.11301295667795 54.17140529598321 30.51182080948163
13.789079153270318 53.01627326415478 28.53515437110938
13.139523077877362 17.072996354781118 32.17456916227441
13.90057195333366 18.33000502308713 33.82009620400681
16.213212857293016 18.331452716919337 34.30506583621758
15.151041733267853 29.602349658880133 52.5085513657361
16.972911636529535 30.128888619947464 53.968837469534925
18.115641952950345 32.4781372532484 54.75055081309268
17.342666382387588 34.50938490754822 54.50582634164195
18.090848884783693 54.343429100257815 10.096774897141195
21.629159091070814 52.21440354796104 13.440647993411988
13.721956955697106 47.457357528098015 36.35974689426016
13.700385288811058 49.887185481029654 35.42262304704455
14.240759848784444 52.07000986807376 36.68943695582479
16.08964222129289 52.4339389735154 36.551659791946335
14.753142376888718 30.913750683214367 17.11744977883255
15.963076811150527 32.56085329299554 17.947189961766973
16.111018537772953 34.181759444364125 20.12669550876724
14.793177365050747 34.350268466887805 21.85961388368921
21.48024445853977 30.54364939585492 13.73213562363086
19.767781034282645 32.19137189659739 13.1287062348759
17.080750269767517 32.31171607612087 13.466560225543184
15.388057357093317 30.76483741187335 14.503927778011956
11.130194320040305 62.856284824689645 35.80982786888564
8.640044385736166 63.3444936797188 37.39773512321448
7.956034821504041 62.43128560697244 39.37224490032215
8.250081089462604 60.42220340217469 40.028830891445985
38.79876501637805 28.42254041689362 28.160438123024374
38.94460347032612 28.55249740854653 30.308283328143474
37.537078305759714 30.254803093810043 32.27642750574596
35.31798276431053 31.34652088633088 32.08366493765027
15.226088312812925 28.890537877260723 55.418441044159
13.366942500183143 30.000723139285185 55.519997399124584
12.955349071038443 32.011796521341765 56.69223868278494
13.716095023438301 33.207131856050296 58.71807631642702
19.991383148109907 39.22547389459296 22.683700319038262
17.5289951760425 39.39838214043316 23.40974184836054
16.67658218035216 40.024288761668814 25.83100605748392
17.77823064408971 41.08431226529863 27.55677359428511
3.1126036214891246 74.70963206071148 19.92438725497812
1.941683868014062 72.7291002174798 20.633013227434496
12.746514159130498 58.81363284477905 31.805181525396087
12.085012465720718 59.8360580473891 34.126809129638126
10.046984060419964 60.08765047427936 35.41074194974268
7.654938229266393 59.475189881116215 35.01619007381825
17.73656465698406 36.157517808810724 57.29335128150847
18.85210919655696 34.225880697001024 56.9634004458062
18.32090245110133 55.93057872812356 12.793228346469784
18.531552398047175 57.043808131265735 10.81362380195211
17.636039090163916 59.69025781368774 10.1097661525933
17.378369439343743 61.497962632437805 11.631371928972955
19.320008960545945 44.44098673191899 25.58510640310607
17.650633572067864 43.54157533001948 26.213016290198446
15.218364447884403 44.46413361435456 27.34516741970622
15.324608163553322 45.9512705811673 25.481920639939286
14.220911718586276 56.67610764165963 48.62724622803657
12.50235750444106 55.35011268397573 50.268966679601256
12.258619348130921 55.234012765374224 52.504518572046415
18.351135578679397 18.36799410291132 32.2376771113321
18.632619636189624 19.762926433021907 33.981300015443644
30.78774900496078 40.82784253191543 31.877964387042436
31.760642572200627 39.3659005334691 33.4111264228436
34.14927990733976 38.413904620128854 33.49794490407885
36.15864233556267 38.66590725996885 32.53834120457836
12.877542969258199 50.65592321742365 52.0129859843854
12.870329150133989 52.460274681051075 50.77221857477057
11.674682360792579 53.25696967094807 48.39059882571626
10.71989607688198 52.02978484032587 46.61263666485241
7.4264336060047516 57.49372826319897 37.01124966176048
7.0854835032755705 58.05631844132928 39.212133172223005
18.610006359770072 30.186163700195202 58.4456026218743
5.200662272826081 18.11536011811574 5.503113505358947
16.862281724956144 37.34897605100708 26.2286415119659
16.054826426055946 37.2157008748803 24.08322323841301
17.39253056735616 36.30430039491227 21.874985673693985
19.245014596486442 34.702838484881475 21.902810023165987
12.435162260454078 30.564465843640832 14.462711121135325
12.360628205333555 32.003688915169064 15.861008031796834
13.534820625350536 34.21357454838983 16.082424237818515
14.845077444944174 35.351698226449905 14.012606917238449
12.723238275789994 35.069433928929584 60.57680044054197
11.725989395873997 36.97360197924108 61.02363152576097
9.299132240310724 37.748486862905786 60.861657495722405
7.052470308634823 36.31513022619748 60.650045146472614
17.393686837347815 20.802796600866387 30.686083648153904
17.81049325537979 19.474609375430145 28.540549595738717
15.235717987450784 18.336151200135696 27.727197981096836
13.260662987390718 19.1944945500376 28.117945494082026
11.558949701761486 63.366584602054154 47.74152947497535
10.893171230378988 61.44691028377713 49.08927364482375
12.049827284655118 59.72012531656254 49.57554175333319
3.1286659250625135 65.28326152643714 52.21292681175606
5.469547754905477 65.65364022233554 52.974549421291364
7.466360227109614 63.796114498478566 53.02308809038869
7.907448816340122 61.875888221285614 51.28194699778261
18.914674113255973 16.75046632546999 28.19773072476092
35.628043639913535 49.649840686262564 23.916589257974948
5.310723951773741 42.42950649883167 60.660349718551664
6.170718012484333 44.28059778458648 61.719320525198825
10.944733065131457 23.918282527378725 37.32899526899347
12.601792147925433 22.964986609095543 36.808002160917276
12.907674564914334 19.947722076508335 36.20279886461662
11.51300756406791 18.94459418379526 35.32359207219601
16.92501509820138 27.05345292396584 54.03837844750071
31.089500630558565 36.388788611722795 33.02336861200971
32.66628400238333 34.89569981750776 32.478267446326
32.54046338938396 32.283043687868705 33.38747588881719
30.796752691339375 31.166034861826482 34.45150376460587
11.952811195212316 43.146640514934965 27.772392635942957
12.909737493788743 41.12452973479495 28.54730070232896
14.115699890460434 39.26677053240402 27.314116047570696
14.045712423094134 38.06979336660873 25.28244590582461
43.96514131507119 27.11421018330779 30.52651623711673
42.7346557110765 28.871909557187813 29.708881823437636
1.2573594800132533 64.10066290105094 54.062059994904764
1.9819977929634638 65.91462721471842 54.79522331102496
0.9105596427375121 68.16869938601735 56.15444639115523
12.278714499368515 41.547173655157444 57.6831588141319
12.265316771813248 42.470799412309304 59.763607914230306
13.745740862565446 40.661768973698635 61.463330048716124
15.56200939791785 39.20413640350499 60.508452712791765
10.8005454060067 29.831399076924374 39.43683040039855
12.340933374078359 27.967250346075108 39.7881217125752
13.561557221027947 26.26977698215988 38.49780983748563
13.199039336100972 25.443595813465453 36.31572529459681
13.581256067077533 54.95778512482518 46.107120014385934
14.50014513956602 53.95327051587934 48.07050684521397
33.11593154876721 31.071769291144026 29.156209208544226
32.72504807606108 30.267335718061293 31.69367367728219
30.452903131737045 29.35014340373199 32.8515109750286
28.201179335670272 29.564422490466928 32.12644373586572
10.785936103649197 57.09735025275988 49.500141163581695
11.449048367685972 56.96223710333893 47.40545114765117
10.392343973499518 55.425753497209804 45.194602447846776
8.633982121879992 53.574360656226276 45.482292744470044
20.019351469971525 58.63974355463357 19.082320544917383
20.020786277737873 59.094742926491406 16.55246475662086
19.038666974503396 60.83513112355217 15.126893750471064
17.864071369330738 62.95035912036772 15.693099764924858
15.845958330544367 68.69875029000738 15.7958509605829
13.694209658734811 67.23987769442077 15.648435061350554
13.06800953667749 64.99959733491903 17.187451420958133
14.377471716831815 63.688648304723344 18.779873853392036
32.17981665578987 52.80944829088984 23.25825441717405
42.116558653033 26.39849009950073 33.2839626146432
13.09094977571438 31.296112268192033 39.486729606471236
13.944394288286631 29.719465378903628 41.51908957248217
16.033320211578722 28.18757888657737 41.69285008998825
18.211017634223968 28.10444351386235 40.522938012563614
4.441546253743605 37.58904195841333 57.571507827183574
6.647395946482996 37.73513774716159 58.19823157086736
9.014676023700488 37.07382472593379 56.92730333797837
9.399897638389849 36.790791135065845 54.59800536414857
11.57555763219676 35.63963737892123 45.22985946651553
22.152955308418978 60.95209084389975 14.116805886466258
20.350263991085225 58.604339794741406 13.65997131206689
20.99813078308406 56.407225073867515 12.623616937617104
21.65872177635768 55.32452926237743 14.443558948750502
17.396834494627857 28.880915992893765 47.49965910914052
17.653052504742977 30.876464001839462 47.99070122595294
15.4335345144949 31.90788838951311 48.445528786548586
23.397574676556214 38.72192730419065 17.08519917989238
21.7108920400732 37.1116053277773 17.090752018074603
20.44608034208938 36.14868448592432 19.31773669280366
20.832308893094503 36.56773072995366 21.750342268339313
14.937974492825463 29.025200821076833 46.26671777653197
13.763702043545358 27.846086054586678 43.768550317095055
11.071483826177932 27.939743169544748 43.21161243828911
12.714800235587123 34.307383788419976 54.544811013086495
14.911122505955328 35.05089860531118 55.83954820490071
14.366389227777068 37.44621677882174 57.24049901742574
12.340304869223962 38.50370883729639 57.35962023449983
8.000957829676386 14.03831894187092 6.645366850395445
6.3397423884261945 14.328742961075443 8.178267425417303
23.026645440781184 35.64403151057346 14.989631652082846
23.108587764980076 37.94659325597819 14.604057869736794
14.540790269534346 43.38969195894316 29.711477330157162
14.643645396817904 45.616990016760944 30.299145492998466
14.803374076372464 46.81718221492402 32.64151964662962
15.304206431822637 45.9760998900075 34.92001968559102
9.36296909102503 73.0261014955153 19.362724391950866
7.344716689121242 73.10459235923707 20.488562634035382
4.2131500322256805 46.92046247844868 9.708438827165057
23.4642703647427 39.16737158936469 45.460542878791536
25.991392823042588 39.647444283297936 44.29684714839891
13.658001604855263 43.564143013952396 24.46480238099083
15.231372246069668 41.64269394240341 22.8623960307934
17.46823547105514 42.14710327883553 22.447368610868025
18.65564212037572 44.31652098069052 22.581203088220096
33.14815465314375 55.91700125731754 21.432877893808257
16.676979540539012 56.2432577230701 8.21687986642866
3.2834875388774574 39.88284015501581 61.413856986275825
4.968301299565062 39.151446476549076 60.33026653014805
20.764087549741536 62.20854453180786 12.121319986937976
18.678722590271967 63.078369116703904 13.068473982732183
17.59821043916457 65.62777289351287 12.916887184305393
18.444732262899915 67.34462413583627 11.784803586081814
40.33727614869613 29.58592774318024 32.63960960488721
39.74594707635386 31.88256621470126 31.6408537370607
10.149634484052664 58.16311568301375 37.633368561491636
11.940619396772862 57.28171961088833 35.9832242680083
11.89947669127342 54.62515606079585 35.307091395143615
11.693431616841755 52.690108145388166 36.59526724053475
16.347572587623933 20.718599506868426 40.95361686216764
15.571746728174546 22.026663942779997 39.257351331307504
14.042048187774274 24.192454754742624 39.97736624663852
13.469893508434811 25.27508886475057 41.916946350164615
14.471456544461958 20.794242018864267 2.356761851707613
13.553702216315376 20.548349154097984 4.470664597207586
12.824926652746267 22.49759566519138 6.322722262724502
12.326930630789509 24.921553393787566 6.133067291402869
6.098067779966545 52.03061020040901 0.132066390957153
9.98016651962407 25.790010590699623 4.496403975491995
12.536943160040611 18.124146851804607 6.884734324505281
37.95147862832323 67.87170873839715 3.68876857222246
10.997155227952549 19.844818169105828 3.7141182360344214
33.86363487242462 66.81955379790527 8.56124522205649
36.55455116637135 68.07193813555035 6.737064667192287
33.82880894338255 71.83620387628066 7.632920529539644
11.970682567354174 86.66630406951495 0.22091063189722
13.455814347741072 86.21101795135111 1.4701761050218873
14.582640879817028 81.91970001078056 3.18025665323582
10.318248117227709 83.2669011220662 0.19575902907266685
16.420739559775637 89.3665248347395 4.660212658859301
16.483185222311807 88.13969521237172 2.598768126180358
17.180414836715542 85.9059066942966 1.6616778280336746
18.04455117917198 83.87765657296156 2.976270969958591
9.232860331982163 85.95170048181299 0.0463153724622629
16.352724444642778 91.84272869789531 2.3443210756806496
13.946103749999862 91.948702584954 2.0114774151463655
16.04652761603888 81.72793118969632 0.07670301144346736
55.80540036433776 27.267913406257314 2.471938596790286
56.944268029957776 29.82876959319609 5.316567724143628
58.93079612068111 31.018525463606775 4.397922422815619
55.724358636121316 24.53621895159343 3.9611562488924927
57.57047215754431 25.45162872478696 4.71468858945655
56.67862134186832 26.983382687885307 6.626330252229976
54.09134156408956 24.11367441139267 1.4719300838388063
59.04712514122191 26.62369489592905 8.028882519354413
24.338291769399625 28.65630836125025 6.913707768969128
25.39485194725757 27.012529647875148 6.4535460031957665
27.742097383306852 26.99042153749614 6.529908726373518
29.54327088657934 28.67384438650205 5.883741464904212
25.511951828564886 27.236651377229997 10.646158279672111
27.57453054740647 26.78543599310732 9.354179373502276
28.730217023148104 24.11979209727869 8.675608937249757
28.002546667485394 22.395582497849468 8.243811443606267
20.503593337185826 33.25213711114488 10.53982855216629
22.761660694936584 32.75334493338001 12.01512355705514
24.762819284442013 31.609975844516253 11.20638978965333
25.409659862365935 29.693607979594066 9.479929523229599
31.003137575213348 17.79957917008548 7.609299352222825
30.10513038388213 20.056905050986835 7.11592070482752
30.534107188303096 22.108401467950703 7.845498885281078
31.497042783529388 23.293562801446846 10.268497560320057
15.829565492639853 8.390777589581372 3.334730313294925
13.851111854424458 9.241883699240898 2.061249572515595
11.288569193712323 8.908570216096173 2.0150121611347043
10.03148895761451 7.078498624273867 2.748598758414661
25.081053154562927 26.65631278092566 14.727011927134605
25.932027233798465 28.327329205007782 13.396299790959649
24.7923298295588 30.45198362992636 13.866596912340917
22.495016506277036 49.116228436880654 3.7060890985376864
23.053926490233515 51.506095165163494 4.049422976829542
21.912079267347607 53.34530284638054 5.162110793549629
19.97793426372002 53.46754612474576 6.760183516390016
46.66090523946384 25.514890852016023 5.940317371836577
46.93825280958331 27.406168201685684 4.436636623235916
45.440229438121214 29.72160217270552 4.223698767644592
46.574734170118155 30.901420811309865 5.711029364916135
21.56963614096557 59.8373213434167 9.010329299299986
22.414236119686137 59.66945224874316 6.547773463175826
25.58960110858354 54.49991884036643 7.579900024344538
23.78437254374599 53.55765721151217 8.184010431591572
21.607367350993634 55.538276788682694 8.747202733000716
21.66076144582464 57.22389401840261 9.5998484456372
43.03978858465632 36.78707219346512 8.057733327729737
45.05461127235788 36.02785314800091 8.624003587256158
46.77095434018696 37.246709029667166 10.75195380479854
45.878842527870184 39.020304296366675 12.428462258720089
17.089546371280715 14.677792379854289 1.2607146257717115
14.719004439792732 14.821471833023375 1.4996108269119937
13.33416378765826 16.278530417817606 3.378625677838189
13.791744899894082 17.857912798401134 4.667212353784148
40.61194567340658 62.117566213069594 5.907627127564287
7.631755839075236 20.258695321817193 3.969240994501623
53.39128327552335 29.20131263768051 8.561534272707307
51.860002528044596 31.19727434380992 8.325062029727349
50.89620952244848 32.92891142262883 9.8755985251541
51.70769689777982 33.803775762557066 12.316256022683804
43.10203803200217 42.677025401256536 17.585048439091864
42.276869762968694 40.40508241214255 16.356084013047447
42.790306459093365 38.24934020984634 16.73319663474331
39.619417219260065 51.443553751612065 15.721623497159893
23.71555907028337 51.55655099471309 0.7382585425920193
23.120264344438077 53.39830712540025 2.519597301969917
11.56372497062729 13.692287870212347 6.199551720015235
12.352457976274293 13.78272903578277 4.363887607650549
14.786465001865285 12.784705224672702 3.2331813231942608
15.97146331702883 11.101701205262193 3.880803335998743
31.599477779438242 16.404014442650514 0.543837169198484
32.78451323920523 17.442026688735023 2.3495455046918132
26.16923051874368 48.732570905347124 8.001923005457932
23.565777760469604 49.73564280228799 7.954027421718134
21.563983557928612 49.662240677117616 9.904819951740723
30.966016337748233 26.05453380511567 5.552627336139845
30.842753281570715 24.865908553724626 7.2643401075420115
30.685807180008194 26.50799699860313 9.550199340935103
31.165117033656074 29.0792219446809 9.272607800126448
40.862651606194056 64.5815670543694 2.2666253751580903
39.799448521368106 43.060357346366764 15.89377273636022
40.367625132779516 45.44483376776244 16.30816862294592
39.25094898954273 47.35146840180339 17.773318780247514
38.532945677213604 47.12683271980376 20.0657847690617
17.56837711103017 6.939598396423094 1.120916478400044
27.23321506204518 51.45443098177834 2.1665125689814224
26.03932730104791 49.423661579202665 2.9540669448936083
25.144442186302882 50.08682154808404 5.605776516036959
25.78005975158628 51.71310519620308 7.017959689967129
12.515057305412842 18.694071345354274 2.109531394714105
10.320513781503466 18.066197034537815 5.36448249811231
9.807101440940484 15.845340537371328 5.1249143851932235
36.336305211301585 15.36633676017089 1.238567601661426
34.51002390480664 15.624276794431115 1.576361925310785
32.84558787828959 13.745896635754338 0.21603552702928275
24.65880388375174 20.992872585583214 4.989857434489534
26.75579885016627 20.53028889941264 6.463073511617563
27.614055794101457 18.83222645720862 7.482909636258398
32.727317245769264 65.25970232209404 8.056009985334008
51.23589205683098 25.882932562946106 2.167197401904992
53.05776196009266 26.40947152401344 3.627483505703814
54.20049227651347 28.758720157314375 4.409196849261567
53.427516705950715 30.789967811614193 4.164472377810834
27.70331309690519 31.49036914310819 13.055575854198679
27.363346848652075 29.962651172365984 11.35418056417221
28.502600605426082 30.12175388607123 8.676808262050898
28.945433774438143 32.51503770161235 7.905563838609059
19.91478160827698 53.55729696452339 9.258299546622393
21.77801365013475 52.300327153731054 10.842963400996924
26.536487359524013 54.435601367514494 1.2704368205122651
25.745721103963515 53.621145907226385 3.0251531164499577
24.068089132845646 54.77653864864852 4.998715565005695
24.412879383887717 56.67780697635306 5.886948323268112
51.31093863637605 25.1711207813267 5.077087080327892
49.45179282374627 26.281306043351158 5.17864343529347
49.040199394601565 28.292379425407738 6.3508847189538296
49.800945347001424 29.487714760116273 8.376722352595914
45.25006702771635 37.96483981253639 15.289485249246573
45.59750601419434 36.57149489598738 13.50717921230158
47.3226476607729 35.20353666926425 12.399716545575618
49.25257430557908 34.39177564854323 12.723756251699665
35.65356142647985 45.660606602444 15.203777181882877
37.53498692202922 47.50098087869469 15.65404363263213
37.35905296175728 49.865808067405915 16.279252202497993
36.18066318443939 51.44482934073298 15.477457151087046
53.82141498054719 32.4381007128767 6.951997317677362
54.936959520120084 30.506463601067 6.6220464819750875
48.343469671694045 51.514595669440205 2.1631646082153027
48.962393292821325 46.93650612148962 1.6716320205542894
48.955179473697115 48.740857585117055 0.43086461093945766
54.6948566833332 26.466746604261175 8.104248658043186
48.80808859935312 31.350016832995557 10.235446476710862
47.81083971943712 33.254184883307055 10.682277561929856
45.38398256387385 34.029069766971766 10.52030353189129
43.13732063219795 32.595713130263455 10.3086911826415
39.21351624862564 61.563844430503124 1.8715728479249512
41.5543980784686 61.93422312640152 2.6331954574602525
43.55121055067274 60.07669740254454 2.68173412655758
43.992299139903245 58.156471125351594 0.9405930339514998
37.284743334701446 49.35297119313923 18.643176229454554
41.39557427533687 38.71008940289765 10.318995754720552
42.25556833604746 40.561180688652456 11.377966561367714
41.73618734978906 41.21498372417772 13.539800439849397
39.75974431655119 40.327378710964155 15.275806759112248
12.096329125082107 11.760810738006697 1.8012001697904128
10.315774203737565 13.023473904046242 2.906548115821118
53.00986542176451 23.334035828031812 3.697024483669599
35.64844974223063 66.78242276169553 5.1155495522652075
37.34220980357638 60.38124580511692 3.7207060310736555
38.06684811652659 62.195210118784395 4.453869347193853
36.995409966300635 64.44928229008332 5.8130924273241185
35.45355254420514 64.49584523580543 7.407693740585405
48.36356482293164 37.827756559223424 7.341804850300791
48.35016709537638 38.751382316375285 9.42225395039919
49.83059118612857 36.94235187776461 11.121976084885015
51.64685972148097 35.48471930757096 10.167098748960656
25.227181980544145 45.130438758246704 0.734312234409984
25.362452083885383 47.361722609535875 1.156612657758784
23.078260503080074 48.92326485875128 0.4596229033730944
20.971599952759554 48.133824134524424 0.14418878416410696
31.059371704690147 13.9810695334187 5.786071732900264
30.981664901017215 15.419836987176621 3.9517453703567957
29.22963591278381 16.08988990322186 2.2635383864840417
17.771427210032545 13.265498975540595 3.718408959828528
19.438822925637986 13.348935568687619 2.0847456735188628
20.15554960544468 10.820363339488262 1.0340074931052918
19.771338937304197 8.714618724677942 1.9518527731924407
28.536838263141398 25.183494865622443 4.752238055923386
28.361055598656566 22.87652381689107 5.50934438997701
28.75594943833983 20.581035940681986 4.389589876601449
29.201855666848715 20.00322533437327 1.6615399682414143
31.724803934129596 12.273150330840664 2.121907059764445
27.057290121677347 17.46621098637748 0.8824740089715936
35.55921411865146 13.995915766020806 3.5869214362692645
32.62355371550065 16.29077137879433 5.507572531828528
33.60337876835782 18.315263255509183 5.37529349362759
38.296050903555276 47.706050805727536 13.284080695679576
38.03919016528942 45.482748033796966 13.760979452830897
39.84795313770033 43.73578573788849 13.144969533293072
41.78003551573784 43.75099112270413 12.002165222938542
40.526396577306734 33.869624862479306 7.230153863352465
42.732246270046126 34.01572065122757 7.856877607036242
45.09952634726361 33.35440762999976 6.585949374147261
45.484747961952976 33.071374039131825 4.256651400317456
40.29968989515391 50.18346614840176 13.077628500009077
41.304413044839 48.125023994534 13.818895953957918
48.79965055915025 30.58796669248595 4.203457049255386
50.99597282951846 31.33148150937716 5.498194241069599
50.451239551340194 33.72679968288772 6.899145053594632
48.42515519278709 34.78429174136236 7.018266270668718
6.884071759545129 13.900495682592206 2.5155003315657583
8.136487423540594 13.642405060266821 4.0392271138215445
26.051035551901762 33.504798957914154 12.4764895013345
24.272194353885382 33.70951326234368 14.214235383471353
37.07704600413182 53.374536730314226 18.156177873661758
20.88012608183953 55.867185600235835 4.44220139978219
20.559909703771815 57.65180187801657 6.211867688269207
18.573607181963478 57.44042545232719 7.878748446431337
39.36833786244058 36.16342305908179 11.072503022444712
41.05315162312819 35.43202938061505 9.988912566316937
43.239740329568285 35.3441619410121 11.781654013658835
42.83882390174146 35.12023404420875 14.259894857340525
47.369779836969606 40.53504467255256 14.284766466454494
45.009385121585694 40.85444862022683 14.54523250913464
43.378449148888734 42.8564037943599 14.692896787174385
43.508585026955366 44.99099764305012 14.22473377860621
11.679699855709176 77.90580674844264 0.015251171011842661
8.559112770729646 11.586837519073816 28.439200784184937
36.9683645045642 15.685698455800155 44.76587075409117
16.82449276350491 4.190273886128658 49.65898132916283
15.823017286818535 2.332431893511489 48.40962257674495
16.57492993629192 0.4286246326971698 47.0509626689213
18.591990411762566 0.004254076545426656 45.94117557460384
30.040208793620714 0.026728399712043514 59.276681299259856
30.08102563605333 1.3944516963984115 61.197873613031035
28.77541987014824 1.858991496037265 57.88962928952881
13.66146374966355 3.525283261667875 43.44909891892778
15.371587125564705 2.1277280925395656 43.81948103395569
17.171217907610977 0.8720570828856367 42.26880386733266
36.943559060759725 13.034805070424476 45.20237297581155
36.44148297848083 11.140195819229453 43.77860750255218
13.512839513543202 0.9238697882761022 49.09995658271211
33.88846692972967 11.096892413961633 45.36843005164736
34.23285201047979 13.435968525382487 44.78410127625791
15.07832000386282 5.337420596276702 44.97817789684838
14.464202582273796 4.438860117812028 46.85068955399979
13.553117054522673 5.881232119634387 49.25646532816286
14.383397351392793 8.309955347842273 49.98333109406128
11.903807537196979 3.1889893046043074 47.69761781018371
12.015763298595562 3.965908328708886 45.67153079709798
21.46115234788213 3.5293433154682754 41.95956231965448
19.903577300579013 1.667557684404887 43.5149162766727
17.726906981196255 3.3433631187942607 44.52259737633608
17.53892374182991 5.475862968587598 43.73932412914343
35.78961421739242 3.956678667669696 61.268517148121006
33.41558247434298 3.980017976378987 61.398405502610615
31.37242060023927 6.1102578312504585 61.31911986983869
31.67691018431525 8.50245995265246 61.3567255961403
39.42782528708542 15.230158517089613 41.00049534467873
37.76536788589609 14.679964560576 43.104079379214625
44.347377995111344 0.7244095941308475 32.14035028211771
44.17068143840838 2.790575497359062 33.196371511687296
17.6337675288377 0.6765347514915319 40.148198820717894
41.75245418448398 2.219518465184253 34.69531055527994
41.11099991950311 4.149560299618754 33.35037472806378
39.52549557919715 6.357155532995469 34.15380447629183
38.35905325712432 6.660244622602559 36.397125622449366
19.889790717391737 12.91680363915119 57.95711349645895
19.543975813538573 10.567608837763961 58.70705155612395
39.19279986424946 7.813357011668535 39.7022901399346
37.839399114583365 8.631638515527932 37.996608218423155
35.201156849116146 8.907790141179236 37.45007256738547
33.21761845683377 7.598604487108218 38.44960779604899
36.46571206320637 14.178584116140245 40.690395822266105
35.759673796149606 11.744880629457604 39.77445746987323
36.573502379967 11.377763574083161 38.07070411984588
22.040149904586784 12.70109784943691 56.23899232596788
20.77521069551709 11.115444706794284 54.769405502268846
20.64724080190119 9.537706333562825 56.3267551607981
19.705602963334034 8.640298971819943 61.59384972960209
18.532767504037583 8.276183376473817 59.79972417102449
19.256469698589914 7.24133536643864 57.63528951305865
20.14971057571915 5.21444449266433 57.00936069459208
0.024077655954756343 2.9714151755013787 52.923541372622054
21.38814718381624 2.742496496449957 39.27692723994186
19.355592012792602 2.989385404812062 40.363977963603546
17.553121402349834 4.811692945537262 40.668103697787885
38.232103604936675 10.651121220324136 41.423705278150564
39.86983956132387 12.507078754452138 41.085733547259494
34.146173509407724 7.619547640825909 35.17715021177964
35.293878947850516 6.97353706528674 33.85345958006567
37.545394652717924 8.268425122122945 33.49239293942816
38.10275925935419 10.19016657100288 34.41013717505251
36.63064491313356 5.964948477664737 31.594036715868203
37.398192150573465 4.389676639581394 31.60903733818207
39.80833066115579 3.7951286568801472 31.1166328604181
41.280308456796064 4.554658553628926 29.336313341657462
20.27535144671965 1.4670806206253748 55.63120695575213
41.8040358120965 12.497617006626902 33.60834616338076
41.999645386138255 9.850531446222632 32.984163489279624
40.66608525856332 8.298644534375248 31.947770805261275
2.348666205736691 1.3737442457574787 48.38143561586081
0.14012682766250406 0.6199569122354899 46.19414698800911
10.098266477257916 9.209603022142327 59.948829437734986
10.144182436395244 7.35395810858492 58.70248528791353
43.52312295111801 9.703634253145685 35.58500671480952
41.39353096905961 9.3900498831856 35.69169528688977
39.26642420723396 10.747176417027521 36.84639470693761
39.25637512881536 12.208361715121637 38.39011350260777
14.616720152738704 3.3956105173013627 38.401820600963234
18.055398153382338 4.216117817164559 55.79941558084618
18.091307720411873 4.745166036580897 53.538681225161646
18.435211242181303 9.264891945547848 53.775876518682615
24.841160513774074 13.255625609547327 59.32459508512774
23.25015245489932 11.519106454758907 59.30985726872374
22.817611516941795 9.320579749939105 60.805221062506874
40.26592873943273 1.3857750532461748 29.340006141062517
40.38503544552844 1.4772298580676464 32.16894578560952
39.628270004862294 0.29972090350835806 33.48368331767357
34.11085587037994 11.324779489263712 41.92078393581829
34.34648087188208 13.712341089002663 42.09194412660691
42.73380208170762 6.34679720566142 31.638880496942495
42.729750070455275 7.00629303209958 34.30865765474532
16.098341978576194 8.979386329915709 60.68532147696964
16.06229194188462 11.54954394772665 60.12493875457891
18.725469252607517 11.388027033522668 61.56760644357359
20.94740668939587 12.620737119255578 60.561541742222715
22.053560850924065 14.816950525082845 61.059900669616276
4.568091139705856 1.1560022406058843 45.751335787419535
36.96642046083727 1.8998535950025695 32.99748262556641
37.11265289258752 4.063217940479379 34.24683113360879
35.751964085575345 5.310249484517064 35.81599407271861
33.39659455462983 5.21832491080498 36.87329238618355
16.88392135938942 10.538073466774591 49.18658466855128
3.8588848407045644 9.427078531460591 30.91940373807816
