32.503978047516725 32.93098803449434 54.364907998420406
54.32441254164384 36.223698325071325 58.46559911325649
55.369915136649794 34.50462416990751 60.0494141918796
53.31713794159087 28.46110851931528 51.32419077338741
56.42045712954287 31.85875370634664 59.57878123794423
57.87095465113968 30.555008924783134 58.28384953086734
53.629612760002296 33.63522111916189 61.843952294860586
53.81232312459157 33.77415112930319 55.40518386988765
54.07757179344983 32.8519927710654 57.34503003260503
54.857834073617695 30.31819762179621 56.92480602264088
56.24129795629645 29.4863484652941 55.05004172075069
50.60914190626416 32.3581184439863 53.102945374068206
51.919844617954936 30.876912446311472 52.27817576223799
53.287410129600765 29.231875757258052 54.118843759630685
51.3690729483001 37.98654342110165 59.305645862452316
51.78223502221909 35.55065062201389 59.846617662316085
51.12016611271379 33.49471616111299 55.59608569368207
55.83445054574881 24.889313942126286 52.537657742724136
56.252328931350654 27.357791430059088 51.94779498741022
58.235690399069114 28.757173617345046 53.30466621490874
58.32691910576117 38.808292045013474 5.756743409807153
59.05537668976301 39.04723331674753 2.2334811505087817
58.955063056437716 36.54532046464141 3.6347268366667325
56.97894044136492 1.987806781874259 27.62201061203116
58.99727704558357 3.364522276975148 28.686098985869933
59.24608449925816 5.831391085678872 36.488125974828215
57.56582935188766 0.7679418918332684 29.81788629517018
58.229573966858666 3.020836568576092 31.068689902850316
57.00632496063 4.225841220969789 32.61633248165783
59.78556478238559 2.632692069914441 34.24862536476115
60.079074099478596 1.36361055518157 32.50867801627955
59.75218306163027 5.850679348087845 28.450221135808224
57.349345562681215 10.358479187953503 33.535367331400394
59.524729218368705 9.763195118569767 34.240200634987865
19.69189630089964 90.53697501507641 7.219621961850399
19.30973023406771 95.28258385011056 11.223246314565445
18.09959807253331 92.9477790815445 7.590802145560521
17.108293903321545 95.07121809534961 8.602344408939429
31.16814924265368 88.10601739875621 0.6165520201515375
32.882275461974025 95.78082003697507 2.0556626465357666
36.635793008439165 93.36223495172129 2.34752898339945
38.291253482302096 92.52545641298984 3.434361217460452
33.485417732331825 89.01404473664385 0.9496546202930106
33.653166737795054 91.0304241628849 0.639979204461732
33.87606756992381 93.27894643837591 2.1082611813089893
33.364504791693925 93.63659319416283 4.672882763989394
7.638264551543399 65.8598012778711 55.807972230417555
8.816768578157541 67.46818660537525 57.90263414764976
8.151738189858039 47.02260869759505 49.92239798495478
20.362539930247387 88.84188292533828 7.611353309314504
19.22302870517265 86.70272835888085 7.448543517479326
17.546027334199984 85.75399150168435 5.260154314407639
14.970130760228479 95.61164867022099 15.848473507250525
4.894085873979237 56.03090684716821 56.90915816885742
5.46648812674192 57.82349738305811 58.98097538393952
18.77982975704151 37.07521924861235 31.79768072104881
17.10564282516064 34.83475586131779 31.481796480715744
17.67900781993326 33.06107800648987 30.013468156502338
23.52380682811219 40.11580392034981 42.67099214233052
8.75646219352154 53.640831943707724 52.77238518997362
7.769572123026109 51.7682175326292 53.92602233766983
19.991961755329182 92.4602130877816 11.291108361885955
21.085384243441606 91.06428947969684 9.714146290160134
19.018250943379105 28.543286828177383 33.29090822718005
29.98966787698174 13.609793438970303 18.828864219416012
28.140498304473724 16.863284268495583 16.27459889683931
26.070816280077718 15.479664144908853 15.756171724944357
14.424369386400139 90.3020106557719 6.364196425193254
16.690085921321998 90.80829243302693 7.127471755821907
6.55943996149171 49.43341276406313 50.2935781686649
5.568135792279943 51.556851777868246 51.30512043204381
21.794393665963312 85.36539366950035 7.083383906259522
20.183181440154495 84.0330254266562 6.266408893238778
19.559053354268002 27.93686763305411 29.694923801375676
16.969375512155317 27.052581253356447 29.126411164333124
16.164178720967204 24.936745603272307 28.300762087966618
12.691936893103302 64.62309852584622 58.442738840581136
11.022519268475536 63.43986331748056 56.56912883215199
10.575821749719147 60.836964296544835 56.50926326766132
22.683884793662802 33.46971145062038 35.98440021426298
22.30639786934474 35.760238163171266 35.18229765879702
19.97632195594128 35.83010545966052 33.73936444136016
18.226363443778745 34.04012376549913 33.71962506311751
16.728679653440235 24.919202070943044 24.5036213287606
16.219160412287284 22.91813503795666 25.34776908220648
21.223267644129695 87.9844331767233 9.996423647600915
16.796299286502723 90.1716150876507 9.778681949208654
16.952410614608937 40.53289542788307 39.709096017917574
19.561028484006112 41.79933775569434 39.71247083069298
19.627991131612077 44.59165108127485 43.319328043255915
29.85131528394449 11.867621078390952 16.489778148843143
27.583719319452737 12.33073006510273 15.887080857038491
26.610296563205143 12.280965129144416 13.516671114877285
18.03029497337879 92.42622062712766 12.963179981446254
17.355508656505265 94.51834744608044 13.238072194667991
22.623130711277785 85.74702294475716 9.602324883059532
20.850867891312863 32.877552816846446 30.496545080490055
19.341329645807175 31.21489250711059 31.178821130567414
19.2990251041527 31.225926991703208 33.53357555408378
21.29201094392118 30.891696733717865 35.08667084849338
8.80556745938899 59.850975335273745 54.63300869961284
7.042390246969952 58.45649562021275 55.04245170985409
7.235411338510745 55.76744466413024 55.81725075502332
8.785741260475142 54.126620991804074 55.89768191757743
19.44881516979116 38.153998188724344 35.44446157355728
6.849854912123811 58.817472757109776 61.05276532314334
9.222476669815256 59.63027683781248 61.8233564607419
11.088051296711775 59.22169015895788 59.98917253721178
11.220175582409384 57.49587919275137 58.31626085053843
14.889853809079108 27.902130501672442 25.46331863147639
16.694587331636644 27.303983288517763 26.215502405178885
18.856306678197758 28.920144941054033 26.90405404769698
18.682694055525374 31.577628177477642 27.06605866749931
13.94289081771401 26.74893534162278 28.371985033402694
14.466387840181763 27.21153487473361 31.452875248794196
13.695767424253077 28.90125680765796 32.68921672893757
18.50502216617099 43.11387308404576 37.77436737077129
4.081404427544766 61.0368516018413 54.72099617568127
4.994794139396125 59.62451375773732 56.700672563819055
7.444128570183727 60.77951272311369 57.70791740428766
8.377681574226715 62.8584759079519 57.20250125614363
15.473457830023753 86.98818929731588 8.40083387787768
13.487448975556278 88.62891954637703 8.80724141498678
23.673737718424213 33.20353272094374 33.368884232507675
14.787835648046121 32.21536516046372 36.606536866506495
15.743951967827515 31.077577623353665 34.80254174911813
15.41713790610231 31.295731800497155 32.03885239104057
14.401065189318802 33.42759552229839 30.811214174088555
6.983676948037318 61.57673096134714 60.30832464898585
9.150414759782088 61.85607848264344 59.884238709124524
10.738402867196248 63.79582172031664 60.13420335951493
10.142646987021049 66.16434334805655 60.31325166609866
3.8298004605649676 52.9974546012502 54.24048846762827
16.160975091655608 94.33425440603911 10.808330755970795
15.385170257026482 92.06406982803624 11.951502990575037
4.1377306849648265 58.61607970712023 53.33887735008049
5.034428460883509 56.82072296343661 54.25274651192151
6.3772213230243615 54.83662149150659 53.46117531103109
6.6488484728181545 54.04410179159506 51.415960943022284
1.0156035647199926 58.81049108723528 34.5262304259015
4.395489087270496 59.347938045072475 35.66658977053492
3.658640925724289 54.0689616216209 32.59125708164683
0.9133427283721068 61.49952765106504 35.19741238871889
3.810742673555368 56.240071910524186 30.031489635323585
4.261121515162678 58.272590639458 31.73123580685011
38.002967183302566 43.24658935035253 17.575320053655343
35.78011708440458 43.26745534963023 18.825054872938505
33.557004823365574 42.046911850729515 18.421211860053834
33.325485525390185 41.78044430492681 16.097041393025172
2.04876026080357 58.825124526378644 29.537384556026325
2.7053306989407777 56.96331225516648 28.461727116953437
6.223296881460159 25.866356599567048 5.837036636326033
3.9749241464076044 26.824041560168702 6.1153270302932565
2.0995704685025953 26.795233150263996 7.5049201985546565
2.08459926177116 24.97279151114363 9.850264008075222
4.2630355627181835 54.82793073282974 28.351466004178345
3.695544369423374 52.15893479795548 27.54630866447772
3.294582662284155 50.30929850878591 29.823669289004787
52.67594695958173 48.311211219062805 6.6690429469605865
5.306886387060917 47.81055166946637 15.398327406650562
3.692400972190748 49.27816442283772 16.006132192619226
2.171400689067169 48.47156341109588 18.16284109568786
1.9190793282222576 46.26192505603774 19.0389492578186
1.533802269357737 84.95885393961129 5.055696927116555
2.712306295971884 86.56723926711544 7.150358844348773
10.329673467806357 69.39312633826727 57.34359144205778
12.16103621689091 68.43597247922516 57.114021842821785
10.19709813358511 40.59108992954611 3.4717911556384644
9.776035427168656 38.45938459068043 5.059590671279109
10.493636867869183 36.059654928776844 4.45801406185513
10.69682835096293 35.0253721705442 2.449235107507494
35.96023266593438 42.22817797833685 24.14009577368835
35.942224181680395 44.404177829554975 22.990982654381895
37.595371756317626 45.14801604954732 21.06131849090314
39.611377184096796 43.99582978881759 19.755304442133472
46.065562455524976 23.07350998820644 19.217500292468813
47.878827748856494 24.303850745936572 20.26923516864809
48.06928307485555 26.500270200956276 21.70359603702104
46.46982320851133 28.036469468109114 22.84801446760876
22.456615801923558 61.1972451589836 26.455780426923223
54.61232214834344 46.910050445300946 2.4673795885351066
52.67917773842938 45.77512117550737 3.728873027738169
52.451004429436324 42.92961560355261 4.142854218121948
54.01794293759478 41.220193576205176 3.3041043559311865
29.512924444285957 42.58504009786881 15.209738567985728
30.909051150787004 43.259873975695776 16.864927768057388
31.925446599599372 45.412540797184874 17.59315942792997
32.939734417035595 47.54828822803241 16.220877390299634
36.36447504586195 31.03641784343141 39.646717399824475
37.22912368849784 28.77461583538101 39.07717487521025
38.948435608920164 48.035814360986365 22.409669513829055
37.33407609132911 47.318409799268935 23.29645206051451
36.18661248240453 48.6542893466097 25.293297890402
37.17381172641285 49.64723540191345 27.40446890030008
13.589293493271056 26.381631266226627 23.832679248135086
13.482789678492312 24.287964124561636 24.326095358143643
11.369712138640741 22.822061036386415 25.10879131922579
8.951546936652063 23.82391808447759 25.068477346705098
33.85986124247838 29.129773791755504 11.764416922424797
32.42881789515134 30.50131724739975 13.222635884558903
33.00837485896922 31.949460339561824 15.422421515369138
35.221102150864304 31.882904122277008 16.7659865669908
21.88037900371894 59.9372222621492 41.928201778044475
22.728443134140925 57.88430484318942 43.080909164693985
21.64878705009415 56.01394960558013 43.70924040125567
19.74140697659725 54.8884787100396 43.35969807627525
0.6353592713068412 24.774766094781754 5.99503241627461
2.5890573672129458 25.139769854916153 4.468753402459225
2.904233485738049 26.371130300351737 2.133125358216764
1.306899875402349 27.45721405869456 0.676945473338509
3.378655237890461 50.76029322126644 22.063897714876386
3.2115709508005033 49.2003458895294 20.778012159504215
3.864423504457913 46.53962354569979 20.670576084973742
4.106190148996769 45.06850427651634 22.777572649847404
34.724033546238736 35.02724716509643 20.47768594593985
34.04147731313497 37.14171559736444 19.79234234858125
32.80741764872046 39.182409541705965 20.82937321541983
31.63433324720051 38.9029583487744 23.538829059979303
44.77909499602273 30.988507984055296 21.68427701675724
46.42299701857718 29.672460017942353 20.903845714695095
46.88111503618444 28.133049424045804 18.731259415186187
45.71966056434059 27.629192449810063 16.931588835227984
20.796020611442113 47.82525484830017 38.66579332950973
21.149144322463396 45.8719713843013 37.733644863372625
22.19464691746935 44.15289722913749 39.31745994199574
23.562228381406335 44.75390997095034 41.623335228954716
49.99971126284742 38.056157521438536 0.8026466636016024
28.907885787246084 25.429939689087146 15.755001156085363
30.73269902471252 26.673792322177174 14.816567701937158
31.859658243591976 28.66688611303206 15.260633085053142
30.74847131947843 31.014214800864558 16.44458632920236
30.029925333187737 35.27844078992887 13.535030355725947
30.80676689861458 36.44280882087524 15.953917634366503
30.8439822138464 38.765397130774076 16.46749714256433
31.24946807734396 40.66038068980527 15.163106019553608
20.141869722410426 38.10938157854525 30.592236523503537
50.6161425774731 19.584202653822782 22.809822627076002
46.07881301950591 17.658263392725882 24.291568352827806
16.5604321757957 43.93605288629561 2.8266144581903916
15.775410191804694 41.940158439300966 2.2241639592936266
13.019817949985464 41.130016617751565 2.1533900542863478
11.126217017270825 42.79095189823594 1.4354929592172154
11.080160765983978 82.21739269801392 0.12698309657197152
44.96693347986582 67.60154420595947 5.038377098089124
43.309937748628066 66.36576143376121 5.124355911638798
14.455029779717794 39.11881899755344 0.6773534182159829
12.353701176093626 34.01892491227322 4.486590384598226
13.405932954417283 34.2341337779197 2.8552054219053304
14.22752174005302 36.27422053145689 1.9852198756317783
14.378706784789308 38.48095935007577 3.2705535037629856
47.6332420700785 41.82695164573883 0.9075899603783354
49.51150070793298 40.47647985547746 2.1687912164805723
51.849745972700596 40.39407719229713 1.7363083116499118
1.045712754516086 65.52212622903492 28.30986649293487
0.41890771404346344 85.5817048455328 50.61828944475689
1.6693985333571932 87.91894039956087 49.90570108180679
48.11107271191807 42.01317762561358 4.163242526892299
50.08241411348656 42.13892555028786 4.423577484780529
51.278359594516324 40.775870462530605 6.330417800177147
49.84501278911048 39.49460810580978 8.18064415221561
23.308976368034866 42.0898879941508 41.53119130370385
23.245188910362426 41.50702676557662 38.846826988060364
24.695686431959235 40.20328198401311 37.55189528098348
2.651999911335876 72.73988460544793 2.0201098866726217
1.6651098408404426 70.8672701943694 3.173747034368831
2.347341362101907 68.04489943204042 3.241609081689346
3.440763850214343 66.6489758239557 1.664647009963527
0.10512450896677517 50.999863642662596 26.116044215881875
10.057852069418356 28.86351762625822 2.5224915392932408
8.145468783787706 28.867177214938724 1.7727613384660077
5.676875297966089 27.865451252063618 2.9696503307675317
5.022065948537975 28.970721153219298 5.004986572578342
54.185630470503696 36.104572353709266 8.279656662690856
54.97940201516413 36.914104356140825 6.0896430999962625
55.25000318123408 39.25994770697638 5.104235246099039
54.68914536981607 41.403037983444534 6.180356683215908
18.09497231036062 29.31352727778342 2.8779617596398697
16.807694584127216 30.730344631366073 1.4493894180400333
14.608812022187044 32.12528241036488 1.8443323701474064
12.753894206034852 31.74140435596217 3.114819556551764
1.6964527381225916 48.798267514389046 26.78101345365058
1.5492004501395604 48.01972043056823 24.280459360827447
1.1545409988879285 46.17306296958172 23.263016347881496
29.688101592876432 15.35367049798683 16.85060060406861
27.27371097773332 19.779070589796362 15.868178836700412
29.443816632602637 20.129343958591612 14.460764854827561
31.288036661773248 22.068671941191045 14.570784634923067
31.279908323908973 24.15051517836858 16.153704148449474
24.498393895366 59.685324900602566 40.61112095504634
24.612811484486112 60.743529533977586 42.60398487338663
25.376229308685506 63.04548813590563 43.36278825499656
26.831901561016227 64.5771005771734 42.618404847641116
12.207752278158019 26.736718924011104 26.47081137520743
38.48634445634156 28.70872388018364 32.55458068326369
38.04878332646258 28.89340921040168 34.789343061437734
37.88601611873023 30.814007878850187 36.53287389049773
38.065064580964886 33.524113774815646 36.13100331330813
1.178367072377946 59.04804890007116 32.11275798611604
1.4456256030284345 57.09972434024135 32.02252152520994
34.131990050621646 48.47854896768663 26.911392738567613
32.41574870451962 47.863400294903236 26.155394375747782
32.24010168291304 45.35272415316403 25.012572733922877
33.736077552030494 43.587269785550234 25.07817868821392
6.02364468350546 44.812214645303754 19.043579402243463
6.207841840475682 47.19643322310213 19.531784956551068
7.354982251829616 47.48126707347254 22.036806959983252
8.95007787247218 45.800547981366115 23.128459035621585
35.011603403443644 25.727598818481095 32.927311282659176
31.33108747025739 41.54252426841381 30.382057240111937
32.152834838207426 39.49326659567046 29.86912114707354
33.18021617808627 39.408482859694494 27.225714683217518
32.529616315134376 40.81493590067164 25.319389875077764
1.5514032139945593 58.97140490990099 6.785203282387822
0.4940859385435202 60.95778698973774 6.313248796232465
11.022236645826412 41.161732016982256 6.082822175698385
13.058396356686993 40.3032200134486 4.971628296259455
15.381921916329086 41.089615371652066 5.023052361898676
16.425220779160757 43.57282183688198 5.481988198971859
43.6703221853161 60.72899311252362 1.9566026497801252
41.15552944993632 60.00637578811695 2.094048336834085
15.328562761720422 22.31935099297348 22.96983716283734
15.55775668609411 21.71032784054053 24.83913197567381
12.73976515917905 71.33136172038726 57.430048147775885
26.25634315513841 61.52430185384686 48.038059766012715
23.4197194290371 61.36778941729836 48.40682510154275
40.78172714259464 65.32768788590369 7.8246719737080435
6.271369522071656 49.283979780725765 17.455349106436515
4.4978531413607294 50.03513711356695 18.299472639185907
3.597834100899947 52.69699574278127 18.284007175577994
3.14005323766478 53.09657656399075 16.172294540011844
18.891268731341384 42.57777522590232 1.287073629378904
17.616240253795592 40.663433745982125 0.6246686002994721
18.190526727920066 38.29277967799264 2.098619226754784
20.239168629207224 37.49372813590998 2.9443179498621936
14.212812021032482 63.734155565390566 59.915561205062154
6.587474610917643 83.72215118758639 7.690463537280125
4.918056986289869 82.53891597922076 5.816853528851003
4.4713594675334685 79.93601695828504 5.756987964360326
45.86037953570673 40.4588833002388 3.342370198398811
47.67183514638216 38.78169644910636 3.5225646257542667
48.26963973114665 36.62767156967769 2.3759110565262405
47.01351399648665 35.123907621904934 0.42437567077517274
36.80714069750463 55.141632414082544 25.37162905917851
37.10187459974094 53.01542847981518 24.476365489357104
36.480384486611854 52.05129080143927 21.936489709905548
36.00347872012972 53.46020609009381 19.526508444385513
51.985791142896346 43.84609338181879 8.625611054621384
53.346935214208365 44.4644303311378 6.448359004448375
37.46856935987243 50.65351735638014 19.69555798116424
36.2761940712535 48.896121060447875 21.326969472799746
35.19551361410601 46.78052904296306 20.83488945669397
34.58636602737928 45.53674930878845 18.81585327883335
16.12497041211099 77.24474671002513 55.4584939474883
21.840087191758723 56.479684679488 46.2285480636492
23.368422903531375 58.04652853166905 45.743936656219404
23.51564474260988 60.3987958980618 45.77038150952655
21.512398251588493 62.026891455846695 45.050158521979704
23.890350412988543 55.00817759052495 46.80599572177781
24.06005128711931 53.20134815612647 45.34791334497055
21.342117350932423 52.26645371949371 44.75843866964015
19.414952539037717 53.32211921313675 46.09373364418414
41.09167763236633 57.14707542537819 1.3350923530146352
0.015290799789208564 53.332893602691726 23.653457974659517
0.8261981956585943 53.761032359064295 26.040543272389055
0.314694908357008 55.17000866181948 27.610040606775385
24.174077343500777 20.006752247183474 12.80341308151653
26.349460999188267 19.411468177799737 13.508246385103998
27.599679280784734 17.404178088019194 13.378164260548369
27.460108119449302 15.289756811665116 12.261507215853324
52.39630479313483 24.906782569506607 18.989053331833762
50.85577557868102 22.694488470462726 19.81393904757234
50.087539020556015 22.407242088047205 22.468887262632578
19.517856498495192 52.320962597317866 42.53903081605
21.253004664041775 50.65802717735279 41.705718775883724
21.06628577885827 48.31342613030427 41.39684971655317
18.995015554622825 46.68568914812902 41.54357436708211
1.2392930691471236 57.174610671783775 1.9737894797348585
28.475795128027787 43.61792557560935 18.37344125936968
29.567679030069108 41.026165800094624 17.71116608007101
30.316652560992257 39.279123174876354 19.470936817826345
29.666500877454204 38.89322400180538 21.811090044897288
41.536863471379704 54.47288286475791 23.16919227355659
21.68907582193009 58.2174868182194 23.985758534246475
1.2853773492082172 94.39386061810208 47.945085160001206
1.3348272776422163 92.47331919965285 49.32162540733497
31.64554899708876 29.743638504662613 9.934169482774017
30.650673909381158 28.5273625464861 12.014702032233583
29.93493600818804 26.044071691716326 12.120837930216087
29.748184616133027 24.30682612166925 10.89728418569192
35.44450418329817 37.32501880756029 17.53701899980212
33.48429867748874 36.914910021958086 16.101523284488703
33.14042685695928 35.060150480784706 14.988503551486822
32.96058767928719 35.454311170343004 12.704755822952578
25.387165398243393 48.64595011912691 40.55827063403256
24.0900271411791 49.67081799582859 42.65673390829176
25.095634897397563 49.84786863423993 45.05030500650383
26.751095371260494 49.01109009550849 46.137137240564826
32.952625566475334 20.144937178622286 14.189941329712074
31.1583059826178 19.250765453154912 12.76267751531895
30.237469281006216 17.191290453149577 12.180648228639551
30.316518558877597 14.855486819987469 13.136376887355054
2.4772751787873477 65.92863573371629 25.420237564526918
2.2171933584809858 63.11950068290876 26.538231739509115
2.8588739716474305 60.648776225449595 26.57754248993983
1.584806263993248 58.613124911628674 26.308643222900166
3.5786472509024216 63.569119520982134 1.9469243674042989
1.6288702284963412 61.914446161874984 2.839546471289881
20.454344540821868 43.28349417839186 41.11199804497672
49.74690958681673 36.14869708877877 17.76421669364284
49.69281626874404 33.946879437135344 19.083236914725912
47.99459401249292 32.78097484523569 20.71477708609982
45.796157635187 33.53945099695847 21.593753813918298
2.6949805332926253 87.77802554643863 9.669635629332522
26.17247351510203 55.09364731611193 44.77968771055333
25.321846761675165 56.989124417750176 44.13036800485842
25.833235070792522 59.592267194769434 44.64032854649651
27.401463893011538 60.73002854023499 45.64839494516711
16.17631953137018 34.89512537923994 0.5162088335141813
17.153058549777427 35.35775843316917 2.7620366009930515
33.05604067830183 22.573128405601647 12.563464479901896
32.0069558530718 24.453030111400626 13.068311845247266
32.91476532509027 27.10238199643154 13.425344410623104
35.29982636122455 27.209203961972154 15.079798445943366
5.548137800536584 94.5108255461814 47.27288482251158
3.9053479973826635 94.84163416062401 48.752389247098655
0.6805757799207991 65.95764375949082 6.141003083865303
0.3856745801515202 68.01090697138649 4.913680701249651
0.7510332818827032 71.87539005590293 7.046005113272994
4.225247180085905 92.20283141371857 49.27609563907535
5.632099124618669 92.64625694609475 50.89253782207071
3.8823318934601305 92.05146400905872 53.25288341294045
1.6577052892357844 90.99072283879306 53.01550651764451
27.7091057867697 28.760002349617995 12.542148926997044
28.2143398120314 30.32644713248948 14.293189455719414
29.40329585115676 32.23379146314132 14.199320354082637
30.92292662363699 32.93709765625167 11.85044417755069
20.637054905411123 43.422424188533164 34.673229620003795
20.902303574269396 42.50026583029537 36.61307578272117
21.682565854437243 39.96647068102618 36.19285177275701
23.066029737116015 39.13462152452407 34.318087470866814
47.20809518176231 23.994033428474136 16.855477631213198
48.00893429009853 25.749865854035555 17.926207952206692
50.24913035069963 26.605741122388668 18.181100986705953
52.44004028461917 26.349213455640893 16.407142765631896
36.3699948801448 57.96153455297805 28.085516195349303
38.61224110731795 57.28614258022789 27.223609806858658
17.46490600861047 49.87695417261618 5.626491387305237
11.24626174148483 31.138393137780596 0.05195896130702757
3.8578281644797925 58.77200206413436 6.039072111851527
2.7684844971076106 58.07677911783531 4.280376119140758
3.1876659973374903 59.4859979162882 1.9918697376072252
4.978510318050525 61.33170928901599 1.5528256028629115
48.39165616723386 30.85706612710926 18.75202219145557
49.555782137610706 28.89363127938056 19.098352507218966
4.119469903914301 23.973155387785916 0.07110053596979865
5.812772597864119 25.97137911391824 1.272641929537755
19.625322861684296 43.85673245715129 4.034051517535271
19.33957639149019 46.104863671710156 4.685879994670356
0.6057224744602105 51.42453464275029 30.36685981221535
1.7361579930709432 53.61541817262683 30.82400445339522
24.60419920423498 56.693562979415184 41.487609388207396
23.67339199007854 54.62782715511894 42.729164506978
23.304603136053245 52.27811235710666 42.27216584768237
23.188826683930348 51.117485437888405 40.05833982770407
12.530369257129808 51.71301327982608 2.8090259989187665
14.021141317780517 53.76641592103397 2.7264978253561916
16.030838089342442 53.553459415471615 4.437475713802573
16.26374964482418 52.05385706446313 6.507214923637028
5.42950210585017 55.54278383236545 26.151612361750907
3.6568277680152117 53.993529017787964 25.296872111301504
3.014843245339649 53.42898905616528 22.980270660560333
3.8024074056236272 54.379950589240664 20.79820084065155
31.89806542156957 22.433819034264303 10.148287737359361
29.722765143975906 21.094637023253338 11.317739506807811
28.111493870063068 19.665075937842627 10.487927377834668
28.02007623277583 17.991770294009108 8.493094959261045
2.7011051772033294 78.95002799701395 3.880733396311835
0.9379279647842905 77.55554828195295 4.290176406553093
1.130949056325064 74.86649732587044 5.064975451722325
2.6812789782894795 73.22567365354426 5.145406614276429
5.19542304115901 43.581263209041204 20.87857599364033
3.884572381519861 42.547307131013376 19.29580439056933
1.3653473358082377 42.100372828322435 20.16997551476439
0.4677313796336852 42.096025358332156 22.123007700444756
0.49690896343081686 53.85753976084693 18.143393117651982
1.1919286363445247 52.95696888758189 20.497637487692543
0.3387008191190664 51.08417689956136 22.00803762205834
46.31653263316922 65.5294531169896 3.7137497971477895
44.23964548196042 64.0217362880741 2.9921148412962086
43.47490236172335 63.01511575053445 0.8245489654846925
13.03816083772903 25.187421413298573 28.91773645610151
13.489424366243128 24.246893191452646 27.229331787031303
39.84323128509179 62.44008083578203 8.332110160498345
17.43387368708372 42.00639150321627 32.37099112418434
18.74457639877451 40.525185505541444 31.546221512354133
20.112141910420327 38.880148816488024 33.38688950974682
4.609307152768242 23.196265035476973 4.858051845302517
6.569098642223433 23.746473970978712 4.027229844867754
7.959708803918914 22.607267545936065 2.0058240713647377
7.70562398623111 20.877938681850548 0.7369498265620975
48.02360875385369 19.801102715537187 20.94968677916102
48.60564158759 21.812883036492696 18.989167200186778
41.80922873882451 51.006582683060046 22.68806007307963
40.480336952720066 49.966701835190435 21.380238068557453
0.7453926299381333 77.91652541884996 10.300490019842337
3.1180143876295876 78.72932949955268 11.071081157440899
4.9835890145261095 78.32074282069807 9.236897233910794
5.115713300223715 76.59493185449156 7.563985547237435
16.497208373616633 46.27558247586187 6.150573453483759
17.70464610804125 47.595617314446976 7.634816253157648
17.34903706613928 43.877405452867244 10.239047556335667
30.442026527255 44.32204619092104 19.83842713216073
32.96759492109133 45.492431195207544 20.87100519288667
33.94042248457321 43.43996572136564 20.975922115513765
33.587321340156564 41.400763627344205 22.44430278045365
39.67758144824888 52.87287877111655 24.7196162566727
31.72153132175821 53.25199038432484 22.322197857144783
33.76803232985411 52.47257340063204 23.766851923137516
34.93521003265523 50.11053987735168 23.50772871371674
33.67154651694461 47.85766967211686 23.402272030353615
36.602304279118364 55.40428142390261 28.811658497995804
37.06156153353183 53.35071919862366 27.406272613768294
35.900333387446686 51.70494240330805 26.21316359678412
33.1517150321343 51.05595414550349 26.473539065186994
43.26784170798221 27.45484303573881 35.14085618067626
42.085468113194956 27.59139037474774 36.90151780401952
39.319049132842814 27.09831561820774 36.54890480767831
38.45647685096196 25.92047030835025 34.65040018224121
48.8284117807623 38.182187312205144 6.098476335128936
50.72045500268914 38.30266413056238 4.426240032732499
52.88882530321475 36.65731349104305 4.065791411198893
19.19983306747405 44.88618142389295 31.539450528115623
19.90992336035414 42.85646264074446 32.18388451375799
22.03938134164656 41.3391596811836 31.38225904915102
23.23591965242811 41.20453401952118 29.48612647545105
33.38716357807982 26.21996564257958 16.7665759585442
33.47087692880205 28.23169862405994 17.038209727075174
34.49169407215399 30.18400532656053 18.796428035325754
35.61605926376193 29.553963232184245 20.71956625831945
18.193804729119655 47.634816480331615 38.573691612568446
18.60696680303865 45.19892368124386 39.114663412432215
17.94489789353334 43.142989220342955 34.8641314437982
24.04488013992673 60.77165203667167 24.28872935849518
17.89238073978795 40.97522108272371 9.980730323406508
17.852528922674058 41.99466006891675 8.260229611798447
18.367469895704154 41.20611409783937 5.575691496906508
19.000082549591106 38.54972506115631 4.956650580690654
27.81582008651949 35.89470276564325 19.866083206498548
29.971190565279844 36.51846150465693 18.748786398721375
32.20756937502293 35.01720380666859 18.214174648758938
33.08093464320533 33.1227601281196 18.96346940267149
2.8975514298376694 31.509443453847172 3.385170620203306
3.5982075147706145 29.551325973598626 2.7032034006719647
3.881424200280705 28.58891617116204 0.2551872676140709
40.11026720489592 31.44054348254595 38.02501616543959
41.69350106512893 30.261741246763506 36.28525224978352
30.505800547955445 16.527257525010906 9.49322386892261
28.663562234463225 15.329757692017669 9.40927921867958
21.945259621290223 45.49967841916249 43.65243064339739
22.11300862675345 47.51605784540353 43.342755227566116
22.33590945888221 49.76458012089456 44.81103720441337
21.824346680652322 50.12222687668147 47.375658787093776
10.037919943324937 23.14047804541809 0.4712680190498884
14.041507718861421 27.30146617787311 2.0585215112225312
1.339666287998066 79.8785653848539 6.955642100986663
2.273219292041042 81.95752856969209 6.4502259528426285
0.03648719352978717 92.78975574618829 51.63355329600252
25.054058000067247 21.58017265678082 10.762624916286542
27.128185743043492 21.950930382341717 12.270606433914192
28.01266604854387 24.227405935655575 13.343449187756036
27.440187094567804 26.158144388265967 13.517473006292294
16.76420236792328 66.38296151394437 57.82862539665886
14.771132342703579 67.12809238685618 58.24404494777411
13.107445731799396 67.26870506725497 60.12816622819622
24.697981122732383 63.26415380402979 46.84361074462992
6.90805028076999 15.269699987005763 12.053414571506034
8.552352347991427 13.915945817293291 11.500830233254135
8.003985987321355 11.289185588797212 12.45854738622505
22.659182326568374 34.53758700135626 31.805703492840276
23.0770607121702 37.00606448928905 31.215840737526356
25.06042217988866 38.40544667657502 32.57271196502487
0.8792146658516575 80.67578362308734 9.556049345684857
3.0459524775964293 80.95513114438363 9.131963405823521
4.633940585010583 82.89487438205684 9.381928056213935
4.038184704835383 85.26339600979675 9.560976362797666
1.1213662136866454 93.28306366107999 54.36884515606611
2.907953293780975 94.55327654319642 53.61260027323451
4.555721775118298 80.09396363863624 12.980299672130357
5.17278091700406 82.36971960951549 12.30408724747625
0.27275904083869607 73.93567415324678 2.708900007730098
0.5443861906324777 73.14315445333526 0.6636856397212814
28.23224026930073 19.399078812821767 4.964387793092229
29.5110675652808 91.89590127086242 23.637227222203716
28.699653829005243 92.3422887043619 25.500803992356058
28.65176797216465 89.60820969281748 25.543147934572513
26.325080357842715 88.03674326362399 25.295165029181582
15.781966178136454 74.80027520656321 3.308130332719429
13.53359344308391 75.75796016716485 3.586420726686642
11.64326855844745 73.9067101181398 7.321357704468614
11.477748624898553 95.1958436630339 16.510042954211997
26.025893620737367 81.77488661865348 22.165852624492338
27.493326631302004 81.94548832974803 24.27474241100747
27.016727123818704 82.78253607143458 26.390941069290676
24.91041489487509 82.38279552562145 27.868392188602645
24.164981281555278 66.7193202964108 25.406695412936294
22.625978749226892 65.34935931094434 23.91648655102097
21.886739800957137 62.78991637706525 24.31531320755943
23.14796278994735 75.31554987322278 21.303772944528486
23.04145897516861 73.22188273155778 21.79718905453703
20.928381435317043 71.75597964338257 22.57988501561918
18.510216233328364 72.75783669147376 22.539571043098487
5.99314188855552 78.64229024112969 41.472682270490246
7.965867708561509 78.96363776716005 40.63073362874729
10.111013073764944 80.7009081166399 41.68335027226098
19.867558838228888 52.48501602247987 11.028444262277283
18.238566214393444 53.61753988921676 12.78197061380159
18.051643679032576 53.404667673298384 15.073066946253904
18.8767131474705 51.52399909290345 16.814640016519878
16.166894672028697 73.58257407102268 40.261293913807755
14.157302697608145 71.91317205870118 40.18416548377589
13.937256927613317 69.48086569427798 40.05338841465672
15.82612128537616 68.6710215655013 38.08954129065581
13.798717780631122 67.6013554651509 36.34788326278032
12.637333298286444 67.06011607686858 38.33214841081948
11.271246900827492 64.9765285175997 39.107228534808065
9.595924813087633 64.53523577380223 37.38911996517368
28.30890862406912 55.83895535276088 1.56661276593155
13.423092801134208 95.47354215269596 18.141669781367142
13.664859445673066 94.0024228835125 20.248666346240782
30.28263179262618 76.70768426388034 21.195236171136642
29.681278381274883 79.00865435597177 21.72213621301088
30.87076085989853 81.15569951222686 21.889142661038523
33.0917630555346 81.69847488340666 21.054778740961286
3.2624130935665776 69.59307828623407 41.24485344874893
3.406055921821081 69.34093501577753 38.90565730892006
4.621771472724793 67.36406506565572 37.5403274249201
7.272324657243918 66.59773670898535 37.99713154052779
13.81326732837217 63.13328873650848 19.956745424785048
16.2451147546597 63.21233535778097 20.270715788782113
18.15549754272208 61.28845346589022 20.562629526143983
17.651933181200295 58.784734091141964 20.55910011778076
5.207909120025979 76.76727241951252 39.304038380921064
7.2286738955724 75.47911706797632 38.22586968416307
8.075339464259702 73.38348125172487 38.33102667898547
7.001790220753641 71.30824553115656 38.28581124012829
17.28204844004641 70.34420651227137 21.647113924389743
19.36681893527115 69.70939729227793 21.55821590116201
20.80952264049274 68.3896480564404 22.68773476412091
20.024029492287276 66.20204271131519 23.299613477896212
12.233089790145241 79.16463401870259 43.37372921668825
13.2375159182212 80.94035500091978 42.01593823411805
14.505344696066297 83.21807736798792 42.98526945499169
31.646793360030767 86.44440242255055 24.176325626608296
30.85499615414825 83.96907762861477 24.861065370030207
31.811761788222118 81.78935704387322 24.723432925351606
40.75098300632135 67.03692263088134 5.6340411463370375
39.985156535448205 68.91647273513125 6.9780591396619425
7.652031752636334 79.8404260552961 17.551956503129894
5.494329984534528 79.21661812191333 17.170097249860127
4.309230801860958 75.98120595301019 20.036764420060614
33.93844282537634 52.093673085928394 0.5167943909460387
32.38534133990351 53.667282229363515 2.0353192417389727
32.220610324447016 55.98971814067654 0.48429106526011156
14.151248119453287 74.23578920800963 38.07345912439702
13.234897282499814 72.61298003417996 37.40315947551517
10.635993838311213 72.238119864758 36.28499652914622
9.074752481986351 74.32887929689764 35.59816081569558
15.23554459464239 76.79936985905978 0.4407440271609293
14.580735245214274 77.90463976021546 2.476080268971731
39.369120399238994 74.5339573701573 7.772408988176981
41.088586470195175 73.93421864166314 6.308622574791817
41.47324829953271 72.32018197394548 4.266339799132422
40.02836051579231 70.50730228334793 3.724461289843574
28.27241132285066 82.86370611059849 21.394305514019575
28.44367958979395 84.50412704424699 23.33918918503796
28.469382683487023 87.2375681605154 23.47006251502194
29.49068489224818 88.71897745393673 22.109728567335885
9.14042300936171 88.4708753521709 18.995669857765844
6.699528214324447 89.13100986801356 17.768170669298932
5.682218195751415 88.15669133228381 15.9726550343864
6.176747151439852 86.09460415330831 14.348981927511844
10.713210295564224 95.10698157657788 20.7341100442749
8.976137993294492 92.93817862387868 21.51666501050461
37.99725484457052 59.74562350140568 2.7333109003123144
36.486762403454364 59.74332985490299 1.1937959695369476
5.082968249040394 81.66477643747172 16.424122005068426
25.91777248109098 79.09229691063652 26.834455640384466
24.752605364720402 78.60806737283228 24.319911853846598
23.8627280823638 76.61399097622251 23.50685503099088
21.766421574834308 75.67063753100726 23.941905071600818
15.582313980181768 93.74613325229991 16.514673098636848
18.508747169148478 94.73446658836227 20.599552732014974
8.842849883591565 56.291794400600715 36.27268512464934
8.643196545534808 58.24949903899878 34.66692521901905
6.254002717785187 59.65030515376659 34.3380991318997
39.71147339183015 62.05474587741929 3.055518374169276
40.579654827259205 64.15648836789266 4.149409525346166
24.887232058396716 71.25326959996964 20.44093085923073
25.1164259827704 70.64424644753669 22.310225672067208
25.483995381133163 68.04734930373186 23.458929572415038
24.66892218763146 65.89345896118544 22.42839012900999
41.016106572783464 74.83030063214687 3.5254443246017217
42.954699075053504 70.68380137299702 2.4229690033434044
44.004376006628405 68.59162899268985 2.4229272290072132
42.4479617226852 66.10300399503271 2.315197530118717
39.85254064212631 66.22305954496628 1.786014663354116
36.47580260653589 66.4306005638804 11.26820510837395
37.955035238098446 68.0209462401518 9.5957044147349
38.89464588525053 66.87341072117893 8.151620242900137
8.63769017769757 93.9248611496166 18.82812157840389
8.233456925969644 91.72884936106388 17.392528533310593
31.93484012291101 89.47553181845235 22.78017490569446
25.88460742147248 71.87418638444234 26.855283152430992
25.20957413746346 74.39606980118015 25.92486524195756
26.139582065256747 75.54139010348503 23.759233807597926
25.771492640890365 74.44104619880515 21.99125868519751
1.5083963546162853 71.09441135276428 37.31312121436388
0.5983856038339637 68.75548731519211 36.495108015551
22.33357818117535 66.6198278830686 20.555394693032834
22.526320171422718 64.080335518235 21.442251825333503
21.564011774580234 61.91762007720189 20.6139368601407
20.079963330868303 61.315665984976306 18.7577925227435
17.793783319059397 62.6314675070375 23.711743392574043
19.79931938713232 61.914431966158176 22.610980055615876
21.192516957833142 59.95632120096246 22.46109162776997
13.071731873124964 77.97219001565824 40.98316721791453
12.61702004865458 76.93732956840003 38.95886760061538
9.90041433036993 76.35643751211452 38.62710965143877
8.308902904492465 76.40084287807144 40.38643672675224
21.410203928278598 54.85005419157356 15.795520273376637
19.479643919614002 55.68809745961442 17.125720192619482
19.162508719775232 57.36269821164227 19.034111067211622
20.489901106222327 58.993752456631256 19.80787901125258
5.925524840734996 79.67052774159076 35.94184526474247
5.347120784468698 79.52040193991496 38.44870851029594
11.70790787633057 69.48347438867638 35.46535727008358
9.997255745799455 68.24393945363936 35.998438531896
7.340300361047432 69.35419147533598 35.80647046655608
6.8525146347369725 71.45581427249223 34.2995132086395
1.8839822096705245 63.61246875116544 34.03017390340585
2.968947310267843 65.69309393429432 35.46141395922955
1.7965435013314004 66.7602522511177 37.588287793381255
29.270623998176685 50.917257451955855 1.3336271621685998
41.88306607465898 75.51585900280521 10.245611522277555
41.311485488702914 73.34170053420306 9.440850652167661
40.54224480684702 76.41321676494488 6.174488866496842
42.237838582823386 76.91301258847724 7.75533271360303
42.591807954750735 79.5791308613155 8.73567580172052
45.432224339598555 70.16962934537904 4.506612731884511
43.93074512559571 71.0453823327146 6.192421512717183
43.30151651536409 73.11198322117843 7.269225614973862
44.42998944256495 75.65032420540291 7.024089843496899
15.643776899753918 56.91106287680441 10.197706232470434
16.25594746498475 54.875128239224 11.220041482801765
16.751317132732602 52.24660103434698 10.485270758856586
17.78293246403554 51.35415823224314 8.6235912489655
4.397085862492267 73.38095510725189 32.384774070991945
3.569658782299309 74.69839140570264 33.751482313481205
4.731652166437574 76.50538083385334 35.381097195711234
6.6355313630006645 77.11425315368571 35.81560140043114
14.409102480399534 52.61823028699275 15.923511778043691
15.525973181213836 53.72342015019653 13.983103391753502
15.589398759643622 56.30229542500492 13.404116596698225
14.41413276162042 57.793277559243904 14.08088829148933
17.152905560887387 44.944963845128775 15.232457432662732
17.200867502159703 46.896143424106256 13.895741925832644
17.184249503377092 49.424216030931426 14.383435095955939
16.59095192994615 50.68806475416215 16.637595968044668
17.768901400719013 78.36913055430965 39.75666481171508
15.863233276453162 80.1872927388534 40.64121648152983
13.335510049835074 80.02517342966799 38.95391897093055
13.395437304331226 79.6889394350786 36.59165724280424
14.754092337835306 92.51518181603737 18.349669690033725
13.443241678196157 91.48122573800953 16.76689808696272
10.924016632484541 91.0342914353186 17.64106921115777
10.02640067630999 91.02994396532831 19.59410139683815
16.88110587473676 59.267713074712475 13.88353374541942
18.94289137752558 57.80674555816142 15.016161017031022
20.22789164599308 55.874424534674 13.75082483066225
21.13177388119598 55.95147707710815 11.206976931317948
22.596830134405323 74.12134002029474 26.388830152494897
23.048093662919424 73.18081179844881 24.700425483424695
22.9886759468513 70.56433496777169 24.03413494217363
22.569858020907215 68.71815193922859 24.9753287879757
39.02390975319088 63.60404688319398 6.6847496279297625
37.486218174619005 62.964574386897326 4.349025145915933
35.70469956187634 61.305417895651274 3.885419920435238
16.12776793889972 72.68039257797487 1.4983235412611475
4.780838940329467 90.57024152203856 23.361433579709217
6.199486072424175 91.26020865794264 21.27179070048124
5.044748501441101 90.46142412970094 19.192958236062623
3.7061066221599375 88.71268479597767 18.620695808080548
28.20604020504554 88.95687956540884 30.58824671460207
29.52726535190694 88.6810978898777 28.278632828024964
29.672346081109772 86.75384762238272 26.749332792761248
28.35901773799907 84.92055330334598 26.73712964071151
7.728470413692126 61.56441156465658 30.79964362188975
7.563997728440716 62.207079938779636 32.708574576802924
9.245261883758438 62.6936113219123 34.76350663956274
11.40260721193404 62.074907399510764 34.62230713906655
27.758360871162022 75.45241950444108 17.58319438141022
28.41621466990012 75.86401984264215 19.58120104466646
27.083054773572528 77.08438236081442 21.718499133101574
25.12318951445616 78.83164973083908 21.481380192153367
1.4779017001303625 90.4162322373509 22.115985509164144
1.3785763704207044 90.09578047932374 19.410064284333384
29.162654503788808 58.20902501099716 0.7963571611522887
33.34570821008443 59.75517461268331 0.028953390968954888
34.17175242620693 60.16801986035032 2.1792399739943975
11.629597361024615 82.38218297556706 37.23418493021355
10.592708214987143 82.70583789605236 39.48886614492108
24.598788685226406 58.68405093779932 20.089674725328397
24.802945897732933 61.32421186853063 19.96286112615849
24.2631848018109 62.10094136001274 22.597858849491463
10.410333850260741 77.96801128924118 34.91585142995365
10.907476584853042 78.64580041575356 37.02175144762782
9.250968479451043 80.40463557975671 38.73597920840171
7.271573424937391 81.56714099147642 38.07871786433461
3.6995562082005344 63.40548690643641 30.50208773992141
4.694936277548282 63.296348326306735 32.81483423209915
5.520363497862586 64.792282319517 34.39595860773979
6.799784399889761 67.08924553331514 34.14628211237946
30.702627582889168 80.07758282267359 26.728944075799017
28.67076381351891 78.92856145928404 25.560557253545955
28.586303079965752 76.85341317460896 24.243693832827212
30.12095884814259 75.1894337506796 23.425740198722174
3.0171839431375336 67.52279529055586 33.01674244313261
4.424668683907613 68.04651825271682 34.97759124982712
4.763294311750582 70.27856459829147 36.39826842192249
4.004152108822889 72.29714037509046 36.283917870192276
5.31666101325096 60.38546631201615 31.37555612178308
3.8825003037292944 88.8313051272583 13.955652124432547
2.6281533836549547 89.12244071063306 15.898599489136306
1.3116265682259693 91.02766828699914 16.775591673171835
1.5851261486516608 93.43530161196176 16.549389382240868
37.59101908858807 62.16328840367615 0.2727128412215317
38.42056416322789 63.89079283761508 1.5144928521301368
16.46671957744629 64.20361859400192 9.524508267899435
18.11102164466772 62.84986442428945 8.971923929647525
17.562655283997643 60.22310419579336 9.929641082618446
15.041760934589 59.705535027100666 10.847834477022728
1.3383752227049055 93.43114996723554 19.93979535201287
3.401485530890041 93.11984905764652 18.4766260041546
5.893676380423586 93.34880655241912 19.13625644263412
6.922551830974261 94.73152857261576 21.074836224292653
9.6626186167971 61.62213691995875 37.923399748132184
8.010504227720647 60.89971664453178 36.48821887529888
5.162523818751415 62.04373180301618 36.37079484098298
4.639871973993103 64.09013116795329 38.12143079393599
1.9612134495722855 84.81273680322958 20.675497534206958
2.8799345759252497 85.71775477418349 19.13647958882126
5.063587211710011 84.77603676921946 17.67076627601759
6.743318491386974 82.9102958080203 18.07641741311456
36.37661467319644 66.22850585748773 7.464541931175677
37.34107068476176 65.61400896698088 5.812340740313483
38.549790531939124 67.03191188835781 4.2804056797507
37.79090956597703 68.33299741981793 2.435481489485617
9.895277605741077 67.10388138587147 41.08577292122281
9.9640190722927 68.75349485771717 39.07153544725277
10.21828640866313 71.19124542144586 38.83616153613739
11.651517356188904 72.74867712015258 40.00249364076017
10.811263138867853 91.63780590535532 35.71164395400066
12.80750753074843 92.07299570255583 34.60223450899171
13.760991383141171 93.76929886248365 33.012873678066974
15.362009905547628 94.69480323675167 35.23837885164215
10.269893145957433 89.3605020071776 33.989548325010674
19.16590598357738 94.5380757620842 35.82346396358399
16.71037253847072 92.59957407859584 36.58732406615082
18.755309979146375 95.33969523359276 38.65825416692392
4.622863691202565 87.70351707687854 9.697364228495584
13.252191197696181 24.924588723785178 34.49118942548234
14.79043746173342 27.151356123251706 34.588796588942735
14.735147564628187 28.90208881561012 36.16584762575371
