57.400756524516645 90.34078213470764 27.426614732438463
56.641839995695655 88.19061552337159 12.288076475042166
55.74288428906689 86.05248104614765 13.093529808511335
55.61651493636681 84.9250336641567 15.034557055456544
56.755252848345044 85.52278148922417 17.419073814576898
47.128407791497736 88.19251774528807 13.037213604618694
57.32025324354943 80.88846790126992 6.842492992462654
58.79697104300193 80.21552359853266 8.771665524591931
50.908720908087076 84.71865900416473 12.509889249955423
52.71376158648125 84.27976101901886 13.334265756395908
48.87570591109993 86.2132860297964 11.439699461832305
49.22466926621615 87.67289527680684 10.221869934456857
54.360231553290106 88.83325998918583 10.916721953671086
53.30089222831235 86.76495290531219 11.822946685957822
51.56211758780194 87.07695629820651 13.956787218833664
49.89443726427527 88.38289923210743 14.37268157731861
30.654870553189447 80.41232148734046 40.35593217213352
29.33394500811563 82.11067963767358 40.9104723624316
27.170616843614948 82.52715164486857 41.932079536876074
24.981052466067595 81.152340566525 41.24672696726021
25.345783615954982 56.89167663136074 41.311259320880495
27.429356835338883 58.07525006753729 40.45618799211862
29.49093406354463 59.05566578096457 41.44529366285602
29.92976662559352 59.85133318885267 43.75489960761143
36.32228417692041 54.92180923005737 19.351734394059847
39.957567665692274 48.165540582916044 49.49770388958977
41.600377740970806 47.70980858674745 50.710874708541084
44.1907209951323 47.129878224667586 50.44167580849934
45.406487004466555 46.80127588760894 48.911485341007925
8.440311112952454 33.88734131921013 34.61353716117167
11.239399280739878 34.22604133158031 35.16229682014509
13.111742657298398 33.54105733694894 33.474068626704046
13.419175694700133 33.840523170223086 30.99035776620526
21.959170152937865 25.025814675069036 53.74428003679879
23.540211572244562 23.1314942126558 54.04058726065164
25.91975721663219 22.750581953516196 52.89014426946513
26.049672295419203 23.20010369571541 50.30498846075266
51.678063781685225 47.4185130315531 46.168614858756406
51.18781365257523 49.054841678647506 47.48495047573346
48.61371614110263 49.92907538722351 48.81905563231649
46.627368266524755 49.26430011992603 48.36205130343833
10.067852053038433 6.922034948898911 27.22867979702702
11.764110976478069 5.291594724933988 26.225114749095308
11.742864125008397 3.750636886519839 24.363029150667504
9.254496130800668 3.0019801638777452 22.979297152320203
20.325911089855115 79.795977090245 47.5443265568965
18.801144894728715 80.4052149251537 46.22284992138461
16.41701828399779 81.53733025373054 47.24200717991452
15.795251234421595 81.37646312894793 49.79885446213973
42.616948830973385 75.35101309673009 58.369873912351686
41.07552079057361 73.56607993403674 58.83148271006575
39.29589028192488 73.90515094509165 60.51670737023813
37.36478604589194 74.8435539769792 60.33862972978515
39.24809941001462 42.663171599907145 53.79279721719988
37.09058654444404 43.65602879456154 53.694281753256625
36.44767038595136 45.63876374427838 55.62597485858924
37.062560949895826 46.30171496650596 57.44229826991117
53.854607229283864 70.31260557332253 29.260885739184403
53.051384694298314 68.68598938238748 31.118981300559287
51.05245467408085 68.29611867564597 32.088004543143704
48.62755858201318 68.69691674886774 31.530474959636724
11.76620699979362 84.6914478455932 45.74867233769842
12.926610677830864 82.57426430028399 45.854222279137694
13.67848711770489 83.73297243182611 44.09915479414217
15.860162571056717 85.37013528519269 43.990580238421764
27.515577813558483 55.19642503518242 19.72129870408845
47.852956363493654 70.73520080745281 32.61243093790348
46.87516908644144 69.1785206384993 33.824660332606186
44.42293489486831 68.41610746509606 34.63826871798497
42.18815672812175 69.76168758768726 34.45758784267801
10.932409556213775 1.1034648940131901 22.41016732858382
9.54180519730507 0.3945977763617012 23.854401401417334
14.1157989016343 17.978955663340187 48.05390609683142
12.462637498193635 16.827546818963217 49.81146145220222
9.964730014898773 16.42931449204927 49.57630085847972
9.350590207864553 15.528742275588245 47.68151175988354
24.919419674611344 39.32662692139297 27.464530686709733
26.01968416217171 38.00085551138221 29.149782123465986
28.567375981333328 38.053980421713554 30.114894677163903
30.274053240638935 39.56685785691025 29.83977976567567
1.134103313923943 47.9930596706648 26.698326973269026
0.7952055900556129 46.05970158397719 26.379925477617764
2.200388900531751 43.677646506891875 26.40448936791685
3.83912494895024 43.21306232743768 27.815640850736767
30.079750512092794 63.12382940277261 42.39362921064195
28.997576214125587 61.67407492851322 40.75228829607427
30.604985282777008 60.57383520966044 38.6661807539005
32.496216828590555 61.36639518845678 37.80545989782926
17.057476966518433 9.671309220009627 33.536030351487625
18.69110070974858 11.55238571651521 33.403889535342856
20.603304944045743 10.988149766315308 31.47973089715697
21.163218425910642 8.769558537559352 30.692984099633897
8.923961017175957 18.757681521616764 50.76966095335629
7.883266277506383 16.696584282448164 51.33838033623541
5.945903185693834 15.987360250427036 52.98422118803545
4.584295257946378 17.27413885625151 54.15740170143385
14.375031119561557 80.17882421818753 52.91779543341125
13.201635730509256 79.6506787419531 50.33347708089914
11.122276377961375 80.94117461276085 49.3752309754974
9.10917007883217 81.5677036190077 50.435194283324066
5.8544257027468465 37.63977144792426 57.44584094061602
7.0569915937155585 37.51796926829725 59.47859829702215
9.391157146406043 38.0988685432546 60.255935570964866
11.43348115281341 39.05003307292011 59.17151905794829
1.9036684875417875 31.953578400097044 38.36527897925852
1.1978425111293698 30.056689905353565 39.76999088513392
26.937232568847396 58.23008078044675 21.62882523994138
29.072726594539624 58.74831410342936 19.92175021001117
25.775565396217846 28.625644847805283 9.650896271620413
24.213493682885744 28.2406073816111 11.053106639464435
21.53434709107549 28.328946747663824 11.062288475176095
20.004136090135834 28.646026941791558 9.12947237080706
50.99435721441818 43.22655758117402 31.318500276819528
6.955321400937311 79.47443834538632 49.53051080251543
7.034475926729002 77.51540915032727 47.75699796232389
6.215619662462263 75.54197317331582 47.860756550780785
13.05923487375392 34.13776746213054 41.22376394037833
11.44795965671606 32.97984917721734 39.534333072869444
12.692092866614418 32.15449534379731 37.554615272844806
13.77230500410105 33.02301729213928 36.13389471950493
2.427359136085566 61.74476192926658 25.466173259760495
2.5527757938273385 64.1107053234273 26.664483583548158
0.6019199995180494 64.95354700668666 28.64634581878744
40.63278175456867 83.15906882473055 40.87133115990639
40.525997929901834 85.26091410815657 41.53704633545998
38.51451663780094 86.35884862945986 43.27240210947826
36.44594492870064 85.1440049811766 44.26170540716073
26.058522349929763 17.24529620808374 34.13313217303303
27.25092406918983 16.338193450056 32.16872568476018
56.95123964540766 64.56054730308868 33.02055045198611
54.21588667839045 65.21447268143135 33.242374317830446
52.782476213749575 66.02253150492464 31.49654467390676
53.09671715233742 65.8628894835096 28.923622833843954
2.097240276549875 67.27690221878905 32.82446485764272
2.921129910516164 65.12554085090689 33.6742417362738
39.63278825750284 63.52558247322756 41.636667430571926
39.88055222889603 64.55608607986025 39.0937514759078
42.27910461915158 65.26045837575342 37.99670271606871
44.326320101359514 66.04609691345307 38.678923372272024
21.737761973277703 55.858638284192466 38.41855813261274
19.85469528932119 55.163178963047464 38.97724047887592
18.92098900001756 56.20715693388777 41.430282127018955
20.02083236296653 56.839564395936584 43.315740684517436
33.39023391178129 90.38290050686112 42.62462547042354
34.49195675521304 90.46799821625872 40.47681497898574
11.376683465360946 68.40602621560902 53.25034369807674
12.850062223664628 67.30979097658238 54.93769802555036
14.679605856961913 69.09041196431146 56.11747966417471
15.465258008773416 71.22591541708852 55.39139748673322
18.59272584164626 0.4790980937758713 55.16348894774445
19.456099210577225 0.11427530383411846 53.155452030090636
18.250532924895044 0.32333216710235824 50.2977631516261
16.058765565928205 1.2058659062841794 49.882341884821294
7.961979468558432 15.438386802311149 54.98749100170138
9.339773374980613 16.89279722339695 53.566162830912575
11.598843984510959 16.211341299182155 52.46293954176515
11.0796875576309 14.244281293564823 50.65476127103727
44.77305385344805 48.00508965785387 56.23427163111488
44.4816503224555 47.56771439170587 54.13720817102641
43.599895378980484 45.333110892233435 52.66331116225277
42.51297526408295 43.47235405254538 53.30702478563667
3.9765624165206495 14.842553195892549 60.25742965786834
1.4611591829121775 15.573055534894268 59.32232634718765
9.703040214112628 5.978040334280235 12.886036771284731
33.88661814396977 58.19772233404276 19.728169774885874
10.883509711715524 52.42793586527904 38.8015088989977
12.074428286028017 50.45815676258245 38.69507128096747
14.385477995292648 50.30095764529177 39.08140965974902
16.16749592837132 52.051084029054586 38.485406934912604
43.903326947271275 54.92692601185389 20.534201002673232
42.901837285496484 56.6453718080014 19.49367103515184
40.19773732181723 57.425366653312686 19.21993182572003
38.67691848707191 55.80006771944271 18.34043613288096
12.612722357067563 41.28428062629274 59.974013173042465
14.798401754081222 40.067496472815975 60.63258136951073
17.129620871210918 39.80294763792828 59.831046125318444
18.17751811947615 40.94897579731763 57.44978076800085
31.92790734691717 20.53220225780166 48.52838505895583
34.28041435602983 20.609468502903994 49.57837373224913
36.46835513091596 20.396252819115478 48.74400533995166
37.58124035448254 20.670762091997528 46.51239009507584
25.581346976927854 49.963221244215404 18.580105982192926
23.531269350907266 49.48769605644539 18.368731519521656
21.69830905298583 50.81538790163549 19.31867050261568
21.670485333272804 51.837253036022915 21.432343798446105
38.555707302887065 47.760572042275626 30.851809520839332
35.923164643560185 47.1116593788888 30.651089867698857
35.670351642121084 44.618704140557846 31.631914886449497
37.57435672703909 43.032562365145345 32.3512039242936
54.78240512094559 69.65635407491135 33.59135884205515
52.631077563440215 69.78927887568426 33.626819965438514
50.65765705087719 68.56335916302086 35.292040807813436
51.26580515651866 66.83935035175557 36.76785457490293
43.93931805900804 65.780373559605 33.32945477016071
42.51516228028733 64.15996927590703 33.447190827133255
40.45873665122276 64.57443136344611 35.470557418420604
40.761236095540056 67.00486772932062 36.86986073946397
1.9383775029509798 7.266213265431096 38.62821289406381
20.838093258749158 16.158317340994245 28.91493660856311
19.17300020932905 15.253133384157636 29.681390106293854
17.098318224596092 13.887378087219698 28.033561295904683
17.80449308949525 13.994889481293997 25.450376366439038
16.304767136959583 60.06451599072142 42.3097506449107
18.126574548512217 59.94106431265268 41.46410475243198
20.313455845328544 59.53887557936645 43.321015922238736
20.91750724667779 60.81200099507454 44.650197526563616
0.9910028109357663 55.30733005448595 51.215273641155356
31.046640254827658 29.5985397685334 13.930824668924647
37.93400021440681 66.22206851992715 36.847812181944796
36.18099280112403 64.66112865669628 37.31297025389308
35.611834214184874 64.13483466701722 39.96647727269811
36.238911637647796 65.6646918466017 42.10982901063013
34.02773471019718 68.72855740485579 56.544938273347
33.76905577792373 70.21146385280846 58.444101815835786
31.86009849961753 71.66159003446498 59.02769380460629
29.725278704365397 71.87496061723948 58.37083637974357
20.322157886651187 20.857962082635108 52.328529723239285
19.22524217899682 19.284584000199928 50.48508347608638
16.867775188768032 19.48637750934655 49.22551889964023
14.594563206509017 20.18002491446855 49.9542020191682
50.18465654304499 33.11356504512563 47.7577907086411
37.264322936205936 86.90271439165154 46.60844000584253
35.79483105959019 88.49928772628071 44.81578268014844
33.38587292788716 88.62187793138635 44.706810023177354
31.593124540508075 87.70740727933509 46.13315384588548
23.472911333146513 16.93211192355335 51.9340953136655
20.830276683601262 17.56936123082211 51.94985544167866
18.885824091438657 16.005880797818804 51.688976515995726
18.305812356057437 13.67821695354552 51.37341283272574
27.5367225048644 32.022856359622 31.4315693244899
27.10115101201225 34.156495665747755 32.332502534633186
25.01690281616284 33.86891166049983 34.16691120760298
23.215312513491007 32.547270852501526 34.30695052102976
25.881637446591263 41.59534293900975 35.33750589082108
26.57018785901047 39.64020896711098 34.29302402687337
28.288550676568455 39.241526915906405 32.601802116533605
30.2005458678643 40.90763725010313 32.03920755906174
20.652116877449018 37.19185169056124 56.289684803349516
19.7773330422425 37.65334573338222 58.55115994675715
20.619279456189272 40.33489766696728 58.91214935077961
22.414638192952054 41.249017535741096 58.05572055199881
7.231354686811507 27.954739506099614 11.194820750111461
9.532669756392593 29.010370291843437 11.206321980641581
16.88248916577762 1.7318235502912322 47.18902809355976
18.80146942842005 0.059966925372437245 47.41978566485769
21.090185107691774 0.15038842042064796 47.03427795974498
22.678865256688162 2.4139435600403356 47.06447480035146
46.36366845514256 60.4761246467923 20.74325005570669
43.939170694368 60.16784611735098 20.08356996838142
42.098136214274355 58.61414902043397 21.439195553283668
42.41467074054161 56.81490435843246 22.634910438103617
48.63492554701314 71.49915016233363 35.92677189602418
50.08357338032869 71.47203845156295 33.930458643196715
52.412849750620346 72.86266059134162 33.32676344725866
53.48694287035975 74.68005071874629 34.74140565361522
29.03905403336964 22.3295375047743 54.15554310434392
28.48541254199878 22.623078907679805 52.10578080143089
30.658292547538792 22.159072711788998 50.17282021763441
33.038326479358716 22.57653842276961 50.761877013481275
40.37853399836317 20.417189639943995 52.2084565454304
39.393384783654625 18.312228033975295 52.62600008432965
9.19768987936826 10.639662676300953 33.9230380693345
11.364912893886308 10.486571219274264 32.212812693740574
13.549147899035775 10.01572771389025 32.34206486678726
14.76330088530161 10.763828728176838 34.307659281651524
56.424788908664276 55.148591338029746 51.508873737458906
55.17312258216948 53.74339414786502 49.9528296249758
53.13909622105331 52.27691404219209 49.89410643214487
51.3153541652055 51.856224839037914 51.399724130416466
23.39817566332958 41.10999584656135 53.46930546389164
23.12091452275926 39.64854230260303 54.89186947542141
25.293610864027098 38.80902221632897 56.368038854017584
27.838507003461544 40.252980855399294 55.702508354761505
12.31474692315714 12.915325386568052 30.12365816539854
14.556715034869192 11.64795964474223 30.39790249861694
16.85218615935361 12.475062894022464 31.190557517805445
17.642337412606558 14.32286305679483 32.5089683700504
2.1293926883055354 52.705393288660886 51.77709078729875
2.6534980535604986 53.200983434067716 49.8962824497984
5.086338755658281 53.28126420258594 48.535544098300875
7.245046203497797 53.25745252757808 49.32315270528147
0.6805824053456324 20.678770492700767 13.817165910137545
32.248136093392866 38.11777987386246 29.44775956830078
30.936348422844617 36.96640583160977 31.386485874638534
30.577041947364794 34.26726016782811 31.700985676568546
30.473375993997955 32.444118997145594 30.594609082212024
35.937487395016056 49.47356021882938 57.954704371060956
35.31031155466916 48.07836155787441 55.786309712931235
32.89114938883694 46.78482162640687 55.45794218654799
30.741772410586147 47.0128079520487 56.60598140706199
28.523391876382384 30.552401807058448 36.93626031739095
26.63659074141293 32.1850061507177 38.2086136032858
27.27635323059278 34.6402880277226 36.97911630327548
28.442829342711295 34.823691470795325 34.78180985395767
37.31365993758578 18.503964597997104 50.21246682174766
36.47159722893166 19.568763771058464 52.07051927430921
34.29096008391366 19.626768169696373 53.51607318634202
32.490337522992135 18.20320389685645 53.44867661721259
29.582405129570997 59.90763794511364 36.16131874450496
27.810076864584303 58.985023412665925 36.07141765121661
25.996194516591157 59.127215942502225 38.1425853877275
26.0561922798481 61.14763844131032 39.763491547934095
18.005052140713083 20.441314506931846 16.887694867207152
16.71535029781943 22.128174473043693 18.019016137394978
15.277187101545488 23.87407121600949 17.36337112818346
14.836141906940005 24.196488873682334 14.760335675604793
18.839313708488138 8.616406693903778 28.825212613669144
17.005329929120865 9.091713492829996 30.6204474182426
14.636260157813677 8.269512144191683 31.034801773350686
13.23973354058323 6.855908097596128 29.04070667262477
13.099656370639252 7.5128447538801275 24.098249901504406
14.10587638787598 8.189321759928596 26.07164875060736
16.062380455179632 9.695592694830099 26.811981293020544
17.431882489848377 11.30665757589217 25.397309766144833
25.34787276706716 13.80024044415627 31.64434790753336
23.154554031730967 12.367635310921004 32.0227000450575
22.995378338893865 10.730215953434822 33.35847642639008
41.34096634568694 44.80595838369513 50.73388355641002
39.21378197148204 46.21678823599419 51.17563015652681
36.91476753386566 45.886536258630954 50.35331830482435
35.89652217260725 43.74270139738901 48.84960597039782
37.98878912009142 50.54539350177426 51.04306834006586
37.558122645480964 48.42285461666353 52.04713468870807
35.21729746756824 47.263856293012886 52.85218934742051
32.99942900335068 47.88212894353201 52.71298449188875
44.707168906021735 75.92080849372273 60.68033548423763
42.602423228525176 75.10515775195594 61.333398748023306
41.93722185307168 72.9253022596793 61.28876573124053
20.811416127500635 39.08656330494262 50.60948447603896
21.18842224891309 37.913522168268436 53.36947264177096
19.575447540048494 39.38141589543456 55.24592682414909
17.410972579789945 39.74845910218144 55.14607123866056
38.665975352241155 22.811164217207835 56.628141821103306
37.33561172403715 22.47813281261805 54.76610783517089
35.0428024303998 22.45565878606933 54.04742543062019
33.17730192850195 23.376935620351095 54.740200283351285
31.68268019429237 53.4287326023469 36.6602031092005
30.760357881261758 55.497464871700636 37.73409922567179
28.683373997991872 56.771909702265305 37.94573191471771
26.63005698527343 56.21861364275765 38.22388362846265
9.95534336669578 34.73332572830977 57.9243164971217
10.513020279027744 35.664876523662585 59.72402060019458
8.604764053999421 35.7716477036568 61.45897331773648
6.738842565753337 33.968800457915385 62.04175678064152
45.874334847076334 43.99205301568451 48.15119811865517
47.59283976925703 45.55429428863205 48.074736115039755
50.266742684021 45.4878621497814 47.88930018957898
51.80147215775682 43.78195711528303 48.002656913695326
12.158360105840838 11.082249824204704 8.742169601865541
2.436989218181505 26.473913269560803 41.68205691297808
3.4188666317312113 28.020043862120357 40.00978556306982
5.648091085134559 27.724741261917565 38.6685141905928
7.940180707493891 27.153822797885613 39.56758120632512
18.610144711931426 40.877426341201186 61.95316470516432
54.670066224847595 56.31843759713501 49.07850639077363
56.270061311659255 54.64313799698359 47.61349152959678
57.78068795822565 55.516181329418224 45.60866237858291
59.51269205460927 55.61593503230503 46.778340473582894
39.643637753008555 62.749716119981315 58.52384740256676
40.05153812042408 65.18056832035316 58.38045351614882
38.86923387123898 67.03558791741416 57.346484317773765
35.896302691678606 66.77483591532632 57.14043744674775
30.71240479987184 57.49493243494699 35.78790405074912
33.13352637471578 58.20794493312934 36.57309528920952
35.23359295674541 58.11652018293771 35.562770967305795
36.16471085402048 57.57763753478317 33.24950040161151
37.42337240100473 56.50552799981258 36.21079083062112
38.83297931995118 58.16819645828026 37.20287672875324
39.75501966380407 60.207642797499894 35.82869579379719
40.39570322481096 60.74693294883761 33.82595710329141
17.563202461047283 66.63892138551182 60.458891324967475
16.92249839467339 64.89415566026265 58.735991745111725
15.772096250467948 62.37006457992359 59.08184706249405
17.52803015705007 69.01799789940478 61.643893758806364
20.211467863276017 67.91168097288087 61.05880537218136
22.04206094614831 69.12706876912728 61.3772679316854
3.4413026696889064 27.29956712441288 36.721012609360095
1.497309862973042 28.31591337391898 37.16712491085567
0.19421981572439487 25.642704927217896 40.576443705255706
6.167455776146018 80.61226764592949 45.37743863416072
5.5121200564271815 78.23561086050255 45.5563964596502
3.46950195501303 76.86803419604293 46.37853873426924
45.0657109060385 41.34321731073745 27.635871068872873
0.3866522380988885 23.444073285992197 14.291902036638385
17.112958469981557 29.65611123393982 40.63602062950926
15.50420215757452 30.58761800711572 39.45135339169976
12.850101531895419 29.915487547158424 39.05838723361977
11.524526690869129 27.909177978641846 39.30940934904223
27.6179166329244 26.136291515191196 16.642108332549256
29.196881298905957 27.144997966883974 15.333558101591327
28.57517657664006 28.543121873388323 12.972061230427206
26.70981119355478 29.908195204468583 12.671319327301054
9.694269642793312 24.139764453274605 9.252439785180325
7.610699483282353 25.304040583223482 10.735215551831383
5.06927566097543 25.07571557285204 10.364680168286194
3.674484752317664 23.482492728558803 9.767989685819064
7.522150449727265 76.14305206914398 44.122335797876865
7.976968479334977 78.58371717629424 42.58370457880597
5.897169692135877 80.14010798004503 42.17703128626208
46.64395031086787 43.11915989005214 22.15589506356473
21.622394192036477 59.90278213634706 37.4191196722665
23.36960489973234 59.12248467230386 38.63957221339462
23.52563030868071 59.349066123966814 41.423930500904454
22.70090376531638 60.62908618923662 42.70144267217983
0.591742002247369 28.05995711122426 14.616199113373309
1.5044029149313982 27.95002966161427 12.335924448256462
5.627875607247314 30.227238657167142 12.381598800816686
27.39407307548259 29.33767194121002 31.28360764632046
27.157442501065667 30.159623052768957 33.29049066890613
29.479727497455467 30.285012505441095 34.14120346249506
31.15506496939535 28.468231624892972 34.50496479032344
39.28827038721976 66.22796551048233 60.849976010475174
39.84814929533791 68.13921019838403 61.46329345136595
41.7262436256851 69.43181865130126 60.3766625982804
44.00014247193847 67.87676880404986 59.45290029249688
20.68127022230679 29.76464919652121 38.51246156732683
21.882839413614157 31.90000214267732 37.776009742888505
24.532907402979447 32.07968231445601 36.68903458364168
25.898684336757782 30.116644381678668 35.935975971710846
14.33992871454163 9.673306777935622 48.275515934676605
13.893010085444562 11.9311956848761 48.6880588835087
11.573255354067982 13.71471079466464 47.86410812801751
10.07466949518076 13.201055466376836 46.30503444400833
35.25194297747979 23.658784316873895 51.72702105253825
37.066475243701575 22.363003208720016 50.610975806394094
39.40652493275094 22.666699150109757 50.463131320274265
40.96033552011984 24.89595366581925 50.75363912727225
21.160842167901194 17.98681735647143 48.49796876572416
22.147239227142006 19.010590223157656 50.24130609570918
24.155836039154675 21.239177721277635 50.32261360753447
22.434424902583913 22.543360686008754 50.680929637044756
60.14311807920738 71.67767975343756 22.7090630099228
60.11559213020151 69.2375161248474 23.887287441805853
33.809456722883375 43.8357691670032 56.34734581641051
31.585474214182128 44.34942838034993 57.67594526093342
29.286963955100212 44.36631745192201 56.364366290358696
28.70790365502858 42.59778426922622 54.33241984872346
59.85925341450077 70.58425738134999 27.454436926117143
58.30640269946119 69.0484573262828 28.729620139430885
56.31667829011303 69.34694956954823 30.503889415030077
55.22097923854356 71.21411815174616 31.0907253565034
38.941947140420275 44.56758117292127 36.33532212793169
39.43629152526035 44.59766388096036 34.12318508892778
41.49814434137377 43.49303193122637 32.67062130023471
43.177618978179694 42.08865311885925 33.09461043159303
19.673850960957047 10.496439873895383 26.894440985459884
20.053014684442143 11.927969178166121 28.85876759823499
21.79260879640969 13.673026388629845 29.676693788819815
23.97375527906847 13.76625294902878 29.2937507686586
57.54669320099497 70.1336129206908 23.810548647054233
58.02750289165668 69.19065105493245 26.028897069806547
56.18352574132047 68.14046858794542 27.708405316897935
53.619635405807074 68.29282827709643 27.650736517190325
57.50399750697594 50.55595882154448 44.39687805419868
58.752714981491735 52.313984895874825 45.845598531124
0.9410475825744423 29.459373209455226 45.19185378217459
2.002521879013188 29.087308510188212 43.0369137095418
4.3581132598808585 30.15292082284131 42.032530845753556
5.228905199438429 32.67228177729657 42.30799845843776
20.032202057610064 56.17830571377816 36.110543529064
20.150115310801436 57.336854801914 34.413523136321224
22.615156057917932 58.6766909473625 34.559894049029985
24.494535935155497 57.96804591324302 35.979406897091316
16.16505910711363 52.5441432747669 45.17725848147955
15.752437905611588 53.97152886711511 42.93849689479282
16.918653385719328 53.94053493013864 40.81020538513822
18.741896492155277 52.448955648679856 39.564113351024154
0.45042974234987415 1.424306323278634 5.88762355644568
2.3657007144681725 0.2146651878468354 6.575661569896324
44.49090153955446 68.83231200348055 38.9874162905554
41.99963934959617 68.71525484238828 39.508942102970074
40.82169481653252 70.4263183291925 37.779700691640464
42.10822700127523 72.05056193134486 36.283715745945976
23.137648980013356 13.203737368068223 34.747803076086534
24.367470886326366 15.401637058910856 33.821970652433464
22.531430672569485 16.458514352423833 32.18384013877009
20.45587378947001 16.571081247147085 32.066185361437746
43.182351521395674 50.135747156568165 53.91801657817297
41.793689532421354 48.688632564913256 53.268553767563944
39.32188245704484 47.637948154547566 54.00666344027361
37.775374101111815 48.57293802896359 55.769185467799645
9.913173529797415 39.65372211351218 21.323850676912997
10.603015686575382 41.84146909176945 21.1217172033433
13.18550775349694 42.74339484487725 20.332678173631873
13.654343269974127 42.04019264883377 18.28265270651887
15.648870966208882 33.569253204116656 42.7063315381676
15.794125352177332 33.60118541976864 40.46367062366385
17.31161112634702 33.64608222166981 38.593588383620556
19.388674740745845 32.908217921628506 38.38629056923154
31.62566667490708 42.95094015537434 33.776889403962734
33.46020972018805 41.57915684365401 33.01431646889169
36.10673698503018 41.06481112608178 34.21553445509095
36.93846283262097 41.81874528462672 35.90571276032823
18.793082185175116 46.672466954892194 20.39017699396102
20.423417806854307 47.9798854554268 19.599251054804753
21.88752196540447 47.705799580540464 17.475264791910813
22.299172848758165 45.55011745627266 16.31334203340838
1.1530489481950639 29.9146592016225 35.17074939228198
3.3942362742120458 30.113712472489354 36.799782834692046
5.515453475263957 30.771129114905122 36.397996984949
6.927996197720308 31.63265437635327 34.71137088361222
0.5788395214573036 6.917623171269321 35.32858929721192
1.4454075271993467 9.367389152673493 34.74976384963627
1.8722551612475953 10.416576069108888 32.92800910455883
38.09817872037638 64.57322543983622 34.503365368545396
38.377005451222736 62.359713042086916 35.03092426408304
36.26910025022447 61.15390711360337 36.15301784446087
33.99437752255965 61.17182247335448 35.6122336358082
18.35610432521793 30.698207069730174 14.016614764293225
19.04134867946982 29.149214157081094 15.685128414438344
21.875834337213227 28.368094129616505 15.061909763916354
23.24636158374037 29.000522920451562 13.511350587929314
19.098261759783103 59.019980045765664 36.139339165548776
19.292357799329526 59.099598621962315 38.32263500617195
17.513231807018 57.830405975256205 40.137680925130475
15.202682833921637 56.445566998027516 39.23205241756623
54.678652602059834 50.092537887373034 51.495900959374026
52.56621672232579 49.55909774235817 50.42755081512593
51.30116508801324 47.401072960857164 49.91612018859662
51.916265050608565 44.67843315121978 50.537714193922604
49.01024308690716 52.80306712215837 52.906173952487634
48.59848736466596 50.83350815212257 51.855035121175916
46.23954717180836 49.46134996579042 50.8980126429861
44.23273273027353 49.7329741983492 51.41538454915355
5.144634918766772 0.9078275558769843 9.555928947142018
5.040865579830721 41.8654675618583 20.727879475417957
5.6710788233848675 39.67884860407231 19.542560385757074
8.266579980569098 39.921076067286386 18.857533780198203
9.613427262142597 41.65664081721332 18.639058282740844
35.89300552051921 37.03011752189286 36.42884702329267
36.54607433525326 38.506225850157975 35.10505819657858
38.90775514154641 39.93379328097436 34.56295688456768
40.9600219218405 39.81306229528775 35.69415012508635
18.056558083756023 36.448584221319216 56.381697658828905
16.518265861979188 38.099878239615315 57.080146975343446
14.098054479104029 37.942721429333844 58.360410132156176
13.256567517504587 36.61499039961018 59.76824467620047
33.750070232606745 88.23512800769925 39.27489279592927
32.11095454545818 86.75732144015878 40.60243008646892
30.83894961242055 84.77830795750036 40.010868151560146
30.816258822139872 82.93236741343684 38.68450109830589
4.569123775815552 56.26181969357181 44.89083653505354
6.061445543551479 55.73949971045676 46.597199746484456
8.460397510635817 54.73394553811746 45.83674204765514
9.189333110827889 54.78126163772435 43.36748490675058
10.689921105172564 31.12559577118975 12.48206461809415
12.38170655046416 30.47094186899119 11.074806817714894
14.784264802998026 30.00605466594618 12.46240931223852
15.762653364109656 31.995556411781664 13.169398100831076
20.067612468475566 22.59287588240583 18.08021088596559
19.698866819707547 22.60586354024428 16.05333442715148
20.80649811724168 23.88128748468666 14.161628531483291
22.42519529508157 25.492390753050305 14.266044264297383
28.23274229884728 87.68868147241012 38.20079658078464
27.757126179536993 86.44246679532749 39.86714739521004
26.31417827378288 84.11034459492424 40.07003672407357
25.963014705177972 82.14276251609809 38.239051202490735
22.178504013193677 88.63324967479446 60.7658848584112
2.126527868448128 69.65006152811614 49.69815266298152
1.4652222266846417 72.18841906161647 50.422039568312734
45.122022809235226 37.88252937816196 28.5165551760357
3.210943892835784 75.08644046683041 48.18023558444195
23.842086839615476 39.82380986476029 30.570543807605066
25.30639707116405 39.02257387440674 31.85864361638872
24.487301514234154 36.16530966707 32.75362994622651
22.544542712533 35.15411596282143 31.532966753593847
16.009783440491532 61.14085280888587 46.40764945590895
14.850875330985055 59.13243477429067 45.672774005727575
12.366326466402304 58.50506322045517 45.74657404638661
10.555356584339384 59.920379297713176 45.95311392262296
39.91736502646387 20.128172723602546 57.13231767649933
38.98823683494258 19.959104834239213 55.090078650369435
36.29049709323733 19.131823524610553 55.24455246863425
35.3809789886188 17.55908225249116 56.101061150929674
24.90981757151437 77.0542331928122 45.88817047028622
25.248921087196326 78.31242666167695 43.788686171984914
23.57316323604339 80.54886575122805 44.00585518347002
22.057298036266506 81.05443095590314 45.803085186750856
9.87853547238169 76.57269103572636 47.20318793748719
10.533230096012957 78.82722802054089 47.8182244776046
12.789871715750785 80.3862519990675 47.14656738676704
14.485171676951612 79.8838053586625 46.15762015319036
3.1715563001829516 15.548383333788907 31.955986192446346
3.058443908284953 13.50370256864157 32.24792752160082
5.14228823125589 11.40984038780324 32.170213277380185
7.565527872547502 11.747302325572244 31.915047425152338
9.097820126827187 50.49339958895145 40.43082670316485
8.40152838511 50.62878167016585 42.85305702245174
10.238180744608835 51.721053919444486 44.23691501723826
12.609889776295244 52.24292118805064 43.06668055613471
19.544339514601305 25.492573997183047 18.49218552573572
18.08599510357987 25.426948609816193 16.60409768412982
15.962218758106252 26.204878447823972 15.851639133531704
14.519560549625858 27.853394638099676 16.475266444348637
6.83173598005943 24.465761816497693 15.055684007837739
5.406485222980527 25.607967804518307 13.658524891029332
3.138918569224449 25.198032190695912 12.48044721772643
1.9816604980506576 23.141055921559676 12.287499937247203
4.113366879001477 17.74678824756903 60.61178036811634
2.722784532720527 18.137616307253495 58.73444508997383
0.6809479061016313 19.967587289679006 58.34489527420905
28.292710793283284 69.93802131299117 60.90345150751357
25.841310769363076 71.03308291721784 60.66291755754344
23.992459648194504 70.6911469688972 61.640845576377636
12.852166490339252 32.53414234441912 43.28798968239318
11.989021596019962 31.221725943966803 41.47804389008242
9.820969793872624 30.06971269196385 40.606864304545226
7.626262647369959 29.675929058445412 41.54197380165298
41.00921502090873 29.349832783616836 47.84374433276466
42.1823684132713 27.64928293240802 49.218242036152816
44.61882064899602 26.346200418232247 48.4371552116855
19.596076305182017 30.700314845597376 11.395214740413618
17.329675104355598 29.730635277779175 11.017080792112388
31.25398422920262 17.714264590177446 48.74716151757452
30.553760873943627 18.976796481281344 51.13517128623878
28.19401910850436 19.95412377508313 51.64103837400694
26.958630426358976 17.451093625064175 52.430541010420086
31.12492303118617 75.25727386757879 55.3331293514588
31.450342411723142 74.8616509964329 57.50174865391608
33.61586903865955 73.76417597798216 58.80431956710845
35.9707627417709 73.76521839203748 58.047954478770485
29.16148923461071 36.424510932620464 37.93231555694501
29.155752930704608 37.46832328175573 35.52881661749868
31.142546144774464 38.7602664839116 34.162194175667395
33.634026044464626 38.84361194354604 34.75808478352139
25.546399759982034 74.84931749218492 27.263017210177722
7.22586537506911 27.392180260233705 15.074715714242142
9.210778686484268 27.981117789327293 14.154110872707205
11.147808286613662 29.3678928650714 14.98038051548391
11.96964027323331 29.92796612859926 17.510772355586123
7.61830691595846 14.479527792852554 58.27514113496381
5.312059088878395 15.333551573513233 58.10591712200624
4.921256896055137 17.86028700062892 56.69724809603428
6.68717610722985 19.08802840637333 55.70604372835377
27.460393475022315 18.93896551886739 27.874499306059263
27.15396307269657 17.363683008537404 29.604963787658214
24.62863749430763 16.613144738212775 30.30172544746431
22.56966959876394 17.844235317429263 29.900241959713476
2.470348422744119 54.77630205665345 41.305325742897544
4.518055865779166 54.612116037739405 43.044353475800015
6.746252391984673 53.2530069057769 42.75653606314226
7.961621518477044 53.01989918882565 41.11168215623118
13.918643677053405 47.45617605990213 19.292959994190632
12.226035092135842 48.66648205602395 20.92422352157887
4.49460468831354 15.616391268532668 50.290921728010964
6.64053515228655 14.462968564170197 50.098137460930296
7.937298362695936 13.315865589724584 48.21094580244469
7.0410947564651645 12.698170340851064 45.760777891275744
5.20237259020286 68.92985538768833 27.275334238014135
5.310965463703789 37.672997067557475 61.9434702051593
7.2007578839690005 38.964649335245504 61.99025778170613
45.885730328131665 25.83995080314981 52.30766071106774
53.57142819082463 54.61797477524419 44.56781550486787
55.79328797285295 53.4931029704007 45.12491316335
55.919251151954285 51.07324694242458 46.521007503875744
54.233842213648444 49.533142955691126 47.22123518249045
10.57749154208221 56.40083842603751 47.62954227229222
12.832923779683348 56.44765138082322 47.829597107871614
13.988679210405678 54.67436662990679 46.00784390487541
13.477847022438906 52.75408903262399 45.7373944678245
11.354565302161783 65.70666389503616 61.43663225039366
13.543208285321239 66.81204231955017 60.322967253427315
14.73847119644472 66.35860950514159 58.13136945779788
14.42506542935077 65.30149352229492 56.2047585695817
52.48121915260662 55.68519903265474 47.61190156098865
52.14761452924231 53.3712483005587 47.41104938722928
50.538770178176335 51.87801945003915 48.97384445509643
47.83846925861637 52.520592127266205 48.96690889701509
14.73892523346829 27.997358462770887 10.267329491993971
17.33964706609325 27.7605479413901 9.087619161806616
25.592654119012682 90.92068786711884 61.760723206544185
41.61792386035714 37.74707844001753 26.33986996044918
42.960650437273905 38.96415449060036 27.491697620278973
41.78156591329643 40.01463418576381 29.47623428050966
39.6121330903017 41.375895685932434 29.34414827254907
17.442965158343487 47.39385729826996 22.63886522542226
14.790768114686234 47.08524075517438 22.925584163121677
13.970684769339591 44.272952162903614 22.669769459593493
14.699875429326644 42.49746896634268 23.01881141810068
14.9684814408128 35.43742690406247 34.49692045882137
16.645273320973814 33.6973090626363 35.579122663741884
19.15058116068728 33.44470911102281 35.541261593345105
21.01696401367755 34.81877322834574 34.06204083418222
33.94970927639929 48.47140194091078 61.82306687910182
30.52342898516433 45.90926704795768 61.54598388242954
29.049429230771757 46.883205216897906 59.965889848240494
19.099657323292465 50.54573931833534 23.140628953659032
18.33906487213728 51.10218511095283 20.77374970631215
16.070173355388842 50.09532169413853 20.42117065112441
14.177222458753967 49.52428170311668 22.2090638699987
35.08700512601773 43.593787738921016 51.84287315148389
33.282824199685734 44.46731730725308 52.91450321839432
31.7161884949294 45.947185918846984 50.92708678928373
31.898950567183554 46.041221083935206 48.70331653989867
17.326555081526543 46.96437232190733 17.089232880783555
16.40640724573346 45.512102009405005 19.42118155615749
15.92034871184369 43.3128937468772 19.695589181149295
3.129727435779007 56.36528885633224 50.17722069381435
3.993650749612042 55.896798583881264 48.54238018383386
2.7887419304951737 54.923276890302866 46.48579698531249
0.9232738787673535 55.72845476060701 45.07397425926082
2.544481110171915 9.701691711435512 39.10105026899306
2.171924592549177 10.453616662081448 36.94870515609974
3.93729137788289 10.725207880641234 34.6096755929261
6.114914529392481 10.224148878057791 34.64941651029491
33.87981811349811 19.052780456983673 58.391166539187736
33.7627267044727 20.10752977863425 56.68719349209433
31.833563594808673 20.76944781910164 54.88723300270824
29.350565640257212 19.796715393339085 54.90532353400353
22.814200957541335 23.833148686051388 10.530138171453494
23.397736077269897 25.569521181120102 11.747783232787397
25.24152443217049 26.11585468662793 13.620180476940776
27.249180929862526 24.810565188187073 13.992148638217726
41.876930859110466 62.09254621876497 32.008982826645614
41.7134097515589 62.87564060551838 29.670499466133354
43.25009387788995 63.04664579829563 27.743259676156498
45.45712469779395 63.55487425350368 27.479509825958164
4.1310408391164195 32.805426922303894 39.80396772333741
6.091843118785892 31.23444723749219 39.245104595096336
8.301832104471115 31.526574499956276 38.39953124457437
9.445567148922795 33.26237450945578 37.31972389923953
34.65279628743695 85.33568157418014 42.474525881530056
32.61788529709929 86.35099908560896 43.252969065700725
30.334890439396695 85.51130662936048 44.13870351821227
29.361264116503882 83.12299600665342 44.11784062313931
42.838192285940146 37.78537071062673 34.92325702731606
43.12928126341467 39.46175286205706 32.88682768658232
45.016221799318046 40.381227408328414 31.47156050188105
46.80741795682925 39.14968692213594 30.447554203208014
28.7330428266131 48.81475461972315 57.12311491268651
28.828030547584365 48.240742197563016 54.106329249900725
27.697673973457814 45.77058640040703 54.401686662366664
25.899027423789857 45.0791680390069 55.848078509250804
19.083907031126685 25.740029464372043 9.339371074670398
20.605943331585163 25.72037806306789 11.037852036919695
19.510117729851693 26.474176789808332 13.481610485220891
17.05344842624178 27.275909367233012 13.607077538660487
1.8970329787393274 42.17830808794639 22.498028112100084
1.2744638797653127 44.03781356451794 23.8253910458672
58.73062745169475 53.306124102369694 48.256171165790164
56.95762218141287 51.84161914150909 48.95409708331105
56.85317201597629 49.73490346382364 49.99997309426862
22.496754612704112 2.949474075272226 55.286094305147515
20.69751138067991 2.499994430890292 53.6705494192161
20.881700751107246 2.073772890093734 50.97619358201836
22.997891859381173 1.2053652609950376 49.62997772958657
41.472248514312014 22.928738413229624 48.288456539748225
39.33294777392063 23.113557146972017 47.4555506073316
14.297974686944974 85.35932844173925 41.33346495352393
15.022092149444518 83.1305866974338 41.801510310096965
17.308207581232036 82.00133257773955 40.969441442408176
19.236246571845502 82.92661080857262 39.40756831592214
7.535022866919068 28.29370712852057 36.97728884664234
8.061044822805927 29.79393007588399 36.287650331727306
10.052100808163932 31.325763784738133 35.56687935565395
12.209198978192275 31.25453388449907 34.87318919284439
8.103053155329201 10.997397713952836 29.182901609518844
9.79341497288484 9.291488995644745 28.914610081621337
12.382770206524643 9.269851848418954 27.77206084748246
13.820474315832223 11.411694948095716 27.77569463597289
16.261168080491515 67.07777429689722 55.61201953179883
17.920318551105265 68.98101535253787 55.54730915819989
19.8195512405585 69.50720751750532 57.31721178483613
21.24350347943953 67.79896236379412 58.57773179144177
31.55133087007222 90.03676835113393 40.33354315619036
29.881336059080425 88.43611881543372 40.357582241378275
29.17002826544776 87.63174614437607 42.85514164247731
29.434283963107326 88.87445210180157 44.832721979668754
2.692496768065295 11.64827902059412 30.339180104172545
3.409822964286591 9.589361813053664 30.68208607311674
5.059255280943731 8.116580451094714 29.308320907111902
6.855074029653666 9.26288060419318 27.608833664829437
59.26790690237223 66.7977608043993 25.74205661973048
57.13975677822866 65.89661262349728 27.120013919663855
50.039623356925176 69.88318852656317 37.7138170518358
48.1873355215885 70.32662442810332 38.54038595339013
46.45456184916387 69.05435532629845 37.18193176646154
46.09137324105447 66.7308575840001 36.668305696389595
36.68206927269361 66.40821187012625 60.28337404586725
37.75663725513574 68.40183539870432 59.544923577740164
36.9737265104667 70.80036033392477 59.53781577437051
35.07166940306002 71.75189276521844 60.343307209749604
8.473068496160606 51.66467036738668 47.45684952628725
6.84620770684706 52.684254516999616 46.086289748946385
5.264285227427094 51.807964834199474 44.54006536227161
5.6939980605051215 50.24886461481134 43.134785641940454
42.09934445021056 36.37052054651626 28.845178870146253
42.00503617473029 37.68618554552908 31.12746778405432
40.81897269888082 37.467754041966685 33.09599641905925
38.39535323760059 35.90773683268157 33.40183937719002
48.67992946328465 58.784238699482515 19.35338759900886
46.9376996881209 57.7627471149895 18.936025546120582
47.61399711980387 55.87273735168042 16.93072978008255
48.697846725176866 54.049323849403386 17.136699347484385
1.9484749245722832 49.231249779789685 48.9532636171995
28.833042585308963 56.52643151382985 23.188439566271786
29.78517646404957 56.21608268438097 20.722141560181406
31.798298452697622 55.34295850789278 19.968073795536466
34.14948529057062 55.2554713561762 20.841031151727467
22.668439251348858 80.12539543820269 40.144434253352685
21.924855112357186 80.77706286288236 42.06940644928964
19.39303502647492 80.5062435105908 43.148298630994994
17.889313981477606 79.66205056987471 42.820271252821136
20.748038012005853 42.34607012969268 60.90035639567641
23.42396316881842 42.264815972703076 60.616321487457924
24.59566647132481 44.12666415195289 59.31300614430646
25.838165808032397 45.499463660713815 60.55193002834553
15.551952017234932 12.556331508926439 46.63835756014832
16.632525466202168 13.727917671006189 48.99355898653768
16.96103207126082 15.54076851010534 49.62443372509085
18.259855265386467 17.30597540227415 49.04626491381246
9.706780033564488 54.953119576780374 39.77194680069006
11.352750157226959 54.328680685764716 41.952132996542346
13.399172344093094 55.49457318006203 42.88220661723366
14.169793312536028 58.1399486347324 42.504839138498305
19.100056608320855 72.94249828975482 26.95000930879826
19.46043379044129 36.49030364638607 61.664919892013586
17.930591244915156 37.231796730417344 60.761393537571585
8.038988994707788 45.58468270317602 22.61962020162364
9.922038844374578 46.51826123564171 22.806607051196867
12.240028615616463 45.967838708898825 21.122436153540693
12.349845210436502 45.05233283949556 18.858057207359742
42.83443530560554 26.741077730636643 55.771334708188014
43.35292195273013 25.82613434278349 53.62388196005014
42.46983641347978 23.488964390422904 52.82265119339408
41.42738236014038 21.97111808853323 54.04945372302089
29.841891139125504 77.91582934081072 56.01524014703661
27.74199791289874 78.33175770610383 57.797328775646335
26.159327537859827 76.45357583736316 58.58110234146438
25.18885362890592 74.68552649021309 57.262586424445956
37.31311193030668 58.14086365421829 41.36524006206803
36.342289412401136 59.8650492466447 40.79334951175806
37.075584263843204 61.85228039989877 38.907437472621986
38.74585906762173 62.36748942182937 37.954900354233715
9.131067881370985 19.560084534453555 54.019276467606154
10.850261304818535 20.00320034799397 52.03262951348814
13.335999486745452 19.067067990475607 51.84909719571039
14.819009699120173 18.699168611427663 53.261486686796985
5.837218272490513 40.461810163136526 60.35733195480663
4.057979915227007 38.74321490127469 59.52606947818769
1.4987490891885318 39.034766133432775 59.38370542737947
26.720179214901062 88.0608599454665 44.59943748432482
26.37932896686468 86.17430794890267 43.53309314702829
25.865524722790553 83.66432296114588 44.171666490453504
27.35599721356878 82.59306702816262 46.34701555420221
31.66758614988953 62.51046131931933 44.88053811913419
32.13545930140967 61.311607504651924 42.66351703869427
33.65958927919232 59.53963079368048 41.97918357467309
35.27712785485991 57.9629732724282 43.50028314929224
18.395960643916553 49.348490106886 17.789788266512215
18.029072240936554 60.06071380706593 47.78142480549911
16.291571570916705 59.09586700445748 49.466871167334595
15.05135579947895 56.720909245599955 49.407928159881195
15.474487421804707 54.9395123066235 48.336604716948116
19.394384244643067 72.74406752416743 60.464849140820576
21.27599461820086 71.39894345446615 59.73384900210644
23.87719326820377 72.14709117994897 59.32796581258157
25.265428021719295 73.82274269706576 59.864225709912795
21.444492368648177 85.43241438676051 39.54764668922893
23.8225339608108 85.31203097267074 39.810517054424444
25.524618087360817 86.98798086336035 41.24449432478754
25.237257292400717 89.049890501057 42.433401297693514
2.554009583236859 67.63494864589512 28.168038881378227
3.4521704116069456 67.07173560323588 30.247494495012806
16.47502579063283 16.814011620394353 53.746969376601534
15.426888366478568 16.410460216639475 51.702309160048685
14.481197528744019 14.642371466502746 50.59774205906613
13.224977623464818 12.49695211117627 51.336402945935184
21.57168959849473 19.155842377648323 53.77035499411806
23.81081479228029 19.63538412401655 52.43031555360789
26.14100137427982 20.020592963590694 53.36184124465456
26.96832790464993 20.755526245933723 55.866344180499055
41.82364689779494 45.43540786592272 27.723914767901938
