0.5622975480571738 76.49109786945156 20.727927322485215
26.215957118342683 69.2017984043538 19.768086100453154
25.213540838068884 71.2484011095865 18.867661512956644
27.00786055398636 72.51494566983918 17.36539786856815
28.718682032029587 71.58015604626829 16.137715757582345
30.253553867016 73.97373465491326 8.113091297933757
32.500213003691286 72.49943439067188 9.63256560605078
33.49415524772579 70.99439348083453 7.740972428243781
34.03449828471497 71.65889312955838 5.391467260659793
12.851187493880666 89.66675111642424 1.1853299901443106
11.197496173343602 89.47885861269164 3.2319510358823926
11.091472978556851 90.31211974880196 5.436684059585686
10.965377212120647 92.27898501874493 5.560150120068433
29.05183303546129 77.89176992881734 42.869522196550456
29.038182461157785 75.69710438244276 43.40797334850409
29.119437473934568 73.5791501048755 41.27094581586272
26.69619140030027 73.36236990227611 41.19505410292942
48.52019522814638 49.1058194572928 39.65118946790434
49.63106345136368 48.42893507860803 41.83313781623575
52.13092622825525 47.68376957412122 41.41616719026986
53.04037843343341 46.68243648674165 39.165463900227586
7.7584535340375025 83.35887270255107 28.52330115390769
9.605634211162428 85.15094663624666 28.149200669944882
10.272456794379695 86.33117705889646 25.82706316260371
9.716664363855008 85.87123905186363 23.525203346708526
2.854143264450013 37.38437485343787 42.68449002224628
2.4942155283661434 40.244033675920264 42.22594732519683
0.5532982492267193 41.41022031728929 41.48645361353253
17.421613422854847 49.89258816799997 21.369141519708712
18.918609663576216 51.361147988131044 20.57150949476976
21.355045706362453 51.271757904260646 19.026609380688726
22.57526094278339 49.35432031061244 18.558052155464328
1.542511796548576 44.29462881938129 38.54788325229605
2.389184999807217 42.71940267279855 39.96907596552087
3.489858463286606 42.70640528420918 42.56479998850498
2.832075317714737 44.30261180746014 44.24409948160637
21.718080828090052 14.987307631398625 48.68504833618221
23.273085472575648 16.29083828496952 49.66701261112064
22.98573207706691 17.98931019665602 51.75520702211738
21.452273636027353 19.340354998096124 52.61752386185962
24.15128905707444 63.985469571202245 4.75376939749966
25.953789696189318 65.96542535177358 3.9951497213474187
28.112889459801885 66.33257162913738 4.572929719038191
29.800873133915513 65.08570254810083 6.281577784044084
50.03263230511573 35.198203058513585 2.945095557875801
51.3676898857535 33.606688184572 1.582644193774423
27.829089036871316 38.72390810081308 10.806638412790143
27.185880186402017 37.222048858390835 9.357458203864569
28.05913792030923 35.532834127004676 7.3968307325076585
30.514982592853062 35.67528620828589 6.484798013162074
43.68119086644345 52.91070695546486 50.20612386102731
42.730323013492814 54.73381245929019 51.98080428000396
24.33638243672944 64.83347851405458 1.7052409500966739
26.71914206688457 64.67972271406931 1.4823757254569372
27.961152114901015 62.252352548840456 1.2052613490221284
26.872860856880145 60.082205418954736 0.6557780471570787
45.617467257051786 50.32861592250391 22.834679158361315
43.68717436721276 51.0806270825097 22.40859620094242
42.123812908051846 53.01718349451726 23.727122331847045
42.35020319198144 53.81699330390417 25.752974891503655
39.506848679812414 19.81305704517627 21.74558845425056
39.71147679715075 20.625862668916213 19.017128551825557
40.37640650776049 19.43239392449594 17.05909667616229
35.58422468328541 61.77381712297349 2.719319958273288
33.61077695201093 61.127425220760884 1.3704217884078562
31.094895587586386 62.222507923361256 1.9623424398720202
31.07004265297935 63.773081957114634 4.185369055312161
30.29521741222068 35.34207556093109 0.8607071787470012
30.642685680264787 33.00577693268981 1.2964728501643794
32.314308633607546 31.357156182023395 0.19034100989250785
4.207072569552806 42.42520236193466 51.69224239804428
3.2097570418976598 43.805888604454594 50.05310848325098
1.9283862783880779 43.01672632017161 47.65995370135104
1.9630917293800745 40.810298910994035 46.43914169173035
32.7767972459361 26.304338983124072 0.5986611576787789
32.13408545320838 28.78072547437847 1.5768675730910995
30.50467090830298 29.402128629803368 3.583964860326404
29.610784627963657 28.203484112972617 5.2961772617484035
26.750520051826193 46.693689163493374 45.76805425706898
24.897941432109196 46.569803218001546 47.71603758488955
24.524621871276718 47.97922876266948 49.7727375236889
25.10750633102217 50.424213167411146 50.1764341912446
0.868504203031098 71.99372347537938 41.25236934761249
1.2393661859608256 71.58958805422512 43.48255860868442
0.6626140597687922 72.94321683382972 45.78065451478137
0.8155669130340476 75.6348043586509 45.62908069460471
29.967805768176387 94.5387712551152 41.48418857079863
15.79472363707677 22.28323176575753 56.83172180504393
20.582514880622544 21.650769225792995 55.02993319397722
34.82210927855695 65.01451431379749 29.770228433020872
33.698583319029254 63.00212758078344 29.909135029735616
32.03359155987644 62.78149198027563 32.26286041733315
31.44561998524784 64.6329319171114 33.74259217227267
22.157489392228577 20.978718810536858 43.74592614936029
21.71675740735016 19.311505929676738 45.479542995002845
20.71435112947937 19.325466190397453 47.741337697086074
20.038526503579078 21.371928544593253 49.31492291236469
7.87175120949363 21.96066395459087 10.232195029257673
7.850973583825664 21.827401507376 7.927866570246246
6.18638264332699 21.889762111277555 6.311230254285747
3.540841267146756 22.774220339534477 6.662582297329181
23.553897866030272 80.80836204485479 32.99613474363553
23.061364029443464 81.9595951288999 30.98536518009401
21.95825272331163 84.40158175159665 30.39352618950551
21.36237896048703 85.96980106299219 31.292128692219617
32.196448847066925 72.97381890745676 47.223610404323765
31.440538514066102 75.46256411368523 46.965526386393144
31.621189687465264 77.47630972247065 48.46112645227307
31.518651460760854 77.37073921683711 51.02780443968577
21.07765387665303 10.105025898137503 14.897590234294784
19.640363092868512 80.2375550895729 53.212661371690906
20.502911842256882 80.30108873950424 51.3858362388647
22.20653901072534 82.36248525570593 50.986994050040074
22.527744500682918 84.36362405139623 51.83311910680286
43.53036662557433 18.4158051012974 50.33295716864265
2.4252559970643532 66.52537184422218 6.432618998441073
4.155385406326107 65.14123872801545 5.79157856640062
5.655045114803513 64.77199032845074 4.135280449483696
5.660807599071991 65.90224920075389 1.4912750104323977
19.99331600341293 43.39162230994024 13.362011974461208
19.904815587901247 45.613578635892516 13.301651349117062
18.55033701627486 47.395074365983646 14.417280598131805
18.531901756885496 47.513985989338856 17.367186175223544
13.232058011635752 50.20209591110955 1.018682622139865
7.633851525500318 85.58428711805686 3.070934885130543
8.492412816127183 87.16716015816789 4.072148177002086
8.429485058145595 88.00508316900972 6.792103963034709
6.198383706757019 87.25942953640264 8.512773371375184
2.5833089511959537 82.78827954833913 55.58849125929694
0.798523782176677 81.05166817713825 56.27658638064313
51.37096920987257 34.90900434998485 6.495448151503139
51.82659458143003 34.33391493133997 4.568363261113551
51.28533077281359 31.83061261122889 3.388053029658906
49.82131231893378 29.91219046903493 4.144651305281037
56.66612831940079 40.34707682357655 39.88404579093545
2.2067094345727716 15.512553733828685 49.575347082742375
0.5689464614981733 17.380692360914203 50.48474472954244
53.68235013729035 44.87172447942794 42.49131448863838
7.777299147895314 9.225099216655929 46.16609719576542
6.257863934559612 9.052778266951112 44.200741632366395
5.948938743557024 6.779876848005874 42.332247788397105
6.744024624524604 4.762304003090772 42.79304183412323
24.33676934066855 54.59326443358301 19.961093178304225
23.128107065293964 53.93482235668992 17.984315991390623
23.52240981967462 51.57582455008972 16.361843438687284
25.20123892275424 50.10784039281631 16.164713510818505
42.35184990959263 24.21204904772067 24.980014003232366
40.697349525325 23.633579425147463 23.155260219218842
40.795087927687966 22.173762138772208 21.196043850093343
42.24365119867024 21.212192652787216 20.061066222073535
40.145989982909356 23.568338682314405 26.747200495235006
38.86656744996187 25.03783858387421 28.52454822308708
40.283881242031 27.534837433650747 28.187614561176684
42.5492205100189 27.670464163955586 28.417279076551264
26.451299375814898 75.6368936259329 48.22810031293033
28.711860372351023 75.06390348808254 47.29927306273297
29.4529173923085 72.8280501159155 45.93308198290905
28.642871798868626 71.13244063512553 44.61999112238153
3.2510072821222855 67.95415543214449 37.92125404922515
4.278136210288217 69.21066194550512 39.91945883050611
3.835130445279172 69.59773070170695 42.030561644500786
3.0024472282502432 68.5393982700474 43.32857544632453
18.86146946393258 75.74788516010935 52.53373323705152
20.044184548219146 77.59590487674629 52.98550125423086
22.890057074424746 78.23307989989294 52.51634826356577
24.277562285896074 77.26007992871227 51.27036786065687
16.171364305035418 90.95633885058163 56.50695787896201
9.42231164200382 88.13015839901963 0.25168902401486337
16.05066702030863 55.32746109598374 56.65365389558378
8.987367803898891 54.99040688711589 0.8442795783409228
8.093529945646626 56.43457706461587 2.3277965772407576
22.082117883702395 66.19987113646218 2.9177197463121667
23.823986083152896 67.59527893101611 3.6980601707740113
24.01738679384318 68.91129450523614 6.108854026910649
21.99904801382722 68.71034476113307 7.5896281389820155
3.252024606144825 34.62219491075768 43.16609752104359
5.6765992350949235 34.57204599396508 43.10357850464375
6.787510606344913 36.396011513178465 44.591497922811264
5.921083406791965 37.28377620846846 46.48560969761067
8.223211986042473 75.83282005921583 50.10471177501447
6.691845590606959 73.77209333468127 49.87168066110916
6.960137719942505 71.79685329955986 48.07718030533348
8.972610525111527 71.3586985669091 46.69657451592439
42.43531869257622 39.495723411617 10.462354251199354
44.27613617341111 40.24662635897468 10.2385991617934
45.35383654601977 42.75417691003911 9.450820023670607
44.67034221892272 44.858629219963774 9.647145849160875
27.759278451782336 75.42716724233647 9.381852679248148
27.390051216432745 73.53080964389555 10.894136271311043
25.661595624176076 71.32647342179438 10.726402579429102
24.36896653668763 70.5695269164356 8.838096312335571
25.266537568903498 27.19535519813241 2.3818826928976455
27.135974366631103 28.531580082084762 3.734009537972834
26.936971094465207 29.79952137219224 5.715370536766622
25.131735848943165 31.47052437370315 5.786527693691656
38.36207369908303 29.789496588049783 19.222474516470932
39.07020624261386 28.85309423636913 21.725794780727846
38.99930653162657 29.960255925801007 23.747801649216594
38.09451144468636 31.861130986524902 24.67963278867878
38.916587907746624 32.895607683230224 51.32801970996692
38.97319671342644 31.811908930336198 53.78370762867619
40.973068054614146 27.49739637538197 52.87611576573725
15.870270655841642 51.69444206592612 24.677704824625017
17.224326495615095 51.68959701606672 23.346484636872308
19.74593983811535 52.109108559197345 23.550771202200284
20.995773555593175 52.180776944292695 25.340443185315138
38.045599740679386 67.66788242494142 37.89770123357461
35.953949420946735 67.78604565154208 39.07465494703908
34.82821305996086 69.31705320767615 40.459763032146064
35.43426055785012 70.97600030164365 42.22513753020905
1.040698701668739 75.7972146040078 53.250107267067854
3.3900841993499236 75.6839959627787 52.60898660336916
4.278775880570884 75.31084020855613 49.79090538713835
2.906912828400398 74.3551071205672 48.10681544330866
23.188292390749748 43.96696675541499 13.496291942180447
22.328518503626196 46.233540857238 14.347549082236139
22.787209210664606 47.598387985866125 16.62511429092915
24.692656004151484 48.00908933674902 17.710015070978248
9.551735931960955 76.2001094671074 13.300824790463627
9.33662308713817 74.15961390014996 14.595150658683306
7.87346761518993 72.18920499171318 13.377147911651555
6.980331932313816 72.45389350021149 10.779316217834367
10.1993928429277 58.14696649855494 32.55258083439825
8.380321191969411 59.22057058454929 33.54574323098491
9.051559534255109 60.678171925944355 35.98163313593838
11.175023160727322 60.90915298774433 36.93255053410891
10.096589358370105 92.4041633883633 12.30787063274177
9.507125307307525 94.2518330988324 13.465121608920866
6.923136690529488 95.13946419221597 12.499279458447603
4.929234268752773 94.0599749507725 12.103988003356323
11.314967584834791 55.20055147699643 31.277705966357328
12.899669300777639 54.54134220771523 30.193688137972668
13.175459869718157 51.790970371925425 28.712730898276945
11.910944375656799 52.429338560500106 26.428229904775673
50.061560794209676 47.95898011536197 49.53683827462632
48.75932048549536 50.02852347570603 48.82810707604287
47.898197207612334 51.870551688651204 50.06001572052976
44.350015720695396 56.94285410398119 25.884950565222496
42.2151761619167 56.533384981136464 25.869166110763896
40.08048014629004 57.82716488814946 27.07645278451232
39.802244702676184 58.84118250182106 28.5829281989881
5.599234265326796 72.10836316847922 51.70415800772579
5.458505900051083 73.78960718042967 52.65465812194644
5.483493808023113 74.8378532230766 55.26205899048727
5.494470745124829 73.54524019197703 57.06666940324966
6.803458607535502 45.061205433812574 46.4795930281606
4.857387554428992 43.55762062664052 46.03412103955497
4.670527294408173 41.24001754542381 44.914734071388054
6.216615756116292 39.91905387948786 43.96236903762297
37.74546722943913 53.44116721639675 18.236125324731677
39.76199141477347 52.04237972939409 17.631938874644526
41.6162855934047 52.448722428477865 15.695675070951289
41.64628488006922 53.62523095941781 13.758202535192956
35.596258067129234 27.189407633954062 30.009442403004783
36.870729566383154 29.120130269728133 30.533092329805605
39.358160712153854 29.438202393815196 30.717783528473163
41.100455492218764 27.752887932991854 31.317637856169366
12.675185770748028 63.33009583183908 44.233585065908045
11.076099119568052 64.10460599287742 42.429952248909956
9.582932039093725 65.82876868927394 42.31298568273542
10.76206152603696 67.8053815407726 42.58433214522392
32.34586322347693 36.99352506470159 41.64529021443053
30.779526743524478 37.99493954125956 40.16168345963
28.498546267985542 39.10712692090366 40.62116096251665
26.99526513033697 39.35091011491678 42.625553904651994
28.002233597860123 84.38669759111563 52.99204806171806
25.85738153511173 83.5591248528026 53.24663759460288
24.906029797961423 81.78247398721328 51.58905312083518
25.974253623212533 81.51132368839689 49.233307192141154
59.398019078985676 28.26545441387636 21.66034525653107
6.736325850693955 2.088007654969385 31.46045893666541
8.40431865822326 2.765435886164403 33.507406566138364
7.8286667602049125 3.1293352887862653 35.52420418210512
41.66644883610056 50.27233238005527 20.963299969898067
40.17065437428028 51.702298714104415 20.468528929358804
38.21173462774207 52.85609830673304 21.32103882756224
37.1273591339622 52.515396929873624 23.894974705740633
28.801531816660315 44.700375477355095 45.16078366389579
29.274447419451292 42.484916313434624 44.09046919717018
28.198140334637056 41.95275966258928 41.764558516845
26.51390007065389 43.47935210848574 40.80938543515516
43.90715811595238 20.87071317056173 45.908817367120704
45.32466480871909 22.09611115114204 47.183068398474354
44.90897722865823 22.79868907193812 49.95254140927855
43.084235470160294 22.495681311042798 51.193510089169145
20.956524853605636 26.67032470784163 24.998087229242515
20.86551421031102 24.87382569500409 23.449404132822355
22.698287053462284 23.60229972954841 22.06062119666583
25.259627905013673 23.64480110186921 22.26906688103801
7.9269895289989645 86.23322999937216 34.84714908045631
10.318902624213258 86.38441702915209 33.801904465431576
11.259212438775387 85.51427468951555 31.535292865791888
9.997993111396832 83.35334295942658 30.059408220564542
38.08656049050714 39.78152648178675 31.24709807836375
36.94961486318576 38.090393118535395 32.32745487971161
35.203905595256266 37.91211859843476 33.903625840794284
33.5671583977223 39.647138426812624 34.389983416339525
30.704567380704887 82.13378044733973 48.14097848085092
28.302457232975705 80.83606542732537 48.57886886793063
27.84381890642918 78.27341233909516 47.79237894006284
28.92830295973924 77.05079070260713 45.86460559591608
3.1090787600493526 69.66798613819596 51.57249350405749
3.908909731731002 70.99807151020136 49.97466173811674
3.3841240625561073 71.3313713553866 47.3715231653919
2.190090441426403 69.69784107843076 45.77979041704518
49.8930735551293 54.4656725036495 49.19366528403337
49.75916169408991 53.4424567470599 51.31382347296656
3.445736058836161 52.97424942400827 57.78034282327157
4.244765900573157 50.7026744697691 56.70725839691049
2.712047686789404 49.328214422457656 57.153037121247465
19.055925580032234 81.40374981003427 55.65362042118886
21.223418013605855 81.68366251919525 55.34232036471718
14.62461091310391 92.21726863258911 30.436131374711476
14.663625692549362 91.52277749411505 33.1353428164788
15.5359676887247 93.25688038599091 35.09978146543106
15.01058578117055 95.78506859001592 35.21208611677858
2.152017260994512 78.55287865635012 51.18299752737402
7.132393452247534 14.360117726953078 45.50773675608655
6.65285400587799 12.151516823634173 46.10293305166564
4.514069784134576 11.217678184069937 44.950469052484586
3.435860791030201 12.069175614496856 43.018474432697246
12.900001636759981 28.01984056689561 27.897946633666923
11.253243974144157 29.515002296084905 27.873800335613787
10.323793024781008 31.018512729975686 30.21306597023895
11.436004609112116 30.948172614118388 32.348000395992585
34.83413641258477 35.11761056843633 4.075715458417975
32.44177698789659 34.650480756868276 3.479365614254585
30.296769003209164 36.525374002929844 3.345832673356698
30.46876029403384 39.104048118857065 3.68842058004289
37.3834299896065 23.428095305531855 26.521686844502835
37.8021809111966 23.98538421571159 24.080566117143093
37.60743263297513 22.77603013889507 21.968500135500502
36.798438535460576 20.298318781407804 21.24326969229759
11.006093293358918 23.220778753205376 10.915510218506727
8.72781863285497 24.38868217661972 11.028345251492333
7.560057971869264 26.22820054461474 9.404190851015807
8.465304793169775 27.873250240079646 8.245122280782917
58.3273112036481 35.70278436662978 36.99182571726741
5.185830951257334 9.668908533572212 47.547597595623856
7.32522342480222 9.501582003769142 49.23198510354132
7.927616075383875 7.919434830976137 51.115958879444904
9.675667540408723 81.17122217963139 28.621971315874312
10.783487419994175 81.50116446205344 26.59943583450941
13.081970866320546 82.32041480977557 26.26250539022328
15.022631841556002 82.17234846170966 28.13532804161129
0.18236222232668567 66.9160640524268 8.33322781761794
0.764902028741058 67.6757409709457 10.254368210764046
0.9730273797104048 70.26990387877493 11.333465459394791
0.5645930236050829 72.24283746366623 10.574951517816157
25.097553501458613 79.79461462015061 17.870516754309058
23.183997257437824 79.3808641366506 18.87923524771896
23.09722332733938 77.26027912818668 20.679616519592198
24.930339917536756 76.04980017905179 21.439661932929283
6.678114781220655 65.20668313790894 17.365452653826978
5.844980476405551 66.71488875461625 16.044663294157736
3.8617906379777174 66.78553319221204 14.048692702255762
2.7039887394216984 64.04357455745985 14.664896694070318
14.28449296570624 63.12277015818884 34.534817443239355
12.905771106782327 63.163596620306315 36.884771090222834
12.557834259230983 64.77943466710914 38.376958081615086
12.278174276128873 67.43550238840984 38.348827247704335
34.865939430629666 36.44641038767448 25.997443009015385
36.856851850379655 35.12097916304902 25.008568511456236
36.60667247982103 32.85850087816577 26.511043814096876
34.51099167138901 31.53814040596743 26.14904802442516
26.0206941928477 68.56825961697689 1.2614558919535055
27.823793288003202 67.83757725103723 2.0371013081312124
29.990873140652262 69.18425891611625 3.7180490438430205
29.71516782543717 70.61795214454271 5.32694964611041
24.87406045900137 35.726164915219286 12.89468413363951
25.03730319178658 37.01175719175207 10.621439955929048
24.49180834027736 39.463329489655074 10.077816135978562
23.52414774556134 41.248876860938715 11.204400547048554
28.226910430821167 19.098850238455185 48.128916048257416
25.902029092396603 18.871845576770976 47.45854207478806
24.610104747992793 19.284357207269316 45.078422633257624
24.989747112788574 20.159704056175713 43.28685186071345
49.067595049524506 55.7689648678563 45.396435979704115
48.19138751359483 55.9793843725582 47.834692179351784
47.932567124055595 58.05891746443878 49.273377018265535
3.8628221029641416 38.326929042050274 7.31615003239016
5.082710913095247 36.03180254262428 7.102345181191586
5.198138249239976 35.20118324463667 9.794878431957638
4.595089641713493 36.44809991500888 11.742194691655783
0.14165231351560828 74.71591570408792 22.78895947756334
1.4801673395452835 79.64502601220701 25.101519485887035
46.19284806747232 26.13413577217289 51.64126729528142
46.865189384545126 23.838901176383217 51.696069783257386
19.67199360514035 46.49830511552804 50.1835103103925
21.507278374214636 47.86536735271394 50.23656792567603
22.257227907117276 49.45518312651646 52.04017032874672
22.25296137453169 49.166674547313406 54.60942714163219
23.75097192159617 79.29328477151186 14.815389836814647
23.292309907166626 77.36268340615493 15.66370319567567
20.93000700625393 76.34185096254119 16.895551688931764
19.06478553771117 77.84833276146598 17.786167082063564
36.534786727065764 40.285554370043805 36.48823094660773
35.42088419259882 38.03049982740426 36.470594769399035
33.04587334825122 38.4455281283719 37.20091557226534
32.28629231445576 39.83613156715815 39.05396311876158
45.29036869018168 48.51136605941302 8.350103947713722
45.537111695129816 49.52050282760046 9.847787472468028
0.8776216624781168 35.45153614420255 9.272149203136937
0.9292849313468929 37.565955177858854 10.166002052256285
9.976862720490901 6.671392193193533 31.732784732194666
9.271999619010163 5.241684561895841 33.69969521617285
7.001032632808634 5.895677530447181 35.11100486200595
4.73883011121762 6.688284242559978 33.974343117719066
17.29306390850036 30.41671364714727 26.869818349871295
14.920574930291972 29.90940108758223 27.406677902160116
13.419425958729192 31.519652924509302 28.017998775507138
12.709148149936183 33.56959753766261 26.391760488198383
45.09099747956588 54.34977073978121 21.90944491035938
43.19116262805703 53.50824630044817 20.74832124091227
42.00367355283963 54.198499319610846 18.537803768078405
43.07389850703723 56.02879751730458 16.57010195014221
6.884053634732137 20.765671554094016 3.9726708579734176
6.9307432989711835 20.607660181225437 2.117954210857811
9.31262805829838 20.66312498813037 0.7605230677414678
11.83025553573996 20.691827236909138 2.2924028803361027
36.88884662116952 27.078205009535495 21.957592494494694
38.14132602623833 27.07552766213788 23.91060247809703
37.73981174795266 27.030695331082683 26.560524463048843
35.955697800080955 25.55380523144478 27.57664588300139
1.2508920074692245 46.60160181967744 56.376076067485826
2.483510091219815 46.552123549325046 53.96636871624076
2.80579108454002 45.057857331599074 52.42055567536241
27.905330393557225 15.386690213457136 38.79775355148184
28.183886607484624 13.608710511381297 40.07767304379531
27.947138344372185 14.065852931619965 42.85820192827177
27.41255477202441 16.441960587773103 43.64286921133526
31.21230738865049 64.94846367431298 1.3016314000138665
32.20615595548909 66.47607910305591 2.0530062464950944
1.1755008206301836 79.43182038092657 27.96006694778859
9.72312590857985 63.43878231211908 36.690954543984446
9.89109548318859 64.4172952194029 38.53584149551722
8.73565455339006 66.23005299175931 39.845763639007934
6.754877282596385 67.50006161420892 39.73250491505982
40.76124018829015 51.49017224466218 25.52066999126894
39.69719769926372 53.957621095315176 24.952032894323406
38.25274903700078 55.27964882876294 26.25218181301295
38.85197548492333 55.915617606204464 28.544254143445357
20.501785833112795 45.00338942762323 44.94088817564381
22.689710781813364 45.25367188347782 44.12004812277117
24.010693949427477 44.22264900817291 41.79847721445587
23.79307202824044 42.69957118681315 40.589505850844425
44.99607284512331 21.499725096605232 43.39675940277986
47.03496270311587 21.159513005790647 45.04190453075073
48.754617784553645 22.93262833261627 45.735859113707555
49.30672190629353 25.46600234327463 44.68859815214692
46.52335109066228 44.874674662361755 11.827533786860148
47.528724123024325 46.671294472197694 12.228813433833052
47.1562847279894 48.89026507643016 13.802380993013953
45.67070445854662 49.41309134163321 15.251378252300587
27.988074819327853 31.96027895327826 1.7491407821949019
27.983032633746827 32.66591010475019 4.452369324003291
26.602467840212018 34.152288781589185 5.332335829315354
25.376827685017595 11.934427787801445 15.844287714635023
24.032894551964734 12.218386695683007 13.669470947348143
24.671591563242185 11.858928923065445 11.364524420754048
47.93229498965882 50.141349934293615 16.223916285764272
15.820793180559784 34.74779266395007 38.790917763828645
14.685516172294374 34.9891181601221 36.733960529177565
12.143925747693345 35.52104271319467 36.45966531565848
10.420135811234873 36.10319952165926 38.3265267873918
19.695349997894 12.344616027252075 6.986185136369264
21.058969811290044 10.259402846116261 8.247944776280333
27.032271601655847 57.025155270991014 1.17408911522164
29.259936130426905 57.59826780907041 0.8763471013025936
30.491944560802306 59.28991409871881 1.8432194665260166
29.177265462265808 61.28848617175957 3.3275702829808016
51.93466509674011 38.129947920010075 9.247216607952447
20.429931719474077 81.17114473223143 31.67084045767104
21.044168663117677 81.24864364932534 29.57927127921397
22.213904584639753 79.35439453009668 28.240970981210843
21.989915084101334 77.06276276166932 28.298991287071754
31.995214113899028 68.78041473184734 8.45429505968271
31.118767547448417 67.29012515348579 6.803776520555519
32.22897109052668 67.72481868454423 4.4499877660363465
34.24539267024612 68.56687496285932 3.601239972327898
35.07339817924847 36.75908866726679 30.182587103227508
35.218870013227324 35.76274787451126 32.16747602194571
33.5283146771352 34.65189605889287 33.890439558509215
31.080308777643772 35.017085256468036 33.960317564330126
35.01721230984717 56.77169183163968 35.26731609729766
36.291578780650745 57.94236722981576 33.64794913948285
37.57902812446666 57.13596296252127 31.593993868259957
38.51379208527949 55.323181910350364 31.285719545186797
5.103936028343889 59.44609153422982 7.411583116008302
4.839932933665783 62.072158980259054 6.877791598569393
5.966320374565838 64.21658270031729 8.544876573768004
7.359524176208262 64.28316304923524 10.329050309507211
46.437465030188235 51.68217033830686 42.31078577589658
46.85073065786709 50.700448968271445 44.72705616162198
46.80004076087387 51.63465672805892 46.99745967742997
46.434990990470084 54.155456411746236 47.58151271033098
12.018605186993648 87.15930265804037 1.3844380762385884
11.130284545439626 86.67564267178041 3.3960946296273904
23.219445324407655 47.03612762035373 11.807756254133741
23.59188209991823 44.84332693575154 11.063051297036049
25.21682262634969 43.342805509266654 9.886139944798902
26.745047853242685 43.983700532828834 7.85492494923154
11.88934998802683 89.69218899898716 31.274356687809533
13.149909960550321 87.52346699243444 31.17194786110065
14.101459304329843 86.37169062108748 29.0101204710592
12.623597049746214 85.74430045465097 27.228708510208293
5.62282247770882 46.252591599745344 51.747102458290975
4.4512465264552805 48.06062343492199 52.87516200783997
5.08746251630276 49.71733357378519 54.545000282199275
7.2185590708503256 49.66176974109979 55.313119636860456
25.70105428635241 15.903676465387539 20.990985368650254
23.37104315081132 15.694188968149144 19.819706023634875
22.587109018378722 15.461268289483298 17.621242784581188
23.467089441057556 14.866932721250105 15.34374942657602
54.62858689677406 47.539896504295655 46.45787486999842
52.76608968109988 48.29865029804363 45.62705039393978
51.0667200016539 49.97501785307856 46.012693097391285
50.56027448135957 51.63286669890467 47.7153370933094
28.170680561777004 70.96859371512207 41.959083643816136
30.818545682890665 70.83915124069492 41.36695265026778
31.567003461337652 69.99188568698332 39.05098949246244
31.319272050560777 68.31188597428248 37.797365408586366
1.832947968414416 48.59165843901779 48.252243947603
1.956432890172344 46.20666282180271 47.31677240804825
4.583743533624069 45.12923554117231 48.08371231542386
6.194193057198818 46.0574517370183 48.992978998421414
18.942461323287084 23.93317962156601 52.17307916033996
18.95521383164592 24.347933597118853 54.364960495810884
16.835736478719326 24.443510841897556 55.62532584092102
14.357631798241101 24.94358598973964 54.72341136327325
14.653099266098556 91.54476740131219 37.07744106131396
13.192335937536726 89.46962023879468 36.74411939551969
13.709508620041346 87.22548843849813 35.57631396756276
14.905109027309503 87.54408029619341 33.28294131853258
25.34388881215974 54.336882413240936 25.09708315014169
24.091858592348583 54.32122474146584 22.736258066398836
22.90199534687957 52.404446693842736 21.52262092015024
21.896907717246705 50.12182315988347 22.6692233013919
22.0175598658499 38.54070274363885 9.231053300522383
22.028968418286535 41.07250489414789 8.926314472904561
21.06457533524832 42.86312879516279 9.917227819472762
19.160629673771314 43.55526088911323 10.983967123510766
16.288784715413748 47.25652778561383 12.854165693729827
15.394750798228838 46.93812468916502 14.588652746410293
15.645120523936846 48.97455484642531 16.391493213687752
15.524760757235063 51.443619741253 15.788992033577602
21.451121575741 44.491412039384834 7.749115810547934
21.211685739700048 45.83802828707939 9.943116860771132
19.50358031977652 47.197243026797246 11.119826082095162
17.525513270664764 48.114340664342606 10.310183621381674
31.514871985938566 68.45606954552211 49.33814606711991
32.007109699808765 70.02321487784934 47.10815815471219
30.974067053033043 69.74262242377992 44.793424474177705
29.809309699636334 67.44820519853727 43.66973198880544
23.65459798878069 51.13393566709611 53.99978807697613
24.8510442693709 49.61204229170039 52.69765863410974
25.470153944463984 51.80403821502266 47.32375022926491
23.372434810015452 51.660403047084486 48.56548741689542
21.36230270346091 51.86236790268486 46.51085270362602
20.957052542692665 53.257488512279316 44.916913233989355
3.7926499316122766 39.17744676941245 39.81962147826137
5.112623131386421 38.643940044039155 41.82760858558001
7.0957689360429175 37.23371046364383 42.16942706919716
8.662103709203596 36.171804645466416 40.645354541141856
17.379065408982047 90.7879131227853 32.79649293191215
17.653757365353414 88.47583202199985 32.41712096577125
16.66126479176607 87.64037127635407 29.85084426854792
15.862599513440314 88.96498968374688 28.25644134178833
7.2150396135107995 63.53016313972157 0.8280234681831163
6.998428031667321 61.987919919255816 1.9042543895699842
8.646676074976417 60.7287424686061 4.224021932963409
10.238341812038923 61.675017523543254 5.309795973762114
32.55612604342912 79.87344094892946 49.88267208004234
30.352718776321684 80.69121739843933 50.67522069067735
29.575477541897406 82.42165209298504 52.08954533411158
30.709644053680353 83.4923819501506 54.130480461810656
9.27776798755345 90.7454132198023 1.830131549649879
8.520267187725908 89.82543972356845 4.050503261106907
6.977394947609068 90.69475582024953 5.8735368031030175
6.2684252584675155 93.01844265200178 6.360540646915619
28.73287926751631 35.9041887608528 39.52833726788014
31.138319464160883 35.23469676516953 38.92130040557996
31.81812590934185 33.79621639568203 36.89722009917346
30.296805949581284 32.67906811174981 35.26033820621828
24.843233453867093 51.33680547029074 43.78780993361585
24.99715810109474 49.316524417396764 44.519293952874854
24.816109046773143 47.14610421083793 43.54539438061863
23.67319634284319 46.5921102677679 41.00609165189218
2.0302727718558393 20.97702750610075 49.854839523548776
3.232951319525157 19.116449349910642 49.124346593548744
1.890001541021769 18.001948816229984 47.489956678904086
31.423244546628794 74.85285500955784 44.416664287085716
31.242578023326516 73.13632649686538 43.48504008454762
33.14267771274236 70.85079215180423 43.97119515017671
34.843434150765425 70.99347040575799 45.74219657006123
1.3074147090084203 4.835350399379153 7.385890526614057
18.009695609421225 94.34811339081627 36.20946944172492
17.932104169214995 93.2588712667348 34.113420801062354
24.294387876495346 20.79660721752182 21.797086864010144
23.354710131291583 19.16777790366658 21.472655318832363
22.49638204321432 18.097563963983692 19.130061818242055
23.303542557110077 18.11509873631668 17.233509205531455
36.74006276380296 58.26168937131724 29.2377718700064
35.788280372692164 59.43961590551 30.738313105186826
36.91385933729122 61.59397582184923 31.497839189845884
37.174399700714964 63.39229037690432 30.002173455663243
2.2199289119548924 44.50977610161373 19.90451964980916
0.07416089318242078 43.37679941777853 20.380138145827853
17.56497665722105 59.49088484379541 41.659433349381466
15.510996962098828 60.63022665513055 41.49328736085446
13.150156886312452 60.281700753491634 43.01492331291144
13.271546729506927 59.502497219979986 45.85063541259161
31.165587461758985 72.36897841181809 16.76431618529871
31.799986069236937 74.70070738955364 16.467846306796236
29.224595563849633 74.41230971209568 15.42486893835917
28.8966939758072 72.63274272632576 13.818518081313128
40.47448948142725 39.59440612909946 29.136856092475107
38.44148548740389 38.10658151295941 29.10309156078842
38.01398447549409 35.74116234687349 27.931950406131502
39.281896498165224 34.41385192759458 26.63207997815262
15.519618444662807 28.9794413257346 24.393384312855027
17.784762199259262 28.492304044742323 25.07214446276822
18.200565237544396 25.463266444599533 24.867346077411796
17.215951629400816 23.97918271576885 23.715633600464418
45.744927903465516 45.80201491912576 7.202806408310676
48.02127268575263 45.88204041833307 7.209279837186009
49.347631704253494 43.57320131047194 7.750767900517101
49.11167147989645 41.438366096341085 7.077074947497634
26.384179652482285 16.915235660632177 50.27174314601854
25.46216721378701 19.208622698555473 50.279595625732
24.756956876606154 20.22980405779192 52.06407321586841
26.01194385331119 21.962373514725503 53.523603711616474
14.629382883834438 55.08111074266396 32.41621512149916
13.093084291544537 57.1393813683689 33.113640778124996
14.683573643042031 59.10587105362168 33.95636219539138
17.342600608746412 59.053635928251104 33.81157423562161
3.272802704459088 17.846438703510884 51.639181839285655
2.077152146024761 17.88722246876406 53.799009253087135
0.061642045638835116 19.41304032636933 53.77839107025774
1.1243064158899987 65.19925705018633 12.577764364233005
3.2316523929239076 64.83167368340504 10.737812240012646
2.9424911703674343 64.32479750934665 8.275843881688635
1.9242024085382226 94.87142593905104 17.29215706282913
3.8131441041119793 95.8202571462755 16.313316400953454
0.07446550147928818 41.02594116944597 7.705289961726734
2.159488978666688 39.48626426144597 8.880464526593316
3.7238166488301996 40.19384586336639 10.59868907548319
15.056073531757749 29.754302702114405 39.54408764947298
14.958558055696207 32.33340383558016 39.90299019621822
13.325152393669176 33.78976674921807 40.725881940997
10.975996730658387 33.59484125924983 41.537128502151404
27.919201197993118 78.44982816764465 17.568197085985375
26.162761405096244 77.16317392022022 17.175128496280603
25.24007832109537 75.52691850757545 15.347542920954659
26.499596057348906 74.86333251519727 13.155703832216826
7.738633436849007 88.27499710494729 38.94304211277998
9.370377345886746 88.72385505552496 37.29027445476196
11.304034352637718 87.50794916083775 36.12861495550869
11.828051203162948 85.06160284884919 36.35204688686772
5.223281573594694 94.31086399048496 22.435987924901642
5.159162902472212 95.77570640058569 20.703391013591794
0.12744067175739995 45.695231368791454 43.5872581686948
17.370688775767086 30.37347915782459 32.18752366127891
15.913811554136034 29.009837566102863 30.83841197515206
16.64179692494066 27.81201963958714 28.456366013743022
18.851995171914645 27.29225002560371 27.429721663213666
42.810539509194676 29.805905353797076 26.458421385159582
41.01439957364874 29.53702336434319 25.257516948583685
38.31377115240082 30.02099187486556 26.6551835912983
38.102097534726006 31.43377412132563 28.848218303045016
19.396779521650863 87.14425104710072 29.41069340903902
19.433438043817553 84.76496895214744 29.35607880162993
19.427312555014424 82.93042609642643 27.27972066560719
20.387785861802932 83.0355369973686 25.16612523196921
20.192082150549165 80.55619461322016 26.505824585068673
21.807366629859093 79.44903252239067 25.43495775723452
22.30606675010788 79.25678018243227 22.738052119077526
20.85303469644931 79.39272085189248 20.706730321197302
5.384133943781643 12.26500015153347 49.37853683395187
4.6921796618178435 13.808729042309169 47.327082480202385
4.598506310486746 16.338195997986183 47.63852345712405
5.597253633755253 18.198719254216474 48.588942277344195
0.7729707891101498 47.56313730848404 21.485655815773804
2.7810208650755013 39.04946432960889 4.8481415521217475
0.8088562545404555 38.92506868675434 5.973328590193906
0.2569455901476065 34.17698116154951 6.338865824042585
48.321153321953126 46.5631490990213 48.037549721023005
49.136483315333024 47.94534471018289 46.30815777139065
50.68529037058555 47.211810584242784 44.06639334664764
50.917958642031095 45.086924135453984 43.09801923386607
24.474201062903283 85.52415142488769 54.729282968898104
23.403402496461617 87.97146441356892 55.04839127065171
10.31106594160914 67.73845351892635 18.085844215064284
8.876633700893766 67.022757733117 16.00719384273816
8.215616788870298 68.34981274730214 14.01834066742845
9.684511281336396 69.77674366660588 13.002019982754348
25.687507587395118 83.33940583699254 29.07677577281014
23.484214017360127 83.21966632855657 28.212769303482446
22.78099980836093 82.00945983440829 25.89863715412233
24.586188749247558 80.56304710069335 24.485403010215165
12.416622327833535 35.97512004645418 33.636711598033834
12.176199453775194 33.775275826988945 32.666553851448334
13.401440761440941 32.8511849691299 30.680393903888888
15.40907173716802 31.910656172484344 31.28942397547571
8.921829186905862 72.2832905797934 44.175830103867376
7.426404734681502 71.45252755583603 42.01751929249403
7.981916207118559 70.04021336586185 40.07442191771978
9.947339408552505 69.07396542723437 39.085333354162564
38.49790565277609 65.79696805660888 42.11739467275294
37.84437403179588 65.51372704433605 39.52569662968539
38.22093809291779 63.78661036159663 37.87123429670972
39.311305672585476 62.0090978710931 37.61143268502338
19.33635579361896 22.8848843778292 22.12341564171754
19.020427602385645 20.461059854501624 22.76627810508183
18.84441431700517 18.330145292281035 21.4882631522912
19.70944838804159 17.724362093598334 19.171955776896457
26.73753746242818 32.540622591551895 13.400837369530272
26.824139081433803 33.959208025687424 11.22978803433772
27.624605756388494 33.300394238208646 8.898256836450297
27.93797490202767 31.389087573647373 7.63174001990451
31.737818119869473 41.3836319038788 47.487034043391446
29.13600044026365 41.399857517562616 46.468373313452005
27.168993563339626 43.08337857718816 46.9673216909198
26.502137229950147 44.32942983802331 48.84249096245274
39.7346100928721 62.95487563659975 35.303420464596236
38.5643388600943 65.53171647927454 35.27397615816686
37.47317003031264 65.28030914742241 32.96370809416999
38.28128263642141 66.03014373970953 31.240193522152516
45.57329750703769 51.16892158943791 12.258387130875672
44.33288630326465 51.813976102148374 14.58429693560469
44.89370848398604 54.309329809270096 15.626350486119497
30.270534652417172 75.52805541486245 18.58371367294947
27.91885791549772 75.23853642482875 18.134351733780154
25.95038840956055 74.36256955846585 19.493114221717246
26.323813300903407 72.23674566369434 21.431978640693817
38.1802934826734 64.09320522960172 3.7545450332641885
35.6209301877771 63.971547079764996 4.57959942093012
47.749969370855815 51.82339688737905 22.091739457759275
46.46361366270438 52.341839347000665 20.356339656113253
11.758194103573093 66.84918232824845 9.232858161183517
9.525319544301704 67.66772389827791 9.345307606223786
7.349842509260824 66.94164793948434 8.37199629304622
6.916330285017942 66.33579098980617 5.995789917244639
0.3460332002062235 74.55145783608273 13.62760012302878
32.93342550528784 31.422850006512192 33.65665359796913
33.8630600139597 32.501058396272484 32.155673366110264
34.206948722138165 32.06612562658449 29.51348095068232
34.587249299089805 29.963189183677958 28.550542211868137
31.37064875248694 38.76767651718314 33.20187279062645
31.2225023848461 37.30223263547238 35.52151459054224
29.979159891012007 37.56684627716855 37.522030925258676
27.645168004324667 38.07526027977255 38.00799214568114
23.454398063832205 18.175767419769958 11.680925804427869
23.21570658977098 18.38753534425054 14.327270267392596
22.110808640882258 19.749473313464566 15.689569259804633
21.539203028246433 22.454278548497005 15.340684396113211
14.550779629902308 95.92018261375769 38.516433820634894
13.131635626227574 63.30637374283963 13.960172416484106
13.588063886239933 65.74758961933937 13.221546851670773
11.617539409761914 67.31489346111267 11.923464861863106
9.239088423222169 67.0185842382049 11.997597453079889
8.145914740264438 94.67609291915748 7.103346954473976
6.548190669476156 95.21326081459905 8.598952440074623
55.48266023175991 42.85920462240106 36.98023817597543
56.30104546379073 40.86501475531353 37.11171828080575
56.154519076054704 38.636447989198295 35.490333985825
55.02335382679642 38.345111982022054 33.316673853687966
35.60316088265381 63.5129590668964 41.96573767891409
35.14774116281837 65.11930147817756 40.39993812398349
33.17147856976001 66.80188379439932 40.175720341277966
32.66324483900557 68.44043380455456 42.35512386378519
45.23001390764989 30.838720972914246 48.13369520842434
44.93793180748481 30.8262845795197 50.48486676009317
46.21481697919691 29.163950884728536 51.94670720369351
48.13420950198235 28.155864994073767 52.04850635900657
11.626126945211128 90.01523701031368 38.64623051115225
12.124981222582866 92.13305575608706 37.21190571938523
11.529230744005408 94.47639168549726 37.65250667274417
10.691190760608773 95.78711097752769 40.041398980942304
8.224709906921403 33.546604196257874 41.68862279572572
8.19438001911475 33.77243712168225 39.619874901398916
5.778023935946142 34.51994616676754 38.29153505360576
3.821452744355733 33.72916839327282 39.01321980710287
22.0489156606322 23.011892770947192 26.344211442889762
21.176639253799426 21.832093502513306 24.169501831603718
21.58401475144448 19.477258126681775 23.467424468509712
20.189490207481633 18.656168979458215 24.616945588724974
11.946887549691777 36.60802213160274 26.731629914366792
12.1544331191193 35.26115635260365 28.43816482084551
10.865998647285936 34.06385952074075 30.068585261572572
8.922254672121149 34.57858973867059 31.35970912438437
27.68395273938641 11.05963388302281 44.27013986305608
26.113599117233743 13.227277149079717 44.66691704742485
23.838459193021908 13.161000472629093 44.24581117689273
24.34290426929854 34.30933886159599 10.394134882512644
25.303048093811867 34.93892443108537 8.4140046380755
24.445877387884988 35.52829513670788 5.982569569413905
22.520616870652802 35.75777033270111 4.926797522169205
33.43529686172804 64.07870764519124 0.14424571097367872
34.457874745418586 65.19995447055922 2.228988878774587
36.49331538809658 66.26407503194048 2.424485991365466
25.841053939405178 17.096452633714037 36.932654662948586
25.976428953685744 17.12750340213787 39.20376491224931
26.208388146495626 19.45154282446244 40.910062556978936
25.403389835840265 21.174615219072972 40.60770450400994
56.45226477663986 35.01291863497284 24.088844662214814
3.645041527703751 7.570954714335534 36.2612643515854
57.96250773012358 32.91051613031797 27.841950926198436
55.39449335996874 32.03803684673073 28.196189412344186
30.992203415773652 95.79713093372034 12.505547184584668
31.44650933671721 93.24758049830767 13.47793783310441
48.74837145219222 87.05684165547628 23.862773013034385
47.879311528681356 85.09435873097686 22.484676071387288
48.84709856326018 83.17713858410713 21.32497872611001
51.14294652852518 81.90376721691399 21.81808888892458
58.12456429129406 58.48756664688561 2.631586569813574
58.35874678548156 60.373335910873415 1.7723063426833896
34.728667681984135 89.74241368496277 35.64393158930065
36.7676489741025 90.45746607394344 35.877772749267294
38.02659036248211 91.10362218695215 38.3251871846824
36.928552851921246 91.70626676179417 40.39471383004837
39.506208464686864 86.79123760436808 26.111130857595686
41.61827765036601 86.74432461843563 26.358596921748788
43.527846801256196 85.41928885028297 25.316832029808232
43.54713219763148 83.33977562305353 23.75324163335719
53.573236616783845 70.38124487398314 20.277160824997996
51.367127510278095 71.48906459059322 19.279215202815486
50.62271538340526 73.85732951038631 19.20511158998357
52.13332902403534 76.21487006524112 19.403748909382106
33.795917304683925 93.4057506342441 1.1589506566489496
34.64700187376254 94.21431630502067 3.6223642837534977
36.718245485303626 95.64087701438761 4.186609958957064
50.11584657908509 71.86642555251348 7.303912978772027
51.78204422684327 71.54481397707946 9.338231943991257
51.253192903554165 71.730727578706 11.958261935762037
49.7276069512588 72.63152959025615 13.118899138865853
53.50194504114468 34.83971082598311 1.3629765533710705
51.966380164311985 39.438771523495205 1.709641757804056
52.51747969179702 55.15276346878269 45.275098725947544
33.31848203140616 82.16046660785275 2.4715506992156415
33.287682126729116 84.22935617838006 3.4404486850062637
35.326162620041046 85.78264631437884 2.834557469034615
37.3562591583568 84.78433568225606 1.6145645132997748
44.837588922149145 83.3729147590457 29.263071440172567
45.23696562030124 84.55145771955148 27.37210339486438
46.20447246275434 83.9911646139825 25.19552536575207
46.78302055041794 81.83826244170402 23.932132736995115
59.65331326342336 35.23433189588029 28.467766109407936
60.16518379590156 33.10370702708329 29.79189493683575
58.038300615042 47.87721657359837 34.39415251800858
59.23654320294008 45.788594540210916 35.49281925309541
58.88330407958706 43.18537766570433 34.66848363185215
57.05027074977659 42.23057008204119 33.62272629037938
51.3201528592844 86.14857699153778 49.36951938315812
58.60211766039835 70.20817317505454 8.347954810634528
57.157739777156976 68.86162488907546 7.052186736605863
54.94324615378006 70.60189624846038 5.764809229576774
55.00310843546842 73.1437709732838 6.602615482818845
46.462326889971486 72.07239993812075 16.807267148706718
45.77032840576146 73.89329099928753 18.78170790020168
47.42144325915905 75.8079719799513 19.341795868014565
48.47537566322763 77.53326136856568 17.90774623067554
54.865072377973064 68.6400320439646 8.762654195263513
52.857434792834006 69.60079088701467 7.582756450692182
50.51136164509929 69.05350777055936 7.390981191818806
49.11584228229106 67.11282272428494 8.46703291096975
50.959231845381716 46.41365621995487 9.552187412354703
45.54594623902359 90.54028250144755 29.42342020404671
44.92331104652296 89.71296289529577 27.1836264645784
46.22477159183365 87.69222390532677 25.733451382899997
47.54721792493944 86.15210583878458 26.217713730374335
53.817044411871585 74.27541179413893 38.585983285192285
54.67911511069997 73.16180480908211 40.51264030847344
