33.438210271914805 21.118483518376447 0.2439094097062293
39.59952558413817 21.234667525754436 26.781525551291057
37.97829324251821 19.802969274121637 28.011352826480465
36.128045600983725 18.346171627597265 27.304085846435147
35.51490530684782 17.302951534685505 25.679181354253135
36.36927698162228 3.0506001559182145 5.702245569638118
35.431785377416794 0.9204251785304651 4.812957124314378
35.18816558262494 0.3395412811000635 2.0622227467444176
35.33530500513335 1.9498380531149893 0.05668353071984899
28.915448944947492 42.80943635949682 57.25620844843457
31.417532340797237 44.04858361423609 56.86652903088983
32.048855330698856 46.11931027760442 57.34889367742946
53.93898484032336 4.297712302018768 5.99633865606716
52.94468201539977 5.162357815967879 8.498577393360778
53.66090117950886 7.366933323118904 9.737413336504812
56.20317893729704 8.342793180901511 9.747164664903217
23.622677542684254 2.175160092187764 11.989967558866466
22.499568476437496 1.8774203622970138 14.215220637559687
21.709649736184232 4.375766909696293 14.903381125891048
23.18145741447511 6.098738417365271 15.175917102403012
59.13725462014908 13.03817339422158 52.84521391548867
41.477936922275454 0.15207087333973401 36.14747797237629
42.84343440683847 2.202371337485764 34.70986761414487
44.88354399506214 3.341833549894988 35.54723565871599
50.85274674031108 31.802618819734437 38.03532569744613
48.62467917669997 32.02840205021639 38.59673519492745
47.94969812591233 34.16699506542831 39.888978611536196
48.554700791612554 36.40390051110603 39.876823229954795
10.34936680364728 0.298829501110458 13.266137865960882
12.80837228286051 0.06943112120992649 14.213440319650472
13.65978864784444 0.19572805541301622 16.506829361770144
53.99245063068607 7.487582828110652 54.383557421685595
53.662132628757874 8.753033097908848 52.800652648947356
54.01058231287526 11.46756945903594 52.653217241127706
54.42599082007586 13.121510373657138 53.924778003020215
28.822318696947345 21.685632378182557 6.632221938187012
30.927743973955298 22.39882558694199 7.523962255157668
31.993206130488442 22.313225481033193 9.877889632690161
31.752835826064445 20.811408658509094 11.653488998575511
41.85116711732524 22.99991911485485 59.23228532012617
42.14352298310024 21.4824576866294 60.68009067315368
41.00677768405163 19.30718759248046 60.924563347766764
40.796295124136364 17.32828543460336 58.93464221746293
48.85719962272127 4.111525389502991 43.3166826214876
47.972202477446665 5.33686172768817 41.642038135829075
47.90024067567131 5.209928887430043 39.01839128874854
47.311389631749734 3.4754443184014074 38.015876264177834
50.86706597326968 3.565913807768614 46.14459658272326
51.16063615756073 4.889115013267664 44.15773198483689
53.09275503738268 6.569183458371978 43.212593173981574
54.493584800503804 7.83990342577134 44.59446528811285
53.36285040754122 62.22949358906375 56.715265883361845
30.738776468064994 13.487719208141636 28.541329201028336
32.233556364419435 14.8597785438288 27.000272207432637
33.110465419533575 17.320916737062188 27.365352709542428
33.331663793379576 18.651668264581414 29.087696883387697
55.72056640121296 11.171309981877304 18.70168145277787
56.70318124279645 10.284139320805405 16.686808841021467
55.56866390106237 8.706989920056682 14.776015072898705
53.65836476974779 8.22628165856749 14.438936247424024
26.48530656227629 1.884639825847312 49.531967955155245
24.87856336674461 3.58855785157057 48.791947447207804
23.421065285284417 3.751783770864032 46.386858925544615
23.958953881356233 2.911028945479604 44.477993195411315
38.62775627010742 28.68088625292049 5.8527041147570165
38.001389033583045 26.847205993656107 7.033349280311317
38.99140742517658 26.422204802393207 9.596720363484405
40.14570485583285 27.96881139030152 11.112713569173609
44.72015126307939 50.06761818671432 11.530063614466169
19.11467656412169 1.7441050085818108 17.212761935044366
19.934926268947553 2.7203970390237924 19.090988947673655
33.04679271527277 14.338418254778716 61.29549167914121
33.801647653957126 16.70454416705945 60.21502400636606
34.734569473863154 18.387737636396796 61.44081203032495
55.907789335546 6.6073384654400265 13.31156184854522
54.35110372986254 5.718518713205586 11.715135707097184
53.561912238252035 3.3520473042047163 11.19478168874986
53.54973156980878 1.1462019681041975 12.809771452269755
34.059153523623465 20.380200653115146 31.69143937228612
35.93027989533008 22.10109909749906 32.328702392795506
36.08861839500312 23.668516113515278 34.56258370349923
34.82345008811691 23.8031388432357 36.427989018347326
32.09127272528367 14.438077661131251 20.323921151691135
32.604248252317376 12.655845255035553 21.379660332300677
33.79221850413527 12.904559056491275 23.88806652831522
35.34757483739635 14.670496374682955 24.630339134324675
23.847366928563748 6.524962564932638 52.213599035765526
25.824084061671723 7.485072016492559 51.74195675920389
28.211670006770454 6.593612946350165 51.104315323043465
28.59413148330315 4.127059356283695 50.077360591515756
59.275939677867036 20.416691823666028 26.679234219120854
58.328954522722974 18.179613076056278 26.33976533566722
25.236970482739764 10.060671846541014 29.4601179308551
26.84924566647768 9.162894982156176 27.99390156733309
29.435740912035488 8.15554244618772 28.540258074418414
30.36821105852128 7.532533044278176 30.824927700500595
50.129176539034376 41.26366224749585 18.10929053694265
50.08570125119735 42.52745029343042 19.845393322673274
52.41484674638302 43.02811265006566 21.025271316295644
54.450823196529846 42.67587934580798 20.425483464436592
43.5499203878637 1.5649672570180626 2.9118980632010554
29.949846435980714 15.487843878711825 0.7458191947614536
31.83889897301942 16.80553221951482 2.0400242424313073
18.573641032994487 5.6780474319906595 20.557946198382595
19.546472385416667 5.346583696733253 19.01311947253069
22.434924534349186 5.457632545270299 19.102801697346734
23.67587919881908 6.04803069491756 21.118787959842745
26.37343308619435 2.3587338502935693 20.900948233287746
25.20638088210078 3.8314054688350927 19.34459315112544
23.25423407287416 3.4310011298979304 17.49813279139
21.905967835837075 1.306090401325909 17.103228922586712
47.2559533820903 42.933929312456804 20.465536047893377
47.56710315426933 40.62833433845423 19.60485733693101
46.30812748110207 39.433374518037006 17.642565283106485
45.34100893045447 39.93673056865288 15.858702169407207
19.382172869791255 27.42399550278873 51.97300173759184
19.519432640468118 29.662035121283207 50.37793903912473
20.276804358013987 29.817369357851646 48.1530729171212
20.23659897492956 27.936600113170517 46.170169462575636
45.71647488846972 4.563854321643245 31.578287307316405
44.72521937555436 2.1242139788940584 32.30999939331401
42.65953928610855 1.111020770869922 31.385936686893476
41.211869763283815 1.4170348103651285 29.22659566887108
15.919021198596095 22.783053115051818 35.63981038969287
15.018378015624334 22.639165761321745 37.66517880786745
15.926701079175334 24.952962358806488 39.270320467388885
18.125889209006868 25.651737353802833 39.387362528399116
28.760080734809566 11.32897099021861 56.403147353934735
27.48226049812486 11.406873111164739 53.9026881786951
25.306662038492355 10.995675692728298 53.29811250674291
23.519213484970514 9.179857204771045 54.79417793975065
49.72816315344577 31.706865358654845 41.248574078747275
49.17373303824911 32.81328601635831 42.944655483785446
46.29089549830324 33.05650208466599 43.44593671005667
44.86749777346494 31.66748134472048 43.32828063788541
34.36323723424987 22.196865058387818 59.07496722053718
34.565441069441185 20.146132682140724 58.652821842211466
33.067536856088275 17.90417552958366 57.93813910652048
31.146593587729356 17.70244787617162 57.55524036692175
33.26367296226405 16.583899104919475 55.37195803876423
33.20214598701925 14.24492745609657 56.11760047057737
32.79293770096504 12.036490891378024 54.634295278294275
31.778348304820888 11.64713545045675 52.33494597871805
52.13456896503184 12.76489603794088 49.370872844486904
54.517783155921926 11.392122548244563 49.62028282178461
56.87326588042268 11.970575490392248 50.298634459683356
57.934756583055645 14.266479787143655 51.07964103989883
22.78071096158882 38.0330670388236 59.533891167149434
24.618427623496416 38.26950795091225 57.69653869911485
27.037693971522778 39.288966474545596 57.880348625787356
27.92141580487466 41.06762302996089 59.27081554150997
52.39001899726334 10.15405404297612 42.08370397265917
51.363832689001704 7.846769861146483 41.90399761793727
50.3628185159947 6.694341328849077 39.78611819882922
49.05227622306075 7.622639669393132 38.065263091147855
39.757691220882116 23.265220093416623 11.832061412925766
40.917163275475964 24.753569536643298 10.553720677713759
43.42284433739843 25.89110333015877 10.576578382336631
45.14364797983768 25.805504287766645 12.218271224543564
21.025465294448665 10.11127950415163 15.151565863095394
20.9009174583391 7.6865161392056525 16.624762768377575
19.643409898260813 5.748432695197674 16.268209022804857
17.940048401849833 5.122681150543058 13.78759955496434
59.0800431077191 16.815093074009884 15.380026140365269
59.4760562919681 17.0765855074061 17.74091948664941
26.066048517276872 39.53253152896131 51.52452136194715
25.02081372795725 38.60674632587028 53.054985374933324
23.998301691344796 35.93658995673143 52.8048432725525
24.33160327002047 34.55217122420076 50.46956332486623
36.99145184267365 10.939278600116339 52.793350640758995
34.653399854227224 10.332809694335815 52.84737297772292
32.756624691107255 9.96493009940103 50.73031136898186
33.12750196359787 10.555789585961595 48.14160223579245
36.55626164949826 29.231022261001883 34.29094034545749
38.228950628617646 27.452413127232134 33.99733657152944
38.06372983541538 25.16416757056241 32.10091144321801
36.36422424771778 24.18287938202786 30.88875539335669
34.07448612002063 20.54652629846142 27.090130802450545
35.776870735931624 21.07634373948575 28.34287370914021
37.448011770972045 23.286515608425233 28.450478157444405
37.36864844244667 25.186509826194563 27.30647318614557
48.64569071593704 63.02499271701745 55.68782563671883
49.82302776778816 63.03616302723768 54.231781496050914
56.18258924073672 43.85683120437731 30.564546235192733
57.91960760389864 44.23737858092588 28.608253575168977
20.747279768239395 3.3971409858312502 47.54082220515775
22.411382275782028 4.436252406175456 49.56339307194413
37.66143776140072 26.08629014365328 14.328632642481516
40.07682630283571 26.5416590308657 13.613200695473537
41.86766088537212 28.46604809537666 14.315109809027753
41.374876518646154 30.31716661038052 15.873826469304918
44.940182767459724 36.32987267786673 20.953430258593453
46.986421493272154 37.809827856444805 21.18741557909807
48.152277420952906 37.59342003491266 18.56335531251313
47.70932320674482 35.95746792491207 17.03915317765183
60.176428887673325 14.267408454948066 14.355582352502672
58.23967753392015 12.97870063575836 15.066083507252465
56.947473894494145 11.125665284400164 13.992747589171811
57.312168879018955 9.526938174839389 12.165644152408731
33.782042628842255 14.64941309580347 46.15049360757749
31.870291534506666 13.883664522593236 47.59847269773043
29.651078457173835 12.689395028416032 46.78291080127087
28.824103296017626 12.447965347314277 44.54705036984266
6.9313709765504115 9.622076902225091 23.143816861153606
4.1703894743250345 9.353477530380653 27.821544098006044
13.514352137352912 4.640184163673378 37.611746317447896
15.06337806678033 6.796368761321578 38.970294029168045
16.938769709526994 5.853546980840684 40.77369725067603
18.31078178457085 3.665300853336223 40.49671741196057
41.4172453733784 30.85873486975499 18.508726138865054
43.22087029557126 32.0893602317355 19.15816069866802
43.6210902768373 34.82914126439555 19.204331600006302
42.237157942934054 36.791628036246884 18.73683465523228
46.40162681717404 0.5623311106913038 35.15328974376627
48.24397428611754 1.6222542493587557 35.636185342865964
28.576119531043645 13.127416045424022 52.21512443646364
29.316421020390113 11.370946914459404 51.091249689591905
27.74632457424383 9.777010323184722 49.36853296277458
25.477554836214498 10.117876871327002 48.71152189577655
14.40946405640189 3.41093183814678 13.879612555224254
14.535946355898618 2.6929901218239047 15.643729022847081
15.951079198935574 3.6072374994222303 17.556528412155174
16.52899262290292 5.886709292860028 18.3611136731638
40.793474683756166 50.721113092800785 61.68558923568852
44.557305702686364 47.29537555220174 60.49491281891711
44.233973760130866 56.77121346587383 38.62016294418631
46.11123495924485 57.56051864588066 37.11298365760536
59.85453861876414 48.854660698290054 53.08017871445648
58.33360641499304 47.200262455297974 52.788010911932126
58.72329781328973 45.0026322236365 51.348771448487305
60.238862151706705 44.6523312562051 49.44203389220597
43.745398271876915 1.8058456931140683 8.601806464385769
45.63571710467449 2.6371026518538296 8.395759422887693
48.12598778475932 2.284432389638441 10.08706828550414
48.18841669464739 0.4638624090465894 11.736463455610046
8.2756238663415 0.7591039058268899 6.353893619351689
57.134058268384145 13.906140939923855 46.9614929156351
58.98421751069865 12.57902925067869 48.226863682853335
42.77735320865079 24.065374970400786 37.34650902642215
41.39874552700967 24.608010316704213 35.64269557160248
39.062475044937216 23.495273961686323 34.718668609647246
38.06919178987339 21.144540753803334 35.19928674754415
29.248941904539524 27.793388517682914 41.12864949687369
27.254708598187452 26.194108836946373 40.56770824755011
25.10007247728811 26.085346722735586 40.79949364081397
23.337075296190083 27.076674951740884 41.894603953080725
18.666802100574078 2.6869962797801517 14.276077117664853
17.017507669292957 1.60960913825602 15.595955589446378
39.56651858071554 19.956998599951817 33.28193562703032
37.84833155977764 20.494270435020958 31.614878937564416
36.13604416750625 18.903559545807116 30.23848563878867
35.236923846969596 16.639573090622143 30.803851167450063
41.70116969967732 53.64095557174603 40.130932005951436
48.907884526703796 8.844775350704234 9.779903327916905
49.23898809501095 6.3684232527508025 10.423708128636655
50.3688902396868 4.460755679940123 8.907571222190073
50.39074438438062 4.161937549025268 6.477957642546876
31.534571706909944 6.493789206510005 27.45380168708497
30.9079469611289 7.902204863880071 25.693690742873276
31.51602093261238 10.470062240188188 26.405089475444118
32.92952305108758 11.396912865601452 27.88650331527084
41.635411652623326 39.922998815325464 59.63556564415865
40.604635443485655 41.919840945065296 59.249516997230984
41.44707210517312 43.842438546739835 60.157973901055904
43.83615308560389 44.72717130122828 60.61654128616752
31.288920481971132 7.529445028219135 18.998194716237602
30.528207692854643 7.833036961318532 21.214007244094983
31.389311347937458 9.249376502532636 23.25336954441917
33.75040182585813 9.983833870681424 23.56867461368319
53.05062979972476 34.251249560834694 44.75633803866906
51.506248968694756 34.260188175597555 42.877470274836966
51.789652634111725 33.38869398079115 40.41292735398295
53.13151030558709 32.27314203481764 39.312206664451416
43.34076158161895 26.36922212264376 36.200443026262015
43.11651510779322 28.328668230032235 35.19049759448092
42.11240477096798 28.40652375952969 32.31323109338561
41.74062892617001 26.90905506153496 31.135259727137818
53.25854728471503 38.61193017410363 23.89773007602072
52.38797648824649 40.57650369558268 23.604646055457668
53.67353236092283 43.281881925484086 23.50763108903431
55.91429289303405 43.92435669960873 23.559184429562663
25.296241709676206 32.62149240608246 48.88836892887357
25.772960535729876 30.70251641637477 49.30615836820458
25.67556888319412 28.29749125792804 47.741168073978386
24.605895208228027 27.77293124683622 45.8684938739114
14.56098247812002 19.894494727173342 41.98434364636471
14.058728040313 21.164200344709535 39.99732978487535
13.062472975273378 20.84058399095564 38.07416474045086
11.286942159754007 19.28935148426426 37.11700048859224
44.478644691621106 27.33657284479012 14.682213714928622
45.88813609776458 28.7066410711337 13.990581687933325
46.55107323571501 31.093039359937205 14.542503780184164
47.92172272703386 31.603194791175383 16.11549000215562
36.21307581666692 11.071665767913757 25.20791223760825
34.76071732528176 13.144573516216706 26.771953751633355
35.67155906145757 13.82062761124482 29.07428316548898
36.505556623581505 16.052114839843945 28.489424481049763
24.681529474031063 7.375445513982222 27.933139019351362
25.397841757923363 7.840569789157292 25.810761884466018
24.966077437559203 6.546112366556755 23.532364330305825
24.150253784999936 4.164639068567914 23.035153456040963
29.78944317102849 4.30215960491995 26.486631575455817
28.429527652406875 6.354899347743367 25.703908499122523
27.703355112590188 7.0876443729126075 23.49882387147175
27.719679280321667 6.10502599489152 21.40773726412819
42.36086911642364 28.169933124753744 9.584898922702756
43.0876664646908 28.635654282405802 11.693611649731992
44.44841660620828 30.681964573281878 12.946039731580347
45.47719005037813 32.559147925265144 12.298135058440186
42.14355508331178 27.743542711883787 38.086708591264504
41.942819319923416 29.9645761674878 38.73348006044685
43.84627219305616 31.618483331117602 38.27044993693736
46.23525078102933 30.6484243140905 37.35326194343206
30.979054931243404 14.82771021468135 24.566350845768078
30.614502967142737 12.886883019200724 23.36935741849843
29.19038989344505 10.645230293079914 24.09457990368989
28.632195233069748 9.93582401472776 26.027286982431626
51.64388339724472 47.599394619940824 20.82737026393677
51.37029381724032 45.595154643614556 21.075045557352848
50.87227135780725 44.048449446349444 23.16537233873505
49.41757258111541 43.96536840418747 24.831816124593537
38.8784104137765 25.081963820871525 61.812062552690115
38.830449750375124 20.16597580819462 61.944754274572745
37.353749283337955 19.414274331224703 60.35384644211223
50.33826465797627 0.3913230705827691 7.849900315670859
51.29561455433054 1.5857808701744467 6.640227575282935
39.18949722415231 33.03833064036552 38.95263418331652
41.32604151999494 34.0091644402279 39.460731771052814
42.892702712937606 32.391940880627885 41.17089944511247
42.19431015663485 30.903244101664466 42.71677543818853
12.182420579938045 17.761657162484518 32.10654186382615
12.820810795069448 20.009654587364974 31.130028803840304
13.696952433710631 22.03015373379071 32.48587908032569
13.19444763758085 22.080938988945338 34.85488365244775
26.279103137514063 10.115717347785449 23.203973552428096
27.49109543003285 9.091445283890964 21.24469785641303
26.93129857993058 8.118947284791215 19.060076592002233
24.604778396644825 7.715666454923292 17.981750318882362
47.13149108443524 33.28601754797366 46.83643371129091
48.25184641251983 34.27229698813195 45.084097601307576
50.064137836243084 35.943533111948085 44.51862420624429
51.4372784020714 37.24889209906043 46.082252451891485
59.92612920154903 24.214487674685355 22.32225233673654
47.68565934681354 1.4464695662318814 7.0899713363944254
47.78241674265595 3.300466391874708 5.807876411051102
59.7082302667249 11.542745383150042 18.975342850186465
59.55432301654311 10.976996512498745 16.77111077331092
59.54239471465333 8.624119408470554 15.372766142751077
48.075220358689776 9.091626405703076 12.787784824327137
50.437704532494706 9.7606379467636 12.932800495083967
51.569119676758234 12.173846709882321 14.068456175192782
50.47953582047373 14.067010177480094 14.546281882784795
37.111623092006795 19.705327708061244 57.15748293087905
36.47915786403814 17.207205543427325 57.867624894480954
35.64966868813385 15.48846508976295 56.5566481961531
36.49648957575813 14.29988414402859 54.435077648222716
35.88009818791505 44.71188605631171 55.64851431235466
35.76301293752679 43.22440868779567 57.15696373546746
34.409886405019385 40.61651110894283 57.15654395779202
32.7626368181339 39.91552351867758 56.062857084709144
54.948562378122254 6.933692352595767 40.61099165098444
54.90301792275719 8.7898777336072 42.2563459265007
56.498774649397625 10.08018549941122 43.6105754770207
58.80750898410361 9.803798353865297 44.31425058892174
39.10385229451426 0.9919950034888503 31.144205518031228
40.58800309598994 2.9998812237257475 32.03581905371824
40.82301064209335 3.9991789812725376 34.03191757160882
48.09343695045197 39.86597193487042 50.75185620307433
49.637376595379834 38.7482757537922 49.43977945470125
52.36195221507339 38.92745481001246 49.1451818781198
53.98688707145676 40.2346059221019 50.03635117652033
58.834323971906 8.804932919677409 46.799054452616126
56.69403152389229 7.748410594022454 47.09223300435585
55.54706406856464 8.458930813582576 49.372693506615626
56.32855919046002 8.98313584167353 51.468844790702406
39.71724257914808 15.376301183831062 60.52487452017913
38.07950752200221 16.604486937455807 61.50755102373913
19.512797315107388 28.881416363431775 42.65010387515027
20.64230776261461 27.65844630418547 40.99035301376432
19.930799565318118 27.744826881007562 38.436898203974266
36.985415911133266 17.375024656734336 1.0800540625924968
35.067850190970304 18.834448425587134 1.1456269054408743
35.04273011490666 20.640150125706146 3.2394027029250276
37.12949620200173 20.848965614611753 4.96290152109689
17.04314391078484 24.708694554074302 34.2083801522715
19.473291181196252 25.089030785979425 34.96973412816782
21.317488166074533 26.044476800417566 33.807481942041385
46.537193731764454 9.867220400898185 40.44621418906643
46.61940906264183 9.094686052640958 38.28647410205505
45.91721891453826 6.747156338374878 38.2414981697864
43.95727484915325 5.442838086171568 39.350146131845364
32.79005144308571 11.315597909246874 57.737014972789794
31.17645478505733 12.074376794337171 57.03236324781991
30.586738370867465 14.388225845944111 57.54272816617945
30.424448952313128 15.673988343880637 59.90830891754946
51.9964016587445 61.491984460671034 52.80099684526742
33.40737743780549 24.09825409288342 2.944447338464108
35.39804942831204 23.007457469502604 4.189295274614174
36.73187392027389 23.45289230550174 6.049080413253795
36.04956723148262 25.0920773687636 8.26889998570351
59.00768343275847 41.94755419855699 24.16163543926402
58.284104354633534 42.578312076413745 26.307445338234906
57.75195907788685 41.46834617931618 28.534904396307155
58.75195803156999 39.423312894638386 29.382111652949174
36.788071703892435 48.18823884059306 33.60474787303902
26.03869286013456 6.524957964022867 15.811514330521359
26.699375392322562 5.606105920841906 17.930364543874674
28.581777468363647 5.697311737654117 19.03782513010402
29.77884535189678 3.9497019931654567 19.50219708120328
21.703318174920298 33.34518690828567 50.52313322954878
20.617396789675883 32.31365161408394 49.34356668799306
42.63723654939206 32.10475563720283 14.313546158959817
43.86759100461944 32.71910304014519 16.003764636811166
45.02128386999206 34.699951022366676 16.707771845071402
45.28549971436815 36.79667549482729 16.499897651771818
36.448599385179 18.909186372809263 6.821731819425414
34.54105185921363 20.51198860208531 6.999966257808184
32.17048429112258 20.5916478689085 5.99533675703164
30.914283169114064 18.91044294636172 4.571228451855094
38.51848707223303 30.905806288821605 33.00921368542887
40.48396722285173 30.215912982639487 34.353435595163845
42.13374141043102 31.538720260827837 35.90916836465256
42.12636958861339 33.441234623187306 36.9379393265357
55.540574218568494 38.29418657862643 50.0595550720041
56.020358841208235 39.44417784210922 48.09573378418528
55.31887373873199 38.786060590751056 45.58711036389957
53.73454450800645 36.84898000917826 44.987278770156784
47.540181019380356 35.94791350655283 13.20193654038332
48.04374833824914 37.8235393182357 14.576829137770087
50.47064482727745 37.30323542738817 16.11797558633328
52.0723889595327 35.53301611602919 15.430263768379374
52.04123443397458 35.994749080035874 40.08216538754002
50.60212928510288 37.08720751770434 41.7262868761364
51.42699744444582 38.819210553114864 43.86237713923151
53.27121344007229 40.09980000098954 44.274227064121845
21.84559084695885 22.954454953029664 39.32843330664425
22.315155951723145 25.251445500982896 39.91775090774678
22.6279876796802 27.152606253700863 38.66202231312045
23.389646715274637 27.85704944440895 36.48898874085615
29.835551204115532 36.29658856734928 52.661219492456325
28.18059410221766 37.080013525222334 53.16268904731829
27.103901900044956 39.90836053382552 54.12226834156619
28.57195439082691 41.57093459394031 54.66770818458421
40.39647974903568 31.277667384634977 45.24080500825137
42.55324402480225 30.955852248371038 45.508140502864926
44.49498824633534 32.53979615124922 45.86049978269822
44.42702130078718 35.05121895945036 46.374669121112895
47.36830199931215 48.07287594428503 61.060056044152404
38.82315496625552 41.60679063643449 61.492105478617674
36.56076888835869 42.07416018214619 61.07297218375279
34.81551722232485 40.66980799353266 60.14728388521789
34.639492286303806 38.5404593268675 58.91555268485368
56.135193082705456 47.15786812426449 50.066632055074784
56.31732051596523 45.044596693025305 49.923240574186146
54.73415353162959 42.823989476610485 49.62487448522772
52.504171820002874 42.745498799624656 48.81469549520274
25.19196765522633 24.730139490586414 43.65929605723255
23.188021626776948 24.59393379766133 43.21398554277923
22.433578853944947 25.965224241219126 45.28477228645401
23.224240181251997 25.94135766389492 47.581174965900836
54.392530864713365 45.69301617808883 28.895647242692203
55.94483201632716 45.25291257701359 27.063999223669892
16.923133371303418 4.833268107806965 43.638587652509976
15.165378824040653 4.792630053884944 42.41092946205097
49.533508806870145 5.959467059030826 47.24746534048264
50.173443999496314 7.2100400651906025 45.3292890435149
48.771094313080425 8.371869846750396 43.57706666766152
46.44650047996595 7.893790118122417 42.684461132282955
23.690793367108704 11.403171465489054 51.3388903132205
24.071722167188963 9.334686109499037 50.82719390575769
23.051760261160094 7.389855573831531 49.6337790411913
20.79259341799082 7.11098052971032 48.487073600098014
18.81276461326739 6.6037767840660235 42.691103182395715
19.517107654091507 5.628248763240833 44.670999441940836
21.30375483760886 3.3726072092688466 44.3837479708988
21.781772030420942 2.449386716715212 42.301703419793164
54.131083345629186 42.37214809819046 44.816099388706995
55.04365443181915 41.849803611085584 46.87968333381034
57.04801520882478 42.794572931473226 48.216935085045
57.90294938458791 44.828984463812034 47.60098807709243
30.996077685534267 17.019446284278985 20.247274612476527
31.178880829993936 16.37856841849305 22.22296606027117
32.98668787220268 17.407130601249023 24.27460933572504
34.03786524747418 19.601310205935903 24.353781718752753
53.082344103780684 37.10286924475336 28.096951768726747
51.70663372821291 37.61436064708483 26.08983194032789
51.81209937995134 35.68321799197182 23.930356295515406
52.32042825503991 33.66107047967457 23.84697872368634
46.239822492134756 6.194851747363489 35.491525518703874
44.26519463370793 5.478582220484653 33.81577652788059
41.851421561655876 6.022987460566234 35.27931001948101
41.73584804667152 7.500998165248889 37.14665548877427
39.818993634156655 0.5685168878667102 6.159068698971191
58.64532384556365 46.425898289164884 55.37631574768751
59.60494943842037 46.27439808781079 57.42294943044708
37.15478986812683 11.764473291375833 55.40351496892256
35.31877827951603 11.64325889211901 56.917670838656925
34.75340554781682 13.517409244076925 58.83004229070808
36.58549989462703 14.969396389681474 60.22986635181972
39.89746323574472 3.56288077071319 5.389339718362111
41.830249057397 2.295054286616715 4.998478054419448
44.35898051328547 2.492059975671637 5.848787348957821
45.67348761660127 4.63932324399403 6.5717181845348955
28.485430421781977 9.224253350758245 17.1648155134248
29.45159216669343 9.601570840758335 19.204017417445794
30.177247142784267 11.625537829864117 20.526565888149467
29.210380484810884 13.966063268616061 20.391223311984596
22.710022938510935 32.27804740744255 36.60456415338042
22.06369604953137 30.152404971761705 36.94196918289818
20.87580006022736 28.423434697365025 35.299612945326736
37.300724882423616 50.12699311043377 60.223680993799746
36.23353535171694 48.39150298407957 59.30584281883117
33.24396406339857 48.16740020555907 58.8244320243643
39.624043088763095 51.75326309766177 35.026609228314705
5.5738987800455275 83.47915426091625 37.973181713044646
5.193762376910113 80.92510354712742 38.56509633339282
3.3856589196005205 79.40105050836233 38.597436995709884
1.0141445478010247 79.60069041024447 37.30018791801706
19.472014041205664 57.28233721367285 11.876668299203308
18.593023853940476 57.179926015728306 13.766315474709907
19.629423581419672 58.216640442874414 16.20741874980561
20.464929464985513 60.628786727854745 16.377236550829917
24.65971306759981 37.18780213833781 22.94300773615767
26.48664820351738 38.77994575002322 22.853379535858718
29.0776928560534 38.42873824795416 21.897279631463988
4.998988704100259 50.16609458514341 36.68469245100717
6.457295536939961 49.5073898082512 38.16238391731328
8.820513020422167 50.835705120164306 39.17250045845105
9.890898703110016 52.18535219563277 37.18235596894143
0.28447673971937587 95.38056020789047 30.283472814821724
0.7646035731459389 94.13425278341181 35.603769811621554
18.790299710917232 94.22305764187766 54.45628909266264
23.452743545752092 66.09260326263404 51.60656245099859
25.219081068488027 64.82533042971149 50.38810669426042
27.506556068198186 65.10168738905136 51.38668889169682
28.37294348695726 67.07858718305943 52.76384404744106
16.818714589656242 38.44277128592091 13.932277222783613
18.735234538509754 38.29447092092459 15.10973680518164
19.662081055859186 39.677538472384086 17.390719025909696
17.569005920830463 39.865766399425 19.36683651631669
12.860350907788975 56.13683920429527 15.92945118940114
13.00404799013906 56.767906447472576 13.811047455494828
12.361551885901164 55.555460060098376 11.545668218603877
11.231676470364864 53.471997562937645 11.143729495936666
7.599419537714694 46.763758261612324 29.179474393441843
5.642429860850107 45.75115616152312 30.138572588449595
5.216558278905623 44.81594883077139 32.15367569791686
5.9870688016121605 43.177198542475125 33.294827568515935
6.447468230270595 35.10814113750115 57.70404260317038
5.7518454184621355 36.67099112312509 56.06538004385317
5.862095210001265 39.421168809631006 56.68234301480217
6.8508433732322125 40.241339841693545 58.279090668866914
39.94041802576901 58.24467525264491 38.10267410459849
39.29524392735554 56.1525826059055 37.406000414831674
37.57571382257595 55.35676647915718 35.690943876122745
35.457831548688965 56.521778984510085 34.75586060305914
5.329561489521627 47.31593986323991 27.208151644850844
3.779779315917129 45.84556994979954 28.0217520656569
1.710738899647415 44.72338533137932 26.696181087738243
1.808275502933561 43.97137195299034 24.25128696534417
6.885842187809963 55.0119377957806 5.607731502662497
8.393181284399889 53.9541534233935 6.83167255578079
10.194611963983961 54.826253645059545 8.701334272745784
10.6971988149993 56.74313436099435 9.548916922861055
0.9474863096672983 21.034027214485054 33.748076680207255
2.8950255133523863 20.06981253211573 34.70625225351878
5.072597869025269 21.11515064829226 36.068487438072
42.897677338394864 58.01555735042262 40.49166329052724
40.90334291449803 58.42764944815439 40.56657863050388
12.60971281077595 76.69610778202173 38.58706304536984
12.49379413115287 78.48433227781771 37.31853666240095
13.88283238703794 80.83955756269683 37.164694802034745
15.306242908612614 81.62697577863814 39.21319194080207
9.16054645686551 54.55470526493851 3.4369408805309365
8.440064572605605 52.62440236997862 4.604214589801827
6.657995461949775 50.8988937151423 4.083391004000393
5.53826469837973 50.29487120551313 2.109754884470279
23.296518447889987 69.54503287326949 20.348713755726862
22.80440442232614 67.6320969684979 21.60524749406113
23.09807437131346 64.99138649109925 21.152954961202948
24.840451992981784 63.910168399435406 19.726291304434863
19.695405685718185 56.7094050708024 48.61902192023074
17.429639707293966 57.673971552303286 48.018380258177054
16.204008537464123 55.658661061252445 47.10609663643547
16.91967742672442 53.29380362064926 47.49313636414459
13.693039014246798 78.15176382107222 43.42788633929228
11.997483475719102 78.38736373149518 41.823578088646336
12.15366904550663 80.91532492372377 40.580438398161576
12.865841808199798 82.61832787560597 41.32395375375771
4.931541658898672 47.85961256109914 5.403861574708126
5.342248544116446 46.350719089407946 3.631089095079087
4.657922529911299 43.941189297345495 3.1756673085160925
4.485123143634615 42.33047233992034 4.4233385920011346
6.044097320929188 74.32662932851547 12.964939907668738
4.402388049101638 76.11052993985207 12.594064293850014
4.274544017575083 78.50744576798976 11.676837319740937
5.339835988585396 79.23618803662066 9.580720434325821
27.0108469713427 69.43257150275453 21.457145989993037
27.789321468815967 69.76582872188453 24.053351661925365
1.4546018024337535 63.46363191230222 54.71815753490694
10.0616868700605 14.242379132511811 2.626443567410478
10.132672488994325 16.404741591032998 3.677636288896916
12.016811745333248 17.894840493048868 4.905260584236905
14.12899490434184 17.48438452233991 5.640641432619524
15.51197938898233 28.783561084223983 41.52387993480575
16.014868426417365 27.689370354453217 39.351433084594845
14.422161857846222 27.205239394042188 37.281462752669256
12.304647780122348 28.190664124613477 36.830473612087374
15.767002442356574 52.899031563341076 7.785627116053842
14.512200319214905 54.43472158471649 9.261362791085883
14.911887828687561 55.62902426538022 11.581887468567418
16.446979021025786 55.76287177018995 13.011495689606901
41.84950993871395 61.28386439694704 40.93147399551678
43.92473269499826 60.28398093792972 41.45085135266934
45.261297545949844 61.74953522908411 45.7332082135953
35.45601246157256 48.38696122822647 36.04513061939739
33.35232957305517 48.55080230521537 36.23765685796004
32.34698580063494 49.638923937674086 38.859687090164684
32.94563523510098 49.35745715087936 40.98587640332449
5.772241807057989 84.6203264469813 21.14999587355906
6.635331233456051 84.09382903563903 19.572923218249127
5.268229577761545 82.314186061843 17.84574680631264
4.077067447782348 80.84725570229654 18.289353834418918
2.7962641157108177 94.80328697491741 56.95703796835447
24.264840638849567 74.10050371567196 55.67256207266471
26.245957739840197 72.97068572963467 55.40865949794726
26.374517175730304 70.75935799009535 54.11132015701258
24.55778246692601 69.77567575919976 52.666211400659975
18.834743188057153 30.51144062091824 13.504790402288135
21.05851358856824 31.28845343770201 13.544472074946453
23.16525172841388 29.69648228506989 12.679932794698834
1.1735970933439157 83.18748193027717 14.953609676699848
3.4021809842457804 82.23874802409362 14.018419473715166
4.294326192881452 79.8346271380345 13.811168514230605
3.176844082913162 77.78966744896634 14.479901882015248
27.597671409652826 63.49760589817973 54.96049981645915
29.030251136832312 63.622968307461676 53.34713177202446
28.862630594562887 62.04408982670386 51.04916178853527
27.23689363027611 60.21129353459359 50.5760654559257
6.395476716098288 51.29788852267969 57.916483345621415
6.945214981749148 49.653014902240024 59.69281362664431
8.44970589312086 49.46363543371939 61.36249516261681
10.170929355984672 51.418546964485415 61.92090530198106
0.5176245161779143 76.8589716188195 36.09688296144201
2.0891611094532787 78.4938168942529 34.79639210228535
5.310049625660194 16.636622049711352 32.651193819155914
5.222870860117289 19.066552847405788 33.00935517416094
6.95514810001024 20.70204085484823 33.85582115894016
9.290884332220683 20.895597921606576 33.99994968438355
16.46840570407546 75.8035529885816 60.80352781051649
15.16741020818723 75.0214285363976 61.99336461006512
12.215729331596506 75.53720469936823 61.68622659392183
11.179264370848415 77.08975822798843 60.471990525846955
2.5443053668895033 95.16110131307859 61.22419592308828
1.896377879723092 73.18948938697179 3.758450347506989
2.6511861795442915 73.5543542403653 5.854575790689075
4.892267451678145 73.29671307093324 7.230594850010962
6.337050215179351 71.13809417468585 7.290984663478824
21.75457889748603 38.372278362834145 57.04544047963792
21.719654403203723 37.18009971526044 55.071055789714464
18.67885542206156 34.6559448808458 54.82337818566433
36.746149790302375 58.06362517442861 14.192497254344334
14.422278707562695 64.49822080117701 20.197666125719053
16.15722863798669 66.39914581489386 20.595309350799877
18.46991689143116 65.30639524198182 21.798402527266326
18.47649348546013 63.69958048453317 23.628286165346864
5.405365334919424 47.33597314851308 40.43948681161953
6.419964172506944 49.338300913876836 40.849740906138166
5.683078790928017 51.11393240532954 42.83509199965267
4.358914719597327 51.260476732558736 44.42920179499334
28.3479431769181 73.96387507545192 53.72363301765435
28.013579294881914 75.71407927986614 55.4095134850808
29.720747672873777 75.40428145224473 57.43309530427475
32.01214929317412 74.77948313716459 57.61748147010722
20.354434754181785 36.09603604815164 19.763303753270073
19.06364130370546 35.49098220313417 18.171687213546583
19.91022346242161 34.38200366562211 16.035817266087662
22.015274132944484 32.83496351474926 15.745046746220387
17.239130768689638 22.714799833188284 13.35431488906722
15.344688381634676 21.860793099136732 12.53543097905616
14.014447916214824 22.20017354143676 10.414596783213772
14.745162926676779 23.053035347102547 8.060809878819194
24.009315166435595 47.958170413005796 29.526927769729483
25.730773275589897 47.1200279946686 28.033860426831424
26.062991882264967 46.97827782985797 25.647960213081248
24.393259805982716 47.571339353963864 23.705331688163366
26.787970257026586 43.545145543398334 57.53654979457322
6.640933401312625 45.62981102269378 0.21905442617921525
7.357152565421717 47.8343865298448 1.4578903693232486
9.899430323209893 48.81024638762741 1.467641697721654
34.427362865610796 45.9400373893054 0.6775231034474358
32.05729027672362 45.42663496863349 0.2338674545732285
14.460736125698443 60.79624394959379 16.0455123120003
15.36096829360435 59.18330434670097 14.833659154359248
17.16444508189847 59.836264334639296 12.870349396768693
17.611337541742735 61.8852004891094 11.969371507638725
1.0748939178953583 19.20329539541922 0.09800215266399875
33.075020476252384 44.478337076416594 28.353381825910176
30.667751295021993 43.56778165877665 29.099412250693696
28.471190073289694 44.162130578856676 27.96602050318326
27.700435492166985 44.99646457299621 25.727406598643267
18.348436703394416 28.57076794356267 16.5642777641351
17.949512905371822 27.833100687356186 14.55280426432755
16.10148871713382 25.501740755949108 14.70722227341616
15.880957423834303 24.069033354787088 16.012657818509428
12.833506006061933 53.50562660094748 44.56569094830711
15.104157450323237 53.153944332310246 44.70213649909032
15.646944902024064 52.616131495946334 42.51530946478392
15.466923544294918 51.068466596366555 41.11379243627423
23.5863146806039 61.72938788436464 43.997846201610464
25.29264298881276 60.84866065228257 45.116708644389114
25.908023583325033 62.42894002458747 47.442980744902066
26.255675380691066 64.48568818512841 47.50241850008329
19.304634438478452 51.991026310794524 46.70343854101111
18.686449098029378 53.930017879468224 45.40594714760125
18.81649331754098 54.68136907439223 42.78267803663688
18.490233575466405 52.89226310306603 40.928979952439754
4.548998126223936 72.27007202646034 29.755802730264573
2.320930562612827 72.49585525694229 30.317212227745888
1.6459495118251832 74.6344482721542 31.609455644354632
2.250952177525406 76.87135371783192 31.59730026277323
20.589534252631996 42.997909337684376 19.641781446395473
22.440731573363568 44.31881231551132 20.45894142103179
22.63708269189495 46.10655431111891 22.39546410138449
21.680619852479083 46.37591910649001 24.24221233253325
7.688702016598924 47.955036034836546 46.10403445450403
7.35838401467073 49.22048630463475 44.52112968176579
7.706833698788115 51.935022665761835 44.37369427394614
8.122242205988718 53.58896358038304 45.64525503583865
17.003994312742115 31.10199281017605 33.71947254079593
17.148665132538166 29.115974728959685 35.029565994640585
15.687545430495724 27.089422062289106 34.71980283572128
13.443464584663397 26.700910324824115 33.52995599941899
2.5534510086341204 44.578978596228886 35.03715965430604
1.668453863359515 45.804314934414066 33.36251516864751
1.5964920615841638 45.67738209415594 30.738868321566976
1.0076410176625854 43.94289752512731 29.736353296996274
23.49384672777723 33.623794982069896 13.669854756457038
23.557421584077076 35.82218203940718 15.478154224372883
22.05066478867528 38.14045904295595 14.708593534782736
20.478950663082525 38.28013875561885 12.909658430613662
4.563317359182536 44.03336701449451 37.8650736155417
4.8568875434735865 45.35656821999356 35.87820901765534
6.7890064232955325 47.03663666509787 34.93307020680002
8.189836186416656 48.30735663249724 36.314942320931294
24.637331871218 38.841289360839056 4.319910559983957
24.704897585064966 40.61134463798568 3.3079238371297883
26.44351297378584 42.86234918926973 3.477610197413847
28.187758562097944 42.999584253992005 4.713336595825741
22.446681961194148 72.42211446995172 57.262626079678725
22.314835696700708 70.25007618885984 55.50022514306898
24.213669651210097 68.64780514190375 55.298386781322954
25.028611556901335 67.0163227565743 56.97601853686583
7.145750421838915 46.83665617091688 59.090230515036005
5.642315694954162 45.022580296643646 59.76335205203343
4.744025179066103 42.76105508457456 58.58991446413573
5.156830355840706 41.944079441466414 56.44757096221402
9.416817787125819 51.6387631886032 10.422158485596308
10.399432628709297 50.7515925275313 8.407285873839903
9.264915286975222 49.17444312678258 6.496492105717142
7.354616155660648 48.693734865293386 6.159413280242461
22.94082873245245 58.04563459164814 22.51316140961091
21.484663556821864 57.957705133141914 20.66423427969324
19.270041361420635 59.60068106206645 20.53782135818021
17.632463354279288 60.09459436979666 22.24753531807005
0.580889260001239 22.363463050285354 1.3092973069479619
40.068823927660056 49.748859827621544 3.5716653321481493
38.18538026591197 48.63385856692452 5.005434066909646
36.81110023239436 46.19892870317468 4.687199740297784
36.857694878503146 44.70447426442308 2.9303471749962995
42.41167186302956 51.32274817531864 11.396855041111184
3.7147402001893495 12.826468517452922 30.047495780674563
6.061880712349386 13.6509342622754 30.798325183362504
9.604040721458855 47.07479167216592 5.032038881363658
8.047355115775392 46.18597191993148 3.4356127399156224
7.258163624164891 43.81950051093062 2.915258721568297
7.245982955721629 41.61365517483009 4.530248485088192
7.403575692175985 40.3601474822056 61.26199437804292
6.608062384914492 42.39372966192291 61.05133762511606
32.53943198029646 66.37251270168143 55.86161464602276
30.671820645304088 65.78621303736637 54.649791399551106
28.247024551523598 66.42577408279038 55.34353522809586
27.380515863940538 67.95405950176712 57.28703259246235
10.425671101445154 21.238821164905705 29.046338725478307
10.35077352896508 21.838968133035728 31.58911224531162
11.516328883695605 23.918852349150317 32.86069540466414
11.666840782214075 26.049424812370535 31.82038845331772
35.38585244427651 73.90736167183489 58.70161211231413
33.3980213218785 72.70825557917281 58.404482274510265
32.88347182564788 69.78436866593394 57.75316460709705
34.24863931618488 68.13975506401802 57.068833574146595
6.686843159072197 93.18931952253486 59.438697785101255
6.184294397753186 95.21962332454393 59.776908312961396
21.361223948932 79.85109985832723 42.828433347409785
20.225397858911357 80.06768281751137 44.81324688920725
17.629463144965225 80.58639185090749 44.989093999610226
15.940834577342686 80.48215791227177 42.88415730565029
4.5360760560408835 21.293850203729665 29.757552125065704
5.8973568124367555 19.323123821289904 29.854264315629777
8.096661217945057 18.55013211359428 27.99328770487475
9.055586897879177 20.061909670681807 26.617011139949284
14.987475137532893 61.08626191236714 22.528707309409803
14.67494063525824 61.70760469839065 20.29123695564667
12.972191063779892 60.88414503039193 18.399711251939294
12.02520590863583 58.64706628278218 18.060242368485657
7.743098591741177 23.61393159132341 35.130382930396316
9.504828542790984 24.62517293512682 34.24484836551695
11.790811735135847 25.81417400580213 35.65802250840894
13.027649109449415 24.675668277689994 37.70041199259268
8.48335394322198 23.46629396426518 14.545623514422282
10.588651481471079 24.362231412275985 14.787414472964624
11.96389917957181 25.738299695558158 16.549950367863406
11.426032184540748 26.367301675340645 18.832721412381787
3.8254279249472325 81.73111545422175 9.829767569761087
3.7819526371102055 82.99490350015631 11.565870355491713
6.111098132295872 83.49556585679156 12.74574834911408
8.147074582442698 83.14333255253388 12.145960497255029
0.9522047680031511 83.4013825191827 12.186013080711813
1.2633545401821837 81.09578754518013 11.325334369749449
0.004378867014925235 79.9008277247629 9.363042315924922
18.133607705382847 84.82261168073654 49.27996446361244
18.243112317177506 86.82670163787382 47.835809894216325
18.765403962355585 89.552735537465 48.50356001682281
17.701329404272943 90.32688362036377 50.62393759968807
3.340298909389968 38.44665621101287 3.998989114687138
3.6120690557621806 36.08730990509405 3.6204449617177255
6.3652768990689435 35.940515778032555 3.453549615213902
8.09886386151147 36.990373079022085 5.289909195530144
36.26067851072874 52.1361373038964 3.6817060125418304
36.06422569224753 49.73687967536815 3.6507194354015566
34.497541986505695 48.126161880081526 2.726243754376226
32.645958519254 48.298905491772935 1.3350684086987274
20.18130074441309 63.97594293110689 55.51733003446391
21.343789160376794 66.4313372374473 54.99167761973099
23.877573387188562 65.64518040705485 54.20097120728694
24.87740801477911 63.40100225064962 54.16570079364404
32.72933197296566 71.18667162238683 35.079394309506725
32.88122603027404 57.23857558136394 30.66562673624964
33.30906623991196 55.420859289657244 32.48119305404783
33.42451773348166 52.87358087306222 32.39557162350454
33.57625041494317 51.308065826397936 30.722714813349654
8.2470410421285 20.78297849855563 15.24524926683088
9.663145148212385 20.234378474372715 13.532558706914784
9.594755157291742 19.03728161392253 10.956884945529623
8.051379462188729 17.986052091298095 9.871187777963629
12.886113104133896 24.67430105326657 10.561185522360866
14.87341446416678 25.752276035692812 11.610676571489586
14.127522027982955 27.192759978630434 14.076760033912578
11.99366928287427 27.769422247644588 14.859454205089945
3.4244145393586254 72.17431856538074 32.96905111156571
2.869984424161968 73.28073922308421 34.66513251660388
23.40449867357613 85.63708788094367 47.13559392106745
21.89499166306709 86.9938090235637 48.79382074294785
22.2667496947655 88.71397344908934 50.408354554377304
5.830820350944693 53.23234924466678 41.09134987730534
8.214034541834776 51.85957575497046 41.34075985460305
10.569517266335529 52.43802869711814 42.01911149250179
11.631007968968497 54.73393299386955 42.80011807271727
2.2511399826440917 39.125105799933415 0.553320791146734
1.268551395983098 37.86076296355218 2.4094414510863014
6.086270383176195 50.62150724970202 33.80418100547761
5.060084074914561 48.31422306787238 33.62447465075571
4.059069901907552 47.16179453557498 31.50659523164766
2.7485276089736015 48.09009287611903 29.785740123966296
2.4257950602932095 71.086483887927 60.763840177667696
6.307305331314958 36.84196612072103 60.53956068327874
7.072560653291921 34.7162442442703 60.81385001752262
12.776294493631955 57.28254628073578 7.100503173183707
13.172307677880957 57.544038714132 9.461396519467849
14.929664833432783 58.74456897544876 10.919487909863458
17.340267147969904 59.34917037551644 10.128342213760455
