33.22640572988999 59.4657612160888 71.33577543611129
32.67119708216041 60.698888640784574 73.61983665176736
30.473222721037686 60.85524652783882 74.83575371175284
26.301472467320192 81.27370033168785 30.070017553398817
28.944507799832365 80.86625477226754 29.09704422516214
29.37496133106091 79.90460911341839 26.950313454002547
28.450024231698215 79.86402208197447 24.586563125384153
25.122058035318588 86.7347339284959 70.87947840500618
23.99068543855787 84.55552216909004 72.12324424846047
23.257891704881747 84.58897894252353 74.68931234305944
32.198432967175656 89.43729987793253 27.86230328022751
30.017806170987274 89.02735147948356 26.9349963090372
19.39693587902267 74.77847228111017 44.835884529416084
17.936749427506545 76.36129068388102 45.489194606742636
15.808423376037275 75.24341241998464 47.32384826448547
15.465187795640437 72.88290060984616 47.4524378228441
43.1009521342703 71.67393875529456 47.19262358144493
45.632419602016355 72.33290625459746 46.904242232115756
46.83251040029236 74.4403066852571 46.56495098949147
46.00396689586336 76.90095779987395 47.04783372165187
12.489898281492412 75.08343558637381 50.28431852449003
14.125955992033873 76.88406417679633 49.69065988562044
13.579604926811236 79.38027957769769 48.589071974068744
11.745103739042648 79.76899004756656 47.330589568243106
10.546171848688736 50.08053237912195 30.614919498997804
13.041406314075866 49.2692635348386 30.17353941833301
7.412696922823746 72.12785151967749 27.772074885979606
5.95299157587681 73.8310885703505 27.482244269764532
6.702617270254092 75.96174372466382 25.771360383176543
8.891208566771818 75.9259140412492 24.44983084461458
25.013695263610213 84.09014083651566 30.77933941887177
27.363451441671234 83.64968793879726 30.948831749962803
28.785837769399325 85.4439377996541 32.47542740521161
27.64747097953841 87.45237379133813 33.54352945484475
35.644392498892174 60.60222452972524 74.62960688264091
34.21223233129362 59.967633992667025 75.99257228801822
32.42626762983941 61.402328707600745 76.82644244601005
32.46260537116798 63.67162017071094 77.60111638851842
8.816740526277615 65.45234100861809 22.948599793072994
8.233647800885903 66.1900477163141 25.2255398717831
7.696830220130553 68.82572723967522 26.414424409645317
7.974036885439917 70.97005875940012 25.326743552526136
48.85084519574868 51.93833440177656 55.008702870051984
47.58058413422108 52.58087322699001 56.88294894850843
46.696456033436306 55.39368331888827 57.57266290288694
47.44967647137672 57.184592688977766 56.47960448802961
29.138211407176573 69.13873645230662 69.72117730001206
29.97386550690184 67.35669503751052 70.82860603394698
32.60953746715972 67.26208988521113 71.38814547972164
34.41510812884084 68.68860630176567 70.64727037720019
42.4359520265242 64.26118094962524 44.013171412708346
42.17008668723027 64.20370965444772 46.00998412974505
44.16562179267248 63.366367151377375 47.966545441676594
46.60366949378957 62.71003526885048 47.14301637026122
66.09526636887453 84.85577465210234 53.130765978764536
65.34649928022652 87.14406129446542 52.07715303861485
63.37903263638776 88.67262460521091 52.64541880045939
61.51029077856018 88.25804360856166 53.84488557332469
59.16117735429387 93.9113408600057 55.84480124339695
60.47267724642586 94.83389766918033 54.16493042722106
60.716975577736584 97.07946137104734 53.23157003462387
59.69716008966108 99.0498559816876 53.21644835597744
47.85125754278832 80.86527113383586 49.216899544594725
47.20066474512632 79.61453063629872 46.98852892119611
49.06048912964132 79.15601005050743 44.96758242510319
51.34729542348242 78.50955559392438 44.953154382566545
41.489138049526446 64.3814827374796 50.18044947251497
42.987367769005424 62.675359611703044 51.023982651926886
43.81205036194965 62.24511921217618 53.69050318405883
43.02816969565172 62.92683888317862 55.39862492647819
21.319078578835775 84.448210287801 77.25494311899739
16.88454954715642 57.05168930216597 32.62204764150687
14.900440679678509 57.07068519272751 30.957473560305488
13.474571184622013 58.54384536702431 30.170930576586482
12.89541454684004 60.7344051607452 30.190953961480268
29.469455516899114 88.09397356481637 35.59329210475613
30.350883681412068 86.29130701095363 34.32419215093933
31.085315837192578 86.49648326585064 31.75522582469858
31.507809774308544 88.2670885361662 30.224895225320985
14.761759127781815 51.144489425957424 34.7727896357845
14.052926094316586 50.80317817322501 32.32480194545811
13.841741872069267 52.39921156413686 30.461929415574705
13.97182745235358 54.78272451913473 30.234905810001145
27.41407583973149 74.96721615656686 78.5693122874396
26.99546637963873 75.84104022282094 75.96604855183553
25.27340445652616 77.05808462551529 75.06162378467154
22.886409436416844 78.07122926606118 76.35124139912264
8.071475177588898 76.85450769167721 21.522939708643122
6.555356597201878 77.8462133844092 22.98969397009199
3.780931938597258 77.58952801672444 22.89550351271002
2.7246063218995387 75.14562544639621 22.759766101250097
6.2610084723994595 66.3848192684867 31.19680208810492
5.786646561674279 64.63726888839872 29.780479904198373
5.071328969441948 62.098164115308535 30.062210002767618
5.041133513068318 60.693885201348124 31.867489753144227
20.080209557708326 67.6094161942338 46.34711249288316
18.131550615922247 69.33777409473058 46.08926881833441
16.204842522501032 69.5032978619984 44.54125103419987
15.737939056962706 68.44465242930812 42.51618173217762
17.90735648828144 83.09151984230266 47.49010344681779
43.792990092526026 74.68220220192025 52.030599044673544
44.77313828437747 76.04697911428622 50.089189229654295
46.34250536272805 78.02656533980657 49.900970428393784
46.71400760621856 79.70039802797527 51.28225788253877
1.78029254940502 76.68845577740797 86.26858759281565
4.0089220165909785 76.52886627219111 86.91010628916402
5.548176937727949 65.92209276933542 64.20523399955728
4.253332318742492 66.04114606685927 66.26732672431932
2.6890440414092662 67.8090498357107 67.48664716447507
2.130828636116641 70.07983807793835 66.6811844477083
19.34680027326314 76.90646853288236 48.858006242741105
17.347608265202258 77.92308359676942 48.905759894352734
16.543687193706997 80.5411544327481 49.630871362631716
17.855374677267413 82.42437015870695 50.42225377350544
16.156913775339746 81.9929866216414 45.83778067698928
15.58677923068005 80.08631328828348 47.02924258052248
15.004487075743034 77.5611287965321 45.92320780479308
14.462186193094386 77.01988525047342 44.33889275452832
14.315927173555675 74.22246080167426 43.067603863146935
12.184880483352574 75.35302021518822 43.293981049952706
12.475333120217565 75.95998899676859 45.8522556458655
13.227508451193227 74.59593890174442 47.773481935905714
20.919704092874547 53.94143059250842 47.50797389501029
21.44435778218849 56.37457459231608 48.34811189723729
19.937797196880116 58.31202582622906 48.84823248456562
18.325236415309558 59.231966950651625 47.76839348713227
64.01058172588058 100.49328131962393 46.22299353399662
64.03855804155097 102.40654220079428 47.9007030956519
27.043229118855418 86.26036373381581 64.88215132859986
27.08130448938092 87.03120051207515 67.4394903026732
27.11856438828288 85.85025385975617 69.4569306065868
26.373011961686515 83.64120100654394 70.25272846890911
35.929523880147876 61.28848276646893 71.73927956016718
34.65411588711241 62.69450376066171 72.58968729048067
32.82926959977777 64.3170721244869 71.5192191037505
31.53679091241035 63.99083849333048 69.6048893725389
1.8461450163119475 81.71940240065523 81.4903388490797
0.2714270967743905 81.94912824275512 83.58774995030755
56.501356294118295 53.524171508011236 56.707065276921014
58.291844805237616 55.079709413263586 57.37593477355411
22.29194738002203 69.7819878855105 46.82699807722445
20.196147462463703 71.06059400235797 47.406150792404915
19.53837115076018 73.53294177011841 47.4982656596529
20.761577971547144 75.41916427303606 47.139951115021326
29.027356937810378 77.40676161006579 23.50943218848262
29.903854005930118 76.101335418044 24.900504254202477
32.33908241588803 76.55004501542535 26.241852077544223
33.78297746165275 77.74317266610306 25.871079832570544
33.63828333970452 82.36952020548418 30.119826600719826
31.337532594240322 82.58389743228314 30.421327657170153
29.598042608886427 82.94453980832016 32.65139595994018
29.965684526219693 83.81169295934602 34.53284619753549
10.480025221815957 59.099290543068335 25.903430347547214
10.538212626219913 61.35938979741067 26.749107228357765
7.860004029071102 62.10193144441815 27.94540529537574
5.912140324329491 60.846050043178124 27.58659463319859
16.109066646261955 76.59709811261818 52.86361599616009
14.528175018487785 74.8833384497277 52.261992991908244
15.34824936752693 73.44074513323302 50.040870325991506
17.675560253091614 72.91302290463915 49.47875111072705
3.7932955232806593 62.390897748525944 27.56181484827882
5.322497318564551 63.81683521756331 26.536986499960133
5.339074487051569 66.23522995533591 25.977493130983223
3.5446531101467884 68.02866359353634 26.71129676280114
52.368616088612924 83.2797798062249 24.478296338905075
53.78745065127708 84.90552868712611 24.020400351011016
54.341614623467954 87.18335033507218 25.736252874209487
53.27303620255316 87.20727946891564 28.42074632500331
10.78875382070502 43.759012771010454 1.7046549089816334
12.964389798949094 45.071816056037775 0.4165235329339189
13.134936432582592 47.3590652447836 1.9692296391095208
12.398596118839963 47.58682792353218 4.190155984539301
5.915506432978787 71.16716471010713 69.16786890713735
4.216679814949947 71.4805550109823 67.48150286383337
3.6345646944235606 72.9658299785796 65.57276663455455
4.943196815041689 75.42301894441655 65.25360609117277
24.446946099746434 58.15438067228675 48.1849166894973
22.748047751978852 58.81914326920265 50.02502258894274
21.558121784609433 60.764414096833114 50.44623631866086
21.204461136303458 62.93295416191415 49.51642781266606
37.00300352211394 63.02240032258237 23.350514524468107
37.937416858251915 63.786860343120225 25.459827011206205
38.26069352496047 61.94792428812245 26.394976647486732
38.87299013090476 59.534941473990365 25.20007489866565
21.527873398760992 66.91760323509067 9.607204882523053
20.20875423560806 67.75239117505053 11.735587454505351
38.52297132687475 81.28814948489143 50.24367361054116
41.036679901762255 81.37491776454004 50.90077388200502
42.87894528597971 79.72936064623804 50.46892615596676
43.19238356539373 77.98137092606198 48.740700532007644
37.68332606001202 69.87434963956508 2.3702877960391278
22.24842049479322 45.69609121080518 0.09536866286213357
46.620555938700726 68.49723784933863 48.627672618388885
45.0497786615743 67.15432807254103 49.016571725204294
44.55630300731597 64.89716505333915 50.492559684662176
46.08288131917339 63.52885052512127 51.52651435665617
18.501748602991892 34.911607873767124 2.7827562075992587
17.592483727898756 37.31233446298229 3.5564079382988094
61.804519376200325 90.77480315157253 54.349436398536525
11.384861256941763 101.14672998687396 78.98537925047559
13.053258945078213 100.72050063348209 80.01705541304764
15.026050764053718 103.2722593250297 80.06879502077334
52.971503084102125 52.58962040428821 62.05380516750606
53.2308955026865 53.77664883139643 59.85125475892002
54.995295457793546 55.80440215865972 59.20791646856318
57.17574332315996 56.05831479211563 59.805598108532024
34.95690715991784 71.5018183318399 70.80654752105534
33.2472841575773 71.06831571387531 72.01913132826279
32.37120185296645 72.07558076902313 74.52363785786358
1.7407961999618151 77.4678810510128 83.38053731117668
1.382491630172942 79.48991446841043 84.90053506886127
34.70042391703011 85.11992918556055 53.09709540186641
36.95580173512374 85.25615050810268 52.650818280590904
38.63258787916716 83.12630957418493 52.551831759548556
38.17974580390451 80.53539040483943 53.49170387803079
53.37202656577779 75.20974870888276 46.09539401505853
50.69578310728259 76.08942429446765 45.96870164775059
48.860266317803564 76.13219470330256 47.57809560470726
48.540025757436915 75.2674937311873 50.065122859365424
35.82330881307802 86.93918318102149 55.21081007671408
35.231744428341315 88.00825233594337 53.323887798510725
33.94866544552803 90.58177187933254 53.0083803225333
43.02926831873954 50.3759090870635 35.26853144540669
41.936461940392434 52.29447278614691 34.88805661451663
29.312982382379236 54.070629044571376 51.6365383719971
27.302942582593374 53.94430254046662 51.203022484717756
25.335065199522294 52.505875530954924 51.87640360303196
39.59067074644182 83.725824756375 7.12701456554683
40.18611789080899 81.96960921780476 8.668145895014728
40.822507245675105 79.68197245355815 7.25415825980963
40.27014410117731 78.78529848499073 5.452366868868684
61.17945275851717 90.53628275492224 51.4525007030447
60.114598214089234 92.20203724922521 52.43439343668199
57.95967111166053 92.83326497311982 53.33583720196605
57.218379038129974 91.4482590548158 54.882786646988265
50.86146144970221 88.22266934596874 23.433600124753262
53.1262668280505 87.10589222746891 22.303340125649584
53.28754774852189 85.59865718646026 20.17363980580586
51.974895513310194 84.0652935859611 19.09054981676218
30.787225430408647 69.6296689049809 30.240787747374906
32.82780730791621 69.78795683662779 28.837648825257055
33.588182735495465 72.30362678859312 28.495299523531624
32.752356689506904 74.23878924495851 30.279258078783986
57.42929772490082 90.42187352668861 57.50080971453851
2.8440643137240254 102.6381264941466 56.85095702952716
3.190039290626846 98.24235812676949 60.62898460571891
37.32615447188948 70.00246157855402 28.278635892493558
36.803973676862704 68.19207159982008 26.68394995027263
38.40244769979335 66.77743090981127 25.05738977478234
40.96021863836527 66.66251684956589 24.968544156704205
26.06636724952632 56.20018349556112 46.85365921493845
23.54925680245002 55.32130435043875 46.26268634682194
23.322538055735325 53.07453938940949 48.02514922263858
24.741189345615673 51.967231622780375 49.15896404780854
21.981649687958882 44.84632910495816 2.947829164100652
22.309951249085998 42.62544806216531 1.8566103305615353
3.8625597702144083 67.28916292051443 23.59072402083491
5.291483152815843 68.76067361778627 24.85028538162338
5.3693612126470995 71.23417941574978 25.31393534294813
4.3237840860464605 73.2188345988068 24.327579228344913
23.85933048863497 76.4553616753941 22.203665417654697
25.243691249897136 78.1792583163796 23.113277961487885
26.787438267423948 76.65161603562215 24.950665709584822
25.93190269403774 75.13960856897033 26.38579677169206
42.78144409980437 53.84141679851139 28.752640797168972
41.8101239216635 53.767317674487856 31.24006141310159
40.541880979108946 52.36492396583809 32.51103851179879
29.169321837759547 87.70907831994526 23.993247686911882
28.33144040805264 85.83377186403993 25.097028521140725
28.805981819238916 83.4273063174033 25.127105085098165
30.416519559292304 81.98106646804655 23.79766446926788
44.551902572506656 56.62102191810579 58.97002310254168
45.95759718449989 58.53160184302211 58.282941901153855
45.418808637701446 60.18370693446758 56.23268673893695
43.40243760003894 59.68754812116394 54.55680109028002
14.646889712553156 63.857832702102655 25.07402596366814
13.674883865678625 63.18650886137213 26.863094533551493
15.189620415815721 61.36411221119037 28.48799492847369
17.62329015471827 60.82749866237233 27.545017883483023
9.305704234655227 65.32964126758883 31.121155213446755
8.831944213180499 64.46987732405805 29.127444767379412
9.379782035724686 64.29786251327471 26.800416368265072
11.654150129703027 64.94672833358116 25.556411639824436
1.538807904107363 74.52141062135688 83.62677994285403
26.48672768166874 49.91272085956793 46.6915757040706
44.79696770484139 74.04175276093567 42.11511504067873
46.8340962068996 74.34178624017733 43.91796225958634
48.612462981245656 76.2329284062961 44.198277272367044
49.15101761264295 78.12655552567414 42.16588034654962
48.78376422070392 72.5100648529555 42.19920292057174
49.54673662504201 73.45087858074828 44.4499837319607
48.703611039116815 72.23363285583959 46.41307485025189
47.65753297200968 69.94231999425486 46.762523266204184
64.31752103922841 79.92878503389606 48.55942114491909
65.48345805307379 81.48261927423887 49.945958880579006
65.37257986068774 84.00383338771208 50.64836275111873
63.68356330993511 85.6424757408681 50.290605520157
28.491967667567327 88.44185325393809 29.452024659290636
28.975774261235316 85.74806836747 29.12185990854916
27.820637694564027 83.97915618432147 27.957837111110837
42.90602470145291 84.32539050257411 45.97268184195154
43.32369925589043 82.78130153796977 47.43273519121468
44.42792293022411 80.2527624039432 47.40937667881564
44.23818119433791 78.77978072627161 45.823147602594986
9.001935860831589 57.41127427004799 28.320530722415214
10.724138669761514 55.624628808433975 27.695393864391406
11.502934253063176 53.539422902743254 28.667143749514246
11.3097904595879 52.430641654436435 30.933144142670304
28.01246759039649 73.98690738043548 24.897982236833336
28.659105988233442 72.09742650119338 25.823637806757837
31.572647368840588 72.0595025280513 26.00434445337586
32.83486537236295 73.64011312681964 24.767314409111265
25.73555965284037 60.27708584898142 52.64517855443451
24.82481200883549 58.31517042733514 51.91121922816852
25.347572693331355 56.58542224345231 50.289559491134604
27.15258156146489 55.76956118608491 49.098061325041385
16.621028249171324 43.65195397457964 0.04084120895280505
8.490622056631054 66.52922561742747 67.68365632399126
21.40918764746226 63.4822974602353 52.23372523122466
20.981775633183535 60.89766911826361 52.97498605624812
21.94257723042781 59.545691559060465 54.597445712076976
24.55043928831718 59.502026775654876 55.16287541112636
41.50404646316972 49.52635906613386 37.4548804431892
40.55854845075989 47.775681753592366 35.97756724078642
38.9728714579633 48.09020821740671 34.11034145694967
38.253803439848696 49.621057402392836 33.320598533480954
38.35652518139743 68.7232478636305 72.76573840725315
36.24656292472051 68.88293740781697 72.84748751868666
34.21086548869488 67.32481250842937 73.65415133826518
34.18449868588595 65.38171442713119 74.55762551606314
30.411746918765434 48.58606241523559 9.933197171093354
29.55993116585938 49.90597300412896 8.59252169879136
19.604734142498543 44.630110561550914 4.416497017738649
18.383071771255967 44.19694147806098 2.6050866288340857
15.553707152105765 44.31940986307333 2.702784794641253
14.368286149026202 45.57593381685045 4.710636713012831
47.945260821857346 80.91954425191363 40.61240240667186
47.64781321490602 80.89966271545313 42.994221341619564
48.56684895832107 82.14725242614364 44.850646294423264
50.163442776869516 84.23363632036214 45.000396414123344
67.50885453532791 83.86553699035619 48.047741076744785
66.95233505809475 86.30430450863855 48.53672207164805
67.62318866757569 88.30586343532761 47.702297839937984
8.823707697995651 103.12820749714534 76.04086662883809
39.31212058346338 91.51662756309398 54.69560546592325
38.45370866476363 90.14977251207729 53.46424493344851
36.799422343511885 90.13084895693379 51.60875975938832
35.84078401019375 91.79475737558208 50.30751455055892
21.420570841281812 39.188123859888144 1.875094444883347
22.633453358848964 38.502267943015426 4.214741786422152
5.765756387165666 78.48811845424214 31.085262785241063
6.324640755365227 77.51654168372352 28.48843678341151
7.93564942235736 78.00130316105208 27.11312188022873
21.390345631116958 78.04327503961449 74.47376804777343
22.848975097321368 77.55308681152081 72.79484427447117
22.807935885951142 75.54945497587823 70.80177236787452
21.14536647674879 74.11113149959216 70.10186822759383
14.072674613496472 54.14770278385922 25.779862409325478
13.701472623963875 55.74161025435267 27.574432421738482
14.376893144085212 58.59340149282428 27.54151642829427
13.51599755819991 60.08060544806937 26.296505327101986
47.2784823043138 96.90100462763883 32.19314186009149
18.76414866420892 45.37602394995938 28.38727674832392
19.388095748756186 47.71151297355485 27.561288776406982
16.094118620506556 47.49716994495488 26.991530045205774
15.93775636510878 49.03178357289846 29.159948713861734
16.063163324248837 51.48596956509858 29.16339535881127
16.23213137182001 53.17508603523245 27.44788530673892
19.04664501034231 37.408001224412395 6.075292863075613
20.043859207763283 38.860180477365006 4.710168560939384
20.271432891430674 41.78878510184461 4.691819165407722
19.82427319489367 43.032290413186296 6.736092556615242
44.580000700629306 65.2932022095572 57.59546486387746
45.530255515100315 63.88807980766823 56.22121195114807
47.39588368486021 62.06147698264351 56.732908379053455
48.18141611466393 61.19632119572351 58.57308130505532
48.325626687069786 92.09684455691252 28.43397073378842
50.110549935018064 93.62556690890312 27.560755427542485
49.92873506685304 95.02629985233224 25.27286920345259
48.802574330381645 94.66390463943797 23.117055857552703
26.909667387430087 74.7581651554752 73.48294600665244
29.348452326594902 74.12568959526259 73.28658596204745
30.37744264652816 71.98724750450937 72.41099758018137
29.539782287756207 69.56635175666841 72.67627554922059
35.287811395542306 68.39983987563282 29.422465085750755
34.32170045420921 67.59173642823708 27.30263386625953
34.303518936002355 65.5065605923989 25.90847362345738
35.580283797855785 63.2226638823073 26.38565163017918
38.6866903125639 89.32744744616377 56.187354717496085
39.13152182751765 87.47649330949476 54.3755049915914
41.149195451911496 85.62504904561234 54.06321294057375
43.38855154834971 85.38737968158108 55.159989396200054
64.4292065937881 87.20664676688958 48.18670530542126
64.47527616606658 88.94288268691662 50.05675652240523
63.72231368230976 91.48595449566238 50.190589170185675
63.61934129712784 93.1028860579075 48.040152994561474
67.74582333659562 87.12127870733502 51.2229577551856
67.0767226740489 89.58309567130539 50.7352798392511
51.305935407726004 52.02659323817816 56.0588167066057
53.1382318085987 52.91089606720768 56.800072027726365
54.801895947464885 51.3337735211962 58.41841808182396
54.16635573108518 48.464438874157224 58.222904466882746
37.09188740684471 86.78070559845762 48.28497776790615
37.77734630389537 86.02249960767763 50.07519466788382
40.07298781656004 84.72112304786206 50.36848818803603
41.39144727552927 83.83528463493438 48.98988749687857
11.312046721350956 57.78645192373371 31.406122759333197
10.468614247083863 59.37416407448329 29.79103483096298
9.496289512002937 62.033609569586055 30.03730161166289
9.553580558689642 63.05041759839049 32.57866402599345
3.9193564668046332 69.45499095867862 72.71896726344731
3.391138586414758 68.55814652519163 70.75152674084056
4.410650845565081 66.4570398041823 69.13456669617038
5.971804694804038 67.36663725342139 68.0469133715043
32.78739028983517 66.59813803323225 76.43063081991912
31.09406323270921 67.58802841454992 75.15922798945212
29.839703091772765 69.60675502312871 75.36768667974565
30.538211776487312 71.78840883203758 76.49833291325541
24.733077886323926 55.318691395081466 53.83025991252781
23.927205814195023 54.80746374236318 51.7230284653305
21.504991743792285 55.02228811400151 50.57140776235427
19.34806224105215 55.36343600337258 51.29554294429422
32.13399659006109 65.81683411567131 18.400003422917123
33.19926851640328 66.86925368987342 20.359146922935672
34.106218937943765 65.93894032112412 22.722765343748488
36.316861447673034 65.65655785246095 22.19860391010354
42.94889906644172 47.64548211683341 34.06223641846558
12.752401016971616 50.2148691697 3.1535953489752893
13.609788646628449 51.065008155059424 1.1854945401074248
16.684249872543568 47.879662036112045 0.4982622934457641
63.210791200247655 98.61102900522116 48.370452176645706
64.05273552798957 96.82171955378796 50.160801108644655
62.4177426622637 95.09235429717464 51.41172823341248
60.349590498387975 94.11884394683007 50.215704909774985
45.724864825970315 71.57507888125227 41.186989204092185
46.85721462631567 70.21063314715062 42.54685358535483
46.67047664016492 67.6483541140346 43.14316220289689
44.41708383702774 66.28688071946385 43.4234331389131
35.234847425307784 61.16214098745422 24.646270320702428
36.33058291324949 59.78709319585443 26.108394416654825
35.625954571539054 57.544852081352985 27.502757958421444
33.6738306191571 56.38903386127588 27.768097929996845
37.33263470752103 68.08821275515115 22.524279174856357
35.38597851253055 68.60376012148716 24.14505477324156
33.40792292022733 69.78231117314182 24.155048915913667
31.958115433237047 70.66540648453548 21.97017548120034
20.65830449504902 103.41941833317128 0.05974169762716503
19.348798819161818 97.15704905160857 1.6322568852994397
20.910159766974033 99.33039575016824 0.835623538270463
23.764509776033695 95.62040706889643 0.8235027527763882
23.032055916314373 101.95899103583763 1.0266064426676726
20.524809929048164 94.51285708410036 2.0702513448306257
22.138653966742528 100.93879121119906 24.77711220547505
22.876243739262478 98.96778500110986 26.201536030806377
25.209062214756397 99.74115316873525 26.96788348998391
26.66208057983281 101.31581615154872 26.16005201225371
32.527548390981195 100.60163942571094 47.95103965169136
31.727320107929913 100.15427422380822 50.49957835615077
30.2669337435053 98.35316001138236 51.36869270828166
28.40032902609437 96.72945397399488 50.05488342761144
1.1123538324701023 85.48371460675534 27.91586575994533
1.4295636645178789 87.62174355326935 29.314299748344784
6.653431013601459 90.86283014826792 52.00084040121209
8.927129193709161 90.4477885842429 52.44514290162174
10.799547704437252 91.53545887062506 54.201642681210025
10.63062251590853 93.00284595346551 55.97775035250361
22.636263911164573 98.0424480534694 8.41279534611795
20.75480137412268 98.0096260157057 7.044120355241703
18.920325741948766 100.11884956873516 6.295474548088593
18.716738849373392 102.43824084512042 7.087329421840665
22.872254981771853 88.87497765661718 70.50462763939791
22.483434438243133 89.37913215960896 72.3642209969052
21.224424880595457 88.2483819575266 74.5503713629834
19.895584272300844 86.05075518855799 74.72943474706511
15.728117429063126 95.34793507274765 53.244082164437046
15.344339542139258 93.49033330090941 52.177293270818794
12.891170732787216 93.5527763274403 50.86415938778651
11.280866313712353 95.49921167684747 51.74962223425843
14.757377016216884 84.63357268461822 51.476639295852294
27.08481750006342 96.71224550337008 33.61082029047239
27.41742550079256 97.95894050344988 31.883447839974316
25.711047019200695 100.0784098611825 30.643051210224677
24.1285381753677 101.49984282442361 31.908242847021796
8.278120546900073 84.10445654281395 26.694149240970425
7.619164075828419 82.15968195721508 26.95621311552175
6.7393267956133664 80.00038998973058 25.528705754889206
5.881246776670844 80.18486812854334 23.177507605192833
22.243849445049033 97.49187555634235 75.8230756902158
19.978747548500547 97.92958191981825 77.03529507811758
8.925524549840839 89.53165242184434 56.42628491851967
10.312231861753915 89.03740614825901 54.63029459240037
12.387204414665664 87.2450249357336 54.219894357089856
12.278985051496651 84.97758940098534 55.36463921377502
6.708239846638876 31.166960812087304 76.24041227527489
6.143483890346818 32.688093425614255 75.09511221948303
6.244398655622565 33.01755402201089 72.5104519120769
6.862449134068994 31.43459397046357 70.89272873461427
23.63024447807209 96.72509662208569 27.58396035175774
23.875387213561197 96.33662253267586 25.398366600064172
24.69559506518736 93.80755439278099 24.40126846340722
25.100437182758554 91.9756712554547 25.82601788317656
4.235849650910002 30.753243225681313 74.95239195822532
3.2448515330818264 31.980241747558924 72.9019990426279
1.8162779943808782 34.22855620312778 72.99999895629969
0.6450509812183812 35.12678560502059 75.44021284958166
9.357457481005442 37.130718631504905 73.53274880943498
8.76679071423652 35.030340992211116 72.9061317142997
10.059570645738686 33.183713968001 71.37166517111056
1.3846307383859155 76.82043988403841 72.414933284565
16.31250039620215 101.73831930826597 7.965505547246386
16.186652281509144 99.57456399649338 8.972552243958345
16.19889396916191 86.22613387533609 52.84062041566404
16.747158787731692 88.5772487557155 51.85347452721959
14.812945760246427 90.61381638384496 51.32871683279681
12.504994047024606 90.77064805404655 52.16954066731631
41.551928199267756 102.88375034980703 26.722752151027063
23.289138276654 30.037552381648453 85.55288213696292
25.315176978076245 28.760588420244172 85.70400246838847
13.908981052588377 98.36891038843241 8.136015867291205
11.027795137114218 97.29078439979028 48.72284421555216
12.734125659147725 97.34930883979291 50.1903613052907
13.059722083890938 99.58183426476884 51.388170153607454
11.274508279763813 101.53982671017366 51.15973774341188
15.68414163714988 103.28842748683935 31.212930812986205
16.814732095642537 100.23214835116323 53.15222100438151
15.433477523924383 97.9775745089317 52.35781999936415
15.592148909333408 96.58236274012347 50.40399068081454
17.10851505752619 96.58316945263196 48.37852987839799
34.9864393916014 94.50691509971504 53.69305568992051
36.952260074051686 94.89171630694258 52.42991142931654
38.26675589462072 97.3516026892547 52.227184155781394
38.62472306425676 99.0717963519635 53.7503184057045
44.6583757976093 100.98796807524889 28.206832205288684
46.9355625051291 100.35769198330661 28.876580869861513
11.399393193307914 89.59221047795884 46.684649905812755
10.357066474372587 89.67442439383942 48.663786001923874
9.217995590700637 92.13122466828315 49.882752640759286
9.563358534324651 94.21616624434775 49.21132170295255
11.075489540100508 84.98742062027206 86.41872135706797
4.811545751954774 101.24906405358578 57.62816357415206
6.755557336578684 101.83844320929143 56.55454805398094
6.188024530440734 103.47833880613813 54.91334383032622
17.833059909553906 93.86257590334513 48.49918658633411
15.675908311504214 93.43265295192553 49.10887524099224
13.905093737843218 91.33876054489934 48.33953033537034
13.954707163876167 89.48537409738972 47.10256479966616
32.78166673076433 103.25567425356263 49.41108450452401
30.10492067675087 103.20967594894586 49.56647871768866
1.2729709325206562 88.76326912195864 0.38346763056687533
3.4579546553551377 89.2068058595835 1.5834993988713602
36.70391194970223 101.25221346703368 50.46446375574534
38.15059502098796 99.67938486226467 50.7049943286822
11.68676060945788 27.595863681782117 68.30914007151486
13.699917955287916 26.70578355730666 68.76049827890142
15.099451874168732 26.727282918628834 66.77386966414119
14.78319365336 26.06710566385634 64.44097396290492
27.598421579007496 92.59767079470706 23.912417761824617
28.341291030808023 90.8006706552381 23.586835955189486
24.372029767281923 88.66610369397264 23.806155366994645
0.26784069685088885 61.115788615087624 92.65502154405549
27.72165004510721 90.29837036065062 33.20980435273098
28.104299005006926 91.29566622854962 31.029459513335375
26.969372750419396 93.39757545239 29.804156170429398
24.471498428192284 94.36810333179595 30.016658208945152
25.035915918992497 88.46286110937658 71.63894234325561
27.86626855273884 90.44760913951595 26.21851060943706
27.242037772476614 92.40434865994492 27.231965882854688
33.95134134923303 93.22783106374027 47.13058122117273
33.23624806665016 93.52145761851403 49.08375438446429
30.827113362687285 94.99732456771086 49.30755639980068
28.88853001989877 94.53174547369296 48.35302330138509
4.7378869065198534 68.28686279443151 92.99001693233392
3.8729297700003635 65.68767052153581 92.98338011877425
5.456916766779801 63.592831971641516 93.28758196064612
7.752242489808631 62.980527224219514 93.24856937601075
18.23516577659813 38.326651443425746 89.5239180144514
18.421666570842437 36.55590080796668 90.77496237786806
19.08924779893493 33.869780462251455 90.2943449715086
20.412649408128814 33.01018501477859 88.73985132005836
0.353946291388384 85.5762066798893 2.81187919242885
22.01307632023332 86.71341481272033 76.69988912091958
20.89252889943006 89.15180256403906 77.871181836456
19.46465509551984 89.59898004165163 79.2258636431017
17.70038737383405 102.9149302289622 77.62389806641384
17.96090602481619 101.39493833466658 79.08830671187941
25.462710464261146 30.895064861591383 87.28624208638387
23.05301956904088 32.303862283969686 87.44413883174973
22.718502557862827 34.29807129841987 88.23580559750131
18.097416371158392 88.88004967399381 48.40961299232626
16.657612624431277 87.09298807612437 49.398378335185726
16.521789032222426 84.49699422998194 49.03957388658861
15.453884214119544 94.46964415525457 82.55998990878074
16.469924020244388 93.77225774545944 80.89471771743624
18.095003553359373 91.67930412204925 80.42023765464046
4.076371986798841 102.86705703953932 52.94807117176779
5.970611470700013 101.36343761956412 53.70560243576356
5.957702571539283 98.82368802413397 54.18618109652087
27.555599146886703 102.6095768472268 31.218694378639785
28.33988386338384 100.20730529783896 29.896661744226634
28.761446884391844 100.27399576220746 27.813902009380254
10.840385289970994 84.29456292651514 50.95071062440667
10.616326491172108 86.52215514803594 52.095058642777204
8.616097789816383 87.7871204677327 53.02186138944242
5.833395040369305 87.2290566552266 52.91693656775954
1.6985301699536113 95.46357946861939 27.566912291509162
1.7244973369714187 89.47337832888496 27.372340085772823
8.365886735240935 98.12827776986609 48.296855878052234
8.810470884616084 99.0996077074077 50.36472350928408
8.824069813226357 98.1470656186984 52.645192069047816
8.66782410977536 95.16375975382981 52.766262301554505
17.694847201034655 103.27244695221172 72.9813035224623
19.468623774270558 101.4757412089773 73.13439493662501
19.97964309179388 99.87432284493057 74.89142348878471
25.891665264439894 103.08726961064018 33.174619261164445
19.180018843298228 90.56403043891794 73.32833499248237
20.721521576584774 91.13540829227112 74.89708367763643
20.197983720060275 91.8584836263725 77.57615433528802
18.8317826151999 93.33691800383623 78.28827524094105
3.752631887919517 61.89863085620775 86.96800327109186
2.4929028763537513 62.31120756351573 88.9936645495817
3.414897063622314 62.626902071959734 91.47104763213875
2.8990350094975983 60.91772495398558 92.29893097780244
2.3715918921269834 36.88851342657393 74.28454461726065
4.330127068178978 35.50923127788094 73.52403605438055
6.946390401277406 35.6022353744551 74.63977040197092
8.071654506606258 36.838427276996526 75.89127088080807
28.20500495810061 95.65152849339742 25.615190513164546
26.33887817152675 97.47073541612804 26.354918497932292
26.053399411556068 96.98192614418564 28.629845967358936
28.172166512799738 96.00832116529429 30.35195072327037
19.55072242615758 88.76389068903093 51.59636481052181
19.197186828622538 90.65944446940277 50.3211817981776
18.91927645656021 93.12584404003204 50.82283406814923
18.923591191324864 94.41899643367344 52.87761099236966
0.7691644166067243 34.3308987994954 70.48036411881846
3.2913746251981206 34.46233934122035 70.51093145835608
5.101060718499106 33.00722995562209 69.52386091159418
5.217318721205873 31.02270121275638 67.85469982343497
37.62284097499634 95.80389895965749 49.81478344427776
35.50302486670691 95.39219832903758 50.04060009035595
33.56666302857242 97.36055808718073 50.03303888195796
34.618564006506496 99.72856175631586 49.702109551940325
6.988548029163068 103.24044513499737 52.10263754392649
8.693959072963088 101.16128816540414 52.26789577927017
33.831934076953274 92.40103918749182 54.69839996748763
31.374572077378158 98.01439332642926 55.15335729247642
32.503023862925694 97.20424267520958 52.50506447527795
32.48571976785026 95.01600132785302 51.606720140132154
32.196060862875534 93.04173342174224 52.033990232943935
19.332743402988033 31.490023956647175 91.97098266731709
21.501287910300608 31.476549740452846 91.00127312663963
22.611678844607024 30.06950289216025 89.10253798114822
0.40663321239260886 48.189763584319216 72.62720657433817
0.7998966814406976 46.65663590398117 70.77713107926022
15.535416701154919 100.9051495954679 78.10735245638678
16.054386868975683 98.98041663052686 76.22913230000684
17.331933397536215 96.57827886881559 77.16726120197268
17.69367750681401 95.80008675293668 79.36057626316098
2.7379708649484105 88.98423235856318 32.65063985818346
1.4802015071237389 90.50918289464124 31.431764661911636
0.870255909818599 87.49160484565198 26.104308050020798
3.6210317275237562 84.75968414902248 25.934705557930734
4.679664067980727 83.06859555972804 26.83375521399168
4.333259417635279 80.44082830691228 27.09797017640271
3.770400618567391 79.23421189612736 25.37292772909031
24.3684505771903 93.47694307553175 69.56488051557149
23.39245547124798 91.806296207012 71.20935088105519
20.61608165430315 92.4130379539068 71.72920886189914
18.974338943192055 93.47004436246999 69.95322847074472
5.862396430382859 86.0650887647962 27.13194676252661
5.794964966461556 86.43939629782311 29.61947959401788
5.37406448575092 88.24768129114496 31.191073985043484
4.293937787720233 90.60681025999784 30.827209526187588
7.4955178064951316 86.61632936075648 32.449392548384026
6.556642014046215 84.44632218963781 31.17980800163347
7.299099513455587 82.93179465707578 29.814645473576316
9.822221747821283 82.2714365103182 28.882250910844867
10.971172477948981 95.67322921220244 55.38338356844916
8.382516650542593 95.68240184247637 55.514814110097475
6.86402154489438 97.31119025123161 56.44331295657956
6.753229852532938 99.3485482971015 57.302791132900175
19.883265401003325 102.3878574503494 27.285964175706603
21.66582938608192 102.90638723086911 28.07089926060601
23.60629390093666 100.85483445841183 28.94711656627672
23.248881169137167 98.7843554814802 29.594099599895998
3.855262045989155 40.49381680345333 68.17663675521847
1.4265551754935881 40.95367500526802 68.95706082379846
26.64866785831736 89.83660482422165 29.042180131547404
19.764421632162783 97.8547880576792 69.9451852414532
21.592520324585298 96.97287727253482 71.65244546453589
22.50632775679389 98.63892716112045 73.3431313984319
22.62801157851811 101.23187711484682 73.45193413572555
15.489230767298661 98.70952297971304 73.20914841575214
18.058422960295943 98.86206652598365 72.69480786056212
19.8312407807237 97.39995832644121 73.40585662543997
19.825297246283956 94.6641922666714 73.57815186240573
17.406587768615488 92.8531143965197 7.2943267953406234
17.711622418967842 95.19572921016332 6.385816152893569
18.098412475114564 97.37350378243029 7.327421699565986
18.77347882839565 98.157374313054 10.047543990386433
12.916937401325908 42.694809864676785 92.46472660217728
12.213178507955531 102.95727241867084 8.057461396838967
4.583157119040283 102.46351984883354 50.5939829777619
10.236975997765846 44.35571239992117 92.57627324399004
9.132085915361328 31.630072894658095 68.64886271340266
6.674050467945006 80.95003133188816 31.159744324159117
57.815184356446025 103.55299585825232 50.35219468991466
34.74924761438729 102.47060383787371 52.21761840372948
35.47373570082298 100.34609293962774 53.224066335190464
34.22647670860189 98.5335139415819 54.58010303616183
24.765862914481367 103.20727499851424 27.42589004125583
23.221056628271448 103.36129594680003 25.729585056094958
43.443191098183235 100.95157475440676 33.604200822924014
45.34855755338234 101.17651544673136 32.413991920922314
47.144740025710114 99.42278964951915 31.55514058818916
1.8220487309073974 85.36508919363216 0.12600269786308999
3.11024040234292 86.47468978617266 2.150034475280535
2.424207771216403 86.49358502744641 31.496383203428138
3.3494829507440347 85.1792390684032 29.714622713048247
4.288940600344328 82.99847276866494 29.492990271493188
4.062458317983375 80.81969798621917 30.88870500688618
1.2447184061051912 38.75863648388535 72.6199629948787
2.8787309095399616 39.11579486716484 70.61075119171424
3.413345540576969 37.469004534128125 68.99705878734156
13.750415276594564 82.82906313264716 46.77024296000814
14.83395729929798 84.73243971359206 46.825213706811006
14.280453990301334 86.85549113315797 48.263531535486905
12.390521786830575 87.7587485798275 49.20359734253094
3.861620894698132 42.696704681507974 70.3927024718098
2.280264851969723 42.140658140825174 71.34422707486934
0.5043853454737076 43.4588749140493 73.33475164446902
0.4639845332174951 45.63421125442118 74.01518671652472
11.134318769991285 30.34988619155327 71.06207061682791
10.56301616949583 29.06626273650845 73.15549552788741
10.490312499179357 51.54749073092827 92.35253246358603
12.89827601851706 52.087497914350024 92.69083535904802
6.922954746869709 34.6304191471325 68.47657038634513
7.043129571387129 35.56600454808576 70.83302513252752
6.758568966880528 37.92841608060013 71.89730810973572
5.409889120226745 39.945624838350106 70.69390125297468
23.611752495747 95.02039149089394 71.88657636533023
22.987192328536896 95.37786320615966 74.16454585631412
22.492880409818902 93.47192662298741 75.54641432019486
23.401197924705894 91.1849332045481 75.73037204989943
17.258599202730068 35.05276368516227 93.14030725496134
1.7635635316341736 71.41424825240841 74.72163048923832
1.2579434634152822 70.0736404229608 72.18905262189627
1.0761285952502466 71.47437336638991 69.90116639780638
1.6926443365166988 80.57787238887028 74.91915948155565
49.40112496066906 21.24235740395355 86.55717085213072
48.5149926269642 20.564022594435087 84.31481348212907
57.39158700681536 24.856893016590554 91.67809207402553
55.502901141268005 24.12554966995279 90.24133620071181
55.318326629784046 22.24951566516082 88.71717069615038
50.62467086732464 18.786963007597215 87.82985103692063
53.4263536722578 19.87053107856243 88.59485367046969
54.332382553630076 19.73356548810389 90.56878940673965
53.09765144371469 23.646989072273755 88.00583051403304
51.95831664292027 21.67692169652782 87.23452698319537
51.82592514888644 20.475590561147218 84.98885992249802
68.8183814174695 53.80114978437272 91.44029431323553
69.95473959337511 51.63415139865667 90.86074290620299
68.42020953913502 45.11150550642872 87.20863601497913
69.13914524034386 46.13933452777889 89.40677262610572
63.341930568882276 54.75656535137561 92.14248411051955
65.17101356286224 53.362352176232136 92.27265682274535
65.49568502067193 50.507314489434364 92.89658029434115
64.0795696451019 48.271305795894435 91.48207680944628
65.45679444216356 46.367472500408596 91.56317463062095
68.34224068819478 47.17589993306934 91.62311584123037
69.36513257031272 48.90896492993245 90.5917144003646
58.16314386744456 45.632633633844954 67.52910620043278
52.82126340836942 42.80492354636961 88.13329294138737
51.28716660609913 41.07694960194334 87.40700104721343
52.212880478948364 38.32570593732198 87.71280640257265
54.008590766025826 37.57693856295497 87.76149826014527
41.53405335485618 43.605054660737935 93.15582471375683
53.05100640944759 34.13980918547179 89.3799231093009
52.15860467105191 35.74318678676261 88.62756689029688
49.479017503852965 36.14934426782292 89.44181429353154
48.16736117686407 35.04742228171417 91.34790634799865
38.85370145139685 54.09594730233768 93.00092101319674
40.86891352002313 52.928594891040945 92.31042538561069
47.966218404015976 25.53033015100519 87.46811204707657
49.736181079549574 23.473492603799215 87.46086086920182
36.65272861050464 48.50135243752513 90.13201182712739
37.34867287386744 46.58558643808405 91.69422687879344
37.59986982842154 44.15040449851691 91.45050435724075
37.30559980918348 42.58786208417637 89.2414668749723
60.0686370051058 47.32177301112793 68.67607982105106
54.91384495262499 29.242929316369363 92.98173367365028
53.96273540281771 31.90143267988348 92.2372184192654
52.10880419438073 33.0914915871097 93.0816219381882
45.533878894715876 43.316032699246435 93.15298824284868
43.42309333682292 41.77019793301812 92.30072161108068
42.60201069516693 39.38161294652128 93.31569062833174
57.97223227127013 51.69826386932698 77.57484116877585
47.728144341505725 43.66008849347703 91.28745526841261
46.51697694479429 42.032641817909095 90.3602310455954
44.025033890722355 42.55155747788651 89.56817065747946
43.08782340926091 44.651312197367616 88.72026101459385
48.53147128896136 38.37765921277737 91.68782699933398
49.99178988138519 38.802138904342996 89.33987931948938
56.32397005844012 26.415840676692657 88.77317007348755
53.71693995452653 27.02824572734902 89.32243554536201
52.73545934446258 29.13639191036583 89.83745232053512
53.33814978087091 31.42211381391656 89.76455555572045
50.482811384020785 36.429198721298405 85.8505242988045
48.61682840345206 35.22845162927158 86.38159464656835
48.908784116203805 32.73856171059909 87.65184703776075
50.81123499712043 31.494849534238107 88.25179490912521
42.77795721450868 35.50102802489219 92.14181335614997
44.07577937963998 37.168488419827476 92.29110459070041
45.921821322687364 38.397442646727725 90.77577242348075
47.1128149005421 37.622535436718174 89.20444298119556
40.29856048462735 40.6366779776064 93.07911010281231
39.79368690302343 42.322199835747355 91.7147015768916
40.90162178387672 42.667597703695634 89.2430211627626
41.876943442906445 40.978863869067084 87.98889369491461
37.98330330118932 59.1012833197845 93.23545745560045
54.75905935395613 25.518409639441828 86.74075561282153
38.91229813253113 43.72764388890683 86.88671671306196
41.560700982339256 44.72563727731797 86.65344810230766
43.75466769625283 43.15115113895959 85.79426362458393
43.80010232371835 41.568641662891 83.94025669401985
49.49650009459862 27.111960522515933 92.19380520639369
50.70598705518426 29.284665222066696 91.743460474765
50.03169321873304 31.726344771173792 91.25362981573632
47.79340709651589 32.58764696008413 90.66970059501494
44.30187510858918 46.935119463530704 91.05302800391321
42.335388171962464 46.086734767628066 90.65754345482912
39.88160618481332 47.2233431614059 90.29304123338306
39.17256046674735 49.343155439430966 91.23361126328881
54.608427919629044 25.857398241443924 92.10402861220989
52.4924042958721 26.98692854781645 92.1511585352284
50.654102378611995 25.4593484687441 90.5319134583182
51.13059285360562 23.1844100786887 89.90015250057225
46.96642582045692 45.61891930419753 92.77473115618007
49.55522670508094 38.79092143194493 85.03493975661493
48.73428282422038 39.87565535655813 87.27084829055981
46.44863567311107 40.1094309340645 88.43637464529237
44.506195531238205 40.32189405735669 87.85276052144752
56.518890338263084 52.52455577940408 80.39063418906889
48.1399309929427 29.17876255339004 84.42325925381809
48.371248133886894 29.886428174365445 86.51197236592387
49.71618701004175 28.94416036157404 88.55082039183597
51.15328956157626 27.472979353621977 88.90217788988632
68.64441513020616 103.16673799931836 78.71929144299231
66.58067502049867 101.3110473814508 79.19973090461852
69.77376395271438 99.56975531958945 80.50765759525436
69.92084492590281 99.8124181431469 77.39893651423593
68.40843317009495 89.41970161329792 75.81734449196969
69.76386028307313 90.11668168234495 77.81368008785745
54.98190453871306 84.97628113467358 74.80861532527966
54.73185104304959 83.03847478332453 73.81441151034689
55.82744526588585 81.79999344781052 71.62017132032804
57.60207636186072 82.4133489885334 70.21170165184425
56.169236396749014 69.1815447899785 76.43339493498023
57.93665097508646 67.98758430252981 75.21209795492658
58.957805527303734 69.45594421816004 72.93115456890358
58.015213376451634 70.9971762112094 71.82194554242207
51.10503663327004 85.91688567319758 77.05096711290531
50.70672116713479 84.07349416647574 76.19609770132752
52.24033205323224 81.89452220411101 75.57609607887072
54.59202553566421 81.41783237845932 76.35494407223277
63.413826841403015 99.06815286598469 54.86623488672373
62.65814099398859 97.36975524709403 55.99282543516033
63.1774510964831 95.142927533071 54.90454005040374
64.78981367546218 94.4987481888348 53.21663355469273
31.32162218687203 81.34563783111095 78.48087608508128
48.03651631245934 93.40547278735977 65.89574161485525
48.90814818853389 93.86085282891527 68.0675114148205
48.30311900811295 93.28247803154369 70.49304822896013
47.13818525445653 91.91705325689813 71.51734399728247
52.3600201703042 92.98597261563904 73.67111658152493
51.11054804397033 93.91399442865766 75.63379350345164
49.938745731669385 96.10172911636403 76.00607795781507
50.309699080023854 98.39649210136419 74.70853699548863
