58.56607333888968 30.674623672675573 13.856709884088527
55.66979518141581 2.3282073388646927 43.5803039959259
49.424617404816416 29.008441281382837 17.862484677002435
47.691172676048325 28.072489722601667 17.84861789471226
47.151387476005134 25.40387449508459 18.703230435426576
48.93023373446447 23.749768637877665 19.098332567627384
57.73963863697747 9.482491430568942 0.921423033229752
58.381768226058 11.561425969455653 1.6090702154676015
30.781505571214883 15.480558450452202 41.63009526677557
38.50844215138638 24.3178506693006 14.655860692568298
36.43993752933066 23.676261566910018 14.866603901751162
35.33432366227604 21.363431633688094 16.02452903133257
36.95722772790379 19.40257423890526 16.94442164224536
16.283828869598096 2.6014540510353275 4.463448436755353
16.70139893734929 4.246235131634705 3.056614545354971
18.653509887549387 4.841920972582503 1.306700116821125
21.326779829413994 4.39069075601339 1.7003404219920721
32.24914429182128 20.669983162310167 19.994867703115084
32.14146274310086 19.694288573107467 17.676500919640443
33.53796487257765 18.09355095808481 16.347366404025127
35.437260190465004 16.84852577777946 16.67856837626747
45.81670257931308 0.49153413167642157 23.533815428097117
42.36692912171458 12.947317389788058 40.95811326525792
42.11455901200088 14.917386362960615 40.267136073254505
39.266694539636944 16.186516078755393 39.29478745756215
37.35379873014218 15.796212905365213 40.729254598676356
41.16174164611941 7.631933364960942 20.637831876516852
40.971676636799224 5.917317432772155 22.35331934927802
39.33085099727383 3.98945424428007 22.738024757302448
37.20692222561479 3.5024380164541893 21.77725228268303
58.676188348809774 5.728367087486777 49.85949977982411
57.815001893514555 3.3568340552566833 49.7418668686789
56.41019433691357 2.270706542011643 48.03324744561227
54.38102441100629 3.0278079902030037 46.86178691341832
34.70821305435567 3.6233617829395777 20.48855889811058
34.687880395861434 1.9655489964587107 22.101635331687216
32.58951270189249 0.3435481170793417 23.08216790956761
30.06126773901821 0.6202896733956368 22.775332346136892
43.488722867393946 23.969147466428552 21.941797265711106
45.73845948636892 23.654936126708748 22.560694002166244
46.24215967023164 23.596662879123322 25.198040964252783
44.89267892423454 23.171743062354743 27.051014169405683
43.83859494763123 6.692056055438515 27.66701759814203
43.26172466218991 4.89911601274232 26.0800385960813
41.092451132106696 3.8953353663255084 25.456097175848186
38.6255901453163 4.763509342622941 25.386006465226146
59.829207771411994 9.93231515907095 23.397289142532266
27.783047585026626 14.037820653078587 34.55489155925551
28.437286221743758 14.46577741529572 36.69278110789111
30.346277924519875 16.21821254603434 37.676058501243226
30.68645347726626 18.588660235148698 36.96893471176078
51.988803924322205 33.02865324166603 22.642418984808607
50.86153481255543 31.325351052345244 21.164272585444323
48.784990844521765 30.266504222734646 21.250966588635894
46.35901475461955 31.71326362976053 22.339224297383456
26.41807264511219 13.189707845272958 14.36550371291291
26.607699159472727 15.440499417014458 15.30333554435459
27.187842961979587 17.753545871373795 14.576509864791355
27.94313382597803 18.594321055068978 12.426397838448676
56.4856092106638 13.958046353614392 6.965900803195716
55.96132865268607 13.505427861741218 4.524506168384651
53.78153192640351 12.726722059573584 3.248633579215809
51.588851953381294 12.364957715920099 4.044138440302669
27.888878755942244 16.185378172920927 17.83414101822535
29.389527866792008 17.480867386336527 16.194540963016355
29.96499456663078 19.879764891993442 15.901947593094338
28.508232519208313 22.0591465192606 16.599799901964168
56.64520218640868 16.2217740728921 3.7897160437268886
58.298056833888076 16.685355865742938 2.1075141484630264
6.206839255673209 0.5932087425916024 0.4260696091081969
6.719178589195752 2.5956891340362094 0.731824252805484
15.31114463061729 19.859261621502217 19.711374319182863
14.56474748536504 18.9157515570176 17.932525871026453
15.8456045088884 18.761009691252085 15.887119382139572
18.509434311942943 18.15209872715944 15.608640504547889
41.813103366170964 14.529788660771125 1.8094402536058893
43.30084039489835 13.20634439078123 2.5265634093562617
43.47410219509906 10.501922720258403 1.535719178724981
41.81788436841509 9.025612352034564 1.0365260360644544
25.07733935647267 5.356346960811986 4.752104385233795
22.917336195780848 3.502194698846414 4.522365689318065
21.670006973514422 2.4769715467643847 6.085550131857414
20.807713170263522 3.6990745563196015 8.485023989479526
35.192579491096 19.230081036894937 13.581955943080596
33.336060899555534 20.134977196779765 13.808783392227756
30.762838694007108 18.97153641003387 13.23311925777941
30.39189345502833 16.504523268976886 12.418134045323674
4.9307380435778665 0.6016668256657837 6.793386924111161
6.465899425158808 0.8689354283622208 5.163889562932808
57.600513306679744 16.360433703554325 6.031418874517893
59.59219524391072 15.622789710719626 4.65799674766584
58.85007129886836 18.759399314295294 0.035448562269450985
6.4946375156828555 3.1039634222844397 3.430947432506954
8.638072903774232 4.381634527797769 3.839535686001618
9.54753266416014 3.8498062131410147 6.395313302275511
8.141553984819547 2.8441150051423914 8.296055765448907
47.02510784618205 20.32108407706998 23.62134065629109
47.353371700269214 21.546507459151957 21.872424866156273
49.44029584878664 23.554115624506643 22.12873134768548
50.41646447750504 23.74586765306265 24.35757296376188
29.45076440978402 38.31120998814358 32.83568693864831
30.41613732528571 36.86469294846286 34.385513253804376
32.75487795536002 35.64871382359543 34.703427801645645
34.90331009595739 36.4312823171393 33.378441888795415
31.74950664759666 7.529333003560719 3.4629447133141564
33.36532976219292 6.950710025296116 1.595499428602852
35.24560397006151 8.25920098154789 0.6292024832539249
36.83817889019818 8.59571860153603 1.7760441380044112
45.25786716636203 7.322700999737378 1.886667660702521
42.89106931378462 7.2885679891184605 3.16412460490247
54.68606322989125 12.360479156829463 26.652239609334163
56.05732236027351 10.505648458127176 26.44506495422548
58.704004272768074 9.963437028680115 26.103505252922652
48.168849166411995 16.671637328642095 38.901240881998056
48.30019299413869 18.19260812336815 40.82542890843846
45.044983921586386 20.836926042401476 36.69137068081954
45.306016977547856 21.011647597796564 38.81445678388372
44.54663501099521 22.97945935190506 40.47797159089028
43.211543812116346 25.408559134081553 39.63735644440223
55.63766944170776 0.8859699439962561 27.52085280310242
54.6797105592744 2.3798076917994915 26.708990764308492
54.65083417813446 4.998723275916719 27.367767219467666
56.627212285078215 6.187011836458106 27.62471291084827
57.573559758065535 3.050903628594422 42.114210903760394
57.1509456685055 0.3754221708153966 41.1698410611893
54.142664530673464 0.1549767132766627 38.25017370128313
60.051815149376786 0.1644584516328824 50.837154142673455
54.82762068974959 1.2747070497732833 49.984234274222445
50.355148758226896 15.013729842142595 45.794531218718475
51.033857984455665 16.35514460774569 43.813096273044465
45.044681071536594 18.268959557532895 44.02604999474124
45.0919828777568 19.398720293845543 41.8277645111294
42.848545224218704 20.780562634274535 40.659717469541526
40.60093639279462 20.438859206092058 40.50531579233029
10.82981833746451 5.029662526284011 0.760983662754381
9.941190129680708 6.1570001519878055 2.4326392780693573
48.84100479114371 12.94816689901198 2.8723152230255224
46.8529543804608 12.076403905681039 1.760114389102021
44.97239955549004 12.822598774438596 0.3328646100027451
42.2060336635748 28.11758475889177 19.366865219262557
40.99679559717383 27.635773433327852 17.289965696307952
39.17283343416887 25.74531941732602 16.919435511399634
38.33820965932031 24.159618222510705 19.08277786658477
0.9837964125724822 42.445175729672094 9.524238732927206
1.261582159157216 42.1248674396974 11.473911198332907
3.623051356532073 42.43692744614742 12.417059671328829
5.38958824216854 43.91013213878095 11.416641771203693
4.668644931887263 52.65329882148069 7.35119633854038
3.0891557857448633 54.82606756788774 7.211832258108682
2.266515782845794 55.91350273015135 5.086212692977652
2.218042640885573 55.2286914299377 2.4694536468044106
3.154419827512155 15.535246500349404 17.212481172315098
1.4985818197810559 15.969600611183127 18.622106109626465
9.140594929649565 22.17854954945968 19.314138039716696
10.573662983124255 21.250776218329687 21.13692016705662
14.272782612480107 22.174823995647603 18.43831966503507
5.667180369841753 64.2921020047332 8.4419706315454
4.092200222337518 65.10632888056976 7.714373236314614
0.3527330134896875 16.21623121950772 21.09030134554972
1.7963016591780578 45.792769558354046 33.76014276212377
1.9288501034568193 48.030601172458006 32.81586331432572
2.4075442078663065 58.46306218491346 29.21228308080993
1.459304929771601 56.437231882811766 27.7138572820248
3.524067045792363 57.68814301753935 2.9014278275206635
10.109584013936134 47.513439236671964 15.126528393282575
4.280040285228799 35.603330215443 14.152834095617617
3.740818061693623 37.71521819513285 14.986898065677202
1.192958684718463 38.72992524787516 13.843932773041226
3.7867697058278385 34.804092867786835 32.08542561616552
1.813664471151636 34.03494301389932 32.71510521196511
3.6676727855057867 32.008665126191 33.07267990400962
4.354055204731115 30.339912395859905 31.650590995727278
9.904219135423073 34.1192821645311 32.672604149626785
8.619306087932435 33.46453011995982 35.16555023634023
7.157914919842019 31.70794253565943 35.711940447612356
5.65325848491917 30.207041193860142 34.393309151076735
0.9984182993997892 48.69638307628633 24.55093320129987
0.41028367669531796 50.15762021937596 26.066513723722068
1.9948303274659065 52.18446727333371 26.874567692274297
4.298282560192205 52.72061974732228 26.218639240137907
1.0511133820749867 65.27615436761873 3.7038857581822837
3.5084309213899316 63.92366745725455 4.11974934276253
3.2070039974329085 61.32894650147728 3.7064829307463687
2.2238159778860647 60.125793951723956 1.7484121652527393
0.317947743339714 58.09742669617864 2.0358910467479197
2.4796050906035116 20.72928926152776 14.987139447311861
3.9526711303648057 20.07897355929196 17.132734100480842
4.963974935904864 17.809674752810164 16.547365999114422
6.110427294120616 17.00536904160221 14.916464465025525
8.351203127341982 43.278686870078054 17.027444140011198
8.075768632845707 44.683501113282546 15.03750118537634
5.419534799205282 44.475184330202836 14.15736858293894
3.7878483776234635 43.75471528685484 15.000122571353163
10.705811307954402 33.11721088843387 37.06423238513237
12.767892550510105 34.12302645884484 36.841337106088886
12.864787797698584 36.60227615731879 37.66320263907271
11.260422776352554 37.819986747479156 39.03610239046702
6.408960017548173 33.740146761151536 37.35953302172184
4.787890066041933 35.21902313348625 37.00724919680528
2.956198286850685 34.09510502759716 35.432890871209814
1.6200720746749706 32.410309890187726 36.26920090796853
3.6808445116632242 26.969895013362056 30.297872291186756
1.909417160821923 28.404214233000353 31.228415331272995
0.19573089588181627 28.087669317987945 33.0524509897429
0.06232081189464508 25.998158454317092 34.73733819227395
1.098162979758989 59.815116748523046 5.550021582541583
1.9522676138425101 58.99855442733209 7.432192655900438
7.213360420457572 19.032896655852856 17.872188724248367
5.775535325925574 21.40089665000822 18.48637452254935
2.4129359425067687 76.32025976429472 0.9657410585234529
2.965849213584004 80.76691409393284 1.842981179508741
4.171944212806123 41.203604366033716 17.402747687682734
2.3434750840275154 41.34193687815049 16.038651763511783
0.17602573203047245 39.91991237666015 15.938122152606606
3.760749620128981 18.30213941961024 21.177058183011717
1.927215880735712 18.931084398615365 18.862662899584798
1.108171540796262 45.2624601288914 16.04067800155207
1.1431330032065825 43.10816677768309 14.608059993798324
4.913478470671856 53.87426943912015 21.409778028792275
5.4708726594878065 56.698874110848855 21.492904268097544
7.512649531894472 56.59132919769833 23.077624429345732
9.386720629016956 55.609987904898325 22.68136260629547
0.9710499433187467 18.712873665917495 15.972643253962891
17.006324205091516 29.330812420581374 27.69794306149286
14.556910635698793 31.45790715788177 30.88213294910517
13.4364311441331 33.617079642189104 29.635718691131743
12.184453026080304 39.58426643863047 15.383236957038138
10.479385010236282 41.418919516752034 14.476495038077665
8.290997624438592 41.648897216071965 14.582483273627536
6.389835507753394 40.60944426419976 15.886638787974718
13.56939461423099 57.618707844403666 21.319638078358825
11.944662209771806 58.54565361525371 23.05371918454891
9.284512581787007 58.50854103551291 23.003308592479843
7.8245227891310805 58.63496406976356 20.61697966734642
9.722537355667658 37.32043334249183 33.089400968932864
11.121904164824903 37.48252994378571 34.878031069040325
13.670809377530851 36.12592527024259 35.01317538031845
15.147069623978675 35.41376439473213 33.45005754542234
5.680064421062958 60.82991598856803 6.299229095545614
4.532157117719352 58.84029614893197 6.488458650140024
4.830809625261003 56.7863329062944 8.101380452352897
14.338293376814546 32.69123841373218 33.45105634276061
9.188843631125565 37.93188486826323 36.664330897647105
7.9342755401991765 35.92801540441765 36.480454836747676
6.406314256332123 35.639308178888065 34.48394938156651
4.7076221877213245 37.121406786888365 33.420472931041104
3.9683537224976537 57.65777416519023 23.323882699393657
3.1661422091309483 55.79999007783222 24.683061979985133
1.1529992426087885 54.852868647639724 25.455762920493445
3.8774815613790192 62.054112686966974 8.451360282184579
2.281223637755464 62.380162942117586 6.607455572483769
12.62164969840379 58.07150002865327 25.58468794953712
10.954021440353845 55.90817015407745 25.051716940955004
13.501350195791863 44.133675942782574 17.048598668686758
11.015340488961062 42.90228013801911 16.63211335758415
2.3425913807979164 36.51339377588876 36.231351665046134
1.1466274966014305 36.46248129285204 33.83354681371743
2.0851056278573084 78.42151099010164 3.2783992427873736
0.8023151922088775 78.88458447599248 0.8677826161659101
17.5828303506952 35.82561144780744 34.7171749685774
19.80186508343243 35.64058739524527 34.72741510905402
19.431568345646554 33.766419698001066 30.25386724154722
8.368945960787249 58.87391516983725 28.124401772837174
8.624491984494616 59.54755512383022 26.069573564827024
4.6945578693305 52.51381384754565 28.94826783886508
2.838525324800655 53.6353227874085 29.474798159604426
0.5545116611159374 52.87664000663672 30.369108159600227
1.0714183343462589 65.95195486406685 6.341868986437617
2.5762553909125714 67.73707233224648 6.639535162520494
2.2797859403809073 70.3209619879361 7.445191050948127
9.76501937974583 17.00981805773064 13.673572060640424
9.802236550852014 17.371841713000435 15.870641114199591
9.929576058435858 19.531000182964807 17.44705424396412
10.23256601837196 21.674824404054075 16.983641830527336
4.231750734764646 60.90487864712038 28.741853007015486
5.396849672305023 59.49183799360412 27.510427355202026
6.210291727998419 59.1552416231581 25.24891291933897
5.570768706042423 59.7979770815799 23.01480201663622
8.923426686149712 56.45157516322613 26.56533576857085
6.358361535185289 56.6122237806546 25.80040291552535
4.215811789275983 56.63844543611587 27.533891877912126
4.053310502864137 56.190597808437715 29.7698611623822
8.934171028890106 43.04626630090643 12.189969964554527
7.108038153798432 41.61882052635079 11.994077321752439
1.8234599905198814 39.931783074513056 9.595103971816455
2.9739274589353335 39.85923166914678 12.215083209441474
4.986884681795335 39.8381027786881 12.902120725043112
6.324682860459866 38.099698209036305 12.905575940523963
11.93189736535665 89.88486337999434 0.1876113737490038
13.856727919424168 90.17348398522303 0.07787805611351276
59.67225967346556 56.30354746075588 13.428962942792273
57.438982990769226 56.27990168795915 12.505295280339775
34.749629622282384 67.95212986790386 34.84450630992425
36.72081690619718 68.464872551949 34.35114725350782
37.72501077837667 69.46487523471941 32.08069956646365
36.645145422479395 71.06139038184774 30.379616476454913
51.42180308314121 90.65090577169026 24.28627149123278
49.61611222776479 90.56429325669224 25.651840992053636
46.89777110816794 89.90334686152455 25.126818194519213
46.00566376811629 88.83150561857666 23.542156186066688
51.63828999403652 61.11228396279796 47.68947331930372
59.740196186447044 52.53348683568767 15.859274324969942
58.87276029626343 52.45375478782261 13.864513502429226
56.78514394694305 53.332576076264964 12.914946724199835
54.46301695834216 53.18816694047255 13.765296129615782
56.04516356804662 75.89978570234166 4.285609284654799
58.36818627787896 75.71527789870916 5.383657388584595
34.959404137944034 87.61358659271283 27.07951613659808
35.36700184100955 85.58637100390123 28.300542380098616
33.724986879598575 83.50502177725609 27.23109720040321
31.68479679600536 83.4816177122737 26.951180151806724
58.021996015781994 69.2302067009601 30.59968428027193
56.7788298702217 70.75621606689809 28.974554924689784
54.3190534705854 70.96390293181466 28.216964867878463
52.800074983941904 68.98320313436336 28.171393324553755
40.08209938109028 50.72615054058518 16.269388818717726
40.64881601265438 52.746843616471715 17.050291562266604
38.58282246032939 62.51548571734018 34.124373999401776
36.943551309235815 64.05432897980089 33.54128305483072
37.08675023594973 66.15550619175809 31.941627118100314
38.423188684548656 67.0699891915864 30.88227455817878
47.121646272487304 80.58226551764287 56.69130864339517
45.15071815304081 80.82249301741842 55.87929030068111
45.46659280651319 82.15743598938812 53.551624965804415
46.688508359997705 83.77468047946597 53.08456879624461
39.31732338028371 66.31695465050626 39.53164085191772
38.765347332432576 67.13862545185617 37.536713504179794
36.62135660933619 66.14909226636055 35.64401696674498
35.39563034215784 64.48025463757047 36.09097916904679
50.98594628250672 51.215430784883594 9.939881651068296
48.8450063123644 50.308109856403355 10.777985608367908
48.00941904290957 52.05390429931758 13.059859178922824
49.432229022866636 53.12167908481181 14.485337622367634
58.36256608962371 81.7332191986602 7.173859853730696
27.00120889299473 88.34004313462154 3.5594610448659156
27.924802372485477 90.08553274655026 2.0176675324412967
29.77876327080918 89.89800290734513 0.2925772402727437
32.27566322921391 88.91804685327176 0.5299802017119508
49.51695828197003 51.15342065093871 7.590962180029833
44.50163192685175 76.97022894877476 46.422463213558196
44.5920679858218 78.48410970453823 48.21607959344081
42.64562238422722 80.2050973754773 49.08314345096109
40.42882036289522 80.2910442172994 48.81617854137935
39.87549077480231 44.65344612928447 31.60157889780329
18.746747971471294 89.401153759868 1.2336060391542567
20.855512132293054 89.05973512969206 1.0268552874581998
15.414438628949869 89.1837069734151 10.308042861820322
16.265952127098636 88.96580331324935 8.487376596590918
17.46216673724307 90.26464869079544 6.785194914480355
19.19144586436642 91.84656425011492 6.610378672728454
48.93908009272352 74.32592752274458 33.545081293417184
50.47256339891281 72.81949315847748 32.35460039370247
52.77632403151629 72.03705062760068 32.57951356704883
54.87374356814806 72.92332002718506 34.16474695507626
31.94213060844809 57.14726684495505 34.41941546245894
32.1060787467908 58.15080415798754 32.31074539049297
30.077030659033966 59.16704149766046 30.82860642186544
27.816662797800525 58.3667122534192 30.997121156757586
40.57647350712679 89.33021359583118 17.310924367082503
39.82578477131835 88.80275077079325 19.629758499576997
37.437611130160725 87.31282506984994 20.438498500203426
36.543215930165516 85.69532587253494 19.267531312067714
45.083739285716995 62.13885519018365 48.77761629175711
43.226994619185874 60.71579505727336 48.99386934799031
41.172564628312045 60.77813108891843 50.639123607977865
40.00989321703818 62.47681649001514 52.06671817125459
11.191915934341276 82.04154046149672 2.8512086867576647
12.773834520878708 83.93769502054388 2.8597277254500795
24.768667001290684 82.43851053944474 27.280745160214263
44.68827874633206 78.9034137389976 7.607163058827754
45.8547921971012 76.8529683640765 7.20068777989661
46.46936716399334 75.36434609578293 5.268213995015931
45.651213018067686 75.43230278756111 3.175648022655705
56.44612640261047 93.793627609714 1.23984095723001
54.030346259916634 94.55290724256719 1.0262819199321793
51.723883728082846 93.42767591046105 0.022527688138537588
60.10113094916059 83.00694636957688 48.1707070928455
58.635771516096526 68.7569764077428 24.822143474385648
57.90110979402172 69.40096169210521 26.69846633663725
59.783117835840315 71.00237724401852 27.778185836064246
57.716363181676805 95.72456953315239 2.3213144305046596
29.28949319042445 92.84467052346949 0.6045912527227656
29.060382878602795 92.23099010205797 3.322013628726176
27.10449601495933 92.07597156095144 4.560206886835753
50.166804679297655 95.62802654726708 1.6544136246089498
47.6948914855462 95.40984837002124 0.46694045409198065
33.33108893420323 65.7731022402201 34.142926551716826
32.24870583887038 63.242215842294605 35.140777072523946
31.095468688550298 61.59250960354898 33.42298642299624
30.0646143718646 61.91840162026956 31.188227313779592
47.46935300243254 74.12960122858374 30.531676883764494
45.771558021447134 73.42230022621528 29.26213272450436
43.65862818965724 72.76682030945577 31.44299715900909
43.709762050564805 74.16315625319587 33.41735382087418
44.008746829488466 76.98369630870124 9.435739360866227
42.9725598873676 75.74325647140512 7.9480986944215575
42.992955877567596 73.01464820588328 8.182399061597433
43.56259529685385 71.90919170301986 10.225461878417617
49.726508947328504 59.76265774352394 45.97608173814192
44.16331752087683 58.83782478844797 47.42708876789973
38.004979187004956 86.74383107058755 45.10175579169635
39.170309928829795 85.99180276838848 47.197068641593525
38.834407750458105 86.14375555089083 49.45858281909287
58.11619866275255 65.1567128999292 28.32923572118429
59.434807441412836 67.64542029057452 28.370429578091116
51.85432917364366 72.41445420576822 27.647111766755586
50.667499682430865 73.17931264684118 29.568664512416294
48.39897160279876 71.41960293752611 30.520811701991015
47.841491309306555 69.47895642829802 29.40736664486744
56.93211432011002 89.19822179353939 32.349314975364315
56.3189222868488 89.06265809435381 29.557903203819073
55.18074565959231 87.00489570395841 28.489712070214473
55.64546925831571 84.2749267108711 29.220375925689112
24.017247899604293 87.95520765585711 26.178507116517874
23.84738645272498 85.76163502324057 25.844301668436604
21.771262794901734 84.02234891003724 25.394817282699723
60.1283482552758 75.675145788123 8.552273285977376
59.25939056397261 77.88652517307042 8.380735783516641
18.949462237395107 58.51885927216962 23.24447453709452
56.243487629469115 87.17078409870771 50.480284315238805
57.61673793268938 85.48046955710707 49.043872058835014
57.387240213613 83.05996114524623 48.70913361799291
56.2438972811974 81.32902235139254 50.539510108636925
55.06459069068739 92.30334933924854 29.740138138175986
54.21080111083411 91.0523551682412 27.654016711096027
52.64723808514214 89.03417459156948 27.54971158879481
51.109973437657665 88.20186374771201 28.967284080223198
21.677044383163217 94.84317657618406 2.9946324948711087
20.41085748937263 92.65334105466552 1.982373089043555
18.136828370616463 91.66412795192748 2.4823294352496124
16.648453074221095 92.22696662915752 4.717208124546586
59.112816625645536 80.96519256291478 43.338960767243485
59.88529429637794 83.37747977148744 43.17294189383205
58.19335165176517 85.31567231512366 42.64719013018849
56.30477927426041 85.10050170584167 41.727394337234216
44.087075937939275 59.69439033945494 27.751046654197896
41.8575067624039 59.350619252285334 27.494828048927786
40.85828276684897 62.22761385259386 28.51870730577765
41.59957181740753 63.959972286442124 27.85653427147615
46.697954187370144 61.10658442819048 50.741228784671875
48.56116896437165 61.47202732908777 49.4875910654527
27.23187794740249 86.59388313792694 25.73155420715534
28.434958990052902 85.50589851568765 24.483071370942653
27.31419933606516 83.16622861314235 23.4711659463592
25.483329450020314 82.70342662014627 22.979975786406172
44.48425720795089 85.79251094144414 25.256176833100934
43.57614064404738 87.48178397467362 23.771517509990176
41.675785667073725 87.39860026940626 21.98428375834365
39.403851796736426 85.85233795098732 22.032244173770614
59.18964948461179 73.1525258779795 4.710200658308921
59.336982509279 73.3195011027277 7.147238921590301
36.89595577749468 62.070492621969606 35.952313432452904
34.82531497327538 62.12411428005981 34.9188343372169
33.78285373152918 60.63867692633667 33.301598551412745
34.608535869882424 58.2699297740666 32.625008699063564
55.18917662183959 89.07006618188021 25.836511516830686
57.27599549868301 89.03503578036266 25.863090481129834
58.80758422050386 91.16268739920159 26.216508875156233
58.32883559195937 93.61655561814862 25.752143866950956
28.782836053300308 84.26696087377988 21.591615146625504
30.371764746151204 84.32112570917077 23.20842136136283
32.985747599831086 85.00244814753962 23.29152518153621
34.60891441032475 85.6883617655598 21.30514323984094
52.377198039316745 69.88550525976535 8.308391459483811
53.02964383343139 72.56547988529287 7.704878287692721
54.85326745523581 73.55108995929274 6.69687666490425
56.59434970157648 72.71224397178176 7.145638915594001
38.621037696066914 58.33692237505852 34.65186735538646
39.469610668492976 60.09481220388172 33.16454458069471
39.815471134084376 60.19682640087012 30.513585460711028
39.56311793334729 58.769806824791154 28.85922718921578
37.8716243257097 69.4829590689103 10.953224702336886
37.407296776366216 68.77802059669281 8.316995568914255
35.62948989331045 67.85767510496113 7.318374316226997
33.70922255493681 69.01837550309146 6.934345509005048
50.78628529395964 78.54632054643575 46.10405240525959
49.890450466529316 78.18266202542925 47.84013297846493
47.559931352320916 79.56824619196327 48.47197877770514
46.44869138791647 80.96459780720672 46.29509706297351
42.48789365180278 50.86293728758423 18.046687854933914
43.28021159807634 50.44729342590185 15.790281453400794
46.02509084770566 50.51096542379895 14.932498843431679
47.77302200611842 50.98783937438243 15.755511450036314
25.038706084995795 62.85237605628352 25.40842714126284
25.00338041215 61.55868499218379 27.706611507220423
27.356205999849376 61.06980002047806 29.262215005979083
28.80820312489796 62.91946943784787 29.244465059992386
48.240498203773356 82.07112033440072 51.70754367923107
48.68908455591886 81.61054328993454 49.41668937933947
50.5856994451652 81.13082785227523 48.008536069204894
52.879531755797245 81.70611340365329 47.929796473369
52.06533731726703 74.56178396731164 11.447473398895399
53.30859790289044 75.22406806550522 9.150206162252344
55.74384387028863 75.07603612632468 8.703099708662064
57.76948128737329 74.65675186093954 9.524219271157122
41.82188155910855 78.83174947531413 52.99821145309334
43.00365643102294 80.62135160264187 51.73733000045543
45.42876436896921 80.67531437139108 51.148193231248975
47.278925866353624 79.23829594270369 51.15875158106552
43.36096215996416 88.04426248150205 28.206976183320428
41.907266342074806 87.62927986103965 26.196306901474497
39.238238655539796 87.12515250857953 26.00584058742034
37.67257465579744 87.44442304890784 27.173992423121884
47.18792873646852 90.34828833987822 31.193216373189777
48.98776613835748 89.6740128553528 29.518282498743154
48.47785503414745 88.3571743373846 27.42903116015502
46.90196296136592 87.06687338991716 26.435673980604335
46.2824642237407 95.41545678529327 6.896626782134667
15.709088741108184 86.15315804844836 10.781051725289725
14.075913227957278 87.26785017215173 8.843816104572955
13.354461056659215 86.49389729577405 6.810263466486253
12.92034794249599 84.57648868604785 5.730469894361725
54.82986882028691 94.14653615670487 3.7765809306746094
52.43935290460153 94.39802351538398 3.487937992613153
30.94650960141833 57.98905134844721 26.510405856339503
31.35427716048069 59.863360353504746 27.995045611444866
33.32709586138751 60.52654184010214 29.617725630826808
35.268000733296475 59.606718768713534 30.237433754798804
25.67918422045748 58.04107140767182 32.870815709079324
24.61653435771024 58.57584116166254 31.19503201214286
48.11744797711793 94.96546965837989 26.069448828951614
49.0969851606745 93.06834502798166 26.66571728875308
51.93611292872536 92.41483860165748 26.75237981219962
53.83414163743329 93.34907502659384 25.8042130084872
28.053229273386496 64.24788465344922 31.20315694196621
27.464152604916812 62.266542101372686 32.123614492239966
44.13842893302179 85.85416213293047 44.80378931059683
41.80328223723191 86.09732283295047 46.37868072588369
41.79275232041329 83.26271157966217 47.29255371901103
43.06235723539133 81.55514751055384 46.47820951177382
55.446735460178964 66.13872159637214 28.197842307208457
55.11910602260921 67.22085062058852 26.53645530705335
57.634247769495204 66.20082095829025 25.894485405107343
58.16783342593174 64.11650087841196 25.02724283158079
59.17197506588238 91.44264569391147 22.375939572638906
22.506773395998906 57.634510789000316 23.382262518605003
24.106480450274855 59.0494944345319 24.899326898435344
22.810536445142294 60.70851805213709 26.292214031123514
20.692564752539226 62.10077262651822 25.405223391002647
59.40932298283098 95.2687760667917 30.165648680402086
58.152249981731345 93.97011759108113 28.532220413550725
55.90774102590124 94.22618591402447 27.452814228332
35.7542057946739 90.05221671042413 3.572186578334019
33.77955157572955 90.69806462496862 1.987399719954884
31.87251399188746 92.36360041109175 3.0391070822939446
31.114722959965754 92.79612025708622 4.989154002342884
49.81668087080757 81.51002057755022 45.528719264616676
51.97571695782183 80.65043368501735 44.968017570533185
54.13162375796383 82.22508528853393 43.74542135308111
54.43835809652505 84.55979375989465 43.673310039137185
20.18283000496147 82.41350258996714 21.79032031660483
22.283502297660174 82.61800424157376 23.351692518421416
23.76637542913268 80.87577772914028 24.576065897340072
57.71819876689677 74.14196684726268 28.989264504692013
55.48081765274109 73.1865211715009 29.997288753063494
53.539065312192946 73.60609670188676 29.877039746390135
52.08793555873752 75.76209542295169 28.86834249301536
50.2916490861512 54.25987220274018 17.334987410899416
51.875183908170534 54.83001415429979 15.903133015175506
54.41332598783363 55.02088380286977 15.808789486906777
56.04093564258082 53.911092171393676 17.03396875537062
18.98662951479955 87.5808598727802 3.6345826994063017
17.613663355692797 87.63980129972403 5.916542859250198
15.089109724216765 88.71518947870362 5.893704370726237
13.809526794049502 87.53365715860738 4.4518190237265065
48.793111706020724 55.94752080652585 15.234406907664294
49.07429856369594 55.40405880989013 13.376692303325983
51.30141156659555 55.84030857167037 12.019596248759175
53.22125319615535 57.66817335080399 12.452977432025735
23.4248445749603 56.090607210334234 25.976499081538236
23.734743514477966 57.87580379455207 27.697927138174116
25.66788677140477 59.13388729295851 28.382433406217455
28.341051206212253 58.5637406876274 28.13921709960414
13.954849588463972 77.51609159252781 4.443727314102082
15.496375286165215 78.84852264184688 6.4604340210430715
14.019903448172963 81.00282788497566 6.16172401736931
11.496270000577496 81.08168148686481 5.740020694960058
54.64084465324911 86.30019976045367 46.744367037691546
56.632720613518416 85.4497815803886 46.053041560995005
58.819959909801156 86.253781236942 45.105748968260954
59.74100104714191 88.69923751859511 45.245076554237286
35.584152938247286 73.7685260469264 6.10625252444595
36.28441837451989 75.39273993190501 7.612222942419753
39.11357673696725 74.90512082685152 8.460314160551855
40.718144524731095 74.38725680357882 7.048292396607373
43.74765202888924 68.47134000419027 9.64578492049629
42.888796654317396 70.08428270844705 7.773195983081991
40.20128289148535 70.48797169172869 6.977238939867273
39.246472324733226 68.29223675564279 6.300084818699752
42.38952002264796 84.96818276043658 49.419664152972445
43.03174241014326 83.00852536904725 50.554493031384276
45.070616715672564 82.09066739996511 48.9238766277284
47.2621556769844 83.38410097156833 48.291238792042634
37.3976772006789 94.98900075117072 0.0032191782019118866
35.82454568209271 93.80199898691002 1.4525098359257231
33.38376738653027 93.41157595622239 0.8677080343379625
39.160689955406355 90.78871184792189 1.3652372158099986
44.31709334555608 93.69971753372673 0.7483217460686213
20.355034735324196 88.97248423076576 6.128220995066728
20.772604803075385 90.61726531136514 4.721387103666346
22.724715753275483 91.21295115231294 2.9714726751324965
25.397985695140086 90.76172093574382 3.365112980303453
49.88790844503917 86.86256431140686 25.198587986408498
50.70391383472549 85.82611894813954 27.314296473704978
53.7678081209097 85.22274287617206 27.14212598199708
55.07228894728471 85.90078616057382 25.38631829978076
31.33719321022974 59.42416270754199 37.13750239225392
30.06982718257356 59.391536475249374 34.98437533372768
27.40375638612966 59.81361702815748 34.62617550658886
29.52393795619291 65.76178326576613 11.968606353139656
30.6545315121788 66.99192345455995 10.382403399776571
29.406288666541986 69.19964249981793 9.510129404307152
27.178280064929098 69.91210679328371 10.34378095137702
45.2329475118455 94.00296354469138 22.302604434828226
45.04288250252532 92.28834761250259 24.018091907589397
43.40205686299992 90.36048442401051 24.402797315613824
41.27812809134089 89.87346819618462 23.4420248409944
48.197049663846286 76.77394804020133 3.675622025343216
49.38225429945274 75.55087684614556 5.3689418431097105
51.7163594389941 74.70537460888018 5.51720361196589
53.6580703799001 74.70857472999722 3.8352708631032923
51.9888345480923 49.75205520150009 31.617018063615465
54.65591173477679 48.45630733014554 27.382490856117844
58.45223027673238 89.39883816993344 48.5265594717297
42.52060833644698 80.64916615503267 55.260657019626954
42.66989855687571 82.41744892482106 53.985493613864726
38.77941892008176 89.99439196267001 22.153331456421952
38.75908626158753 88.33657917618915 23.76640788999859
36.66071856761859 86.71457829680978 24.74694046787898
34.132473604744305 86.99131985312607 24.440104904448273
47.90980081335732 93.06308623516895 29.331790156453405
47.332930527916005 91.27014619247275 27.744811154392675
45.16365699783279 90.26636554605595 27.120869734159562
42.696796011042395 91.13453952235338 27.05077902353752
57.84475017490592 55.713397536436794 16.250573058850343
56.679457895447555 74.35376402728242 32.44651452631147
58.79421645609795 74.33628391677749 31.523868483552775
38.44986966449183 83.64067136932812 19.600274975162055
36.61505923543772 83.12520086234754 20.277172187977875
35.635814623472655 83.48377044340033 22.69786499597604
36.66785874486407 83.97589184782609 24.85159161397602
36.14195088193704 91.01075139346281 0.9862108722534557
21.92657783590484 72.48956136097446 8.438081980972878
23.4908025574404 71.30975943567398 7.170548953374346
26.26125920971095 70.91411960817611 7.1322486566075005
28.00427910954969 71.8921182608769 8.704729152878455
59.723482034292516 71.66074289859503 32.110226951212496
50.82616995029552 72.31910775079307 6.034650071888942
49.32752255574057 73.2486515540487 7.642288972714691
46.90990211308722 72.927237471544 7.957221891430212
45.43780028593329 71.71726946781891 7.652731512619183
5.786295544761616 85.9594430253889 0.9071327211343712
8.24663327318562 85.3548480792192 1.622146764747004
10.278045121399302 86.96423892232204 2.090842167419578
10.790384454921846 88.96671931376665 2.3965968111168583
30.912161953725395 80.99812413918332 29.910745359303647
31.930618545699314 80.44822907157868 27.737415585853945
29.913346462886746 80.87380877195918 25.81835001018657
27.277836465337938 81.73147982399863 27.198033311120415
45.8890902341412 95.396642531765 2.70129859437583
27.934043402286076 81.42802598362135 21.715628792635925
27.60833700770203 80.65645980719135 24.193995235043214
26.698900513634012 78.50549239513528 25.151046099710175
26.62426201042394 76.37439192765689 24.46253100863167
29.148545222198763 91.72737714054242 6.416876943545169
26.98854206150694 89.87322487857685 6.187138247629441
25.741212839240514 88.84800172649481 7.75032269016879
24.878919035989618 90.07010473605003 10.149796547790903
32.171143765704414 72.2189838155753 9.986972987076001
33.21493208785761 73.34954239585333 7.911660178485498
35.91761053558851 72.23911098743899 8.464560965257837
37.03733622730967 72.23859177879812 10.58152345645347
9.001943909303963 86.97269700539621 8.45815948242254
10.537105290884904 87.23996560809266 6.828662121244186
10.480095458038678 86.03343990046058 4.528184139537041
9.093875696960097 84.03870093874984 4.015958039468083
39.10739613731364 70.9113366066591 28.81804361539949
40.20971029268665 70.134349867816 30.80426990124493
41.44774213184233 71.55308910347635 32.82282461986182
40.938711234152706 73.8319091130555 33.47659185361604
41.597949092857775 66.81539222296246 29.557218100845795
42.147918145413875 68.30264972299315 31.065928539586114
44.16599166386142 70.31552410286604 30.93743783221659
45.608808166899024 70.7328825823097 29.86072413611975
46.328332153811246 69.52341508954379 9.48833306834327
46.360220510667936 71.35528175834037 10.373238556691192
48.59387530760337 73.22342844026453 10.681059497120737
50.79589284501555 72.49369519106085 9.834278551668358
10.565843381408953 89.47499360201488 5.095719990818328
12.709278769500324 90.75266470752821 5.504308244312995
13.618738529886238 90.22083639287145 8.060085860586891
12.212759850545643 89.21514518487282 9.960828323760287
46.80185699520665 48.64413801456021 11.5524407265216
47.95915949358843 48.75667738542054 13.70283186913209
35.82071251332275 93.90036318329116 5.1277172716255315
37.436535627919014 93.32174020502656 3.260271986914223
39.3168098357876 94.63023116127833 2.293975041565301
40.90938475592427 94.96674878126646 3.440816696315786
48.619590614224045 90.5890164335811 0.19533448234677298
49.61777845735815 92.46733439954384 1.2019119217349454
49.329073032088125 93.69373117946782 3.551440219013899
46.96227517951071 93.6595981688489 4.828897163213849
40.02054366441428 54.53230577854188 14.892079096423434
40.853678596546494 52.44099224629964 14.121974794597133
43.207348515834646 51.56534900745102 13.320125236036525
44.98559302839076 52.48015466677741 13.04717881474938
28.02664619310685 72.87239020140827 3.813475698967051
27.91800817638521 70.48336881183475 4.633291107473803
29.82274527706998 70.25386374433384 6.623205336350944
31.751970445876285 71.31391669567267 6.760215185821375
39.20926376006058 69.9130594832049 4.1379256880427215
37.275727168339 70.99868871094243 5.631248803885966
34.893056235341795 71.0663215097564 5.226428639297344
33.474806366229565 70.78529079209798 3.6264909389902216
25.118665870558804 86.35714940230363 28.569146425179145
26.29192560945673 84.77719978300017 27.629892498950582
28.64217765286118 84.19238918035848 27.59280366043064
30.010998008234978 83.43489301050211 28.957419917827742
27.417965648409666 66.28505146969087 7.134206628101607
26.419581300152686 68.09259103480852 6.038422515148867
53.06809294234042 78.50065426666765 47.72887159725269
54.63748085707893 79.64855712366942 48.37117532948613
56.11718353152006 81.16015054353963 47.19887755134177
56.73932282479698 81.17031901538053 44.748778398846426
34.20853388032337 64.80958340414566 31.10689962659027
35.3567108341225 62.78855531406301 31.78452739350181
37.302717742301766 61.25287050217147 30.521853533119042
38.13375354433941 61.418808137981074 28.495053375329118
40.56845395796859 73.62317061641241 37.31597579371078
38.926532410024286 71.77852523152929 37.51153780253374
38.322052506250195 69.68646850406235 36.24854231684273
39.78452714786983 68.27534601093062 34.765649816267306
56.9985217981192 79.3287785284638 8.233072855476598
56.221015908895104 77.46287656269111 6.91218299969061
53.843877607030514 76.44769367563758 6.615234364692477
51.52145024461642 77.77417109206324 6.8575787717064705
34.330027270423535 80.03183311657637 29.361521131795314
35.97198968964497 79.69944773503751 27.774953164728018
37.851053768328185 80.97491868911665 26.779313293427197
38.0821410781599 83.87386378092174 27.106053546036783
59.70887530743384 87.25700012372668 29.185625361413802
58.7509164250005 88.75083787152992 28.373763322619872
58.72204004386055 91.36975345564717 29.032539777779043
44.047845716581755 74.11193334806806 1.6078679818401767
42.31834727136892 73.5606866155159 3.194081781455343
41.552124399042256 71.39023008560704 4.269407584388578
42.56108881424277 69.36457521320476 4.641394705808132
26.211102634693496 64.4216551458279 10.772775507668019
27.041709456723787 66.13858671729052 9.765418634947753
25.697170366543673 68.2420590218186 8.68293234168069
23.149326629509716 68.73975793729849 8.505049247391202
38.10772897179694 83.73315454805899 44.62607457097584
38.045800494761004 83.55998923013689 46.713127138251444
46.16229439765399 76.60890065283571 11.820771534329378
46.42025530987533 76.43593625299283 9.825831530759869
48.72267255725605 76.34568171247619 7.883925606027006
50.78512089142123 75.83715315584284 8.525294018195318
48.80862305483885 53.65981442623066 6.582313747143393
49.23416252721742 55.94100529402949 7.509589206918918
48.395723841375734 56.03720595059781 10.183571838187929
47.44558671873241 54.466767137818465 11.36421598540855
14.153233065873403 86.66951988043007 0.7317436486288869
11.894718858723275 85.41370681223586 0.48613639846004764
60.019777376848936 85.99070490425268 40.75943114473671
58.21387039639956 86.5260068930071 39.91494625959451
59.4653195606919 80.99149672650019 50.05959835703104
58.65313106519304 80.3111216797054 47.73367669959667
58.50712813490961 78.07453572023293 46.71695284209951
60.204233647615865 76.13473884076375 46.8550313068709
51.21217816288752 53.852031510602075 8.675030609406617
52.16759659518927 53.70159907269473 10.509608425116733
54.528026279509454 55.03619692309458 11.60983124639665
55.198771457353935 56.86847182388167 10.688322872469598
36.12501695370637 79.96250343716002 25.031219925497652
34.958793014078395 81.95241451857498 25.243424711926686
32.55523821606446 82.61528772382299 24.398856156811373
30.990590073234078 81.84696609314558 23.18914621510533
60.083410875937 85.50423471502089 50.83752620768022
58.89882655547569 87.64573722950371 51.64900683253383
30.153010509460728 63.4040969647842 8.619954357130643
32.15133346212046 64.44694685498146 10.291473307095426
33.8534211244515 67.62989636260015 4.497200562094379
31.883586454728746 68.65764720570195 4.41940235905691
29.790759778081462 67.6607689212743 6.1307348277082365
30.233448526954234 66.09941384833292 7.889082464545123
34.95123350007824 43.56178633895351 34.45837300353647
36.87606405414576 43.85040694418218 34.34863968590098
14.901024203190605 91.40069270601445 2.4257562210657615
14.012395995406804 92.52803033171824 4.097411836380729
51.68256467204538 52.95710375943442 52.39765997063237
50.9970056716479 55.51385529304255 51.82199400801245
49.072655554783395 56.490446073897346 51.12486462739017
46.56904039286602 55.453927320552374 50.42233331219636
52.64382984404917 61.8947472322267 49.511110169927214
55.342446409398974 62.800373171482285 49.81520816366467
57.20634604578161 61.879664193728885 48.65495576444208
57.978740272665625 41.290509551672 61.350277766385545
56.744323014320166 37.18194473621525 61.50185883019068
54.70413293072695 37.15854067123286 61.22194178159419
39.37552758833486 55.672113909939554 49.818565648879684
41.762632192643494 56.34512849514532 50.864836577011175
43.745769660819725 55.77491752179544 50.902152693604435
44.67084279123246 56.101881037526184 48.56633417373531
50.020545027716324 42.016966093580706 37.83022267465338
50.944138507207064 43.76245570550942 36.28842916222876
52.79809940553077 43.5749258663043 34.56333887006021
55.2949993639355 42.59496981223092 34.800741831499415
39.90672968136007 43.90411090498485 33.888340555120315
41.766084106192885 43.07807671882716 35.504367668941725
43.87484826701464 42.736658088651225 35.29761691724566
38.43377476367146 42.86062993237426 44.578804491607784
39.28528826182023 42.64272627220851 42.758138226378385
40.48150287196466 43.9415716497546 41.05595654426782
42.21078199908801 45.523487209074084 40.88114030251592
59.56255206488711 39.372248831494105 53.53829294185518
34.211252069062866 35.71846342045588 37.12197031654513
35.7931706556003 37.614617979503045 37.13048935523754
56.23611427899057 50.7734625267162 52.47467597348806
56.153429855141276 52.29390660596747 50.90627004338023
57.17226162694222 54.824725265398484 50.702400745007544
59.29364654315871 55.815892075183086 51.995082022378774
47.78800313601228 36.115433498403895 61.551506790001724
58.59483057866134 34.75983421857106 19.60553013997664
57.33919829272397 36.00494527048579 20.86269208685906
51.05081962013226 47.72408231858326 33.60687017049005
52.30882932514604 46.52159348242865 34.87535288251023
52.079719013324386 45.907913061017126 37.59277525851364
50.12383214968092 45.75289451991061 38.830968516623216
52.018981321658856 47.11865830224314 31.214826012230905
54.205200754660915 47.29926826705284 32.30079396782977
56.14270262921341 45.87937176151449 32.58182280809696
56.583425308302395 43.49780405816798 32.61541570036719
48.83266579703393 58.34665093524783 47.89436774935418
46.25865470987447 58.69029663857606 48.72262343098083
54.13174551753608 34.429510427237354 21.856291854057485
57.01293236269948 64.89533647216578 49.92432565241428
58.94923918323133 63.564422422251354 50.330052110196995
47.036584034325884 41.63213061481626 60.44926874630534
46.86672258744657 39.438557982199725 60.11506329822407
44.79059892962333 37.6992718689964 59.66557891248719
41.968798372116694 12.195782231128781 57.515236166881984
44.69638051788481 48.52009953514323 37.26539412465858
43.43019362409422 46.33026401362468 36.25313471883102
41.156164505338054 45.34105091088665 36.753091065037076
39.667789208942686 45.90388958811668 38.98796975433405
50.26191834721167 59.642588813999524 49.556932856108425
51.240925082321695 58.46636129009819 51.20764942829549
50.251214082124086 40.2708060968861 60.002315836942806
51.45429512477449 39.18282147464681 58.75383300073012
50.33353547078675 36.84315157210152 57.741927576146665
48.502665584741905 36.38034957910544 57.25073741619364
51.8021721880219 37.94388383273903 55.86237677641297
53.39110088087279 37.99804866812994 57.479182991150296
56.00508373455267 38.679371106498785 57.56228681132367
57.62825054504634 39.365284724518965 55.57590486962841
58.64882602803204 21.5345980639203 41.589135946014466
56.7285586896584 22.695298462050626 41.20510713879251
48.058042219717386 16.529299015242678 59.679188771050306
48.02271654687159 15.235607951142953 61.97737313700789
56.76910057644862 64.91523063140038 53.45552026557246
58.363065090286696 62.948397016313116 52.989012682065244
38.728424875829774 39.83008100740752 45.05181335507719
37.09524936267887 40.944773131110885 43.114577734360424
36.3737971913808 40.17082025473321 41.08102509627372
35.93968407721758 38.25341164500701 40.00123152414919
53.96584573613992 11.665974307406373 60.78116748612697
45.5261095307205 11.311433747959478 57.65302414839247
47.12581658499644 12.726417393491065 59.17008852822281
45.82987257986388 14.38544101109625 60.56297566091098
43.71190088726082 15.777695585477382 59.67598502079011
58.77354192939549 43.729139669383294 37.842948208121484
56.79888771045114 44.37498758392779 36.25816134974235
54.89185012660905 46.04052337005091 37.30986871208141
54.134059094687345 46.47304321604537 39.25991563213035
43.20216613968306 36.09042554892629 56.0610819463923
