16.255512131342226 41.37415621926525 36.88641040685485
17.391090544441862 42.23623537285355 38.908228467594554
57.866922655654044 9.528249192136649 60.10405814429076
56.00385269395455 8.46595976355226 60.69847342810728
54.61099907317949 7.089598693095124 58.95819162177072
55.86418671133023 5.389900838706371 57.152477594558654
38.580028321114455 58.510703633083885 18.10735912523883
39.160685351519845 56.610131776809446 19.278635550096478
31.214522947184275 35.50537889732818 31.334968283803942
31.947540750008223 35.88635184223764 33.465258913986105
32.39928297013304 34.37784333354718 35.741868725853074
32.07579600533212 32.07707404994793 36.062947332845205
35.31507373549557 4.769299036449907 7.276009120032702
33.15701334698539 6.279212908957201 7.316524892675091
32.663219645454625 7.970028362714897 8.920520116466179
32.392812125095475 8.04685666178333 11.293491749822254
37.0466021683382 17.618343818165144 22.80512142927931
39.45331249879832 18.377476269901912 22.712476492886566
40.88679982333995 18.391150169976125 21.175306553333094
40.67186922521759 18.716614111174685 18.54871807237816
22.594043664608844 19.960469145087256 20.575487783980865
21.643588290585072 22.37879837504273 21.94638045466836
21.02971358269781 24.706149015788792 20.830047403184835
21.304265537921257 25.496154636439677 18.518753606953343
33.887631471086934 38.547921279620184 37.42395655719686
33.190581416997034 37.533513066137836 35.46542955515349
33.81153491109177 38.27232763534194 33.36500149459579
34.407466253593164 40.662057833687996 32.30736066042161
19.075793390276747 24.79681815415665 26.63066953517313
19.913055869118487 26.764158519379844 25.98479039393992
20.251220147415506 27.488897047188903 23.388507388543896
19.148884251720695 26.382858100801954 21.437680493154307
3.094867777826101 11.705134708402008 12.680455400755132
3.5244353133873623 14.210544639913067 11.708041554322419
25.171351009059897 1.9395662447037934 16.030330403044438
23.654085329913826 0.03151865270763454 16.110688041526647
46.3904823556389 30.038996184433955 7.619095023666456
44.53184156230398 31.73645490343691 7.0631669675363
42.88121002840353 32.125771823165024 5.248752950363777
41.77706882481906 30.02339057069224 4.307521371806109
48.209889617574675 19.42364118406162 14.371582382251448
48.22906858418596 20.96765438793996 16.2707369489082
46.1752653235647 22.837196711545683 16.129524717791455
44.76051011012343 23.679556952798656 14.491998493615109
48.432059587867585 41.43008718091253 0.13782084829442257
49.0735876046843 43.61059150711723 0.8404558460660813
57.4993684814021 5.65877902574277 3.5106342848185537
55.99745709197218 6.868999143737838 4.806498529605621
55.65120377385772 7.490978224471385 7.208088687609116
56.81617605261111 6.799029037146151 9.30794275127225
52.272852102815115 51.1552428475969 0.7255251830072955
52.09367345131587 50.58104043532725 3.42730910533666
36.40864411219283 9.37891132051046 31.120124680184738
38.46723478056691 10.615764834417787 32.29174145996734
39.15655407115365 13.049021983913725 32.166058769428496
38.54319116336599 14.732244888173433 31.315945035457897
42.03496179647462 23.738268417799578 14.662442052600088
40.62048939423163 24.657288243386827 16.262928055507345
40.50344399451631 24.143118810187765 18.967744661800246
42.166243475882624 22.342209303635258 19.9479101538098
51.27719943499039 43.99679350366391 5.025307430306384
49.18737346275179 43.285364023171375 5.2059308126745805
48.21333431926686 40.741310852338465 4.740500950273118
49.21869446772804 38.936293318284434 5.1009170496914775
42.34974806538594 52.54932701059707 17.05060495152447
41.37145885805692 54.01248130684009 18.20197013254409
40.68165712242108 53.170678340932916 20.764126031417398
40.9338880466877 50.94372546004241 21.582996978398118
47.17595006854036 12.517505501598993 28.675120602566935
44.560511383937694 13.069328772287403 28.692555909880582
43.44345410744958 15.4773943896155 28.15692024921035
42.93747072353002 15.235739519932187 25.66835167341701
29.37186714725265 11.597945702839949 11.299645014402731
30.432801764985562 9.741112920195697 10.280586073974217
30.90369663059805 10.06978581711508 7.53629546148574
31.792812561438264 11.920375944595031 6.4439298703776915
50.27750501606799 37.17643074464896 7.355503617313106
48.33269659006236 36.28098626267576 6.395050484815986
47.19397417035212 33.951398321595335 6.746424190443829
48.182960218958165 31.89588350504388 7.775030268273598
43.718890341081355 38.8495048453525 5.523510421069815
45.27973291002058 40.695668556792505 5.614595775995285
45.24333491151437 43.098743289850994 5.903225751021227
42.90706758062688 44.50117266202704 6.360240961549705
6.8127118699390925 11.001072337857783 10.447739491198263
4.852600431834438 9.890248473259103 10.505447570409306
4.001778579799904 9.256822054022342 12.905449925848268
34.28091976624052 9.556563167536993 61.75029599934251
38.52809966946839 6.414218615374 61.50195985213426
16.04722839220371 25.712139529499893 18.569064608497694
18.800112866067476 26.095297113389993 18.521897993461465
19.958455105051684 28.36065248310528 18.574826024452634
19.427628515092433 30.504063264781895 18.56600390017775
38.87950898852367 32.77202773924554 39.19594579802539
36.23074685553653 33.03083626405927 39.53261249107292
34.618161690908096 33.34927594555416 37.479075681689544
34.31418523612458 35.5006401237693 37.0928707891774
40.16331950033163 55.042887862795894 23.927061115811096
38.31488574966625 53.68169502667538 22.310612077693875
37.27087582461965 51.33368038128271 22.986996793719662
37.14675015337416 49.98962072101932 24.75147931035895
10.198128117279643 43.54700161631306 37.047276315079635
10.64010341942969 43.456400074704575 39.20058804270339
11.059615303441728 40.68922485495002 40.51189178815913
10.81178378563794 38.803680166785455 39.55425349839407
53.39591163146976 20.89905700033544 49.20119642763795
54.58047727494349 22.39817779953507 47.97080219412756
55.762614909191726 21.286866554326515 45.49776296263406
55.57726593221795 19.30226913130352 44.85463227561969
30.519149606651023 86.51488871880356 27.38327402424367
32.74212720617885 85.4248524564105 26.902018567537567
34.04366499210073 83.65603831965844 28.354236147603707
33.75381169251089 82.523368192137 30.405713142486192
17.975767896580432 63.448944898360175 19.644898579367055
18.124012418339422 65.40602827889495 18.512367624655834
18.57490475459821 65.59451398440807 16.445112809561785
29.605320013424194 93.12600959305539 47.719748927789674
27.93927865454445 94.4548457853932 46.98608659623328
25.70640447033486 94.28324186288867 48.565274857541226
25.890471051347703 92.86462788921777 50.82304892546139
9.115408858381066 95.47466019541449 19.446725028089
28.425587409405573 86.11866562871286 46.20928028703566
27.874624635593353 88.4523315134492 45.91114799812178
26.157599215423083 88.91542599539466 48.01497611980661
24.83134428040481 87.29516088767575 49.28997007080444
18.24489158523321 64.82793747500685 29.44152315375268
19.629145934585473 63.51105272665219 27.634904847147247
19.91697661547559 64.41610384157222 24.980968520846325
18.23401242299087 65.28632585506004 23.673831877469684
10.539248842061507 67.71698349570144 47.61801070395083
12.159328157652027 69.69892383610024 46.63412823016125
14.100585239059294 62.78935528566065 20.020985582193777
15.56759332238722 64.81950214219468 19.469072644243816
15.85290547263883 66.57720926201584 17.380860791630084
7.424881563780508 95.94947815597166 54.76679443392609
6.300557989458876 93.86572804557296 55.40065978572282
7.116588589843507 91.6620260902664 56.317340443680635
10.415690926836694 83.3344693332737 23.79995900415565
11.256438762520807 85.03251266800254 25.624892905783806
10.00336176589545 86.00355843917595 27.744069562945842
8.257666764780094 85.29432729180584 29.122786473210628
36.64833230857958 83.21993697001686 29.265211498164845
37.30615553947454 80.99934259425456 29.324725025181042
38.24487667551309 79.23483545119106 31.222970807246337
38.09586978684017 79.50838992332801 33.6157821825008
7.050642744583236 92.11208218267573 49.551621173983634
7.128100820178376 93.1529927087257 51.55651747326398
6.855689619407408 91.53536637669282 53.4256905739785
8.071482380176198 90.03787548265927 54.17075656293233
7.874357657493425 66.86048638532569 47.71392178742958
6.150406842410565 68.43200337241652 47.74626283782768
18.4971957795068 74.5558036474823 13.687932446708908
17.01264664685733 73.64231247433271 12.218065141641624
14.48265886311742 73.07795541465599 12.62243794329182
13.37347306124041 72.60493701774578 14.969728687969056
41.04817060979786 74.18533064075714 5.5250848610131165
41.33774831036495 76.3639247473478 4.426163844753774
40.8970707760785 77.26467612147431 2.4224262941816064
13.027774210995329 75.86453746471835 45.17654618318102
10.943925282253085 74.89129271024399 44.31676763313252
10.49585726868912 72.92509490065493 42.8968507825005
11.638144347083035 71.1744797818807 42.14220956485936
11.091545962555584 94.7545382386434 15.19543166898497
39.13139233422256 79.21057497644473 1.7356909084225582
41.04319543717757 80.85733174802759 1.1021818383118727
37.993165985952196 80.6038384082134 22.67114374290777
37.835090057203196 82.86983624143242 22.33565011687309
39.444628146873185 84.5263505560582 20.584300133056125
39.20535195309258 84.46321866003383 18.228688615549647
7.340277433293972 81.92829957869105 61.14336016556225
7.195492056663391 79.97359005690492 59.70289970658767
4.910365506398661 82.45987605741959 61.78425362813407
17.22653100998804 61.23851708892878 23.148602778305346
17.457362766381745 59.39542294263633 24.799344547733664
12.461269062656346 67.46894120191112 15.262724810316458
13.752103947918886 69.09884880644847 14.402741024574176
13.749363592861396 70.7252301298251 12.209531922335264
12.20432210317793 71.11051524919687 10.62487753042296
37.61283342381205 72.27614950004877 6.517124863494914
38.879773954600026 72.04978515725281 8.301196154711075
38.620904929139925 70.42502087820108 10.466350974986309
15.007272851719698 62.22587710552362 29.434522962802195
15.19979599391421 59.5479710492939 30.09326694295205
13.991169706926998 58.28824435531452 31.741811838624674
12.082827055426486 58.08496827581767 31.02275964553141
20.63002629895903 79.81043115338102 7.744921981055995
20.50284719717211 77.4164969922799 7.332121339797348
20.282718646702 75.30326654415062 8.928686865102343
20.204401894272245 74.93619921999444 11.282396216899155
10.691336758136327 68.9056340132414 43.53406322060859
9.231665271920217 70.4038012962469 43.112603417678024
7.067289449263381 69.73418870232408 44.36176175579018
6.079042654938302 67.41970523908161 45.03789555155788
16.304101354118956 72.22918987885734 9.93807927037606
17.851238245955273 73.86930735247532 8.521648785050441
17.6838988139365 74.68251139360984 6.3055033937350995
34.35364003318964 69.82515832066935 13.973893571073846
36.595523553607286 70.24631966895825 12.880181596402679
38.067388119440146 67.89539391155292 13.78984427160203
37.87988692486118 66.82711590850515 15.835387037350225
35.26236837429964 94.38814165494792 20.329271253191784
37.09123621046318 92.85895047620063 19.430679953073696
39.32896725082267 75.13909419746808 29.97147414037604
38.07264883786186 76.352003425273 31.152899546140034
36.75455222310127 76.04698736516718 33.35242560456165
9.947084664492102 83.67372626461432 58.3614636384667
7.625477752607768 82.31819718608637 57.57518070292464
4.925902174959427 83.44430191904597 57.52062254198969
4.117562779976411 84.98472270007582 59.278168201377845
17.5609762133465 67.57031660372314 14.258745243930395
16.04393863691225 68.92746447477333 12.90960390517822
13.610404148420232 94.98228929126485 16.567391795482145
12.435113457512553 95.24835585111809 18.708910571349197
12.873085763839647 93.39083437657231 21.009032529108016
14.757485441962286 92.21665547757446 21.589265184140817
40.31373809738155 67.94612139416087 11.90812169337624
14.736522490160882 86.55806718565876 27.485173014238917
13.80569842711777 84.56802071918855 26.75276860747767
14.091664483735812 84.01500588620041 24.04661375596314
15.890691308486655 84.84887348214806 22.663500832082615
20.375749362582383 60.65260357293472 34.04836927212402
19.084083953588745 58.93985818058946 32.38378977808203
17.791126105404057 59.525857065116 30.464649361780978
17.30837357863071 61.104579454055965 29.329090525935367
4.898749379380509 78.87433823706047 59.09603940501545
6.318599137581324 77.96149566718154 57.34085818016386
7.936357323061691 95.56963152109493 52.25488384511844
32.16138210754129 93.92222355433796 4.919288194924049
32.09559273635791 94.96601300460689 7.37629996455651
12.076837673131887 94.51895975247544 29.04749168967034
14.346900893694917 92.90024891658071 29.21919308551623
15.882090318456628 92.53129719146172 30.634762731801356
44.39231394700688 73.78180397382755 11.604738700578766
42.340446792770216 73.41983203421395 10.29025088454953
41.63031419795782 71.60922707602003 8.627949613597075
12.37573471893802 81.62447476602827 25.87584140162047
11.440648195913312 82.34249328669095 27.997663568527983
12.312474533452281 82.20928945705182 30.463258960176095
14.333111808056534 81.35203371708977 31.421545613272187
37.849697119455875 82.04189855128483 26.81723310610323
36.994333220299225 82.59119856400382 24.875784596231675
35.265731732274226 84.57596491226053 24.964509965815047
35.24403188696692 86.2841674759222 26.79485317728975
0.0782106309801934 87.45790187220071 9.62735282282898
0.36349650084018553 88.69744905365974 7.558780605834684
13.695957842843255 69.11972424403598 21.66262085086987
15.929198378637835 67.49594771557312 21.97610418954464
15.799619154772328 64.8291755816846 22.39967425681735
13.573809144639688 63.199298231008264 22.67866022981401
21.14378552941575 61.88532450869434 22.547192647979095
19.36071199504463 62.097515450333326 24.266295379810277
18.942601699035123 60.823164718149236 26.416846030577695
20.348122509140428 59.69647665812618 27.913037222209212
23.746779186380554 89.73462397584295 46.92667621324447
25.345364528314096 90.78279007146239 46.1502756953923
24.97313946639707 93.41993201697301 46.316325399722906
22.997073935622417 94.88876667633075 45.997917914430076
31.47712705061641 94.47057807908878 43.013953249239066
29.092698209553845 94.45353402236947 44.42502328232981
27.261461957379957 92.41672756586865 44.11593379895441
27.37288708883575 90.25537277286884 44.007515986673056
33.014848671341696 81.47927977040663 26.838728365974728
33.08123097617032 83.13891379794433 24.665133121693778
34.744303280042494 81.84334777877879 22.867814807708967
35.6512111616091 79.52117042286514 23.16937975180951
21.34410958536819 73.72716463930861 6.875669188864285
20.172467008774703 74.67848613815654 4.825180359937126
25.4028478370033 91.64149790630583 42.114888913256856
25.8076093872281 94.15657829320345 42.17942087497813
26.605235145786715 95.88926792697114 40.65159689655928
27.072343604762647 95.81373186239233 38.240365135674196
34.45440973511246 78.9241126838912 27.108574130395272
34.8158136717225 80.0524920169421 29.179092257696972
34.30370249597436 79.2959525365276 31.93537087546693
34.424143620601306 77.4677683170288 32.9386652129131
31.92536159066751 78.26475604811019 34.52712238215554
32.46899421171189 77.31747897672788 36.40716763934656
11.989548646335304 79.52535048399213 40.91116883340817
12.172821194906335 77.27198309494534 41.362621595045745
12.130440159814173 75.98124259580145 39.19365478039131
13.182755913194029 76.11667833897698 36.99818754669621
11.653863416233495 79.47489506132789 56.02055334199492
9.13201626919198 79.82719927127752 56.17926701254321
7.505970336986631 81.30857123994275 54.609713097449074
8.140431712637326 83.01687663146515 53.080400472702145
18.80708272658209 69.2376405101566 20.76301852121701
18.524773948114582 67.00917368139683 20.9432000157958
19.94886283708894 64.91532112198233 21.628339384277723
21.895899123948173 64.46339701072338 22.450256316970325
18.586902323539256 57.586963187023045 28.331276906617386
18.432408410964946 56.85164013727116 30.436769354362973
0.1912377067501949 77.80839780201266 12.112722903293667
3.4288062473497076 92.49828819044156 6.587345695322588
2.725212930825315 90.25698311010068 5.524156230558899
1.099505137954103 89.63117312646598 3.6775595264408096
12.736951730094756 73.47145149323593 36.47697969957044
10.72988152571851 74.56215062605678 37.16279245771585
8.828502523292237 74.00762601466172 38.79098799477656
8.806145189536853 72.18714626392911 40.65141428267747
36.78450369813801 91.293906325869 21.507109961619904
36.567010637013645 89.36341504503683 20.372955908109063
37.74954765550879 86.64777475407439 20.90564663437619
36.249503674456186 85.97713828073363 22.707000665958606
0.6473431418561064 87.67286839625288 1.7384364781359216
5.339501711761478 88.9052962204824 52.5637827736596
6.588946590963973 87.78861925763798 54.43430531367913
6.595385730973308 85.18120588009619 55.11165802741405
5.436266229593174 83.37503033629436 54.43025612723803
9.232698259480442 84.34890597049322 36.146176232609776
10.673506759214648 83.0589224703584 38.03238741580186
10.74096015699138 80.38875265093212 38.28805899146057
9.257509520434423 78.44367373210676 37.43460331423509
10.076158752062064 55.617599624502915 31.913523892116366
9.741656058719967 57.877062351838795 33.00381602086143
7.8670330255489285 59.10561060421439 34.21784691664994
14.901130048619011 79.5630933882999 9.500160054420977
16.758855051831965 78.42942920423658 10.70974849012044
16.514221047084696 75.61019255624986 10.62481923142273
14.749054844358522 74.34778779230086 10.366736310051753
40.9505633894378 78.22984138128493 6.258098523623127
43.02260539811926 78.43885033578071 4.600783209658035
43.851439261897774 80.08948517245535 3.021922084487768
41.6084976393196 77.44664950034942 27.65295344879766
39.732791895302 77.6806416048886 28.518541329895204
37.44531579413759 78.72810594343105 27.742268103874792
36.795498225687425 79.47540026925687 25.56784066875124
27.727488312893897 93.13739014562941 13.80522254895489
28.969105435622378 94.7250078742441 14.362491108647578
30.81675283512948 94.20989961012117 16.2591820324538
30.97735229001991 92.75686657707655 18.150599659296024
11.958279487209113 85.9015870440047 23.142639207657602
12.201318736008073 87.38898674119899 24.954851917108794
12.841498716820013 89.84128390178466 24.975683755207083
12.61425814442933 91.63039037649673 23.549130956716386
14.59539024021668 80.2060666545506 37.75766611722714
12.395000615186824 80.49070243128052 36.23010382153361
11.861298184378661 82.59613363844936 34.53836332074558
13.32462679853265 83.46047078510253 33.03756390427122
16.371960099590428 77.14125533314927 7.174324824647168
16.947773030464596 79.10089027178037 7.714736066024199
18.434389054857665 80.56788474545885 6.39040151648332
19.01833006992226 80.16684097662463 3.9571877139238265
20.08957114014044 72.14928914836251 14.591883652131237
18.326084743306616 71.2640402830454 13.03867561690056
18.50937632824297 70.90058841923552 10.284027470216408
20.24134942462951 71.87137824242309 8.743890564231444
35.13021899753109 87.00733087619808 19.563336754140977
33.75036128364442 88.72007323697558 20.22828728102391
32.19972763395099 90.46870314749734 18.727667369804358
31.383898628251035 90.19839107106358 16.42006957917176
23.708158341442047 84.83776032289352 50.28875380683143
24.834424802052585 85.3275336920933 52.30674577247605
21.608632869549147 87.29988957789871 55.30686945212991
22.14373274069943 89.63488264486372 53.697842387135445
22.177300948930654 88.66000572914425 51.31618864509463
21.946468489994988 90.24370243777898 49.01450561226605
22.436877354585203 92.713789668107 48.8020495847495
43.60062176431604 73.65732708830738 6.0461848804733895
44.998507725411045 75.12375739375042 4.357668431343332
7.6391288822357835 87.91159762527778 28.231329764959305
9.392310060926139 88.87528718274332 26.742692532104087
11.416568469621257 90.71265167229558 27.247818981463602
12.486653373137713 91.1102622073949 29.76240881450553
0.1213756707374589 83.60059188297474 4.458526826818438
0.46527700952597373 81.28901737831502 4.829049785046178
41.779374744350285 74.72921554816615 12.722573157185927
40.12147376024642 73.75173115244745 12.104069329869567
39.19003087281353 71.15936978857458 12.996200728607665
39.78013789315 69.81233326679765 14.581187556073031
1.6329413426003354 85.02791225449762 11.69324287197121
0.056533603933071754 84.5243058452779 10.100522961661413
36.49208971662276 74.67736156406258 7.591407320161805
38.944540779162466 74.5937986758759 7.246651226099128
41.00162221175977 75.53895777264155 8.76807109260085
41.08047406486829 76.55859081657198 10.807130831708683
1.6160135393162918 75.80226345232228 39.01609550240988
3.716209502690879 76.01472903247334 40.67052550303701
3.9091633541918913 75.90311314850739 43.066407176292
2.4081636450803656 75.47101426966636 45.11285397542379
33.85962492452291 84.39043379530595 21.282368656215194
33.61172058943904 86.33803194169231 22.33968914537174
31.728130253489795 87.44315749236836 23.821898460636973
30.025216055915763 85.25736837687629 24.98089045632182
30.102986859119948 90.01411792539956 20.925155742693057
31.967701381606307 89.31597005901455 22.117932046919105
34.07712699000642 90.96886808870347 22.11717607340631
34.277392831151055 92.98548196658548 22.456500798868127
4.662587089918566 69.73999521620641 42.80222983975351
5.331680064323395 71.89038702636911 42.314524773912986
5.164785611535923 73.40884334329164 40.36822837047826
3.3578918973848677 73.5812892295461 38.69104095059788
1.0811908931173615 77.71279026909359 8.762987202335566
0.22582327490948778 80.29172882147626 8.131250314540571
1.8975294268795213 82.27689870980825 7.103720419169593
4.526572176022565 82.14401121638834 6.6496883318040805
2.7702904204662833 92.25853857410425 0.5588916964310043
0.4687642330161579 91.11543440118335 52.82919209244328
13.848892569260327 88.81943308143755 30.551748432871502
12.417472566591899 86.8698348891556 29.15279480266724
11.014730110636556 84.96312334379297 30.04813285951449
10.39266391698289 83.9378443325966 32.41061058781303
39.16925294975933 63.95844370429489 17.570650976111043
2.2001193539402837 87.12247908122642 4.445882372810454
1.5268751833012926 85.60905218631267 5.788571824716141
1.9914763187715587 84.46698660126651 8.233658005586749
3.9140336269183837 84.90689179200491 9.539740005659365
12.17105873538239 58.11962500780253 28.131438430611574
14.428695486040667 58.633418937847146 27.39649413610908
15.549270334750943 60.59900011344392 26.141242430179258
14.87072240418237 61.948352312794704 24.76202055663953
0.7288219705380805 91.9333592062275 55.68309837603035
2.1447950981533555 90.61010785618586 54.878844002846456
4.366306159277736 89.11147398200974 55.76822865823336
5.52171675739301 89.3069903427919 57.625072240445405
16.57007613898766 58.27359822470819 33.14061448517753
15.089520444755468 56.17109490716439 33.26387343121578
28.4511508122981 85.19196325568309 48.871603811684054
35.41423335410141 94.93805006408327 13.275639721513912
33.915644414450384 95.49005881702828 15.157593474577894
33.796441922041474 94.47518810378547 17.607331850541016
34.482820930273554 91.99831285640424 18.4066930980482
1.5197764111509122 84.61552382936488 59.037736816901294
2.645261296165233 87.08348637074586 57.31195168946387
2.4605133776720525 87.10619487203981 55.28500348128455
29.429305661771373 89.10900163916524 50.442222747208
27.601991257564574 90.50965443640969 50.25543031674413
25.366315285099134 90.13313690492502 51.73466746458667
24.865481143268774 89.40019953892188 54.06086774582246
7.902484078702088 83.21255375777615 31.806092074372238
7.816436436868528 81.63769328577425 33.661503464360194
9.895529487572004 80.0480744618765 33.68997870232671
11.590676574327954 79.72042995572986 31.70572507890651
19.200807024719996 86.21070787908448 4.291782446074119
18.706627914006607 83.89279650327921 3.349287158304123
20.12150656128547 85.67292371503062 1.8383714141842913
22.479412014721245 85.69011482421858 1.5335361435517858
10.424274327749464 92.98312054075095 26.766119304149246
12.056428533853984 94.20329839978001 24.806903475995423
11.40213774051663 95.22212408722152 22.698462221667025
11.313776381997974 53.72397671515513 34.045197974957944
11.901739093525709 55.98432221334273 34.14085120367788
22.50581619681193 77.3452742141118 5.152980300621211
21.102454412077805 78.6519120154796 3.830693632764662
21.052181854305676 80.75191798497296 2.4275451972500224
22.357194270993997 81.84340030741605 1.6301220479512206
21.63514714710975 95.0229286349472 40.98279194160206
17.438661561569432 76.71740868586174 3.082131395446928
19.69111242575558 77.1517066484825 2.0604490815987986
9.873460038429219 77.0204898898621 42.53834114075369
8.20788191250492 75.68297726803632 41.05312588991671
6.378581530199709 76.58149483763859 39.59180638518435
6.290038503659588 79.13891220958435 38.618786452957934
4.229693045482078 95.2838559573685 54.8921551305302
2.1935190786150676 94.50747541134125 54.5572761226179
0.13230766662593013 94.64907728549949 56.0443827590455
9.793949876849364 65.4272518258883 46.32530173254176
8.24107495438895 63.77622262982978 47.86407724119385
13.501825919972681 55.3916919917628 31.299592778870675
15.632936354146347 56.28359633027565 30.42046509073441
16.339550828013632 56.50014806430824 27.785879187666524
6.287844663942887 73.59593910731222 37.71701138704925
5.010526084715418 75.39138521987188 37.418177496839476
5.805219314701461 77.79506199282926 35.898598112012536
7.823047639171114 77.73821457040466 34.65463883449445
14.448109063703985 69.8085416509631 17.561956696023962
15.872932760494509 68.84661947907482 19.040596374887922
18.539938351071825 68.23810849593643 18.15669367987628
19.549273933387614 69.17987867091756 16.020693330056083
29.949037892869807 94.75234105358632 9.20534119660683
30.524524172496896 95.94412008658797 11.162412658546813
31.71410128894077 95.03402435763434 13.494865757923808
32.286484340191265 92.39237944542484 13.840685931165604
41.22816658702704 67.58038158211885 14.627293753809724
40.28815278856352 68.25763642276074 16.881228662984608
20.081538706127954 80.09502446748984 0.011346274078451114
0.7581991640427062 94.05078735265701 50.49147225023801
2.597663775499779 94.8616798192378 49.66846939212803
4.644494954674232 94.33080464495232 51.581236966032876
4.23163402310427 92.88624429583776 53.65032476745828
7.427016896748008 70.8845883369824 47.11892445881472
9.367386480800471 72.13575517008623 45.2818797180272
7.682829024637569 73.53527013778861 43.466717039901944
5.209019998238629 73.99176829261933 44.13429472627262
5.531657880808759 63.74822173702626 49.08986408356323
52.09844421102602 94.64455299938275 36.10855408538952
14.21267386837625 95.6712701523577 27.457094972854538
14.602839585863983 95.00768385535731 25.131732972430523
15.246307388901624 95.8986596051043 23.252105168174605
35.81340391289945 92.13973612004426 24.37257641961716
35.30436732510634 89.76826435601738 24.214573149048206
33.77491825889451 88.28467999608549 25.23028156378538
32.05704355774533 88.755608462641 27.265550210523095
34.671254605953195 81.5897104150719 32.98276439528147
35.656899581667375 79.44435624587325 34.53383777776884
35.06133859464692 78.49975205402718 36.521731930578675
34.31318471453512 79.42938084909623 38.82394511592088
0.9400549852373259 68.02030631140403 45.02090391675183
3.0522876704947253 69.06260062266479 45.050335462920955
3.895237922705199 71.16948326479866 46.17656933078798
3.2640765598793795 73.117696542264 46.71766370314152
16.32327930270023 92.92595160384185 24.175931126415843
16.707933923460327 90.29634362706973 23.967589663698792
15.740062072929424 88.47921973612684 25.788700115411668
15.207455715214303 89.11015701126024 28.05722137071023
10.350940907347164 74.74357134005454 34.45658759086454
11.0457815845692 77.11357117116185 35.15266455760596
12.62195204284973 78.91586637903448 33.98229526327073
15.024579636077407 78.19820492356494 32.9049024213191
5.1711166616303315 75.71055728230121 57.21018325438956
53.89417539071344 94.81291609122796 31.427483228836174
54.321440814776516 95.10941279164716 33.73256054973348
3.1299371234134314 87.05143527952343 12.31781557568315
2.818253505606354 87.93434228498008 9.919984905921996
2.868431464362246 90.62502465377445 9.080414364037166
2.188620803052881 92.48913999479797 10.115419942719615
42.325549856094035 78.23394971633063 8.507373412036863
44.7399716906726 78.9418580933216 7.151902963126113
45.957750568637074 76.56441265205623 6.672046936683727
44.823214540816686 74.19982457170482 8.22774911659379
19.083043954820926 61.248121038485216 20.033383557592497
26.13186145338085 44.94726576795235 8.771756240284294
24.465820094501105 46.27610196029018 8.038093908727902
22.232945910291516 46.10449803778563 9.617282170035846
22.41701249130436 44.68588406411474 11.875056237956015
3.6760872212002256 56.970386099513775 6.003950074450186
4.294470558100769 57.59002700971189 3.656066296833374
3.1173323473266965 59.98971652213885 2.9370062652545608
2.856879417704311 61.98972604054601 4.223749499869214
24.952128849362232 37.939921803609835 7.261287599530285
24.40116607555001 40.27358768834617 6.963155310616402
22.684140655379743 40.73668217029163 9.06698343230123
21.357885720361466 39.11641706257271 10.341977383299069
17.65272717186417 52.86640327220077 3.9585774191143765
20.067808803031056 53.45735668497721 3.1539827095508723
21.897401666533263 54.54877303738105 4.294920522874125
22.2748006081401 55.863015313482954 6.546729516443941
7.065790282018163 19.53823967059841 8.670018016445452
8.685869597608683 21.5201800109972 7.686135542655873
15.081017065964991 65.9444146223766 15.004743835825096
5.593719632612878 48.96731017698163 16.48471960882974
3.951423003737164 47.770734330868635 15.81880174642071
2.8270994294155325 45.68698422046993 16.452667098217447
3.6431300298001625 43.48328226516337 17.369347756175255
3.5771841845398926 43.933338357572694 10.603628486478257
3.6546422601350326 44.974248883622664 12.608524785758604
3.3822310593640643 43.35662255158979 14.477697886473118
4.598023820132854 41.85913165755623 15.222763875426951
4.400899097450081 18.681742560222656 8.7659290999242
2.6769482823672215 20.25325954731349 8.798270150322303
39.968163308443394 72.03406852902779 5.030897534513336
9.554315650951985 27.685793639615323 6.228553495675638
7.470466722209742 26.71254888514095 5.368774945627139
7.022398708645776 24.746351075551885 3.948858094995123
8.16468578703969 22.99573595677768 3.194216877353977
20.03552371720361 70.67376995151022 1.1005921578195266
4.592514526854224 34.11272694791362 25.007904473430763
3.8668188732506286 33.74955575358802 22.19536747805687
3.7220334966200475 31.794846231801888 20.75490701908229
1.4369069463553177 34.28113223231656 22.83626094062869
16.263492633673405 60.90256740813485 20.650158099410564
16.96033667090093 56.90917399023243 24.955904977044845
36.87119780243308 68.40190836270419 10.843597762894941
7.2178781980929845 20.72689018813836 4.58607053310321
5.758206711876873 22.22505747114386 4.164610730172642
3.5938308892200372 21.555444877221042 5.4137690682848
2.605584094894959 19.240961413978567 6.089902864052501
42.58572353322471 75.95391337400919 0.3723847196465558
14.911462727036863 70.71918816099968 9.463955705228868
10.553916893213305 51.153072832301824 32.548774835906364
12.44361136072683 52.14608855157295 32.313292347090105
6.473626104448759 35.49498243951129 19.413470950961322
4.152019192564424 34.139453360983325 18.62718801541926
1.4524436149160833 35.26555809394293 18.57262985448431
0.644104219933068 36.80597887497279 20.330175513872465
19.25383840087099 66.06451262738307 14.029994414938088
14.892407330494908 68.54565434169972 10.74757009478113
2.7174231575113845 64.00871798310219 1.6255771683411395
38.26682432169662 63.564948974031445 11.96283002463667
39.39235634443589 65.65568268803658 12.913380444699495
40.36509437724236 68.76753506629252 9.431309762035387
1.4252908193371652 30.695594411957444 20.148046717510073
2.8451405775379808 29.782751842078497 18.39286549265848
2.131869488011231 52.456408783071836 13.033440184869052
1.3570737403356832 50.64455117202351 12.106532084308943
2.3751757651412433 48.23849374079357 11.748374931186204
4.462898763018347 47.39088769599191 13.306891157613068
42.55105626217577 69.3448563539682 8.187653744514718
0.4828839527948694 58.55506553263887 3.2100777063279406
0.2087171355559808 60.78406425852168 4.267365409352516
20.27332062633721 41.55588015073992 7.978683525739088
21.871905968270752 42.604046246359346 7.202283007886924
21.499680906353724 45.24118819186998 7.368332712217526
19.523615375579077 46.71002285122772 7.049925226924695
28.003668490573066 46.291834253985755 4.065960561733688
25.6192396495105 46.274790197266434 5.477030594824429
23.788003397336613 44.23798374076563 5.167941111449028
23.899428528792406 42.076628947765805 5.059523299167678
3.4037018414328135 52.67351045286919 6.1370745982079535
2.263965415597615 54.507479230260444 6.297685528206883
0.9513519619394794 56.039326488609305 4.261754491172972
1.0278674380389456 56.01252249186259 1.8091460891674536
20.681383519825967 74.09014428958689 2.2639216860509768
22.487932383560462 73.79566621311457 1.3470908664585028
21.929389276959956 43.462754081202796 3.166896225751474
22.334150827184757 45.977834468100426 3.2314281874727517
23.131776585743374 47.71052410186811 1.703604209053904
8.51609008629196 31.34660665888909 1.9631761459027912
8.699362634862993 29.093239269842304 2.414628907540365
8.656981599770829 27.802498770698417 0.24566209288593258
8.180404856190151 31.296151236224855 17.072560654489543
5.6585577091486385 31.648455446174495 17.23127432503783
4.032511776943287 33.12982741483972 15.661720409943694
4.666973152593984 34.838132806362125 14.132407785196767
19.442531747400622 56.83324719243545 26.136434426294052
5.33268662949351 24.008402438826074 1.7034215951720935
0.37393390736747023 51.28401186631465 14.742440008401445
34.19851965109559 59.756374450367595 16.504752079385792
36.218723784647196 60.83599963734419 16.80527798069869
37.55088171958102 62.493833448965894 15.8337891150029
37.27057875372918 64.4576384570158 14.656282735653905
1.8660431517181344 40.726552395379365 13.61579008615422
3.115488030920629 39.60987543253495 15.486312626173756
3.1219271709299643 37.00246205499315 16.163665339908672
1.9628076695498302 35.19628651119133 15.48226343973265
19.864906527224935 50.99938544539129 1.8473622429325307
21.7367985408184 50.114609607285495 2.0308930919901136
24.182910975260867 50.697270566984876 1.13500695278836
8.49809454513264 53.59451908305743 31.456544610406688
26.835983501405995 47.94549968595564 2.4256136616336423
25.702617014856692 48.317694061513514 0.5002180836899943
20.234699781398703 36.65901649779048 11.340761119326054
21.36096624200924 37.14878986699026 13.35875308497067
18.135174309505807 39.12114575279568 16.35887676462453
18.670274180656087 41.456138819760696 14.749849699630069
18.70384238888731 40.48126190404122 12.36819595758925
18.473009929951644 42.064958612675944 10.066512924760673
18.963418794541862 44.53504584300396 9.85405689724412
43.02625921241794 71.17032813855073 5.885569735765531
44.9765432907582 74.73293402273585 1.5181693744377869
0.24275094264753527 27.835985207370314 1.7225328155316373
0.435704794148548 27.724369323404357 4.118414488786621
0.8224161746511852 60.06608070457866 7.681677011696255
0.6477971237610138 58.29226107171101 6.412031420320219
1.1891285298752228 21.56125139110337 3.854237152248127
1.8582215042800518 23.711643201266078 3.3665320864076094
1.6913270514925802 25.230099518188606 1.4202356829728864
16.348119274662547 52.49090649458977 31.000053444893695
39.70221387363749 61.35889197109686 17.988997296140152
0.8928475992343925 40.932730156906715 16.820235970727985
2.048258197349667 41.12824651768887 18.677079552940025
24.977692252254755 37.01321943058006 9.923611124178672
2.6971661117936367 39.15379607514581 24.434301414852968
2.194639219664226 36.568150005676934 24.56614018976897
2.2375955306408994 35.02661715716539 26.31624495642394
25.95584710172803 40.9302578140622 11.49423005970262
24.12853269752123 42.330910611306656 11.307437629238757
21.89285672505579 41.954393079822 12.786674777081295
21.39202258322543 41.22145571381885 15.112875058317087
35.244676313302634 61.283926050680904 19.299733590443257
28.678893966316675 56.16810147035496 2.47403049501451
27.3120854050197 54.58924208996236 1.9983473028063468
25.531906661006087 53.518742180453096 3.7202925929343147
24.568487003984625 54.361306425058046 5.865819666339152
18.161688587066404 46.84418480984417 2.034799254096679
19.7759778379318 48.01808762709054 3.293638387091669
19.465400215439782 49.47999452953305 5.6933783386349734
17.543686730183637 50.6200438622598 6.516054503100039
4.306084607431287 48.636192750823625 9.623299855471371
4.645589137000116 51.077989989133634 8.990924610585736
2.4937804477863734 52.626161060751144 9.252792864537756
0.3298724885925602 51.73895939493519 9.577803351156275
6.4000014783858745 28.84174606475907 3.5903484532483088
4.734423352461576 27.504233442933288 2.105133202411327
2.905122970156365 28.40275101253556 0.6438136976789728
27.60664259643221 58.95979031458 1.4407368121926958
29.720754223135668 59.01625771393569 1.845096929995897
1.5347814720602613 49.059465516844476 16.55586759601303
0.7562344854387347 47.10511213226547 15.94416244302482
6.320491316806021 17.248508000785275 7.377309045036381
4.767616394345606 15.597478804726745 8.91608455368847
41.22274618587439 62.72963725749733 12.13506604827419
39.729269710098116 61.99859369101401 14.168278376368445
39.698248990023856 60.248848119554744 15.701417816129755
34.62008647195154 54.359132790665825 17.170833830651834
33.44051278976119 55.45410572258546 15.23809624459044
11.775384024121202 54.01226136160812 30.629994288913668
41.21147376021459 63.290105191269504 16.086811541844806
41.582007677079595 64.64706276695792 14.255719924843543
1.1710363946308888 46.15206081984928 12.633244278527497
0.7581754630609271 44.707500470734715 14.702332079952901
3.387840657692166 61.18678728867167 0.17510512282137786
3.9535583367046647 22.70584451187937 8.170931771309341
5.893927920757128 23.957011344983197 6.3338870305218204
4.209370464594226 25.356526312685585 4.518724352396568
1.735561438195286 25.8130244675163 5.18630203876724
35.64588495027702 57.41541537490855 15.119702661314882
37.58091542695198 58.94138646677372 15.656333907141947
2.058199320765416 15.569477911923231 10.141871396057848
48.25534299130356 53.44995626678871 0.3513917380906527
21.25245230776231 51.246592068564944 6.85843525974589
22.70585365998748 52.379137907374414 5.858363758884235
24.270641154640504 51.04666580874699 3.8717239513848076
24.481184667024188 48.49871097123754 4.331461252752898
0.4217793626618558 22.990739439695624 7.2285766432825955
1.6976581015869878 27.531813457198172 18.262190566884186
23.302919663506803 54.844702432933325 1.7276315749945925
2.4525395838396795 52.019750439741834 60.127109345587115
1.719510751941024 50.163252658891864 58.95058623009938
1.4794594560967027 50.76180622046251 56.125440316983145
1.229040815788321 52.68420952479248 55.08410652675382
0.17656904828416903 40.61275017665505 61.91522124347436
6.593959382306793 51.29860195250607 60.90951208899639
5.194574973346908 50.18763356884619 60.213223784672806
2.839459252616192 48.964632528452384 60.85755266989801
1.948837088058331 39.72369625496947 59.84109269384249
0.8156211769850543 41.71764146397832 58.93656540378569
2.8402261487841307 43.25592218528971 57.50474381755928
5.0207644759804015 42.09549784970128 56.87855904239566
2.8173662770378627 54.48444850750174 58.441335639777286
4.52194742273781 53.65947899656741 59.869005118752696
6.754642262092021 54.92874262030675 60.44970139234411
7.2450934384908905 57.432808591107445 59.22180107896973
0.15325822735991212 44.29296128697337 60.41894023028654
1.40405339008375 46.11777112288049 53.119296922787974
1.3270803665333695 48.079799685686474 57.58153635743482
3.779592019587991 42.523825889656166 61.59253649361929
2.8686159403741125 44.4479703488891 59.68870554039204
3.710415188189486 46.75481005139854 59.33778390685824
3.9996320628854316 45.97975858962649 55.62192028098957
3.402809325189941 47.9265099345064 55.532471731302714
4.6271853098291595 50.401001474243515 56.526820441734415
6.5108722329818365 50.33126765378471 57.98885569863365
2.0124401699553354 54.74234454956383 53.37801170182617
2.79727245920352 55.300363893446324 55.58260025674013
4.628139706978503 57.06566303141928 56.31201389170239
5.904951638359914 58.66706190713731 54.123212803430306
9.21511870406632 59.38567778285157 57.62453385841435
6.93862753962387 54.586896713868335 53.71247029740854
5.41384182026587 53.809734360166864 55.15552319730757
5.713351786463851 53.17841266765805 57.3945731373989
7.536273786343005 52.983772708692534 58.96555348329108
4.74435415826173 40.21958466172389 60.29431038736126
4.755185136165739 58.05502691930623 50.905971584889876
4.236699143652028 53.5433683160639 52.19658695976844
3.7439840157076882 52.31519629406639 53.64825945655154
2.2902332456693038 49.64058783361306 53.88257633250638
0.8692203223255627 49.10171549024647 52.20173291506105
8.371795953406135 56.83531133877755 53.851063581059655
11.196673638920549 8.85664204016187 47.5643693797273
12.698870336148415 7.933197353521932 45.950378472665804
12.40578973060828 5.81195236911543 44.24004910816297
12.019203618948099 3.883655942720592 45.19731842060723
6.956793985683162 23.93746606338951 47.521083742570625
8.309520564065293 25.798228583149683 47.88350617799224
8.405446098655464 28.329248257085528 46.63832312114168
7.32791653550598 28.856059577686647 44.54059182591276
15.35993376818281 7.0314490821319255 36.264344721092556
15.59515777772331 7.509518177628964 38.65667518324513
16.564304963218472 6.027463753804495 40.72058794382078
18.022740661044686 4.21116422654976 40.747071446837346
5.7890427084476705 22.83942923236191 50.27394753238234
6.997069499531401 21.950534387709265 52.271062635227956
6.38208131791434 20.167344806664754 53.84666248358915
4.072294356773933 18.987721337958213 54.219798247136765
22.79772411316453 0.23424436195736906 47.90125061776108
23.450469934668817 0.6808415493717578 45.43776209970396
3.12050082226345 3.1198581274030346 21.96151940149101
1.7211164133035648 2.008889743743152 21.265231097167426
11.276134166547108 26.5689088382947 47.68521985247767
12.114972602908937 28.518469632663322 47.94379701780208
12.410786519858098 30.405918943710848 46.14660643921075
12.491435072569956 30.31578042395329 43.349790561765246
13.327312867230358 33.18386134706204 49.469545311456876
12.26465465814163 31.829944212132215 48.48614292150884
10.03084562770478 30.114568909427337 49.30175466004461
9.524505240235607 29.335773888825702 51.25820833520684
11.276721378775417 4.754992589402889 42.02378402241355
13.5396373492768 6.187451864787064 41.40738357506168
13.88754772215443 8.691204817724369 40.43792658340925
12.46957835394463 10.205190526670494 39.48337576587415
19.289526693878905 6.638855041480231 43.469935297988705
17.377040082145083 8.004704858245503 42.52765829926085
14.970084719096482 6.931735088158567 43.658546187950606
14.875390755391178 5.587228575304882 45.395468130184284
13.484823519450412 13.46132587850749 40.214538312260906
14.653763910010312 11.5760878608143 40.61817544173967
14.788042392182756 9.728426615629788 42.77068108020232
14.08252543781628 9.799637767190353 44.71464578019572
3.9544594622881437 18.902743141616696 57.741580926475486
5.319917767369462 17.203262511797913 57.3068538287213
6.5986508231815755 15.852247912904117 58.80507098764018
6.321783305707966 15.384777226048616 61.3676047355643
1.0484888626944662 5.480735171464374 20.921012431247316
3.281183702048677 6.749998795203714 21.501708704838734
3.771634878447547 9.25406476600441 20.273808391464353
14.498444263167174 11.048167669914932 36.71909846618549
9.93641425164988 38.08671095649689 48.1934253489097
11.49200533783397 37.827958308114546 46.90110956844102
27.990607383317446 8.830978685615312 58.501072415316685
28.68397704402423 7.309779690020569 60.51851399577051
28.358290316210155 5.23883231160457 60.76102061267545
5.412402334044358 13.447163994929944 57.896712112710695
6.654793068666418 12.7355215694566 59.92321412796804
8.58832290630427 10.380505773500632 59.57960345503308
8.183272257121315 9.355853984269451 56.83342348491121
7.169088032948836 25.265434451517915 51.636212886176565
8.089939458223723 26.73966291366811 50.34064767805255
7.366554964427942 29.11127989028224 49.08691977330491
5.385848595321011 30.061760527097437 49.13451257172446
21.46900077137006 2.87416403836622 49.60689744056356
20.716807271333224 2.3803365005072057 47.41558085990113
19.16722758637513 4.346696653344169 45.62163489644572
20.521540290765103 4.48888321439199 44.54591865088263
11.109562839338317 14.986213623491517 33.02140644423092
12.948365479657324 10.469467320424785 31.541522737998708
12.483677000865487 11.23532118437083 33.61798147957747
12.073902955972311 9.852471250789332 36.12663777148721
12.73443964167767 7.6649167892927705 36.68671319081535
9.456929382386225 11.467868128553471 54.817826320656444
7.960448863764034 12.906496890372642 56.16203980323801
7.1228297733318895 15.110737213703965 56.04319354712614
6.822435366712734 16.892074409715306 54.51488624233973
8.912654874682765 34.40171644927595 42.22471861326429
21.668391004683187 2.594984279323248 42.35744158033562
21.25703526487116 1.6263275856414436 44.15314503565009
18.639119578492604 0.26877077944380645 44.44727463862142
17.139638634823623 0.23867437814931866 42.478632375695064
19.46451780986602 1.0447111034099854 51.06253896522551
10.645434246595547 14.354505934184786 57.19979644675978
9.336155665121845 13.965436847719076 59.132907584177026
9.763344784698228 12.578208683052809 61.370006382405116
16.519989948666762 11.248985189797402 38.46505092874867
30.838502094090536 4.328291781463247 61.41923455920731
11.253993480963876 21.86346172996308 53.66078524354623
10.072803608699264 20.23072185907509 52.91178434294637
8.813415250948639 18.657885817586422 54.858180338016524
9.952308357367226 16.751669978403843 56.27501357294264
25.627099455624304 9.514853577962153 57.17765444213517
13.292343445446603 3.7983909821889714 47.66659915565436
15.110771795627974 3.2124339412095297 45.97176472770973
17.413507482488527 2.0432377081767026 46.441616812750276
18.519739873378843 0.8091382663126074 48.25349221777745
1.1537267497858157 2.222257649140479 17.578827754229035
3.0374136729384933 2.1525238286816726 19.04086301112827
0.8343440495491754 18.31765806705751 37.7092337549718
9.145588315605673 15.996836359517445 61.17116386175294
8.777031573031811 17.268795161392063 59.04433155800144
9.584473723761253 19.13562886388751 58.203626041612175
11.215283814083394 27.184988567596594 50.32196014606007
10.544990021889102 26.759949633604776 52.518189564344155
9.266282603076782 24.160487589738132 52.56906607624332
9.613274861370396 22.352987558992144 51.49848547144339
8.556522975029894 36.42937065860345 46.49048180445368
10.192960533561838 35.31841985886521 45.3258796871993
10.579230463997781 32.80724104128325 44.51047434583686
9.71752939786825 30.919855628662205 45.167967045128925
1.1546811469351597 8.886919206316243 17.364021204197016
2.4314930783165707 10.488318082034274 15.17522011592493
5.54700899911846 20.994360193358993 59.469860455538836
6.936075725722468 20.041706019349537 57.50220501275143
8.35373829002118 20.96170562989329 55.751822471210865
8.837211271066934 23.3118291672809 54.98103343674904
11.392439062047151 2.21268752889188 43.22103055516778
13.479744486194434 1.6584128468070913 44.13155123675901
15.233916827952967 2.6496728946861867 43.34475908309851
16.161351634989256 2.2902520937602513 41.28506395158379
13.171215771186104 35.7236921337001 48.81902743004733
12.35586057490309 34.351476639056706 46.8118254035026
5.741660144022977 11.206933957748543 18.676541170908976
1.4481031569155007 27.345659591619572 30.542998220995
1.933758953739234 26.29829097090994 28.6233198447113
1.3197619400908178 27.696530490886094 25.892202675759616
1.5184000002952682 29.464455349045046 25.240880140551575
3.4651689795805267 6.408152888765304 14.764477609903157
