47.04149061469924 52.09327941107362 46.01010775392804
49.389345252331985 53.360923596115605 45.710938102412875
50.82433296108949 54.36682657352607 47.386767212447005
56.71379218392336 43.21011700351853 29.04191803514435
57.25221730494241 42.26127338684599 27.45062855268637
57.22030628979209 43.81061156220004 25.25882905008119
57.69673447259184 46.20415831693875 25.00244027603353
44.75905154926192 61.92397034366294 61.25164657530583
50.028017526502154 51.94913460834676 25.429234052467333
49.78596509907238 52.725808580779955 23.48266133937609
50.671862818904884 50.93409168497642 21.648187821101065
50.27856279732558 48.92191156396559 21.276191646213558
36.3486409432311 64.19990505625418 45.54516485794467
33.9891353438407 64.74717442781979 45.79881761938924
32.29434911991381 66.1407881718857 44.868214950588026
32.47904369789054 68.62632714758391 43.7903177617895
26.312391928785313 93.87968770569333 27.203059573388078
28.108265775558895 92.80702952997014 26.77799376220656
30.131727967101682 91.74788370302582 28.12313717139414
30.120605619455514 91.20322636894959 30.414629792733283
30.564673977285114 70.63971716294074 48.10834170267372
30.76628115341878 68.50909404249502 46.7018857868049
31.901857788744966 66.27282838269393 47.48262418533613
33.788764810241425 65.80895090190023 48.22241454076644
39.032512881756396 83.12052128957542 45.6365627725862
40.92156758958332 84.5130324099668 47.15626085610567
42.737520589601864 83.4195724327858 48.54515253165595
43.314142412674094 81.44968480091426 49.297128706624385
47.2974719827319 70.6394228657874 30.107065016884402
49.587086693290395 70.36870268570024 29.69565442469585
50.762860997176695 68.42320918486413 28.817213938766937
50.14946665113335 66.58319974908284 27.45429942255579
27.148996562339054 85.61295618614145 28.539950390681096
27.50405790554888 88.21985323056873 28.9656386800019
29.954490785903992 88.91920494087194 28.592102395034107
32.20769374480169 87.67651309327114 29.146436673037524
42.396396654596934 27.628487476385082 45.143083003457406
40.2323064863221 31.309989110470788 47.160021812786795
55.06771779151432 74.70496465060842 33.79122042557674
55.39290939134564 73.1859374157166 31.764152524947768
57.36079965431955 72.00245711735435 31.04930431559166
59.40077942114691 71.21888247250335 32.785858154631775
54.3761797731506 54.94292162547443 46.90692647147587
53.03114091454354 52.921885429881776 46.75854012691538
53.232335317794735 50.9858217986957 44.47617114394021
53.51466519413088 51.17671639771378 42.30722869640548
16.60987537113686 88.23056385369019 56.88847681461405
52.42545796570714 94.16900957952524 27.231399828027254
53.54669895450519 95.64458606163153 28.502235874923926
51.91609308861508 46.90592031533217 20.919707583172233
52.48875586810589 46.580171176971795 23.200176800479905
54.186651719732836 45.31921652389103 24.53273726999156
54.34571339946438 42.95486956884104 24.86718679700583
35.43965175732903 93.73521482494844 40.39112794428483
35.59472727049168 93.04172269934195 42.54351831299181
36.47354054077843 90.10557510302276 42.593495564116495
36.87718593845024 89.0947665462156 40.1441101861064
32.483577958234704 41.43858020310351 59.45643160068745
59.41344781541209 11.37841108252325 23.92101502627703
58.39378909202288 13.72877362667438 24.604725895926926
56.40482728983808 15.073338211912406 23.785733108630904
54.63386843380998 14.656920358512277 22.185913677120034
54.42537374588933 26.424226036781334 62.02266183167664
48.912841288205755 7.274137718625074 61.352578894140514
46.709887348288106 6.414485292065912 61.48037334656603
47.15333980852186 26.569264324493375 61.79669085504284
53.53268621818179 24.742467460976705 43.250335452338014
55.524595813449785 23.896365039717395 43.55716723287315
51.61007218212738 23.561392731482524 44.61799423558934
49.449220884455386 23.613887762368485 43.85696146122509
59.502950374221754 12.946587517993118 29.439385003785155
57.736723577025884 10.66275315563207 28.630816375847875
56.38159850383368 11.765397031054077 26.661324831993802
56.04130955337779 14.345394267883533 26.455701566851253
59.52412377411215 20.816654810874432 41.90899272349299
57.413136761327856 21.93191782061181 42.240932371417216
55.82472511349223 23.07643602674527 41.07531277550718
59.06022489932974 21.622279173810906 47.764073919284215
57.11948547214297 22.437283202508425 47.62332153108877
57.57672163903942 2.4755212131375686 39.32128359052708
58.49789098833746 0.19633099589433156 39.75154037252629
51.82172706305166 0.32332742606805076 46.1439790390943
58.706760851162784 3.210373762167544 58.49748570002838
58.34834335174748 2.011673691748601 60.433779755216726
56.084950948847066 1.5646536033447802 61.992110550126874
54.00011422961461 2.4675015696522236 61.77145810135122
51.63675486007777 20.82728887206317 41.1774103241249
50.73713440472478 22.93814542047389 41.618325960789036
55.73241128885282 17.419859554759576 28.00916481895773
54.47962283488661 16.72351822401874 25.818633423327462
58.26123259656036 3.0200166387132903 43.74323639910243
56.60530425096919 1.9132482072728583 45.21288949019918
59.07730534505632 18.503343418408328 43.59787406530594
53.19814353521324 23.46719974534313 40.64373175241066
59.727453416581035 2.7781699559378916 40.994331276469396
60.113548745152244 1.0479915824959707 42.35392814257048
51.92085499981728 21.017311354315314 43.98857415311792
53.78558544435107 21.039758744912348 43.17115041340209
56.116941875260906 19.440758491371753 43.569761194361305
56.779577339239 18.138275792062277 45.15728437043372
56.44703691009571 2.645503550544164 41.617645096002406
54.74001130467899 1.08603587772257 42.9218580853014
52.600500357617776 1.5340028543376334 43.84700186782419
51.521134496829795 3.906552594606783 44.75721789706468
43.2362955713836 11.858269446241305 60.239569525072206
43.53267284749421 10.042843229365484 61.920449741063315
51.26410886567321 28.0544106801925 60.72092737091749
58.83742301460296 20.09247962751307 24.169829493901677
57.13940631577858 19.44706922500969 25.757854892183893
55.01385014863672 18.894760522781045 24.035319896850336
54.946709311876845 17.49991386217959 22.42817174994234
51.98093336125029 3.6502580236305886 47.47087861072676
53.77680720802386 2.577599847907401 47.04581279954524
55.800269399566645 1.5184540209630897 48.390956208732824
55.78914705192048 0.9737966868868568 50.68244883007196
55.526897669615785 19.96172719030823 48.55409793969417
57.9973514738286 19.11712994186686 47.537107022202065
59.85505924815028 17.972842840627806 48.56158188386118
50.76447673489276 40.803697689471406 2.8263251570101287
51.48190858342465 38.44516442965979 3.6254233902693143
39.84313442419833 48.14418424567749 4.015194095835668
39.834327193719446 45.83883703089369 3.172291047417716
42.27554365151337 44.8247364040989 2.8772195600140518
44.326085123911476 46.02830016655523 3.592726821826341
38.74084436371299 75.21820223602825 0.5977326206206797
36.58044702016832 74.33023527132056 1.7388841590532098
36.06607417489838 74.12697013098929 4.21294152317281
41.22574674134194 12.960110592895527 5.246816662430558
37.13063684725155 49.359023029192876 3.563393479339611
37.92721705821735 48.782622673055684 1.4659101034234439
20.83888898940284 57.980895477656645 0.5000571160176878
19.66290658880662 60.221791426436944 0.056297847166362255
42.94913411063883 15.098273644130021 6.782274926135257
44.39585166825819 14.938627946670351 4.930703795063808
42.83983280572916 15.87789450341264 2.6729524539295286
40.5309897553923 17.148780135780843 3.0817283628429397
40.963538495513035 49.76391108991801 0.7294805535459388
40.51771305743977 47.27430727560648 0.964587222693698
41.372441012875505 45.163166021943674 0.06782156064119388
22.492225786317846 34.07471681146497 1.402342473155248
25.126647181467302 28.79735873350374 0.10933348844849905
37.38723159723958 16.290710702070335 1.6805403783748805
39.262560564420944 14.93533581317409 2.8320985210136844
40.212108878309074 12.858414850686906 2.564251752596634
26.856590234596883 47.54542478804462 0.4039220946541994
43.82370125517617 18.71200980695164 0.7425700008138448
41.47646184762205 17.480480815380144 0.325650828112279
45.57849866303514 15.129771140111865 2.375540269622862
45.651220821983785 17.620728218433396 2.6379302688404325
34.52856390678217 78.00779584373723 3.506196019879148
30.189970637763576 17.590539465972263 0.27868477926910823
35.66635842490456 19.241859947856852 1.0259269518522256
45.42355782676684 41.96439490463852 4.908273503727866
47.078465071017014 41.52693090672054 2.8679068410982307
48.32940650617286 39.45111232457803 2.014880196342993
48.710997738424105 37.25790599597668 2.9525189346773493
20.01536503017533 28.978850655130866 2.8778389653940155
22.260047383747494 29.659479208680036 1.8670612720352557
24.18821831220136 30.978523017808964 2.749693510012882
24.41236348692432 32.16851013860873 5.050161333284351
33.779808361946046 75.16071841256081 0.2842590054601961
32.9326268401571 77.17450162461826 1.3157383932772477
30.533258669029124 77.87821945374606 2.169585389450141
28.547821519872468 77.1058061435925 0.9518149434373597
26.20995933002496 50.81809657608447 0.6488778888640241
26.29918344057047 53.299814017656786 1.0907106641725601
26.234784097708474 54.628492080357844 3.1097106922227935
34.15220385827057 48.70851838801628 5.211391366476408
34.54617672165185 48.384030782340716 3.1826224275867467
36.14267687343711 46.67333866357752 1.9358805003309578
37.3888461734908 44.783491393251396 2.3619589728089507
46.83096996565464 14.692317070630976 5.054526308594019
44.12481567700632 13.166428046144409 0.3817995471534723
41.87717678792251 14.005954858710217 0.8383561066161921
25.654567023595792 57.3939072267706 0.2357270511839551
27.46820011961814 55.85581028482334 0.4246911606247751
28.989182253371695 53.34297643068904 1.9957817351639877
28.722141446377524 51.53309025710358 0.29044647157556486
31.37313798171063 47.79455166808025 1.2764069415866028
33.09346573231686 80.20597262474821 0.8706445157849304
30.399548418446383 80.21211668465175 0.5736150454857106
45.15953125510033 37.08589037899121 0.06463659113963018
46.602978154637405 38.45564591121358 0.17690021062173467
25.502822958478568 23.13151333239447 0.8796393767160613
27.20309218802949 25.142300976365544 0.6130046239549353
29.372177999225727 25.184904562681137 1.5359970723552507
31.384692383587666 23.665845786441842 1.83248006738231
28.788206214710673 55.14787356589034 4.229022545169747
29.421031874699338 56.02303466916579 2.446300273570404
29.229029104105066 59.11882890258434 1.735278584183714
27.13714464619594 60.102311068645655 2.6449111710486854
27.42627870982347 26.13891823603892 6.680161291850478
28.897854344752304 26.138818154471068 4.110480599576743
28.993319314215732 28.553915115372284 3.111365219040404
29.74439915842578 30.46586068845862 3.7962334954204175
37.39681267450922 21.520076380359896 0.4199906511880394
21.937552541524145 26.769132560084362 2.207547381126595
24.14093098349718 27.474936847715927 2.4550237939431545
26.42523275299613 26.48337134602271 3.1219405655165597
26.722933606207285 24.477648955389622 4.522220978011779
20.686303971218777 50.94892966413042 1.1760028340423347
22.682958919652354 54.574385600218854 0.9081808983896804
45.14462028828007 42.45466547322316 1.2977635052577465
43.72447911216513 42.31633436391206 2.792998328810838
34.16686401057447 47.2873028771028 0.08747875202774082
45.519746396196595 45.666328111039114 1.0235589979407866
46.953611850688176 45.49973283007497 3.3243682078725842
48.68737215314918 43.88070223377542 2.8137906526458396
29.791491143757874 29.579768312006063 0.5636622303745883
37.4235251116455 80.10995740904838 0.21549216720864556
36.211724186739005 79.92991611742566 2.553938601767793
33.68891577555954 84.18430191811908 2.148930019907983
32.898258484204916 82.35780159000588 2.642773659889043
53.300317425426414 33.15723036094042 3.0820063348614983
53.24175139764057 36.54767048046743 0.0001428186477697364
51.056778363800916 37.742075525108326 0.16250158716644922
9.19718275464818 32.638323892251286 51.55088751228542
10.621216004653569 32.628430311174064 53.259550483157014
12.081447691609487 30.541661151111832 54.31357340532916
11.265927543652516 28.153641472215813 54.39894081839982
21.508848461261987 36.17193437454597 38.88545152743355
22.227217240908246 37.12398269771301 41.02548826894435
24.228548970338586 36.2927936790962 41.9408292826477
25.27093565001212 33.59054148166355 41.82103395366386
24.608263297726065 15.758575475610133 34.001202553408376
23.575537011881863 15.580151168205344 31.692561756418886
25.21371569620229 52.73963676421243 24.183142185527714
26.250706195710865 54.02403203491205 25.04103622628153
26.31822654464079 57.011204802283466 24.592668007639595
24.819487863646483 58.08721347211062 23.33993661547576
21.826846263116263 60.78441674748199 1.975030783989625
24.22455255157595 60.11789433887187 2.377982677889668
24.973342944061226 57.79446985610209 2.8675248865500715
23.629005458164258 55.74778528646998 3.0160641975882796
12.614661658482655 15.356837290686316 5.996878199706235
11.136955062932994 16.285262550216768 4.955456017928989
9.429786570606511 17.56352810784855 6.21190108747062
9.431841947284033 19.296410869110087 7.389156994347448
0.8320185727796998 75.43588485527896 15.795572100531585
0.27883222871582564 77.1440585075205 14.336540358648666
5.166922792686999 19.883484853355064 12.690797521940407
6.965341824245704 20.392076989444355 11.010491270117916
9.209688284433016 19.20697830305797 10.582322282542714
8.800521738994942 17.379414063956688 9.645972931245254
28.918155383405548 47.54619740003853 60.51063278377956
29.635587231937436 45.187664140226914 61.30973101703875
40.24955664870755 33.28885043601867 38.55031026049993
39.13451544783429 33.242165110453705 40.89582986957426
36.91745498521893 33.380298934482404 41.7568241311807
34.845875256181614 32.50032306211839 39.923071100840076
17.996813072711117 54.886683956244624 61.699501722605106
17.988005842232234 52.581336741460824 60.856598674187154
20.429222300026154 51.567236114666024 60.561527186783486
22.47976377242426 52.77079987712236 61.27703444859578
17.864747248787396 44.37013396213717 14.882848944558507
17.137551923697927 42.73168450681657 16.043520339069115
18.301258275861635 40.73341697909023 17.42668672438716
20.305402980564892 40.04472611943775 17.760627994685265
21.44494935891661 9.128771159033604 10.396086581490959
19.19554230425056 9.252176842839782 9.19630308272885
0.8568617521607549 29.483904460326748 25.246516226454446
2.2755236911655627 30.51095715949318 27.027711556084903
4.8376251108274015 30.23287499865278 27.61640191793072
6.277764371535176 28.270706389256695 27.11970906190606
0.5956520844359185 29.024819495609254 35.07816675662386
1.3068727491246546 29.020982821871783 32.51246945380917
3.567862445000277 29.46191292107311 31.308919777001815
5.947194074810219 29.238718330936567 32.23611358492682
12.761898563779491 68.34910073934851 20.99358372556595
14.581787925781635 67.43689881407263 19.524051565107616
16.669277395042158 66.04164923666727 20.309908743565742
16.931618906229676 64.46837654376729 22.31640175742709
21.171014979090355 94.53779248134464 21.552857237289583
18.90762023729518 93.33835025198879 21.41887761469512
16.94275032798654 93.93737565130286 21.72988354602877
34.58934413934568 56.125444618226524 30.313484079143798
34.290817396730006 57.15053287368587 28.0669273538305
34.3803674993482 59.50604461255344 27.728703543910726
16.894523012225772 81.96070194659538 58.282040247390114
14.734125668681108 81.07273498188768 59.423191785822645
14.219752823411165 80.86946984155642 61.89724914994225
37.35349074937372 73.55949905137292 5.946867969407727
8.578250231559469 78.65595379488367 36.75670822464207
6.542890271097782 79.5781454419794 37.71965132002855
4.750788040438685 80.51852987469606 37.03966635621785
3.8162936397039604 81.81038263585586 34.76417965434969
1.1296345487343453 78.96908363322963 38.80964555202604
3.7202004101383994 79.49193305642275 39.21545926060156
5.710203477588767 78.23149746974795 40.05728204020929
5.611746797935189 76.05429816932389 41.247970214874684
25.51546435516908 18.116804385008955 32.25123123694891
23.467461590505845 19.198448955500634 32.61418126895258
21.858790768365463 20.777440848769366 30.908201445259046
21.323346063891076 20.56445361583369 29.08021462339422
30.785713088963547 62.478969485694456 26.148917424256823
31.69792972769378 60.26175713373033 25.701537389577503
31.596340749063593 57.925264533098684 27.456106611679587
30.104486440472495 57.6324161414672 29.197181301391694
38.84812584945398 30.41917404359654 40.80861493283537
40.78140411349896 29.936753425713192 39.41354429884829
42.268018024814666 27.91789361913614 40.95905858481311
41.44337813319913 26.611895897694943 42.686149122232536
27.03420618622105 83.39711040526825 5.88861940949514
25.01050065948666 83.16051870487522 6.370751599236072
22.954107925310495 83.40106365192344 4.714044746132819
23.19869317597039 84.18956054201603 2.345856939750276
8.360278322960431 72.45047417536796 22.19687454952528
9.633472684660116 71.6543141946556 20.19371127079036
11.805641860731512 71.351080540081 19.47377630823677
13.895905444519515 71.02669034430863 20.960564095269596
0.5565485107055927 12.329191762007762 48.71181371134247
36.23256431650912 50.197324480833856 34.56210866795483
36.32732508443394 51.13697983942913 32.24213959844826
16.86208319779852 37.19230866961027 17.733348368927718
15.97272182785413 38.860231652657994 17.425312543520622
15.933617262525665 40.45725699731892 15.07139146905888
15.912057561674471 39.66894539852983 12.981414885068997
0.22185004231941946 10.834607636581255 22.0871340457842
4.935118302264349 76.25664390239307 19.215615391148273
3.8832963557647706 76.29834400923379 16.708358758539728
2.6636295070520446 77.64118913007553 15.61295572341604
1.0392725556376912 79.3878396212976 16.321085732244683
15.284315495764334 56.10152273976 61.24770110610905
16.080895706730136 55.52512238362281 59.15021773019288
16.205331229830854 56.86509455889427 57.06899376337786
15.457252345822287 58.991126891618826 56.2585712681055
14.279012835132068 47.988599139001415 37.63069263039589
15.668469582165367 47.356258031091876 39.81314809101439
17.79277621315316 46.22912637829959 40.29225183610631
19.156536719925853 44.89671691584117 39.0970934887715
12.78072494398118 91.65563637222438 40.1311395692105
11.436042028612391 93.94686304618241 39.72732761549859
12.35703269372544 95.5951728852664 37.73532685587537
13.159823952279336 95.2521286901372 35.70757692616181
6.815508451952177 26.28006893795604 32.44071517189961
8.557043533529313 25.74605420491197 30.33902540972568
8.956667011465363 23.71519388065807 29.410041800105795
10.319599082103508 22.602520367974957 30.671559330328115
11.562225524006768 45.9275019495945 42.03393888369876
14.035045686439176 45.458140387760096 40.681399337660544
15.386103702241314 43.42057045526135 40.39750937192898
15.485307136725352 41.40652489932991 41.53856895199752
21.27133485504149 17.8738407701674 40.498644476204305
23.52751338346 18.343706693717955 39.85139607193369
25.55462965727753 16.843839420739673 39.30567817502526
17.03404707285488 73.65793395903916 22.2932782895589
16.55739101893433 71.57836947801266 21.475923438380697
17.214813082767257 68.97517325684781 22.019499437599595
18.264434860323913 67.95800631695232 24.06983102952346
44.38963509125477 30.492083111776893 21.500233049447324
44.46524271680204 28.204718427122742 21.804834049864986
45.13418982205704 26.94674616144946 24.084435713596132
45.115540285751 27.698432898887905 26.180676836367294
24.709010013429165 40.22949251231961 42.601716700269336
22.287433886056878 40.431626842146734 42.15041901777628
21.017173093441635 41.876204895507705 41.03687306832669
20.827769219664198 44.12057945491756 40.973880124163124
38.93891506854213 23.720747282726716 21.271888625173716
38.249467140749 26.367997058435527 21.67054243323174
36.64169840706942 27.517860853053808 23.01083792871091
35.2268959700174 26.272876208716742 25.018238878114275
11.026921432054927 60.84425101840096 0.8940856194026219
12.658157524140446 70.38398525378958 12.76284741753822
12.142547470816211 68.87882172254895 14.490416295500973
13.522917070011191 67.41984712984559 16.219610328058067
15.768267564612925 67.6473112587397 16.68518427053629
0.14691767196847466 63.019151350105425 56.56503889081204
2.480690980103933 66.910223183404 1.9481777293447864
4.500524238020908 66.20900403014404 0.937392651006656
5.631037330668574 63.804543324468604 1.0420573607129058
4.488171478528589 61.95963562475104 2.141508411077876
21.356488176352787 69.948160200976 42.665563215722834
22.781358945382344 69.42271830186685 44.66822594016586
22.2559581090578 67.62685530637802 46.65303301717788
20.39057865260935 65.6612172109819 46.64317275331346
0.16133037882365928 12.936830559611277 44.142127794260766
20.99351145424194 22.62039421397977 60.357260080698964
18.684668403905082 23.891279846347967 60.76603598961238
12.578253790189995 90.26441885639647 0.0005343879411573282
19.117217144025823 56.506410800485135 58.41378818031538
18.67139170595256 54.01680698617361 58.64889484946313
19.526119661388293 51.905665732510805 57.75212918741063
21.380263701172844 51.44652539926377 56.70300904495169
1.0890288344023782 35.37091910342374 56.0616370092708
1.0528812465146424 32.915495224094016 56.75877227565097
7.799375401492808 51.84525781720949 13.153106061096073
8.485020609031107 49.87974573927531 15.06026665482012
10.09354300269733 49.54826551724194 16.505274959348924
10.692690192899313 50.91417291976149 18.1527089740149
16.755569441878777 48.4159845914808 54.490392792497914
17.262335929329417 49.29931567124676 56.63039534078734
16.78848078810033 51.688288320546434 57.65183649529585
16.42078612049735 53.62911305766481 56.846847298108656
1.9542262573086513 36.426816686892906 31.0465110458844
1.4964495293472495 34.54478117614349 32.637805805044735
1.7078645184033994 31.87225389165465 31.510313383885297
2.7782900301748383 31.410895088765525 29.592378396048623
9.179219396406358 27.862643393273586 32.6948344505999
10.597130752443672 25.98514088238841 32.58428311991115
12.558776390764898 25.21191503504398 34.09203486947922
13.469986093411526 26.104394016420496 36.087248265292146
17.124278145713575 44.410088782705735 42.303021250873854
18.406800795504914 42.177229403140515 41.78580936742936
19.85919184111012 40.59605276473535 43.30592328543502
19.767108058316076 40.3285007662415 45.64085574782592
0.6459044348306314 40.81721652203209 59.08665009992468
1.6027483682093593 39.429418636944376 57.09952074122036
1.1599149158490578 39.22175704374156 54.742329602445814
30.876811988138503 54.772182390980525 27.24343745173494
28.54712733067735 55.38586921985481 25.77092355941226
28.939771041586955 56.936204402281795 23.694617304879674
31.42706999359658 57.51597112511339 22.074336657359957
1.6988457144773934 46.75609201002398 11.19767726365049
2.438760502654681 44.507035646337776 11.518116959705823
4.455229455879028 39.50903334823066 55.89652140827076
6.072723764759283 38.07582702977337 55.34708065904785
5.003448203053074 35.87551392666449 56.24379704472341
3.280325829980085 35.539858444070866 57.79364111521794
30.826704516874635 48.09420726634486 56.22877966721174
24.31557475455759 60.81154505234616 42.45648256299565
25.48652759802026 62.908226961815274 43.33255619225461
25.157442602585466 64.24461411523768 45.36120881639317
23.038930971531883 64.41422242522695 47.227187914470676
14.151275331419042 22.728402670078946 57.191823873972105
15.540910245752364 23.03321041263746 59.36484800514432
17.416239212933732 21.677835523741216 60.51640614778312
18.36578752682186 19.600914561254033 60.24855937936607
25.70043183965326 61.387723650488574 18.431079699915877
24.954048447063688 59.62651964295438 20.011895373440666
22.851235129130252 60.75404833122879 21.7471106247635
21.457592404329517 62.054636880295796 21.124297116307122
29.791236686207338 60.41640298727593 16.34621384094883
28.336984610019663 60.8740724793316 17.8814929876245
28.01653368048166 59.47742602284206 20.20490270215029
27.970373848055562 56.9149036216509 20.456825490328523
20.924741511843987 91.46425389180068 18.339008804556308
19.026390249754407 92.47293779784226 19.021024392502106
16.112799790408992 91.91239555709967 18.515564668370942
15.226596155778086 90.15083255377519 17.33597626755863
22.332136459932908 23.0953350393127 32.56344495259792
20.7889522533009 21.545508903755096 33.35739584133921
18.248831395959257 21.571172095759433 33.63911272094779
16.76975380841967 23.74018455638014 33.60959836748661
5.010268883109667 54.287924498611744 58.08822972142364
3.19281325008065 55.584096563141856 57.447417236704744
3.7035371589254504 57.3400125353359 55.29391227226433
5.541565218293608 57.2970131699929 53.65543154774288
27.17530391864051 31.934934552495523 13.00283809241677
25.678985203166334 32.954711360008666 14.058481201164541
25.786605077262234 33.53818098992699 16.59546652449024
27.828687903027213 32.858621687319925 17.949548136208588
47.02370061069488 17.678192585885427 19.12596841074159
46.03163735532744 19.488545997848504 19.994041792531256
45.0617307292688 21.71503512441455 19.158863297822762
45.42706849194218 23.03471515447429 16.724836986558817
22.10789105262701 38.868354314697505 37.39768639988671
23.21288954022859 39.02953642281043 39.500139335170466
25.290466916008352 38.17331859070916 40.477400760344494
27.387129109095245 37.094258071412995 39.24514027152207
1.4583315864147857 39.943025716492166 51.23957362173552
1.002301457465897 37.776272653056026 52.38505594218208
2.636695187000276 35.82407794076672 53.34409265061045
5.0906863182262025 35.69154965846739 53.439173874107915
21.91535000967832 27.908761831140513 57.44637003666176
21.977379903688952 25.454509517518765 58.42687762758328
19.630140496134835 24.222980525947268 58.00995845488172
17.461782401076654 25.100591859536813 57.375532366851715
1.0335928302136201 18.73364097376991 42.38791444629989
45.23484385009559 24.83859723188502 25.874925232768607
44.93408661838425 23.329388563692262 24.13028059856674
43.433212195983515 23.864652140791197 22.385970172809877
41.245144268498045 25.255845562275596 22.58547009022302
2.2095846918823714 16.071670705491112 0.4656593666229513
3.981599604135009 15.75878527268178 2.4351125587237106
3.597153227566747 14.580575494115115 4.850741553241322
10.01308809474887 42.44168585989942 12.827400759326714
8.912970342521533 44.47545999960473 12.99916550015768
6.298699272101034 45.231798307606184 12.649989973611566
4.75397976316405 43.63570029438061 11.828789576650577
7.427686479976795 86.60346840566865 19.34282883971841
9.114769103378077 87.92088186609237 19.595429844099144
9.21106565191784 90.23837106628854 20.466818420856242
7.934971769346525 91.73285211159927 21.585877188435376
20.38983450579728 9.63302459791783 14.266094425791522
24.563713228907073 9.90356340150342 12.523623896321006
25.69727371127616 12.274961050719984 13.339440822310772
23.73217731154792 21.87227085067899 60.0598478963923
23.80489947049657 24.36322792900052 60.32223789560987
22.989234398203802 21.92125821770229 35.52041836567297
22.133759524455233 19.992776405814233 36.5609918191273
23.61279030318089 17.503005175753866 37.1324756564368
25.886534022018882 17.009111228279036 36.70886909040919
3.3742229401619306 14.966415299646684 52.43740997090276
2.9670908225651704 13.303723780391785 51.41801784284814
26.684244546181663 66.99468775078486 47.57788874153152
24.631990300492458 66.1200618295681 48.53254884258503
11.58091576830663 17.895396795352315 9.998626932874947
13.060366138869636 16.493474611422467 9.23297285403628
12.052579694407747 13.86105616789637 8.885771714689746
10.734324158308262 12.94369720468771 9.828667983330332
30.83948680995256 46.243625347417144 53.99736924766189
30.452017822956975 43.88471325584603 55.07187710486073
32.187404781603405 41.795391977573054 55.07942578494142
33.76453158513729 41.06982021196291 54.35991618629762
14.71918806614942 14.32917808049466 8.84272591914647
14.144059412373014 12.59435113706749 10.499297749782581
15.642855438103865 10.769153002913209 11.821336007849093
18.291016871956447 10.904178344745567 12.421224282015016
17.912315901680447 33.4666807562074 17.423119008256606
19.289167869142442 35.52059694505756 16.44163778827617
21.364737419139963 35.52568525943522 14.811123897636175
23.025216657512768 33.536780115120045 14.711875551269577
35.93550148896943 55.94253608550266 24.976833171094235
34.59279475171947 57.83258981364356 24.82073905030605
34.787148909894356 59.92869073000516 24.302969683658862
36.83113605032274 61.519843631037986 23.570150158994952
10.061938131466313 95.19713585863771 0.5330671436444219
7.500474261065282 76.85621205802627 38.23050713593746
8.337182659080144 75.52705604168733 40.22698896767501
10.844506887260227 75.49917322724241 40.545174318712405
12.19137886528843 76.80705862878203 39.268427951278255
28.72990555381696 52.299666972011735 34.003880590129775
31.099179098638995 52.39970651284936 33.56531951593657
33.228028818097236 51.04285852992077 34.38924376979916
33.72146034083211 49.503936384228446 36.13287026893478
20.93176167058644 14.38857408304481 33.922096609974915
22.402535180158562 15.258319422074871 37.26673177495596
20.42763695594032 16.693369945769 38.153901072272106
20.600249965087126 85.44797103771869 2.336615090720038
15.151687769338961 86.75806018639588 0.8493055945751193
16.386323737552924 83.06006148359282 0.6605468478758738
11.746293122791226 8.51938706941742 13.568865405817792
12.758983490404686 10.16487931599482 12.357368422983347
11.567590667179173 10.519742347602719 9.754193625519626
9.758565936113799 9.03311990886181 8.845914866269192
25.986441696617593 71.06519139864302 43.23321990614925
25.769607048405266 68.70336841590564 44.88363853709388
27.073947037482622 66.68424474140217 44.75523361759735
9.28811979431123 75.2487205251086 11.436398594444647
9.199335338202793 74.07876818508755 13.33914240162258
10.879162190873485 72.21527544634834 13.607974580144123
12.315337755087903 72.6714202340274 15.941214392889103
4.457460529482223 90.16715062321308 55.893460114778165
1.9129104410418187 89.21252195872388 55.889001575391795
4.805081151524038 20.941213851747943 1.1849430431912187
3.94769280116962 18.38292667807448 2.156415271790328
1.674474427924619 18.558622958394434 3.203658698424061
0.17763675851727423 20.193567846801685 3.4471318667834163
26.513938445974258 39.56385613613474 27.304221968890687
25.228032437212637 38.96405557367731 25.377071889097643
26.027991093930396 38.82348678026243 22.74371513579244
28.28685796857647 38.895647416564245 21.762103313910064
17.654352960978905 19.89000109937064 35.895224434814985
19.726896359205927 18.659959231004567 36.20432397941771
20.984082035422567 17.27993962771551 34.07509937869579
20.567526193287257 17.184005734634027 31.93101108172197
6.290174411522035 79.40815087031187 42.41123617196166
5.051702474740833 81.24216472506484 41.078116261462576
3.424144125240855 82.52899418267215 41.31062130308165
1.6788611361103059 83.1622474729128 42.94965343841993
16.274224746031113 19.17317179510646 24.086363340035494
18.106361927767207 20.079684867942962 25.63593445624973
18.95836792702163 19.33310333984621 27.95736125765156
18.0483608969483 17.449631226382266 29.36679726115526
27.82057366729496 64.37665248920298 43.65117130192224
18.748256969008903 95.88852218637368 39.04907895575655
35.76312845731215 30.655696508042446 11.679288918054109
35.1279470981786 31.28160333958834 13.764347382410369
35.963085070920755 30.886471936726934 16.170613268404942
38.097708797215034 30.187066845201336 16.916648884517564
35.82389533114587 77.28482166035903 8.065606926832821
35.84694521012826 76.89820607234019 5.694932294226372
12.68224255529495 84.75029555430436 61.19050364664859
32.601217256166606 79.30820379890069 3.7999909743784674
7.128555287100487 74.48084138912681 10.052112349738849
6.7862686719439305 73.62334262905607 12.35048806532257
7.107268786838013 70.81821039154792 13.211924922880993
8.61708033664408 69.18280633182555 11.628815817075822
1.7513758214526423 86.0027163222573 55.93408622082915
25.724005416060653 81.6372693577009 0.8167077067436862
27.786030682930278 81.01822171897864 1.2784536300526093
49.62660977817379 21.50491514725492 22.087964313750547
47.51526336239319 21.389784841982237 21.597622261879017
45.74925835972628 23.245597654582355 21.460552337215585
46.61059437040888 25.980222951102917 22.282486038152854
5.167514593235064 13.789627517901566 49.60110177112308
9.000849680323844 78.63123741699012 11.009682154778364
7.599121695198102 77.37487187019624 12.765202434598264
5.667198362978673 78.05398760971777 14.30022437055966
4.968603464842436 80.08799267329348 15.143582118451896
23.61470169933371 50.61450336245876 53.44594907807906
24.8465828599405 50.094300214958096 55.71159835915215
27.534204152518065 49.62884975470034 56.164271300559626
28.67319606906943 48.26191936784368 54.8159509727765
7.72220026985047 54.18796174690334 28.16454139806467
7.248517659468644 54.91533059010206 30.615150715664768
5.851337357303879 56.589229019254425 31.729766052833966
3.4911746572716216 57.557346022981974 30.978776207433206
9.955947183864465 72.49725613472252 44.39219621558646
11.31919707345708 74.61513017440035 44.02521088227546
10.154113630815422 76.86552973272296 42.965950200489736
8.163777630361754 77.58666643098809 42.503291305884275
29.620191101959385 17.407494761499056 35.865794121809884
2.3235417558788023 81.72176540580786 14.255292497121841
17.023924629026517 42.62100332099399 21.29179777564587
19.0527658090465 41.27448431364661 20.417939132470593
18.640888698501392 38.69947356012798 19.931509901837654
16.893621334325744 37.24245189566685 20.298479820816347
4.987414143428878 76.54009542068732 11.239012121793971
3.642274457173636 77.81334290949393 12.885940130877383
1.3325426727031042 79.13047545282757 12.668303347623834
0.5891837611263928 80.466425540584 10.877414836457769
37.338676065508004 53.956131094115555 26.64938272330497
38.44663137125097 51.417650050576725 26.924673626288804
8.343649286276362 24.33303917653939 57.962992406038545
10.152810454029867 26.329132678729653 56.5506863268735
12.642496029763368 26.625633524932205 57.13729955250678
13.82003707341734 25.98435965842398 58.710234578621666
38.14845562517564 65.97810340994255 13.702217998801979
36.91710991942594 71.91964258657222 12.88884162005161
19.253181786887847 73.41154427461599 42.26125475021354
19.23903479791278 71.27935744064936 43.00100824564283
16.752309333185032 70.03910978902827 43.34227295353826
14.472216603435696 71.07574635745647 43.329999206547875
50.75988430323721 20.66937917145614 25.97740691027263
50.05143503184122 23.033498031354203 24.344177883451817
48.51652854537027 24.561765872010625 24.77179502981578
13.426088129073786 50.56129544727884 38.382755675240574
11.326882246929062 51.74136623143307 37.984417912751645
10.256219521825786 51.9235995781688 35.45897697396682
10.069631796542016 49.719186935763965 34.40034027652801
30.59969595171248 58.250142569049444 42.72735929543993
16.55217055506183 41.983710935431716 9.799374959891733
15.297013488145742 41.99547518559227 11.763367275518592
12.922929131496709 42.4197663886788 12.430331265082472
11.688544849503007 44.30249425827004 11.195254540728124
0.2680300684446834 48.798760219393856 13.69356437818703
3.0210562231670686 48.878374664243736 13.345715675165764
4.7004511442103505 49.32105429276217 14.818510443351618
1.8939355802450113 28.743296950809643 28.92277426028935
0.5116181141578586 22.30515712088678 10.284317070293879
2.123831083602282 20.525824760566948 9.531305577006105
3.055968350216003 18.5772368934108 11.002754754806183
19.772724225784412 71.77711189836553 18.577436666402615
17.62712078461371 70.62803589899089 19.06304961901103
14.82548509857017 71.66956575391859 18.3030106737127
14.39673431459038 73.98690534365778 18.09136022583132
21.57929162669476 20.67457940730224 39.346684629226054
21.780111398446028 22.421784206822124 38.053551051100754
19.719287347151948 23.384720383973782 36.52156226540687
17.45782899967207 23.29146833583538 36.5365430844605
25.232143719529798 48.26943061728766 60.55221446786767
26.483085154685647 46.19361203514515 59.69918782311243
26.86467638693689 44.0004057065438 60.63682656144679
0.40227109422152757 30.35019111363831 10.889183531838825
1.4459673512786633 27.961488888346633 10.506265023103822
0.9321200281859467 25.702876190762666 12.03105841823547
0.03759344522637717 25.476504737844532 14.268109530440883
0.41372603226027804 36.40197891924716 59.55136889880469
2.3418969607141467 37.72102272837609 60.43400113678232
0.2789310764972223 60.8123590898074 37.2213344931367
11.933487010458833 81.90321812312793 57.96856663222963
11.086305488669886 83.91700133518538 59.00004602004668
8.686937317541908 84.62071916431319 59.85389301621958
6.701500168385252 83.84830585415963 58.636122570206794
14.90676526858244 12.964031382225121 5.331032907648038
13.914404939022727 12.210123532296215 7.545363243570229
14.005631201202561 10.079933659573095 8.804543967429305
13.826990132726763 7.675436735872104 7.621709045402211
1.2987872962042317 35.81586938925323 1.9951483333005182
0.928581307819119 81.77112848794111 39.47305540754211
1.1275291115919737 82.95689920626435 37.26919525509132
2.0292496817413563 53.614195458540394 36.2343021604005
3.8447754110740373 52.15077817061913 36.54971844438476
4.24032448407627 49.56509407337595 36.89203151834829
4.3636379785377475 57.560596286651595 58.33318551563346
4.452862089083253 60.04231372822391 58.775018290942
4.388462746221258 61.37099179092497 60.79401831899223
25.93262800207432 53.952125048132814 5.363386030025886
12.699855370164629 55.12653049290785 60.86693005435618
14.296355521949891 53.41583837414464 59.6201881271004
15.54252482200358 51.52599110381852 60.04626659957839
23.381322041434654 88.7684488209896 22.115554099425555
21.54665420947327 90.3155261020006 20.82360264324135
19.16113703636617 90.66834411001977 21.352600948231018
17.411944923694993 88.7255460621975 22.400595380719164
17.162354585916596 62.366048798244314 20.9090652741145
18.874250421148936 61.27146622712943 20.677424856265848
20.532317022472412 59.566145288378756 21.94788167795835
20.537576960535294 59.23364431297647 24.632766248578385
3.7015314463605424 28.619343872565672 3.555898794803269
2.687783095468565 26.98108637038951 4.43161336746455
2.7464380402423845 24.246894392812298 4.274299183023961
4.373532470818044 22.85133913370107 3.288442204314023
4.435965016655657 73.00521700501976 22.19263975688381
4.065364648990669 73.57405910542268 19.744073519028632
6.381341969232333 72.3203829447763 18.517393941289733
7.550142769751433 70.14378632177214 19.52640763958106
21.7860098315656 69.89215079979273 21.415791031185204
20.24535497828799 67.78809949813953 22.45727007818696
21.17365736950757 65.02905870986453 22.001866713338277
23.181277261020032 64.35086151007616 21.85722019892595
11.98063162056425 22.40500964345769 32.87377375906169
13.119568957628731 22.45009462048234 30.83653285377873
15.094474787871603 21.034084439325433 29.882600509201016
17.05481984980659 19.70350275264797 31.24524710218996
31.207734205453526 50.61870988109665 30.96834991637486
33.48941377226663 50.65698169244297 31.677401973540558
34.741109437869525 52.9309993304137 30.759407020242037
35.183387454774476 53.674089247749016 28.41223313232779
19.865161586673008 67.70454991432993 49.2075785068543
19.799584652968566 68.91189214925474 47.49156503435547
17.538355128502992 70.29051282488645 46.20297492999139
15.283245130102705 70.27255663430965 46.7676849673358
2.8459866222980064 29.433126803906102 8.499042909107184
1.3923535919603856 28.196901388897587 6.995822071013819
0.4946924083223976 28.782518557163364 4.53177789189225
10.293964559377965 84.80263789353322 37.67012484081729
9.399002161127934 82.54807115211439 37.71626156486148
10.200646025001262 80.25460192937209 38.31482631167809
12.775122069039433 79.50424518076942 39.04408465916468
26.11485762970826 54.681877282857656 27.625564872315724
28.032896360895286 54.423151201280525 28.50053574188422
29.32043612364268 52.439278993539084 30.311859841076675
28.331669841648544 50.93598029917357 31.780416167518847
3.3125475614100783 16.339925638425225 9.11326123449376
5.53861379893471 16.625066258195005 8.358950354884604
7.6439148695458705 14.964321742384536 8.044513714521592
7.896727498856362 12.686752543021948 9.551002158614516
7.194557345318831 12.09340191104336 6.482355978946076
8.898523214618363 11.284810860254668 7.548131928820094
11.385698458738716 11.875259794143124 6.969970174392692
12.000974362010846 12.870209656057263 4.710506522859989
3.7716740711924848 83.84858534773484 37.899595106484085
5.259094441241922 82.49653745027827 38.61019477889122
7.662881001531703 82.88499411447813 39.857023405158465
8.929853964013423 84.65391842854075 40.364588374861974
17.26883591957038 38.55291968328156 41.96563726013528
19.897089499267878 38.00833164854519 42.34483847165331
21.26106494546012 36.86842422633113 44.099367815359194
20.75601111163851 36.52054339334164 46.57126884054402
9.663843065841837 94.71362932657495 12.105668434312843
13.349200314252574 95.73374137484363 16.46398766373542
2.0310193271163826 29.326408276833593 1.0818579352882969
23.70293174908061 23.08400317198497 55.41938889590833
24.130923010067182 21.061025527527043 56.09008681447222
22.2784943255191 19.908927756711535 58.06610717392291
20.030855436435292 20.748454569277342 58.52266373338563
2.282622332551437 62.09341173054626 54.900444006062706
2.04261149655359 64.24279140463122 55.56300327869931
3.8082456721085767 64.13640693733772 57.92003467795339
5.621878768130923 62.598309995390466 58.10899878739421
38.94355762744795 66.62067158457944 9.513633865445076
7.142860901884479 60.085476141256166 59.680089361933426
6.875820094890307 58.275589967670705 57.974754098345
7.788721940067903 56.17167214577388 57.67574501275939
9.526816630223415 54.537051378647384 58.96071456835604
24.685975135403492 35.02945315065565 48.6598910580327
25.646687896939824 34.18561424823681 46.78813830760093
24.029668336429975 34.85885513788186 44.67821925675253
21.873714756117018 34.092465396446386 44.22881786204631
12.949741458952357 86.88032295889485 57.13703692078281
11.24714438082964 86.94847233531534 58.55495214255437
8.553227066959167 86.95461639521888 58.25792267225515
7.737533402781931 85.30110434974884 56.3856812370255
32.84808168313229 16.278086005577332 26.276286531149605
22.36607168636314 69.146854257122 49.11806800967502
23.433600011834354 70.37715360287442 47.641334633615394
25.673547320618542 70.82467427151202 47.00990876375664
34.573226690043114 37.487390149535656 38.06439965911001
33.63937694322637 36.77699975253946 40.005367892447794
31.095302284111288 37.28637399893479 40.92071169016045
29.515707885478314 38.79058185624 39.97670645977872
11.288698984010143 49.14319332954758 11.815086503017943
10.704135814433787 47.74270750561962 13.93027609777272
11.662922276680545 46.18420268874843 15.219929089013648
13.469622700153014 44.10088245868427 14.605149138859206
43.08019573634337 24.944911047305027 40.27599836582439
23.31320990361312 43.82839008955834 57.74894421790907
24.75665680315019 45.19814562178071 57.86120783739117
27.09266258697895 46.22249836774558 56.41349000224523
27.861306426697467 45.702214846005475 54.41181339006924
7.764130750170675 55.17155464817231 37.64225396880115
5.4734694503952 53.975682844161284 37.8901523732659
4.7011502778595045 52.02130690022543 39.08894863348322
6.134549159597436 50.216023019042005 40.080547778656474
0.13544995224916473 56.107199075437 13.274230719194758
18.242026225423526 64.97336281926812 25.040556390428684
19.594183797122753 63.52778867133712 23.64985295127257
21.873143735257546 62.0674841611175 24.21140908911021
23.65065560561188 62.40715110930362 25.555917131424565
12.2895765843361 95.68181429024428 21.83656326009937
11.392496814701095 95.95454963931338 19.27162423228306
9.189172778309208 95.46234475111608 18.26558905327905
7.027967468887943 94.5411246515646 19.23606221359904
7.94441354219157 67.54660731772607 1.6593515470580653
7.549586576771805 65.83492822248907 0.6524978585663799
12.01876518223595 63.87335317068067 0.8113120426283336
39.68129455698057 35.32394555081733 14.984037438213457
38.09545461634565 33.64227720862089 15.936437765402705
35.644454935289865 33.49182446011772 16.07887017719621
34.48157847679225 33.87047632446054 13.90538590759342
24.718992563692836 76.85149284224457 18.01277903951072
22.8677236295858 76.50882672158043 18.808187675956322
21.480474555344905 75.32032032022359 20.246084435837698
21.527110020956066 73.090444021522 21.108482891368
28.65652654681896 34.09133590882879 20.23915149926825
27.6091449810592 36.394978781380466 20.773682737325434
25.196202107617392 36.16170962723334 19.050233082925768
23.833525012491975 34.02017615136875 18.761883653684354
11.370539928820317 25.43879080000702 54.09434599798427
12.842887872221379 24.486354891759394 55.89274908670944
15.011011314680289 25.381026275031477 56.40060791548344
16.752575051431467 26.042204838027672 54.941249844167444
3.656501606991351 29.874013042961593 58.563947003485495
5.356770836542275 31.884800686932667 58.297312250724374
7.525856647738513 31.92740427324826 59.22030469912469
9.53837103210045 30.408345497008966 59.516787694151745
2.8215558793955737 59.44953557779875 38.83946597898757
2.4887059276389447 56.9683308461144 37.89870058225495
2.922064567319856 54.94455107956272 38.55431533039632
2.7395049859668514 53.713860721435864 40.64162689341956
16.457420078951596 90.8484972607259 24.409163213440735
16.06366121742629 91.02907239305368 21.72936386517998
13.811845457557128 90.85699693774077 20.33946160001329
11.974085181189391 90.26110799236186 20.8522601553408
6.941884863223456 61.89037327645747 61.91333017193919
7.574710523212121 62.76553437973291 60.13060790033984
7.382707752617851 65.86132861315147 59.41958621095315
5.290823294708725 66.84481077921278 60.32921879781812
2.7405842479991844 87.53394439119036 52.04645372128527
3.581441447265154 87.23608410230408 54.41447514441612
6.1794983474145 87.42258318548153 55.17438539042964
8.319232807664747 87.43527832041909 53.576965015553625
34.228172883320546 59.62829985256145 20.846629005903186
32.00187744541279 60.655098564280685 21.34746604782189
30.359741828533522 62.10134558200791 20.101493672039982
30.325872817321248 62.948904124238894 17.586523941543355
9.722306512835582 69.58127000047085 44.03248628610387
11.971789603869132 69.44101074573845 45.38917199563686
14.215509743558071 68.65617737871668 44.51812810086018
15.050294919901168 67.32975210602744 42.589473963423856
6.551807550615107 21.29049174934729 4.107605102203581
5.075823400703834 22.471845958097028 5.913642995268506
4.416312032768958 20.864873927218785 7.621198406330581
5.464214484008693 19.356492452597124 9.049545003890604
3.7863961311510668 95.59649433774909 18.56918311107597
44.077882797138976 20.391885679962538 23.606151083320526
46.280975728046684 20.83354181139122 24.226459447321037
48.507754227804014 19.425658662211173 24.045722599480577
37.1954353980209 68.202638426018 7.774927930466123
37.66347647442454 70.55307561792769 7.493512600011039
45.6488389051862 24.781205950479915 18.711947251469482
43.45699032782412 25.416855832538303 20.065408693094838
41.83270174613546 26.929527979847478 19.930686290465964
41.481379907205785 29.289885346196776 18.737567111148234
7.493651982340487 18.701497591057404 1.4893105083279354
7.237128713330175 18.762508321454078 3.752609645448565
6.753912472149163 16.770027691026836 5.746255871009909
6.401879190211806 14.3613719917028 5.39427508977703
18.198427577149758 34.99070537076897 20.308237868786627
19.688721536665906 36.43873171584197 18.86289760126948
21.973654236896742 37.57232154908663 19.202052118061623
23.736321251875314 37.416368719482 20.859182932709775
21.765467225026377 74.49654038963718 42.76856319094458
21.991378377765564 72.59889057003736 43.812773794612724
23.382041470810123 73.07441234358114 45.608030741152945
7.051532993265087 32.88131786503819 61.79478822634618
7.146997962728517 35.29641482593941 60.79567284580984
7.898077806938562 37.20836039902574 61.480541122189855
22.713322724381438 11.434247550496233 8.92459858692492
