23.069733 120.180115 31.069006
51.359737 66.31612 19.096006
50.139736 68.18411 19.674007
37.49574 64.36812 16.784006
36.776737 64.93712 14.782007
54.57774 106.611115 19.621006
53.89474 105.02511 20.897007
40.42274 100.88111 16.899006
39.738743 101.88211 15.383007
5.08374 60.28711 34.005005
4.5367355 60.10811 36.169006
70.428734 56.941116 30.072006
69.146736 57.68611 28.689007
42.420742 78.64911 24.165007
43.86574 80.12211 25.635006
58.388737 79.73411 26.327005
60.27174 78.42311 27.287006
2.1737366 2.8671112 9.947006
0.6507416 2.2391052 7.713007
70.97574 132.15012 6.5790067
70.551735 130.2911 8.344007
12.422737 7.0531006 22.007006
13.6877365 4.8301086 21.723005
1.1447372 136.76611 15.985007
1.2317352 134.64311 15.518007
4.4997406 105.08611 2.3500066
3.773735 107.152115 2.9920065
17.257736 111.90411 6.8950067
17.479736 110.98911 9.032006
5.268738 15.933105 33.840004
4.0817413 15.196106 36.025005
73.69274 8.1651 27.738007
71.830734 6.2301025 27.748007
42.041737 35.394104 25.313005
42.306736 37.185104 26.507006
52.775738 42.517105 33.455006
54.31474 41.0011 33.828007
19.787735 12.41011 8.642006
20.15474 13.498108 10.869007
31.478739 18.788101 18.342007
33.57974 19.463104 17.192007
40.919743 7.9361115 8.342007
38.56374 7.5811005 7.8180065
30.39174 135.0081 3.0380065
30.362741 136.12611 1.3110065
54.14674 54.476105 17.632006
55.00974 52.347107 19.221006
45.56374 40.556107 17.063007
45.54874 41.14911 15.078007
17.927734 19.357101 5.825003
17.864738 20.707108 4.0560055
9.759735 9.287109 38.810005
7.825737 9.854111 37.263004
7.547737 19.0811 33.435005
5.7567368 18.511108 34.745007
15.811737 27.276108 1.569004
16.415733 28.2471 39.239006
10.846741 122.22611 14.790007
10.322739 124.306114 14.963007
21.716736 131.74911 18.585007
20.837738 132.0451 20.717007
58.851734 13.093109 15.7780075
59.20174 11.349106 16.884007
66.72474 19.798111 25.797007
68.95274 20.336105 24.828007
29.83574 114.82411 19.924007
29.82174 115.28811 17.974007
19.625732 109.041115 11.076007
19.938736 111.361115 10.379007
23.892738 1.7881012 12.740007
25.304733 3.0051117 11.664007
33.580738 10.893097 20.329006
35.253742 10.551102 21.532005
51.92574 37.2881 4.2430067
52.98074 37.06311 6.096007
63.322735 39.1761 13.573007
63.34274 39.671097 15.504007
43.78474 73.180115 30.089006
43.99374 71.88812 32.210007
58.081738 73.19812 37.655003
58.17274 73.69412 0.47000122
15.226738 83.47011 33.821007
17.088737 83.69311 31.989006
5.955742 81.14111 25.062006
6.2877426 79.60611 23.506006
18.05774 26.975098 34.993004
16.811737 26.962097 36.833004
6.9777374 27.571106 26.049006
7.3407364 25.745102 24.867006
37.99274 96.00611 22.885006
37.747738 97.403114 24.969006
51.57674 100.21811 29.153006
51.78474 99.81011 31.320005
60.628735 46.045105 17.547007
58.580738 45.967102 18.707006
49.261738 43.2901 7.5590067
48.56574 42.4261 5.8230066
66.606735 114.442116 29.547007
68.55774 114.164116 30.539005
2.026741 117.084114 32.337006
2.4667358 118.69011 31.372005
19.94674 79.69511 31.879005
20.731735 77.63911 30.939007
32.55074 87.26211 35.405006
31.965738 87.27811 37.418003
40.942738 22.283112 35.322006
42.711742 22.056107 34.827003
55.04774 25.3461 3.399004
57.279736 24.74411 2.7090054
54.989735 133.98412 34.563004
55.708736 136.0431 33.590004
65.258736 3.1221008 1.9330025
66.48573 1.9521027 2.8510036
26.469734 53.69011 0.5320015
26.096733 54.485107 37.802006
15.766739 46.48311 32.315006
13.65374 47.327103 32.036007
28.910736 18.630096 26.514006
30.018738 17.38411 27.760006
41.069736 18.669098 31.475006
42.151737 17.090103 32.580006
22.938736 109.19911 38.974003
23.537735 108.13311 36.636005
9.9407425 102.09411 35.538006
9.355736 102.96611 33.542004
67.02874 8.796097 0.96100235
68.68174 7.541107 0.9620018
1.7347412 11.627106 4.4750047
2.5487366 9.4991 4.0390034
54.164738 110.902115 13.994007
55.067738 110.34411 12.185007
43.50574 99.60011 8.032006
41.876743 101.485115 7.077007
43.18874 125.152115 27.456007
42.595737 123.66311 26.423006
33.78874 123.209114 16.925007
31.848742 123.292114 16.002007
19.694733 101.83811 8.367006
18.55574 103.56811 7.899007
7.0647354 96.03311 2.8040066
7.325737 93.79811 2.4700067
18.260735 69.805115 5.933007
18.729736 69.85512 7.978007
33.21474 71.51611 6.6590066
34.16374 72.76712 5.2070065
8.424736 11.0091095 29.996006
7.5937424 12.587097 28.452005
0.14473724 4.5891113 19.821007
79.71174 2.9091034 20.879005
24.36274 111.32611 38.179005
26.093735 110.96111 37.117004
38.51074 107.890114 3.9670048
39.128742 106.334114 5.4700036
59.917736 98.765114 17.262007
59.67474 101.01611 16.664007
72.504745 101.028114 23.529007
72.65174 102.985115 22.825006
0.7317352 68.61812 5.3610067
79.36574 66.87111 6.6120067
12.045738 71.06412 13.398007
11.408737 70.45111 15.334007
14.893738 80.24611 1.1800067
15.23774 78.94511 2.8560066
27.377739 83.43311 7.3440065
28.073738 82.67811 9.322006
6.8907394 54.374115 0.7700043
5.071739 55.345108 0.8100014
73.84574 52.228104 34.752007
71.76674 52.924103 35.248005
46.448742 0.93611145 3.9560032
46.66174 136.44211 5.5780053
36.07474 131.53511 35.968006
36.434742 129.13011 36.012005
76.50074 61.958115 16.340006
76.091736 63.7261 15.126007
6.0467377 68.31711 23.290007
7.359741 68.19112 21.539005
37.308743 61.555115 12.792007
36.57474 62.13211 10.765007
21.958733 59.87111 5.7450066
20.824738 60.793106 7.7360067
23.034737 93.53811 13.156007
24.979736 92.39211 13.904007
33.902737 98.34411 21.786007
36.53874 97.764114 21.544006
64.522736 133.4781 10.919007
63.416737 131.33311 10.935007
52.373737 126.44011 8.079006
52.211735 128.19011 6.5120068
65.71474 30.115097 16.921007
64.107735 29.227097 17.393007
53.957737 24.523102 11.010007
54.817738 23.57811 9.475006
22.339737 53.46611 10.723007
23.365738 55.323105 11.366007
36.29774 60.268112 17.043007
36.137737 62.281113 17.105007
64.077736 78.41411 24.942007
62.77474 78.88711 26.301006
73.535736 83.50311 34.950005
73.72274 85.30611 34.792004
74.73674 100.67211 22.022007
74.50474 97.99311 22.370007
63.17074 90.89311 18.537006
62.20074 89.14411 19.177006
31.843737 110.13311 22.623007
31.73874 112.473114 24.038006
42.442738 120.46311 29.205006
42.858738 119.680115 31.397007
53.81474 50.57611 32.916004
54.154736 51.6931 31.188005
63.184734 58.878113 1.0360031
64.80673 58.04811 0.13300323
75.426735 94.96411 25.959005
73.55474 95.53211 26.512007
61.59174 88.56211 23.625006
60.977737 86.85111 25.099007
76.62774 66.39711 9.3580065
77.078735 65.63811 11.048007
9.712738 70.25511 17.367006
9.869736 72.23912 17.222006
51.962734 11.742111 26.235006
52.098736 9.949097 24.952005
42.84274 1.7510986 19.333006
41.66374 1.9251099 17.131006
55.46774 106.05211 13.638007
55.681736 103.90011 13.859007
41.294743 99.78811 14.259007
40.89674 99.569115 12.062007
65.996735 27.8461 28.041006
65.64474 28.189102 30.258007
75.80574 33.741104 38.623005
78.07674 32.8481 38.774006
62.20374 126.956116 20.865005
62.91074 127.69911 19.148006
54.612736 117.98311 12.493007
54.78774 115.92211 13.128007
6.771736 11.903107 0.9340067
7.827736 10.354111 1.4010067
19.907738 14.616104 6.695007
18.988739 15.2561035 9.100006
27.752739 128.83711 14.325007
29.632736 129.34511 14.050007
39.06574 133.8791 24.012007
40.67774 134.78511 22.801006
37.31474 76.17311 36.571003
37.32574 77.749115 35.614006
29.369736 70.39711 25.401007
28.500732 72.63211 24.495007
36.249737 125.66311 34.398006
34.91174 124.21611 34.503006
25.121735 123.07611 27.407005
24.548737 121.32311 26.356007
62.25874 73.139114 32.348003
61.41374 74.70311 34.113007
74.36074 80.69611 35.413006
74.259735 81.2981 37.173004
42.224743 24.691101 33.534004
43.390743 25.561111 31.513006
54.170734 29.75911 38.908005
53.989735 28.220108 1.8900032
18.649734 74.89612 -0.5409932
18.936737 76.91312 0.13500641
26.43274 81.91111 12.804008
27.923737 80.962105 11.125007
57.917736 0.9751129 21.540007
56.41374 2.1291046 20.646006
46.36574 129.4541 16.042007
44.350742 129.52512 16.888006
64.76674 129.05312 17.047007
65.969734 128.57411 19.068007
78.62374 132.36911 22.557007
77.91974 133.99811 21.445005
11.0887375 73.23311 14.617007
9.911736 74.415115 15.201007
77.049736 72.48311 7.458007
74.98674 71.27612 8.211006
25.963737 71.331116 24.682007
24.278732 71.10211 25.774006
11.646736 68.331116 18.258007
9.967735 68.92911 20.165007
43.372738 134.94011 21.878006
42.680737 136.9481 22.325006
55.764736 7.0030975 20.693007
54.49674 8.9151 20.849007
75.74074 1.2601013 24.281006
78.302734 1.1771088 23.129005
10.373741 0.6591034 31.983006
9.58474 1.0631104 34.115005
14.93174 110.38711 15.314007
15.404739 112.025116 17.008007
26.21074 119.444115 23.588007
28.380737 120.10211 22.319006
34.934742 89.95411 27.675007
35.50674 87.36711 27.153006
22.792732 88.32411 21.065006
21.547737 86.68511 20.299006
62.78874 115.08911 38.031006
63.558735 114.23911 36.388004
51.61774 105.860115 32.957005
50.874737 106.20511 30.706007
16.148735 67.64812 13.339007
16.423737 69.60312 14.543007
29.344734 71.94112 16.766006
30.468737 73.85011 16.202007
10.765739 59.956116 29.636005
12.415741 61.463104 30.109007
20.656738 67.44112 38.961002
19.601738 69.402115 38.299004
16.872734 103.417114 22.053005
15.8997345 105.37111 21.473005
26.363739 110.55411 28.391006
25.781738 111.138115 30.222006
43.594738 10.794098 4.0880065
43.543743 10.144104 6.5210066
55.762737 14.417099 7.9410067
57.458736 12.788101 6.958007
60.685738 55.338104 10.234007
60.122738 57.433105 10.763007
73.36074 58.941116 15.739007
73.79474 60.92511 14.426007
20.283737 69.51811 33.162006
21.784737 71.06311 32.172005
31.745737 79.20111 0.3220024
30.050735 80.015114 2.1930027
12.509735 77.28212 5.879004
12.032738 74.87912 5.428004
79.594734 76.22412 37.981003
78.51374 74.07112 37.939003
51.833736 43.4131 1.9180067
52.267735 41.824097 3.1930065
62.610737 42.4561 11.124007
62.972736 41.7101 13.8770075
68.41274 135.4261 1.1350021
69.242744 135.01212 38.167004
55.92274 130.47112 36.205006
55.615734 128.64111 37.502003
12.631737 81.709114 0.83200073
12.031738 79.90511 2.0650043
3.6577377 75.14511 31.159006
3.5657425 77.32411 29.821007
18.678734 101.19911 21.647007
19.900734 99.55211 21.595007
28.613739 101.54911 30.121006
28.32174 102.29711 32.021004
18.018738 86.07211 30.936007
17.517738 87.91311 32.375004
27.066734 96.43511 36.951004
27.128738 98.39611 36.612003
48.42674 106.91011 31.893005
48.304737 107.25811 29.910006
34.86874 102.93611 28.932007
32.09374 103.055115 29.060007
70.78174 3.844101 35.903004
70.286736 3.4601135 38.239006
2.8467407 5.992111 6.414004
2.6247406 7.692108 7.443003
55.43774 35.293106 35.908005
56.57874 34.1131 33.662006
45.64574 26.867111 27.917006
47.346737 25.929108 26.586006
53.138737 126.40711 4.750006
51.52374 125.275116 3.2470036
39.78774 117.51711 4.1170063
40.470737 115.29811 3.4480038
4.2157364 125.57811 21.253006
5.5707397 127.81511 20.620007
14.400742 134.10411 25.998007
16.05774 135.2431 26.921005
13.651741 122.90811 8.026007
12.043739 122.75811 9.642006
79.68774 121.86411 1.7010067
78.22574 121.59111 3.2050066
2.8807373 34.34111 24.897007
4.5207367 36.669098 25.538006
16.52774 39.9991 29.933006
16.447739 39.643097 31.828007
10.20874 49.903107 37.539005
9.377739 50.4001 35.262005
75.898735 44.75911 31.458006
75.538734 42.845108 31.484007
9.567741 77.32512 16.350006
10.410736 75.695114 17.410007
23.686737 79.643105 21.636005
25.524734 78.69112 20.554007
55.17774 19.239105 6.9680047
55.958736 17.710098 6.0380044
43.26974 16.643097 0.55400085
43.49374 17.3331 37.721004
53.207737 14.270111 21.380007
54.96874 13.336105 20.105007
65.36674 17.072098 29.949007
64.66973 18.613098 30.880007
53.17274 24.34311 7.462004
53.320736 24.836105 5.5710053
39.820744 21.224106 3.661005
38.706738 21.195099 1.1500015
40.372738 63.469112 38.871006
41.901737 64.84012 38.355003
54.486736 69.474106 4.8470063
56.280735 67.805115 5.261004
73.84574 16.28511 19.517006
74.065735 17.246109 21.567007
8.085739 18.982101 20.986006
8.505737 20.60411 21.700006
64.34674 44.069107 12.693007
65.203735 44.797104 11.027007
77.551735 50.3071 17.559006
79.30874 50.406097 18.953007
6.7447357 14.60611 36.977005
5.9717407 14.413101 39.140003
15.484734 23.8051 6.221003
16.725739 25.946106 5.259005
37.77074 73.11012 38.809006
36.442738 73.23712 1.1740036
24.874733 67.430115 37.810005
23.180733 66.693115 0.020004272
1.6817398 53.2601 10.532007
1.3677368 52.7361 8.0350065
67.650734 47.9601 4.4120064
67.28174 46.019104 5.8720064
47.262737 57.096115 37.064003
46.708736 56.38211 38.810005
62.233738 59.448105 3.4120045
61.222736 61.376114 3.9400043
59.85274 52.9601 13.537007
58.626736 53.8181 11.902007
50.24174 44.5851 4.0100064
48.70374 45.780106 2.7030067
24.759735 102.388115 2.8550053
26.398735 101.81311 1.8790016
39.31574 101.61911 5.712004
40.170742 103.57611 6.474005
27.176735 93.29511 2.3040028
25.894737 92.14811 1.0430031
15.057739 88.59311 33.912006
15.099739 86.54411 34.141006
50.77174 21.090103 16.624006
49.431736 22.80011 15.481008
40.28574 13.690109 6.709007
38.96874 15.360107 6.412007
25.520737 34.2231 21.370007
24.832733 35.8871 23.064007
39.91274 38.963104 24.263006
39.665737 38.683105 26.307007
21.677734 37.5941 23.118006
21.803734 35.526108 23.394007
14.138741 25.042099 19.472006
12.656738 26.585098 18.102007
9.5017395 62.12111 31.065006
10.860741 60.90811 33.049004
16.58574 73.60011 37.019005
18.164734 72.43811 37.794003
17.852737 29.822098 35.717007
20.014732 30.50911 35.439007
30.457735 33.18811 5.273005
32.127743 33.68811 3.9700031
60.13274 11.408112 14.089007
59.763737 13.480103 12.483007
72.85374 20.222107 15.945007
74.80574 19.200104 16.411007
8.185738 125.014114 13.222007
8.357742 122.71611 13.810007
77.03174 117.304115 5.775007
75.63174 118.41111 7.676007
79.24374 5.9781036 13.841007
78.12674 6.6811066 12.126007
68.649734 1.5581055 5.1430063
69.07074 0.21411133 3.4170065
64.19374 32.600098 19.332006
64.71074 34.179108 20.173006
75.40774 41.4281 29.171005
75.44374 40.253098 31.108006
67.12074 111.82911 29.455006
66.079735 111.25611 27.588007
53.40974 107.24411 22.514006
52.03574 107.92611 24.120007
52.26974 89.89311 34.691006
52.113735 88.10411 33.417004
42.725742 88.90911 20.914005
43.789738 87.06511 19.849007
12.385742 28.711105 10.057007
12.323738 26.171097 10.804007
78.75674 24.883102 4.9660068
78.941734 23.695099 3.0880065
5.3747406 64.29811 32.891006
3.6007385 62.651108 33.598003
73.009735 58.72711 24.447006
71.370735 57.165115 25.172007
69.77474 103.32911 29.972006
70.08574 103.58111 28.100006
56.864735 95.05611 25.454006
56.682735 96.416115 23.924006
43.665737 44.715103 17.737007
43.63374 44.6631 20.339006
54.528736 46.3761 27.565006
56.38274 45.56511 26.615005
35.170742 100.08611 23.522007
37.807743 99.791115 23.440006
47.666737 105.93311 26.860006
49.31074 105.43411 28.124006
1.9337387 55.387115 7.9360065
0.5207367 55.779114 9.447006
71.87574 51.25911 0.4020066
69.688736 51.325104 0.57400656
6.728737 99.44011 4.5390067
8.870735 100.70511 3.9400065
16.82074 108.487114 10.0750065
16.641739 109.64211 11.492007
8.387741 116.06011 23.896006
7.95874 114.221115 22.449007
76.67274 108.28311 13.672008
78.273735 107.68811 12.177007
23.892738 125.21011 24.740005
23.924736 126.011116 26.716005
35.430737 133.31111 31.704006
36.02074 132.61311 33.415005
47.52274 119.43211 24.078007
49.554737 118.57511 22.995007
54.43974 127.96911 33.246006
54.623737 130.2091 32.230003
44.698742 113.458115 30.097006
44.71674 112.150116 31.637007
29.714737 107.34911 28.501007
28.426735 108.86611 29.959005
27.917732 47.090103 5.9100065
26.968735 46.1351 7.5350065
39.06374 52.786102 13.713007
38.39874 54.99411 13.130007
25.414734 24.694107 26.224007
26.894737 23.534103 26.713007
38.81674 28.904099 32.144005
39.526737 28.232101 34.644005
56.664738 111.41311 2.8270054
55.303738 113.57311 2.5670033
44.87074 104.92711 1.2630043
43.34374 105.84911 0.6130028
17.538734 49.6241 18.447006
17.43074 47.7921 19.757006
4.3147354 44.297104 16.384007
2.9757385 42.806107 17.660007
47.26974 94.74111 5.2960067
46.12174 96.60811 4.9690065
57.417736 103.99011 11.696007
59.026737 103.46711 10.420007
38.34174 117.05011 6.313007
36.540737 118.17111 7.413007
47.70174 119.83011 17.534006
48.878742 118.60411 18.188007
27.781738 31.559097 16.234007
26.59874 32.852097 14.352007
14.822739 28.299103 8.862006
15.279739 27.125107 7.4100065
10.01474 47.944107 3.0380065
10.400742 45.918106 3.9250066
23.426735 43.52211 11.122006
23.993736 45.85611 11.723007
44.570744 80.15011 19.818007
43.917736 78.06711 19.345007
30.32374 77.32912 15.808007
31.256739 79.34111 14.678007
30.513735 42.946106 5.1360064
32.38074 41.70311 6.0590067
45.335743 46.659103 10.766006
44.40874 49.13211 10.791007
52.571735 99.68411 25.683006
51.67674 98.209114 24.577005
39.05174 99.80811 19.922007
39.05074 98.43311 17.923006
36.10174 133.89111 29.159006
37.47974 132.5561 28.334005
28.022736 124.36611 21.416006
26.740738 122.59111 22.392006
18.98774 62.720108 9.526007
20.799736 63.576107 10.855007
31.06074 70.32312 12.091007
32.17774 71.32912 10.613007
52.64874 63.181107 20.499006
52.459736 61.13112 21.566006
47.276737 52.1781 23.767006
46.193737 49.990097 24.968006
74.07074 137.1381 30.409006
75.40374 1.0931091 29.216005
6.851738 7.489105 35.496006
9.43074 7.8041077 35.758007
27.627739 90.13911 10.994007
27.892738 90.83011 13.696007
39.608738 94.08311 19.231007
40.559742 92.55511 18.536007
3.9777374 16.130096 38.764004
2.1927414 16.646103 0.4110031
72.549736 15.588104 29.478006
70.15874 16.599106 30.098005
39.846737 7.2141113 16.922007
41.58774 7.417099 18.357006
51.65774 12.024109 22.001007
53.085735 11.367111 20.271008
40.89574 50.786102 12.908007
39.293743 49.53311 13.193007
28.632736 51.532104 5.1570067
29.158737 52.07611 3.2580066
38.432743 10.1081085 11.332006
38.19074 9.556107 9.503006
28.318733 2.1601105 1.0060067
29.845734 1.0980988 0.060006604
69.18474 44.2511 4.2070065
71.106735 44.532104 5.6540065
2.202736 49.45311 11.865006
4.325737 49.27211 10.729007
14.189735 70.98712 9.1360035
12.175735 69.282104 8.956003
4.177742 68.06412 37.096004
2.464737 69.35312 38.197002
54.64774 124.763115 0.6990013
55.000736 125.650116 38.014004
43.77074 124.70111 30.574007
43.511738 123.04311 29.151007
15.83474 37.9001 37.818005
14.62574 39.225098 38.788006
29.431732 45.02411 3.894003
29.177734 47.485107 3.779005
74.52774 94.50411 29.243006
76.633736 95.78011 28.547007
6.8287354 102.04911 33.427006
7.422737 101.34911 35.596004
25.893738 74.97612 26.398006
27.991737 73.76611 27.251007
34.74274 80.40211 36.757004
35.98274 78.59511 38.016003
35.60174 24.260101 0.63100433
36.165737 26.005096 38.237003
23.534737 20.036102 36.412003
23.259735 18.38411 34.742004
44.20274 69.75311 30.610006
43.40874 70.611115 28.607006
29.738739 65.38512 26.967007
27.922737 66.33911 28.547007
41.14674 108.346115 3.5400066
40.76974 110.487114 2.9560068
51.42574 118.68811 7.4270067
53.54674 117.47511 7.9950066
60.029736 135.4591 19.760006
59.76874 136.7821 17.676006
47.74574 134.8811 7.3880067
48.57474 132.90211 6.7980065
7.8247375 26.542099 21.717007
6.11174 25.266098 22.489006
74.75074 22.224106 15.887007
74.940735 23.947098 15.134007
62.668736 51.265106 6.873007
61.580738 51.116104 8.675006
49.527737 50.5251 1.9960067
47.429737 51.980103 2.4050066
42.26974 2.7611084 9.933006
41.19174 3.9841003 11.742007
30.422739 130.7431 10.9830065
31.760736 128.9521 12.442007
45.264736 57.415115 34.676006
47.374737 58.202118 34.428005
58.45174 62.35611 2.6220036
57.960735 62.663116 5.386004
78.939735 55.844116 13.956007
0.6727371 56.77112 13.236007
11.946739 62.430115 20.380007
13.518738 63.138107 19.340006
3.2897415 94.14011 10.947007
1.2847366 93.73911 12.090007
71.14174 85.89711 7.6520066
69.093735 86.75011 6.479007
34.63174 42.9301 30.688005
36.77474 42.868103 29.858006
48.58974 47.8611 34.293007
49.322742 45.853104 35.220005
26.088737 132.50711 16.455008
25.492737 130.18411 15.805007
13.77874 123.66211 11.346006
12.510742 124.29511 12.998007
75.759735 89.24511 27.004005
76.97374 87.69211 25.921005
63.03574 86.31111 20.534006
63.79574 84.30511 19.659006
20.214737 74.78612 31.475006
18.54174 74.06311 33.033005
7.5327377 67.905106 31.225006
7.219742 66.15311 30.146006
28.430733 89.65011 7.180007
29.656738 88.43311 6.109007
41.681736 90.84511 14.573007
42.167736 92.82311 14.563007
24.993736 29.205109 25.707006
25.556732 29.571106 23.830006
36.970737 38.13611 28.964006
38.528736 36.78911 29.139006
4.811737 3.6841125 2.4870067
5.2637405 4.5391083 4.6300063
15.226738 10.896103 12.842007
15.261734 10.074097 14.996007
31.525736 70.53612 17.720007
32.56474 71.99011 19.005007
45.017742 75.695114 20.776007
46.11974 73.47711 21.013006
49.654743 30.865097 12.941007
51.000736 31.589111 11.645007
61.844738 34.295105 21.131006
61.350735 34.5291 23.580006
77.163734 132.0821 30.740005
76.439735 133.8401 31.378006
9.1907425 135.43811 39.126003
10.599739 133.4521 0.29100418
58.723736 16.638107 5.476004
57.17274 15.083099 5.6380067
46.323742 7.3251038 4.674006
45.92674 8.57811 2.7060032
18.665733 114.61511 7.8170066
19.68274 112.79811 8.020006
33.831738 117.637115 6.3640065
33.835743 117.39411 8.135007
9.280739 63.65411 27.271006
11.253738 64.94211 26.419006
22.846733 64.37311 35.051006
23.840736 67.001114 35.572006
10.481735 9.377106 31.791006
12.466736 8.933105 30.450006
21.508736 15.490097 0.7210007
21.844734 16.5811 2.651003
53.111736 91.49111 31.134007
53.003735 89.36211 30.652006
44.448742 83.62511 22.530006
45.24174 82.53011 21.080006
23.68274 38.0811 24.550007
22.054733 37.837097 26.753006
32.41174 44.7601 30.209005
33.65874 44.643097 28.567007
42.87074 55.793106 4.891005
43.126743 55.087112 2.7050037
31.224741 48.235107 0.0890007
29.212738 49.18811 0.23100281
45.14474 41.46611 12.454007
43.906742 42.850098 13.224007
31.500734 36.366104 8.928006
31.137735 36.668106 6.9660068
26.248734 3.121109 2.9000034
26.59974 1.0891113 3.4020061
12.163742 136.0691 0.13500214
12.783737 135.55211 37.000004
38.67174 56.842117 15.324007
37.14574 55.278107 15.573007
24.82074 49.948105 13.824007
23.573738 48.4711 12.290007
54.955738 94.32411 29.067007
52.07874 95.02611 29.260006
43.055737 94.66111 19.486006
41.60674 95.30411 21.402006
66.75774 91.48711 4.1030064
67.052734 91.35511 6.1900067
79.44374 98.555115 10.370007
0.6347351 96.930115 8.569006
21.236732 52.29811 8.508006
19.786736 51.957108 9.835007
6.1147385 49.095108 8.468006
5.8347397 47.06511 8.495007
64.591736 123.76711 21.030006
64.54373 122.25811 19.884007
53.833736 113.43811 16.947006
53.235737 111.35611 16.793007
57.56674 101.38711 14.797008
56.71874 100.81411 16.180006
43.513737 95.62111 8.5090065
42.041737 95.541115 10.632007
21.742737 23.135101 32.536007
22.228737 21.031097 30.694006
8.509735 19.375107 28.289005
8.365738 20.866104 26.792006
58.584736 120.25511 36.430004
57.822735 119.56411 34.441006
44.89374 112.58911 34.212006
43.698742 114.33711 34.852005
48.209743 40.544098 10.864007
46.374737 39.224106 11.577007
34.31674 35.661102 3.3290067
34.54974 37.8721 2.5040066
73.676735 90.89511 36.047005
72.800735 92.80911 35.204006
5.179741 96.56311 4.5450044
3.0447388 98.29311 4.837004
62.400738 86.26811 17.874006
62.876736 83.98911 16.928007
53.60774 75.36911 13.331007
52.70474 76.16111 14.999007
45.59374 23.3741 27.434006
47.25874 23.13411 26.969006
57.92474 30.016098 35.487003
57.37174 31.735107 35.997005
24.713737 70.87912 29.741007
26.938736 70.52211 28.485006
41.027737 73.16211 31.277006
41.78374 75.14511 30.573006
56.500736 30.366104 1.1000066
56.65974 29.161102 2.7230067
67.63374 34.267105 9.718006
69.755745 35.3891 9.302007
31.78174 91.38311 35.944004
33.809742 89.80811 36.587006
43.66374 95.57111 5.0450044
42.822742 97.10811 6.3170037
56.32974 0.026107788 25.093006
54.860737 1.4521027 26.628006
44.99074 129.25911 19.841007
43.10674 130.2091 20.692007
49.53774 114.305115 19.276007
51.527737 115.00811 17.912006
58.65974 124.43411 28.019007
57.308735 126.33511 27.905006
4.571739 77.42711 27.324007
5.3867416 75.42711 27.678005
12.654739 80.76011 37.473003
13.497742 82.727104 37.243004
3.6827393 29.158112 28.959005
4.3587418 30.528107 27.374006
16.023735 32.187103 35.056004
14.308739 32.698105 36.250004
24.872734 47.796097 8.197004
25.620735 48.3461 5.8000054
11.518738 41.595108 1.802002
11.981735 41.120102 38.801003
23.050735 100.861115 4.9890046
22.030739 101.723114 2.9730053
12.648735 90.15211 2.437006
12.704742 89.23911 0.13400269
78.11374 64.392105 6.7980065
76.20774 64.50511 7.5920067
64.886734 63.292114 0.14300679
65.301735 61.003113 -0.094993606
50.304737 29.972107 7.478007
49.137737 31.562103 6.9420066
36.57574 28.4431 0.31600663
35.418743 27.848099 1.9540067
56.184734 12.996109 14.067007
57.336735 11.531097 13.923007
45.225742 4.515106 10.607007
43.487743 5.617111 11.280006
77.426735 24.4581 0.8970032
78.19874 22.667099 38.918003
69.300735 15.441101 32.755005
67.63274 16.635101 32.072006
66.30773 114.28211 23.168007
67.61974 112.39211 23.434006
56.59274 103.778114 20.373007
56.138737 102.57311 18.276007
22.483734 61.95311 1.057003
20.537735 60.834106 1.5440025
11.089737 56.95511 33.264004
9.426743 55.574112 33.356007
48.652737 33.284103 12.372007
47.083736 34.655106 12.617007
35.527737 31.114105 2.4240067
34.28474 29.95311 3.5000067
0.3387375 42.226105 21.116007
77.47474 41.8851 21.378006
70.46574 40.2211 9.647006
68.886734 39.8871 10.666007
31.466738 2.5821075 36.596004
31.820742 0.24110413 37.341003
44.374737 2.824112 4.490004
43.93974 1.2831116 5.743006
8.827736 58.56111 31.763006
8.44574 56.512115 31.000006
74.788734 53.114105 32.228004
72.41974 53.842102 32.549004
27.128738 4.743103 39.181004
24.870735 4.3811035 0.8480034
17.95874 133.17911 30.262007
16.004738 134.58011 29.851006
46.483738 4.292099 5.1900067
48.059742 3.296112 3.8520067
61.612736 3.0911102 9.988007
62.322735 4.6581116 8.975006
59.20174 66.45012 3.4920063
57.22874 67.78111 2.7140026
46.197742 65.46011 35.364006
46.17274 63.388107 33.545006
43.76974 39.903107 21.433006
44.877743 39.314102 19.644007
56.74574 39.5681 26.504005
58.656734 40.6651 25.980005
26.054733 106.416115 35.397007
25.743736 106.51011 37.686005
40.69074 106.62911 0.16700363
41.916737 107.917114 38.042004
76.09074 113.72611 8.821007
77.31874 115.71911 8.409006
4.6507416 125.567116 15.192007
6.8207397 124.721115 15.558007
25.871735 75.79611 23.718006
25.662735 77.65912 23.019007
38.56374 79.40611 32.237003
40.446743 79.819115 31.403006
32.972736 62.64511 19.444006
31.427736 62.055115 20.499006
22.464737 51.909103 14.606008
21.006737 53.224106 13.460007
27.61274 113.31111 27.929007
28.674736 115.21711 28.383007
43.33874 114.59311 32.377007
43.094738 116.81311 32.884007
66.663734 122.167114 16.868006
67.16574 121.48111 14.848007
56.54974 115.42011 5.1180067
57.57974 115.027115 3.1800065
47.90974 21.281097 25.087006
46.97874 19.449097 25.425007
34.947742 13.386108 20.555006
33.446743 14.8871 21.051006
62.234737 21.923111 34.887005
61.070736 20.044098 34.383007
51.96774 12.395111 29.762007
49.96774 12.605103 29.739006
65.580734 113.07911 0.21600342
64.85474 115.138115 0.43800354
78.660736 119.93911 38.976006
78.48874 122.025116 38.146004
79.45673 126.610115 34.121006
1.113739 124.67711 34.790005
12.90374 129.99411 37.395004
13.409737 132.15811 37.811005
32.373737 27.919098 7.925007
33.886738 26.49411 7.213007
45.61774 30.020111 15.456007
47.42174 30.808105 15.217007
2.1407394 116.458115 36.235004
3.0367355 114.82711 36.229004
16.190735 122.60311 38.429005
17.185738 121.09111 38.769005
20.546738 90.05611 15.128007
21.205734 87.67511 14.461007
13.265739 77.73311 10.088007
14.160736 76.06811 11.091007
69.103745 53.0701 36.660004
69.68874 50.85611 36.974003
56.49574 47.5251 29.404007
54.751736 48.799103 29.766006
48.39374 95.30311 0.5580025
50.19074 95.55711 38.537003
59.43874 102.35111 7.5760064
58.471737 103.876114 6.271006
6.795738 83.75811 10.697007
7.4827423 83.54311 8.876006
74.23474 78.46911 4.6760063
72.136734 79.42911 5.1280065
38.892742 6.587097 19.894007
38.946743 7.3800964 22.111006
49.97874 16.079102 24.182007
51.779736 16.019104 23.123007
28.475739 91.55411 3.9110067
28.256737 91.91611 5.9860067
38.902737 97.94811 12.485007
38.17374 99.63011 14.420007
69.31874 102.46411 38.396004
68.04774 104.36311 0.31500244
78.24074 111.14811 4.773005
79.13774 113.056114 3.5770054
19.950737 132.1291 27.787006
19.694733 129.47511 27.532005
31.844736 130.07611 36.890003
33.294743 129.4631 35.676006
59.182735 47.054108 21.559006
57.73074 47.799103 20.369005
65.78374 58.098114 25.285006
68.26074 58.014114 25.702005
54.206738 99.06011 29.504005
55.67274 99.95411 30.894007
69.36974 99.626114 32.235004
70.42674 100.49311 30.667006
44.306736 4.217102 13.573007
46.85374 4.2611084 12.874007
52.513737 15.55011 18.919006
51.486736 16.717102 17.382006
32.234737 0.58010864 33.755005
30.50274 2.3740997 33.851006
21.302734 133.96611 24.257006
20.43274 133.42311 25.571007
62.712738 15.092102 4.6000066
64.94474 15.570099 3.6690066
73.55774 22.125107 11.071007
73.76674 21.8461 13.032007
30.293741 82.97211 5.4820046
28.742737 84.37311 5.2290063
17.02874 78.78111 0.040000916
16.66674 78.19211 37.245003
62.80174 102.64111 4.733004
62.003735 100.93811 5.245005
55.31674 103.05111 32.067005
53.84374 101.59911 32.054005
11.549736 46.46411 34.737003
11.1267395 44.362106 35.829006
77.65574 39.202103 31.933006
77.14174 37.4041 31.567007
47.402737 87.35311 4.558007
49.00874 87.28011 6.675007
61.489735 96.67211 4.4210067
61.570736 98.485115 6.109007
6.6667404 121.20411 23.078007
9.093742 121.28511 23.166006
19.227737 124.17611 29.505007
19.30774 126.178116 29.409006
59.846737 24.539108 1.906002
61.95074 23.53511 2.6240063
71.88874 32.993103 1.7220039
72.59374 34.990097 1.4680023
2.6147385 122.28811 30.708006
2.3727417 124.05211 29.144007
1.8267365 126.987114 31.464006
79.18374 127.78111 31.639006
43.277737 57.88211 2.3570042
42.31474 58.374115 4.088003
30.555735 57.17511 33.291004
30.014732 56.390106 31.359007
52.70374 71.45712 13.138007
51.42374 72.555115 14.107007
40.07774 63.6161 8.722007
39.071743 62.306107 10.074007
79.68174 3.5401 15.144007
0.95373535 4.7490997 16.192007
14.946739 5.145111 19.228006
15.771736 7.366104 19.880007
14.076736 71.53812 11.773006
14.447739 73.430115 12.894007
26.219734 79.682106 16.147007
27.631737 78.60112 15.053007
75.480736 111.41311 9.623007
73.33974 111.38311 11.082006
63.14174 104.99311 3.7900066
63.532738 105.28211 1.4680066
78.47774 132.72112 27.038006
77.272736 133.52512 28.332006
66.54574 128.9721 22.142006
64.563736 128.3661 21.576006
23.567734 14.062103 1.9830067
24.705734 12.579102 2.9860065
34.85774 18.707108 8.213007
36.56174 17.939102 9.890006
16.36074 13.271103 12.601007
15.674736 15.303101 12.320007
4.6267395 8.519104 5.7300067
4.9117355 7.4351044 3.6940067
18.05674 106.43911 7.4860063
17.873734 105.75611 5.4180055
6.18174 99.60311 0.50600433
7.901741 98.76011 38.272003
44.14774 12.0961 37.510006
43.77174 13.3461 35.980003
29.771736 12.1091 33.114006
29.91874 10.097107 32.263004
26.351738 12.724106 31.035006
27.325737 10.7591095 30.889006
13.574738 8.325104 26.716005
14.172737 6.2550964 26.115005
69.939735 77.64911 15.688007
70.49174 79.15311 14.066007
0.21573639 90.07711 16.786007
79.217735 92.27511 16.668007
20.754738 2.1851044 17.928007
22.33574 2.0181122 16.111006
36.45274 3.1591034 21.859007
34.905743 5.695099 22.242006
34.77274 40.127106 31.130007
35.264736 40.549103 28.781006
24.483734 35.562103 25.639006
23.451736 33.38211 24.733006
3.1087418 73.71211 28.291006
1.4167404 74.70111 29.686007
67.33674 75.01611 24.379005
66.99374 75.89612 22.478006
65.65273 14.052109 35.730003
66.61273 12.914108 33.929005
54.374737 8.986099 27.527006
53.05174 10.1931 28.416006
52.53374 20.714111 14.336007
53.705738 21.455109 16.210007
64.996735 26.4991 18.713007
66.27773 27.395111 16.993006
45.928738 44.5551 12.799007
46.79774 46.554108 13.448007
60.50574 48.2321 15.862007
60.70074 49.572098 14.795007
65.04573 89.19311 5.200003
64.33673 87.19111 5.2490067
57.59374 83.26211 33.179005
55.31274 82.24611 33.759007
69.68474 69.01111 22.227007
71.427734 68.17412 22.177006
0.9257355 73.47212 31.740005
2.5457382 72.99811 33.095005
15.572739 46.4001 23.462006
14.207741 46.129105 21.316006
1.988739 44.39511 20.200006
1.238739 44.907104 18.393007
45.74074 124.47711 20.726006
43.51974 122.99411 20.622005
35.515743 115.414116 11.532007
32.86874 115.82911 11.706007
52.36774 78.17611 7.4810066
53.81474 76.89011 7.3500066
66.162735 84.73011 6.1910067
66.45973 86.59611 7.4360065
65.99174 34.5961 12.091007
65.01673 33.61911 13.442007
54.54674 35.922104 3.2860067
55.55274 35.35611 1.9430065
13.427742 29.879105 4.0720043
13.235741 27.06311 4.3050065
2.450737 22.6521 36.832005
1.1187363 23.075104 38.143005
48.275738 60.77112 29.145006
47.82574 59.39412 31.334005
62.100735 67.017105 34.665005
62.50474 66.527115 36.426003
28.408737 15.321106 28.157005
28.298737 16.1111 26.242006
15.224739 9.030106 22.402006
13.767738 8.751099 23.832006
36.791737 112.10811 11.341007
37.78474 113.806114 10.380007
50.86674 118.05811 12.342007
52.179737 117.46211 10.546007
44.11974 56.875107 36.814003
43.10574 59.514114 36.532005
32.17674 52.7881 28.869005
31.235735 54.335114 27.156006
70.85274 59.737106 23.294006
70.10974 57.342117 22.974007
62.629738 51.653107 14.475007
61.721737 50.840103 12.697007
4.1087418 26.5141 28.259007
4.316742 27.781097 26.277006
71.592735 19.933105 24.026007
70.64274 20.4561 22.446007
71.01874 44.543106 38.049004
72.622734 44.282104 0.73000336
2.8297348 55.43811 2.769003
4.2517395 53.896103 3.7320042
78.59774 102.97711 11.625007
77.814735 103.83911 9.719007
67.98774 95.29411 1.8780067
66.57374 94.20711 3.4300065
62.22474 134.2241 20.658007
63.28074 133.43411 18.759007
76.92174 1.9751129 20.824007
78.34674 0.7441101 19.952007
34.32574 88.16811 32.556004
34.47774 88.49511 29.955006
21.542732 85.22911 25.077005
20.658737 87.15311 23.312006
72.41974 130.9541 2.7330036
71.14874 131.91211 0.9870033
58.239735 127.16811 36.471004
57.56374 127.64211 38.916004
45.60374 99.91511 1.7740066
46.88174 100.26711 0.20500658
55.14974 109.25911 6.768007
56.84074 109.68711 7.6980066
67.40974 124.42411 13.468007
67.65674 125.15711 15.491007
0.7777405 132.47911 12.568007
1.1567383 131.83112 14.665007
27.713737 52.22911 37.408005
27.971733 51.155106 35.065006
19.00174 42.306107 29.060007
16.518738 42.698105 28.928005
6.8957367 128.93411 11.350005
7.5927353 128.3401 9.450003
79.65274 124.75711 37.557003
77.69574 125.83811 37.039005
31.471735 73.38112 12.598007
32.515743 75.096115 11.441007
45.276737 79.04912 16.897007
46.183743 77.27812 15.503007
16.825737 7.993103 15.231008
18.419739 7.592102 13.731008
8.1267395 135.6441 7.832007
6.905739 137.24011 6.1590066
41.58874 97.277115 16.710007
42.94074 95.22211 16.907007
55.513737 101.89811 22.255007
56.499737 99.61911 22.343006
42.720737 61.551117 3.8570065
42.85774 60.35811 5.8100066
56.761738 60.76111 11.528007
56.903736 61.734116 13.488008
53.766735 102.06811 26.992006
53.35674 102.16011 29.409006
63.86774 109.66111 35.566006
65.329735 110.02211 34.003006
71.76774 1.6251068 32.353004
71.88474 1.3251038 29.938005
60.70074 130.47112 24.715006
61.39974 128.56711 23.380007
79.22174 95.45411 6.228007
0.64073944 94.07911 7.325007
70.15974 86.66911 1.2330067
69.43474 88.53111 2.0450065
32.027737 42.573105 34.842007
31.589739 43.618103 32.921005
19.156738 39.6911 30.266006
19.694733 37.90811 28.857006
73.97274 72.32811 11.620007
73.10574 72.84511 9.458007
60.572735 69.24411 4.8320065
58.638737 70.40811 3.6320066
55.67174 52.018097 25.235006
54.85674 52.8161 27.317007
66.923744 57.140106 34.700005
66.218735 57.698105 36.964005
6.495735 33.7601 12.834007
7.2657394 31.205109 12.839007
76.10074 23.142105 10.192007
74.635735 22.496109 8.593006
36.236736 67.50911 5.0190034
36.469738 69.14311 3.7990055
25.227737 62.67311 38.927006
24.780739 62.725113 36.706005
51.086735 48.4431 35.969006
50.054737 46.83011 37.545006
60.02374 49.02411 9.384005
61.64874 48.340103 8.365004
20.857735 104.93811 3.0590038
18.95974 103.958115 3.9080029
10.765739 94.64811 37.639004
10.869736 93.44811 39.136005
27.028732 120.137115 26.382006
28.686737 119.292114 25.211006
39.75474 118.96111 33.679005
39.81374 120.06111 35.647007
34.31374 20.470108 19.517006
35.85574 21.657104 21.115005
40.960743 23.8721 29.622005
40.42174 25.18811 31.789005
73.44874 127.71011 7.6990066
73.10274 128.53711 5.4200068
4.7037354 137.30011 8.484006
6.5967407 136.55211 10.124007
55.985737 100.03811 24.802006
55.470737 102.45311 25.049006
65.50774 105.84211 35.442005
66.43373 104.95411 37.590004
12.842735 94.67311 32.134007
12.671738 93.87111 30.205006
79.47073 90.01411 26.851006
79.11274 89.24011 24.745007
63.351734 93.49311 11.758007
62.240734 91.529106 11.833007
53.016735 85.96811 2.3060067
51.20474 84.95311 3.2710066
47.040737 45.950104 4.882006
45.108738 47.638107 5.190005
32.447742 44.12111 39.020004
32.15774 46.118103 37.895004
71.381744 90.10411 34.659004
72.48974 89.29111 32.676006
60.81574 80.50411 29.884007
59.470737 79.27711 30.314007
11.482742 23.783112 19.611006
12.59874 24.002106 17.373007
1.9737396 16.028107 9.573007
79.55774 17.258102 9.669006
63.279736 30.791107 21.194006
63.915737 28.726105 19.965006
51.99174 23.668106 15.4620075
50.807743 24.46811 13.765007
35.387737 75.47812 6.675007
35.795742 77.247116 5.3110065
49.608738 81.4701 8.366007
51.694736 82.097115 6.826007
69.72074 54.564117 34.336006
68.621735 55.45311 36.086006
3.4567413 57.732117 39.133003
3.4927368 59.378113 1.3500023
69.42974 121.85611 10.460007
67.98474 124.20411 9.677007
56.32774 120.11611 4.5020065
54.52074 121.14211 4.3480067
0.33473969 60.20012 11.496007
1.3107376 59.63112 13.349007
10.685738 65.98311 16.583006
11.134735 64.109116 17.905006
1.9867401 59.985107 6.293007
1.4107361 62.240112 7.1520066
13.888741 62.25511 15.570007
13.496742 64.32512 16.767006
79.314735 123.777115 25.692007
0.8997421 123.94111 23.774006
69.34574 114.48111 21.813005
70.107735 112.122116 21.929007
18.952736 76.654106 36.543003
19.464737 77.93311 34.978004
32.309742 82.25011 37.698006
33.17774 81.39111 0.939003
46.253742 132.60611 8.370005
47.249737 130.61911 7.9670053
38.030743 123.681114 38.421005
36.96274 124.237114 36.339005
77.41774 71.03212 0.208004
76.329735 70.79512 2.6880054
63.48974 69.60712 37.532005
62.43774 69.40912 35.417004
11.418739 46.85611 37.415005
11.355736 47.91211 39.158005
22.593735 52.5381 6.3450036
23.563736 54.98111 5.3430047
38.11874 34.5231 33.087006
39.570744 33.1241 34.483006
50.17174 39.115097 2.413004
51.998737 39.138107 0.89300156
29.699738 30.082108 15.254007
30.204737 29.829102 17.508007
39.32974 33.80011 27.171005
39.545742 35.88211 26.723005
71.87374 68.571106 15.247007
72.06774 69.41411 13.177007
58.46374 65.85611 10.611007
57.181736 64.72711 12.1930065
38.70374 62.07811 16.156006
39.414738 60.753113 14.207007
51.971737 67.18611 14.671007
54.361736 67.433105 13.510007
38.553738 38.434097 31.185007
38.305737 40.931107 30.768005
52.49574 44.94211 32.296005
51.830738 46.8071 33.801006
63.66374 9.450104 7.859007
64.785736 7.991104 8.739006
77.608734 11.187103 13.000007
77.92174 13.778107 13.072007
73.60074 40.3631 2.4560032
75.174736 39.077103 0.96500397
8.874741 40.3351 3.8250027
8.985741 38.47911 4.613005
63.52374 55.000107 9.429007
65.23474 53.825104 10.216007
75.535736 63.679104 10.054007
76.87774 62.34111 11.308007
18.23674 81.02911 33.584003
19.272736 83.02511 33.287006
28.878738 87.58511 1.7170029
28.745735 88.79911 3.4310055
9.498741 132.0921 3.6890066
10.994736 131.97511 5.5680065
21.287735 1.467102 12.661007
21.687737 3.2501068 12.029007
8.772736 118.89711 16.817007
8.9377365 119.291115 14.713007
79.049736 110.81811 8.235006
77.635735 110.02511 10.4100065
44.972736 29.194107 23.248007
45.359737 29.696106 25.575006
55.63474 39.901108 28.958006
57.364735 38.144104 29.185007
9.561737 81.04711 10.269007
9.934738 83.51911 10.430007
19.19574 90.47711 19.980007
20.300735 88.77511 19.010006
45.21374 17.63211 31.932007
44.514736 16.156097 33.507004
35.85174 9.217102 23.897007
34.391743 10.641098 24.025005
77.59674 37.521103 34.724007
76.91874 40.0251 34.266006
5.8687363 46.20311 5.7980065
7.774742 44.957108 5.9060044
23.312737 8.861099 6.465007
24.903732 9.978104 5.301007
35.485737 13.373108 13.665007
35.38274 14.700104 15.293007
32.09074 62.21611 23.362005
31.297739 63.817104 24.278006
45.225742 69.430115 26.801006
46.56274 67.84111 27.244005
4.9737396 69.65912 26.869005
4.3127365 68.61911 25.434006
73.203735 67.65411 19.807007
73.90674 67.168106 17.534006
79.56974 75.27812 35.533005
79.63174 74.16812 34.101006
68.18674 72.70212 26.033007
67.62474 70.30711 26.692007
7.5397415 76.83911 21.713007
8.138741 76.94812 23.573006
22.063736 78.89212 24.820005
23.577736 77.292114 25.048006
24.169739 87.46111 14.673007
25.131737 89.84711 14.616007
37.571743 93.38211 21.773006
37.19974 93.42211 23.675007
1.5467377 61.997116 39.158005
79.025734 63.55911 0.22100067
68.07474 60.786118 32.924004
66.71474 62.67711 33.878006
11.0627365 18.8721 21.626007
12.456741 17.974106 20.707006
24.050735 19.733109 26.734007
24.736732 21.661102 26.561007
36.69074 128.9541 0.15200661
34.67774 130.88712 0.68100667
43.707737 134.77011 11.889007
43.542736 135.3901 14.221007
79.08173 20.442108 1.1170044
78.174736 19.9151 38.913006
65.510735 19.732101 36.376003
63.40374 18.347107 35.730003
64.70974 91.61911 9.682007
65.955734 90.52411 8.474007
77.746735 96.44911 14.785007
79.21174 95.12011 13.419007
47.650738 118.48111 20.614006
47.124737 116.93611 22.568007
33.42774 111.96311 15.986007
33.665737 109.79911 16.351007
76.869736 99.47611 17.996006
74.67074 99.82511 16.993006
64.21174 89.94711 16.055006
64.22074 90.44611 14.013007
74.79774 88.23611 31.927006
75.20774 88.14811 33.980003
7.023735 95.92311 38.014004
5.7217407 96.555115 0.48700333
30.141739 52.338104 32.278004
31.703737 50.901108 31.183006
20.702736 44.564102 24.655006
20.117737 44.8891 22.827005
9.09774 23.39711 24.733006
9.471741 25.140106 23.475006
17.745735 31.6801 31.440006
19.295738 29.8611 32.984005
54.765736 58.002106 20.052006
54.502735 57.299118 18.075006
44.81474 55.364105 8.451006
42.444736 56.181107 8.344007
35.539738 119.36411 4.9800067
36.49674 121.74311 4.3360066
48.822742 128.00711 7.8370066
49.698742 127.18211 9.397006
5.1507416 130.47011 12.678007
6.730736 130.2301 13.956007
16.240738 0.7351074 23.163006
16.253738 2.6291046 22.508007
53.90974 63.059113 16.309006
53.27174 60.725113 16.424007
42.34274 55.85312 11.359007
42.391743 53.696106 10.762007
73.566734 135.43611 32.609005
75.28474 136.3921 32.855003
7.966736 1.1251068 37.725006
7.946739 0.032104492 36.127007
79.259735 9.649109 10.597007
79.50374 10.539108 8.914006
69.731735 4.7871094 1.5300066
68.00174 5.390106 2.6720066
23.77974 9.171097 2.9450054
22.467735 11.004105 2.5700054
17.58474 6.371109 30.602007
17.692734 4.3351135 28.865005
63.027737 64.08711 32.490005
64.25373 63.646114 29.793007
51.475735 62.385117 23.755007
48.92474 61.85811 23.638006
40.73174 17.18811 1.2000008
40.905743 16.296097 38.467003
29.228737 13.972107 30.939007
28.006737 14.717102 32.340004
7.859741 48.2511 1.3660011
6.271736 48.55211 3.1130047
73.86074 47.573105 34.709003
72.953735 49.892105 34.419006
10.719742 109.85611 22.306005
10.0277405 111.03011 20.512007
77.66674 104.79311 17.167007
76.51974 103.07511 15.756007
61.76674 31.060104 29.971006
63.081738 31.768097 28.492006
73.828735 38.9861 34.747005
74.31174 40.939102 34.089005
62.333736 36.657104 19.674007
63.650738 35.05211 17.861006
52.13574 31.280106 9.161006
52.594738 29.273102 8.489006
21.76574 90.60811 17.458006
22.139732 90.63911 20.262007
35.26074 93.52611 25.713007
35.720737 95.35711 24.959005
20.228737 55.846115 11.373007
18.744736 54.482117 9.779006
4.446739 54.045105 9.6340065
4.0137405 54.046112 6.9930067
37.682743 19.20111 14.441007
37.764736 19.35411 16.880007
37.794743 15.036102 14.014008
38.15774 13.1241 12.881007
59.18974 31.47911 33.638004
61.541737 31.161102 33.214005
70.94574 41.503098 37.823006
72.21674 41.41211 0.43600082
16.300735 48.791107 23.720007
16.410736 50.7491 24.849007
27.797737 56.230118 33.175007
29.37674 55.517105 34.958004
38.85174 12.0811 9.072006
38.16174 11.958099 6.5120068
27.799736 6.0830994 2.1810067
26.235733 6.0570984 4.2670064
73.45674 43.092102 37.914005
73.674736 44.477097 36.774006
3.087738 51.271103 6.2460046
5.075737 50.28711 6.0660043
43.045742 66.27312 33.046005
41.64474 66.28412 34.523006
30.69874 59.907104 27.130007
29.378738 59.60312 28.762007
31.359735 17.413101 25.350006
31.335741 15.005096 25.201006
43.278736 17.501099 30.233006
44.86974 18.7191 29.298006
40.49474 77.27812 32.447006
42.54774 76.68611 32.724007
54.920734 78.43611 36.817005
54.47974 80.5931 37.336002
3.8957367 62.345108 37.210003
4.8687363 64.05211 35.568005
17.053734 69.907104 39.131004
17.781738 68.97911 1.6310043
48.11774 81.8281 11.734007
46.96774 79.7161 12.6270075
34.75874 70.43512 8.642006
35.539738 69.76012 6.4080067
64.74174 92.70911 7.1120057
64.50474 92.57811 4.9250054
53.071735 87.28611 37.711002
53.878735 86.17411 35.856007
22.992737 64.61911 1.7090065
21.984734 63.551113 3.2340066
34.154743 67.67412 9.925006
34.53374 67.77011 8.164006
15.893738 66.82811 9.863005
13.932739 66.711105 8.7610035
5.8267365 58.898117 38.572002
7.101738 56.67711 38.452003
59.861736 121.91211 35.125004
58.74574 123.68611 36.356003
47.66374 120.35411 26.553005
48.530743 118.45511 26.338007
16.905739 0.47410583 27.306005
18.622734 137.36711 25.785006
29.125732 6.941101 29.335007
30.53174 5.6361084 30.510006
70.48074 133.7731 36.271004
69.020744 131.96211 36.169006
56.955738 128.1121 33.850006
56.70174 129.9781 33.685005
19.27974 109.66211 6.4540067
20.169739 107.749115 6.3300066
31.536737 110.74811 14.465007
30.54474 109.91811 16.382006
51.45374 51.98311 31.991007
49.970737 52.769104 30.909006
40.04874 45.092102 25.824007
39.334743 46.70111 23.970007
41.108738 92.67911 21.183006
40.124737 92.98711 23.435007
50.821743 95.48411 31.785006
51.64374 93.35711 32.462006
64.383736 96.04511 5.7830067
63.81574 97.06311 7.945007
76.07174 106.88211 11.017007
77.32274 105.25711 11.949007
33.07774 27.545105 10.468007
32.55174 29.725098 10.781007
43.956738 34.68611 17.117006
44.76874 36.350098 18.774006
34.07674 1.3101044 27.881006
33.18974 1.1221008 29.765007
24.249733 130.6441 23.291006
23.030739 129.3571 24.770006
65.341736 11.708099 0.19500351
62.861736 12.6341095 1.3920021
51.818737 8.3871 32.427006
50.51074 7.740097 34.377007
45.78574 133.3961 11.105007
47.39474 131.76611 12.026007
56.762737 3.2531128 18.111006
56.861736 5.4601135 18.869007
48.26074 122.50911 17.304007
48.844738 121.747116 19.249006
57.83874 130.0641 26.352007
57.28874 128.98111 28.368006
36.265743 11.612106 15.459007
36.792736 11.593109 17.773006
50.07974 18.728104 18.545006
49.84374 20.166107 20.555006
77.174736 129.84111 35.174004
79.052734 129.71611 36.986004
10.843742 129.59111 3.300005
11.864738 128.0621 3.939005
3.7497406 111.22511 38.709003
5.0367355 109.34511 38.763004
16.270737 115.678116 4.945006
18.581734 115.79511 4.1480045
1.4687347 121.67211 27.499006
0.677742 120.42311 25.739006
67.64174 116.626114 25.657005
67.93174 114.68411 25.547007
65.49873 59.206116 33.103004
66.97674 59.031113 31.244005
56.88474 54.92212 21.220007
56.983738 56.350113 19.363007
65.608734 114.069115 27.061007
64.43073 112.94611 25.595007
52.072735 109.737114 21.464006
50.61574 111.44711 22.004005
16.699738 107.37011 16.903008
17.897736 105.26111 17.785007
27.767738 108.17811 26.817007
28.156738 110.23411 26.476006
64.771736 115.91011 31.824007
63.322735 114.28111 32.968006
50.67674 109.28211 26.016006
50.764736 107.45111 26.767006
36.902737 37.6541 33.496006
35.525738 39.699097 33.855003
48.07574 46.549103 0.2140007
48.49574 48.850098 0.19700241
15.760735 115.24211 11.677007
16.678734 117.47911 13.009007
30.064735 119.96911 15.329007
31.273737 120.140114 13.206007
35.558743 124.541115 3.9180067
35.694736 126.987114 5.1470065
46.02374 129.40811 13.309007
46.124737 127.30011 13.651007
64.57373 27.56311 25.571007
63.448734 26.638107 26.827005
50.55074 23.089111 20.592007
49.915737 22.829102 18.516006
33.390743 3.642105 30.909006
34.373737 2.2141113 32.386005
48.19074 7.2301025 36.253006
48.29874 6.2281036 38.242004
79.71074 12.433105 11.072007
0.39273834 14.196106 11.607007
10.29174 16.373108 21.006006
11.573738 14.255096 20.447006
