27.73084 82.68285 67.84911
28.903841 83.320854 66.819115
5.1768417 73.611855 68.35212
4.9868393 75.62785 69.92612
29.83284 79.00886 75.44911
28.458841 78.56186 74.67111
12.421842 14.6898575 48.138115
11.351842 16.623863 46.787117
34.45584 20.737862 46.485115
33.36484 21.66786 47.44111
30.51984 37.02086 18.626116
30.684841 34.55886 18.724115
7.257839 30.550856 12.584115
7.641842 28.984861 11.850113
36.44884 7.926857 90.38111
35.38884 7.1948547 88.46512
18.802841 6.1638565 88.79611
18.75284 4.7328568 87.83711
2.134842 61.41586 54.303116
0.5888405 60.87786 52.593113
24.840841 65.73886 59.408115
25.419842 65.66186 60.984116
22.104841 62.19786 53.03011
22.39584 60.12786 52.32211
38.53684 60.029858 45.44111
0.64683914 60.814857 45.112114
32.93484 4.377861 67.89912
32.42384 2.5488586 67.43411
15.902841 2.9898605 74.38112
14.83584 1.5418549 74.555115
10.231843 90.02386 67.139114
8.99284 89.56086 65.236115
31.44284 89.64886 66.36712
31.86284 88.930855 67.95512
21.49484 95.514854 18.589113
21.53284 93.20386 18.743113
0.8918419 94.28686 15.238114
2.5078392 94.58586 15.884118
34.28984 5.8348618 79.80911
33.56084 4.4278564 78.721115
17.385841 7.042862 79.57611
17.573841 8.405861 78.889114
6.2138405 43.457855 88.667114
5.0578384 42.321854 87.58711
30.732841 46.58586 98.540115
31.080841 46.112854 100.08511
37.530838 44.89685 59.443115
37.41884 43.399857 60.953114
21.18684 45.486862 66.59312
20.38884 46.88385 66.098114
23.05884 11.188858 102.48112
23.61584 12.32386 104.264114
1.5048409 13.005859 101.417114
3.0528412 12.26786 101.75812
10.80184 67.373856 110.64812
12.59584 68.78686 110.79711
28.454842 64.567856 106.16811
28.276842 63.56186 107.44911
33.766838 52.78386 11.190117
34.72384 54.43785 10.064117
11.448842 45.914856 10.520111
12.518842 46.39685 11.789116
16.22184 70.29586 21.24512
17.66884 69.93586 19.743113
34.95984 71.60086 15.8961115
35.45784 70.51086 16.853113
34.24184 19.176857 60.613113
34.02984 21.532858 60.569115
18.16284 24.18286 66.887115
17.712841 25.984861 67.38512
2.4358406 93.60086 32.865105
1.7578392 94.25886 34.61811
23.92984 97.15486 34.77311
22.26784 97.56586 34.613106
25.60884 2.3648605 9.775116
26.493841 1.2768555 11.391113
2.6198387 1.4778595 10.044113
3.4588394 2.0608597 8.642113
0.83084106 2.8268585 100.05811
0.9798393 1.8738556 98.039116
18.037842 0.3458557 99.89111
19.70884 106.96286 100.70011
5.2888403 10.959862 1.5771179
6.1898403 12.658859 2.5471115
21.91884 8.547859 0.35311127
22.05084 9.091858 111.582115
35.18384 1.4488602 82.70112
34.65384 106.568855 82.692116
17.427841 2.3448563 84.08511
17.191841 3.141861 85.46411
32.64284 36.21186 50.153114
33.53484 37.593857 51.678116
18.42984 39.21186 51.971115
17.34184 37.886864 51.450115
26.592842 68.459854 82.56612
24.726841 67.872856 84.29411
10.784841 73.263855 88.02911
9.65884 72.81686 86.89612
31.07884 73.887856 103.36311
32.38184 75.54786 103.764114
9.6128435 71.22686 101.651115
9.856843 70.39286 103.06011
2.1268387 91.539856 34.71311
1.3288383 90.57786 36.570107
25.56084 93.32486 38.921104
24.86084 93.81086 40.48211
37.266838 7.5408554 81.348114
36.65984 8.688858 79.59212
15.22184 5.608856 75.122116
16.60984 5.8858566 74.039116
36.75384 75.04686 16.512117
35.95284 75.69086 14.725114
21.708841 80.16086 20.920115
20.29984 80.487854 21.89712
12.95584 47.677856 2.664116
13.593841 46.10785 4.110115
9.501841 40.89586 0.91711426
9.85984 42.51886 1.8641129
33.36184 26.399862 48.099113
33.34884 24.629858 47.46311
12.010842 20.513863 48.00811
12.360841 19.298859 46.82911
38.12384 85.73086 20.379114
38.06284 85.60786 18.207117
21.18684 89.32486 22.544115
20.60684 87.930855 21.420115
23.052841 31.11086 101.916115
22.26184 28.995855 101.56512
7.5618405 32.57186 104.20112
6.9388404 31.15286 104.40711
15.411842 4.433861 92.26911
14.633842 3.5578613 90.19911
1.1838417 14.006859 93.026115
0.04084015 13.966858 94.36912
29.989841 92.80186 64.57412
29.531841 92.51886 66.56312
13.459841 90.34186 65.77412
12.78784 91.53486 64.21812
36.49884 61.94286 35.776115
34.76184 62.598858 34.361107
20.555841 60.05886 42.063118
19.87284 59.83786 43.64611
9.902841 72.46686 83.58012
8.13084 72.31286 84.539116
31.124842 73.00285 86.72711
30.53384 71.40585 87.68511
18.951841 98.79686 103.237114
20.85584 98.57986 103.513115
32.26384 87.01786 99.304115
32.18984 88.57486 98.37112
21.031841 5.669861 102.23112
22.34684 4.5528564 103.12012
35.75684 105.76086 94.612114
36.67784 105.00186 93.45512
6.9028397 47.82686 105.888115
6.787842 49.387863 107.70112
30.656841 53.86386 108.93712
30.545841 53.101852 110.53712
6.50784 30.786856 109.03011
6.5368404 28.649862 109.21712
24.18984 27.448858 103.596115
25.44584 26.785856 103.040115
36.06984 14.243858 60.539116
36.08284 14.113861 62.764114
11.909841 8.626862 64.80811
12.084844 10.350861 63.979115
28.068842 92.11986 50.05311
27.521841 90.28686 50.42911
4.9118385 87.23886 46.764107
6.030842 86.651855 47.785103
32.75684 89.02286 74.11311
33.21184 91.32686 72.818115
9.311841 83.860855 72.00211
10.3248415 85.16286 70.93311
7.05284 12.818863 12.059113
8.11584 11.063858 12.002113
24.18384 17.51986 14.214112
24.52984 15.806862 14.181115
30.611841 8.202858 33.410103
30.16184 10.025856 31.939112
7.8338394 13.940857 31.131113
7.7488403 15.772858 31.149118
4.0208397 69.04686 42.989113
2.5238419 70.751854 43.669106
25.985842 74.23885 45.28411
25.271841 73.749855 46.836113
15.8318405 44.97986 45.70011
15.511841 47.28586 45.447105
0.21583939 49.696854 48.846107
0.3108406 48.90486 50.538113
29.430841 81.73386 86.276115
28.846842 80.18786 84.96011
13.30684 82.959854 87.207115
12.70184 81.49186 87.22511
33.84784 46.18785 33.99711
32.29784 45.236862 34.878105
17.05184 48.293854 41.929115
16.080841 48.472855 43.291115
1.4078407 76.10286 36.01011
38.68084 75.290855 34.67611
23.23084 76.96486 38.01011
22.67284 78.36686 37.100105
11.727841 90.55986 82.206116
11.864842 92.430855 82.34012
33.53184 94.79886 83.85612
33.10184 93.665855 82.71111
1.1848412 42.887863 75.387115
39.03384 43.345856 73.76711
22.46384 42.721863 78.07311
21.20284 41.640854 77.69012
25.993841 68.93986 59.178116
26.99484 67.789856 60.937115
4.0328407 67.416855 58.207115
4.077839 66.402855 56.411114
10.67684 25.57186 30.648111
12.645841 27.05686 30.873117
28.118841 20.424858 29.948114
29.67984 20.306862 30.939112
12.263841 57.22286 3.511116
10.386842 56.94186 2.6061172
34.28384 62.95886 6.8231125
33.75884 64.734856 6.367111
36.38384 105.70086 97.91911
36.03584 0.10585785 96.53311
21.84384 7.4708557 104.151115
20.79084 8.399857 105.123116
30.70984 44.70285 104.76711
30.89384 44.351852 102.470116
5.1548386 41.583862 97.66112
5.912842 42.775864 96.569115
9.876841 84.415855 63.708115
12.17984 84.84386 62.435116
25.475842 86.51686 55.587116
26.422842 86.17586 54.362114
20.55384 95.96886 12.853112
22.413841 96.83886 13.507112
37.29284 92.319855 12.776116
37.73184 92.60786 11.238113
6.0358405 70.50686 59.769115
7.2008405 71.83686 58.593113
20.98784 64.93786 56.619114
20.823841 64.44086 58.302113
13.824841 55.333862 4.190117
13.567841 53.35385 2.2191162
28.29984 50.33986 107.833115
29.20084 51.46086 108.82712
29.18684 30.411856 13.370118
30.197842 31.98786 14.168115
6.8858414 25.065855 10.048111
7.8888397 25.19586 11.653114
8.83984 9.279861 30.850107
8.268841 7.3338623 31.183115
5.0978394 3.99086 27.574106
5.5628395 4.7158585 26.193117
8.411842 33.07086 16.74512
8.503841 34.508858 18.00812
34.86484 41.94586 17.652117
34.398838 43.680862 16.611116
23.208841 74.11986 48.234108
23.40584 75.98885 47.475105
7.49484 79.58986 52.93511
6.9338403 77.764854 53.01411
36.54184 53.28386 39.104103
36.66884 51.466858 37.76911
15.948841 49.125854 37.527107
16.723843 47.976852 36.62011
15.17284 29.97286 52.955112
16.84584 31.177862 53.813114
31.572842 28.239859 47.00811
32.780838 29.087858 47.798103
12.542844 90.47586 85.52911
12.716844 89.042854 87.25611
36.12184 90.88486 92.36411
34.86784 91.09386 94.06011
27.697842 26.685858 7.636116
26.569841 28.259855 7.2671127
11.24384 31.29186 10.920113
10.138841 30.442862 11.576111
9.12284 50.094864 98.46812
9.99184 51.33986 100.07712
26.75484 50.221863 99.306114
26.861841 50.862854 100.77312
34.01384 86.16386 105.108116
34.50284 85.985855 106.833115
18.09184 90.14286 109.445114
17.74284 91.861855 109.26611
0.94384 83.65686 21.408113
0.9228401 84.137856 19.10612
18.02184 82.39886 15.010118
17.49984 84.27486 14.405114
22.580841 24.621855 74.622116
23.99484 24.965857 76.46511
37.68384 24.699858 77.22811
39.09584 24.75086 78.318115
37.87984 33.622864 61.570114
38.31984 32.764862 59.335114
14.95084 28.062857 57.908115
16.092842 28.327856 56.369114
2.4808388 98.95586 14.621118
2.5128403 101.06586 14.8471155
24.55084 105.55086 15.486115
23.45484 105.93386 14.228112
37.99584 80.58986 16.927118
37.64084 82.042854 18.298113
22.038841 84.00285 23.212114
21.27584 85.27986 22.238115
4.403839 27.912855 98.916115
3.1548386 29.15286 97.43712
27.847841 31.331861 98.776115
28.87284 31.70986 97.46211
18.534842 95.831856 1.0421143
19.65084 94.956856 2.6671143
36.72584 95.53386 2.6661148
37.68184 96.54486 1.6381149
20.32284 43.111862 61.011116
20.76984 45.07985 61.351112
35.32684 47.29486 56.906113
36.78484 46.25586 57.256115
3.2048416 66.32986 49.164116
2.9728394 67.98186 47.587105
25.479841 73.040855 49.351112
24.28984 73.16386 50.64311
2.7588387 95.99186 36.970116
2.93684 96.39086 38.99511
26.156841 97.485855 36.669106
25.26184 96.053856 36.751106
29.958841 21.844862 25.949114
30.63484 23.590857 27.198114
7.08284 25.340857 28.10612
7.5228424 25.856855 26.441118
5.95084 105.361855 39.264107
4.7658386 105.54986 37.09411
30.228842 0.34786224 43.06411
29.26684 1.5228577 43.548103
7.064842 28.339857 18.178118
5.2278404 27.493856 19.580118
30.993841 34.86686 21.609118
31.75284 36.00386 22.715113
32.57284 33.912857 33.764107
34.10584 32.60086 32.70211
10.168843 30.787855 29.17512
11.622842 31.01586 30.405115
35.80784 47.438858 43.931114
37.84884 47.379852 45.004112
12.8628435 41.806854 41.959114
14.233841 42.625854 40.998116
3.0718384 7.718857 11.760117
3.4918404 5.9708557 11.071114
25.038841 5.343857 12.479112
24.42184 4.1068573 11.281113
24.24084 76.680855 60.487114
24.63384 78.76986 60.238113
9.50084 78.251854 63.114113
10.80184 78.86686 61.915115
4.94484 89.638855 38.99311
5.07484 88.03186 40.356117
21.56084 83.098854 42.56211
22.38484 83.03586 40.959114
4.1768417 74.737854 46.934105
2.9798393 73.09286 45.419106
26.21384 77.96686 49.767113
25.760841 76.93986 48.615105
17.33484 65.61486 17.750116
18.07884 66.623856 19.477114
33.80884 68.36786 13.621118
34.266838 68.456856 15.638116
29.215841 23.122862 33.358116
29.343842 25.330862 33.968117
12.92084 31.119856 32.749107
12.789841 31.468855 34.451103
38.92784 7.178856 89.56512
38.52484 5.5228577 90.417114
15.285843 1.7348557 92.86711
16.08384 0.41285706 93.13011
4.48984 4.438858 8.671112
5.95484 4.872856 7.1631165
21.35884 1.8058548 3.374115
22.37984 3.0088577 3.7741165
6.5208397 44.356857 98.303116
6.6008415 46.629852 98.123116
6.113842 39.46086 103.958115
6.7048416 37.912857 104.74211
7.89584 98.50386 28.513117
6.6598406 96.900856 30.180109
23.39884 93.89386 30.187113
24.649841 92.72886 30.336115
34.03284 67.262856 5.199112
35.15284 67.66186 6.8491135
9.286843 64.21386 2.0661163
9.952844 62.73686 1.4681168
17.322842 20.969862 73.972115
15.85384 19.818863 72.48212
38.55184 22.091856 74.29511
37.99584 20.64486 74.485115
23.55884 46.43985 89.249115
22.906841 44.629852 89.22611
9.24784 44.601852 91.041115
8.42984 44.874863 89.68211
18.45384 91.72386 7.876114
18.43884 89.77986 8.988113
34.67084 84.984856 4.070114
34.19884 83.85586 2.923111
9.01284 26.239859 18.777117
9.12384 28.103857 19.682116
25.826841 23.04186 22.206118
26.607841 23.318861 24.126116
3.4258385 106.59386 24.305117
3.5628395 1.551857 25.128115
29.17484 6.6688614 25.555117
27.666842 6.4588623 26.181116
26.60884 5.5408554 23.906115
25.15784 4.483856 24.88312
8.3978405 5.36586 28.88511
8.041841 4.4538574 27.219118
12.084844 84.845856 93.652115
11.211843 82.54786 92.722115
33.36584 81.07786 94.50311
33.11684 82.082855 93.04511
4.75184 27.62586 104.014114
5.2228403 26.538862 101.85712
22.222841 24.966856 98.09212
22.65284 26.93086 97.305115
8.34284 99.624855 41.930107
7.4428406 99.46486 39.729103
21.00284 90.403854 34.55311
21.25284 89.069855 33.54711
34.34084 9.424858 73.99112
34.70684 9.760857 76.03612
19.538841 14.174858 74.83511
19.65084 16.095863 74.74412
26.625841 1.6128616 21.32712
27.724842 3.766861 22.309114
2.2448387 104.53086 17.677118
2.7728386 102.581856 17.379114
18.37984 98.58886 111.42712
16.962841 100.78486 111.623116
0.32883835 98.52286 112.59012
37.87184 98.88386 112.21712
21.479841 92.57186 23.737116
19.43184 91.318855 24.24412
5.5648403 93.29886 28.132105
5.4098406 94.57686 29.332117
1.0418396 54.98085 49.31611
2.5128403 56.328857 48.641106
17.084843 50.388855 44.809105
18.07484 51.735855 45.595116
14.445841 42.999863 15.933114
15.20384 45.683853 16.025118
30.837841 45.35286 12.620118
31.81784 44.277863 13.445115
16.81484 79.90585 3.4601135
17.059841 77.84186 5.1841125
33.11584 71.902855 2.3311157
34.46984 70.64886 2.4441147
23.91684 21.155859 0.085113525
22.99884 21.761862 111.42011
7.3518405 28.288862 3.164116
7.4408402 28.315855 5.0831146
7.03384 80.136856 61.000114
4.8508415 80.54586 60.183113
28.245842 80.67786 62.123116
28.190842 81.99086 63.108116
0.93484116 62.15086 40.938118
2.2518387 61.217857 39.75611
17.14384 56.81886 34.983116
16.79784 57.12486 33.283104
3.5958405 72.833855 50.690113
3.6288414 71.917854 52.980114
26.677841 73.36486 54.097115
26.557842 75.04385 53.875114
4.2108383 24.718855 96.42211
4.9218407 22.828856 96.76711
21.383842 19.228859 96.69611
21.75784 18.441864 98.511116
13.516842 70.567856 5.2261124
12.337842 70.76986 7.7711105
37.84084 80.17186 7.034111
37.25284 81.26986 8.064117
23.88184 51.25885 70.763115
23.920841 49.670853 71.50612
39.10184 47.869858 64.24012
0.5038414 48.44586 65.63012
34.18984 34.40986 48.628113
32.19384 34.986862 47.699116
17.403841 33.84086 54.988113
16.392841 33.872864 53.624115
8.112843 85.16786 56.361115
7.8718414 84.72686 54.442116
29.48184 89.14586 54.971115
27.976841 88.30286 55.185116
25.881842 22.98586 14.307115
25.48084 20.528862 14.465112
10.31684 23.120855 16.886118
9.211841 21.867857 17.865114
17.29684 86.62086 3.1131134
16.993841 86.21686 0.8591156
34.99884 86.70386 112.681114
35.31884 85.59886 1.2661133
11.691842 93.79986 74.42712
11.586843 95.39686 75.722115
34.44284 98.72886 81.068115
33.56984 98.91986 79.39311
32.02984 50.93785 107.57411
30.844841 49.08786 108.956116
6.8628426 44.31485 109.193115
8.508842 44.02185 109.42412
10.027841 82.85586 56.501114
10.85484 84.526855 54.871113
24.12484 80.74086 49.276115
24.51284 79.876854 50.952114
33.55384 28.551855 50.992107
34.42284 30.47386 49.787117
10.876843 24.49986 41.70211
12.302842 24.631857 42.336113
36.03784 93.09286 108.49612
37.61584 94.82986 108.915115
13.31884 87.40586 105.23911
12.866841 87.164856 103.402115
36.73584 13.012863 85.75611
35.64084 13.14386 84.192116
19.95484 14.204857 88.36311
19.215841 15.561859 87.54411
5.8998404 51.181854 84.083115
6.6278405 49.175858 83.64311
22.84984 45.97986 85.262115
23.64884 45.609863 86.67111
9.72784 67.80186 98.886116
10.17684 65.92186 100.32311
27.732841 63.10486 96.46211
29.177841 63.161858 95.35311
38.32984 99.430855 102.195114
38.898838 101.55086 102.07411
17.17184 98.73786 100.65711
17.691841 100.27986 101.43611
38.50384 66.49586 29.696115
37.09684 67.737854 30.910105
20.81384 69.00486 31.27212
20.29484 68.986855 32.91311
1.9358406 75.66286 44.550117
2.9008408 76.85786 46.027107
25.236841 79.24686 46.999107
23.851841 80.222855 46.351112
5.7608414 24.678862 83.85712
4.896839 26.540861 81.98811
19.683842 24.935858 75.61812
20.376842 26.355856 74.70512
16.453842 89.206856 3.5661163
15.701839 88.79886 1.2081146
38.51584 92.46686 3.6651154
38.01784 92.83586 5.332115
20.354841 74.04385 32.220116
21.49784 75.528854 33.056114
37.74684 73.15786 29.937113
37.30484 72.775856 27.967112
16.16584 29.893858 63.098114
15.851841 30.25186 65.012115
37.41884 28.775862 67.54912
35.95484 28.616858 68.26811
2.8218384 31.962858 92.43311
2.1768417 30.461859 90.930115
26.23084 32.63286 96.66811
25.222841 34.07286 96.98911
11.63584 39.011864 15.913117
13.13984 39.80686 14.043115
28.361841 33.858864 15.924111
29.968842 34.22786 15.815118
23.23984 87.40586 26.741114
24.93084 88.07286 28.042109
0.04084015 84.192856 24.325113
0.99184036 85.42186 23.385118
32.73284 69.22886 102.49412
32.31584 70.45586 100.91212
6.865841 67.513855 91.22511
8.150841 66.389854 91.068115
26.792841 101.82486 40.685112
27.04384 100.34186 39.30111
4.0538406 104.51686 34.53611
5.379841 103.637856 33.448112
7.2698402 16.146858 6.2581177
7.15284 16.04586 3.8831177
24.295841 12.623863 4.518112
24.37084 14.308861 4.7621155
14.14284 89.23786 83.473114
14.211841 86.664856 83.803116
30.69384 86.12986 85.415115
30.98084 87.44686 84.40911
25.25884 62.390858 67.91811
25.826841 63.53086 69.820114
2.6068382 61.10786 68.278114
3.9468384 61.15586 69.39211
2.5838394 78.05785 37.841118
4.4188385 78.84286 38.710106
19.849842 81.485855 36.11611
20.634842 79.81386 35.455116
19.21384 87.997856 24.165117
18.455841 86.00286 23.625116
3.6688385 86.08686 23.777117
3.0138397 87.514854 22.877115
16.036842 48.25786 30.53811
14.669842 47.71286 32.35711
38.34984 55.289864 35.16311
38.02684 55.542862 36.737114
13.40684 12.058861 48.195107
14.013841 10.929855 50.519108
29.089842 10.446861 42.669106
30.70784 11.122856 42.49311
16.802841 14.693863 75.75211
16.087841 12.834862 75.126114
1.7478409 18.178864 78.81211
0.4148407 17.286858 78.86711
23.53084 67.86786 58.659115
21.132841 67.028854 58.779114
6.16584 72.13286 54.558113
5.9118404 73.75986 54.319115
25.586842 36.361862 89.706116
27.006842 34.74286 88.78612
2.7778397 33.29586 84.22511
3.1658401 32.53586 85.54611
10.723844 2.0998611 56.419113
10.25784 4.035858 57.716114
32.98884 5.454857 55.391113
32.97584 7.2908554 56.059116
22.62384 102.820854 8.664116
24.25884 104.05886 9.402115
36.45384 99.735855 6.5281143
36.641838 98.13586 6.858116
25.294842 98.931854 18.329119
25.32484 100.514854 16.686113
0.50284195 99.497856 9.226112
38.76284 99.62086 7.822113
19.33284 46.762863 62.980114
18.24484 47.00386 60.917114
20.017841 51.101852 66.848114
19.99184 50.526855 68.386116
18.77284 41.78386 51.422108
19.344841 40.732857 49.326103
34.75784 41.27186 44.16311
35.02784 42.38086 42.70411
10.95984 13.937859 26.048113
10.14484 11.682861 26.529116
24.54484 4.3198547 19.308115
24.39484 4.4258575 17.132113
20.462841 99.914856 1.235115
21.96084 101.555855 0.91711426
35.50184 97.193855 106.525116
36.62484 96.70286 105.123116
16.621841 51.599854 39.24711
15.685841 50.17285 40.557106
37.79584 48.971863 42.619118
36.48684 48.88185 41.693108
25.95684 78.73286 68.87811
24.69684 77.37086 67.89412
9.0818405 79.806854 71.694115
8.36584 78.372856 72.08811
0.6668396 42.64685 57.739113
1.1878395 43.165863 55.581116
16.58884 41.792862 54.553116
16.85984 39.71486 54.290115
18.46584 105.153854 96.153114
16.154842 105.042854 95.694115
0.35583878 1.3038559 94.82311
38.19184 0.19285583 94.903114
31.81484 88.58086 93.71411
32.23584 88.94186 95.89912
15.869841 93.18686 100.262115
14.99884 94.68986 99.12112
34.72084 88.636856 92.417114
34.91284 86.57586 92.88412
12.286843 85.00186 91.069115
12.629842 86.70186 90.58012
13.27484 64.66086 7.768112
14.80084 63.49386 6.977112
30.13784 60.74186 6.2991104
31.80684 61.01486 6.3631134
11.01084 71.845856 99.28411
11.48584 73.334854 100.43712
28.13684 71.67786 95.48811
28.59884 71.63186 93.733116
1.4588394 76.47786 30.006113
0.29084015 75.60886 28.536112
18.065842 74.04586 25.596117
18.100842 75.63186 25.416117
21.59684 30.62486 82.70112
22.316841 32.46286 83.723114
4.363838 33.64686 82.00411
3.0188408 34.76986 81.512115
18.41184 68.76686 14.387116
18.07484 70.59386 12.744119
32.64784 66.96986 8.071114
33.42684 67.638855 9.273117
37.23684 40.412857 42.71711
37.03784 39.496857 40.507103
11.983842 42.282852 39.305107
12.122842 42.968857 37.624107
23.37084 81.26685 43.38311
25.39384 81.81286 43.264107
1.8198395 79.431854 40.274117
2.4678383 79.87986 41.86811
7.287842 73.89185 72.99011
5.620842 74.445854 72.60111
31.80784 77.680855 83.67211
31.212841 78.888855 84.93511
34.55184 95.88486 108.845116
35.26384 97.569855 109.54611
20.785841 101.32486 3.7641144
20.47184 102.61586 4.784111
26.373842 96.56486 50.784115
26.868841 95.28086 52.313114
10.42284 94.13086 59.047115
11.006841 95.82886 58.986115
11.737841 82.888855 77.59412
12.71284 81.82185 78.707115
27.909842 79.97586 71.10111
28.371841 81.16086 69.93211
6.7458405 18.263863 108.49211
5.6798406 18.67286 106.75912
21.63484 20.10086 107.29511
22.83984 20.63086 108.49211
29.19384 28.357855 28.099115
28.87684 27.400862 30.292109
12.70884 33.39086 28.970118
12.336841 34.537857 29.847116
39.16684 35.150864 68.209114
1.6498413 36.42486 67.77012
16.63884 35.193863 63.111115
16.72884 36.540863 62.441113
8.771839 1.3058548 51.189114
7.0108414 1.7768555 52.009113
31.146841 3.2368622 51.379116
31.18884 5.0018616 51.207115
13.072841 6.1618576 54.235115
14.33784 8.158859 54.877113
30.73484 9.708862 52.973114
31.17584 8.400856 53.849113
31.406841 8.734856 57.650116
30.00584 8.2888565 56.085114
14.662841 13.075859 63.259113
15.030841 12.063858 64.62112
32.75684 83.08786 98.72811
34.64784 82.84186 99.79311
12.049844 82.278854 98.28512
11.342843 80.95086 99.54711
9.05484 55.287857 91.65611
10.01884 57.316864 91.45512
23.87284 50.47885 85.88011
24.63084 49.627853 84.53812
2.7738419 69.17786 40.416115
4.5398407 68.39686 40.294106
18.425842 70.60686 34.749107
19.711842 71.03886 36.21711
35.16484 14.75486 74.17212
34.18884 12.676857 74.122116
20.25984 18.731857 79.389114
20.135841 19.287857 80.86411
7.639839 12.735863 23.088114
6.9168396 10.597862 23.420115
28.454842 12.694862 24.363115
28.475842 12.985863 25.782114
11.946843 92.12686 69.664116
10.00784 93.04586 70.137115
32.00184 93.18386 68.122116
31.343842 91.58786 68.275116
38.523838 73.139854 19.257113
1.1408386 74.053856 18.440119
15.00684 66.637856 14.474114
15.599842 68.46686 14.676118
3.5578384 6.317856 6.844116
2.8028412 5.138855 5.2341156
24.14784 9.62986 6.155113
24.37484 9.710861 4.3231125
26.933842 75.69685 74.91911
24.993841 77.04686 75.084114
9.31984 73.89586 75.54912
7.9698405 74.79686 75.28211
18.31784 52.931854 43.225105
20.60584 54.759857 43.83811
35.31584 55.18985 37.448112
36.09584 55.844864 38.81211
7.9058404 103.083855 34.961113
7.6618404 101.36686 33.737114
22.89384 96.166855 28.657114
24.19684 97.278854 29.705118
27.125841 17.900864 19.679117
28.340841 16.151863 20.170115
6.03384 15.908859 16.177118
5.8738403 16.996857 14.888116
31.40784 45.57286 7.0921173
33.19984 45.539856 8.514114
9.467843 38.855858 5.7411118
8.49984 38.40586 4.3421173
9.13684 5.136856 38.13111
9.21084 2.86586 36.839104
26.229841 105.30186 35.977104
26.547842 103.75986 36.767113
5.5658417 32.28286 88.94711
4.745842 31.366858 90.624115
6.8078423 37.71486 97.06312
7.559841 38.39686 95.78612
29.17584 25.406858 28.584116
28.509842 26.25186 26.646112
11.03084 27.072859 26.285112
11.199841 26.397856 24.574114
32.43684 73.831856 108.39211
31.84584 75.37886 107.38011
15.789841 79.985855 108.265114
16.92384 80.60186 106.986115
21.98784 9.978859 100.07712
22.11384 8.458862 98.17211
37.47184 4.6268616 93.91212
36.92684 4.6428604 92.23012
31.24584 77.265854 101.082115
29.94384 76.73386 102.88512
13.77384 80.57786 101.32511
12.315841 80.43486 102.040115
26.74484 105.42786 30.144114
27.399841 104.24286 28.160105
3.4268417 98.250854 27.708109
4.90884 97.61586 28.024118
18.53284 78.331856 32.696114
17.765842 76.084854 33.054115
3.134842 73.61385 32.060112
1.6618385 72.459854 31.60612
35.80484 95.30786 103.112114
35.266838 95.958855 100.50311
20.82084 99.46986 108.89511
20.58484 101.37686 109.36812
7.0318403 89.25386 44.505104
8.07884 88.08686 46.427116
23.81884 88.06386 43.71911
23.92184 86.64186 44.584114
25.021841 71.206856 53.828114
24.976841 69.499855 52.002113
2.6788406 66.18285 54.249115
3.042839 67.09186 52.790115
11.223841 70.09186 105.345116
11.66184 68.42586 104.13512
26.917841 67.27186 96.04511
28.264841 68.00486 95.35612
37.77684 76.792854 13.019113
0.2788391 75.32886 13.978112
14.171841 69.81286 10.820114
15.514839 69.664856 12.207115
32.63184 44.39586 31.839106
31.076841 43.84285 30.67512
18.468842 49.082855 29.960108
17.625841 50.03685 28.715113
9.95184 50.343857 3.3021164
8.772842 49.10486 1.8451157
31.90484 53.99385 7.1421127
32.36284 54.948853 8.8611145
31.82184 88.81386 77.081116
29.794842 89.33986 75.96612
13.400841 91.639854 79.60712
12.58584 93.22586 79.17512
37.11784 24.975859 56.740116
38.27084 26.227858 55.459114
14.09684 21.463858 54.946114
15.594841 20.678864 55.361115
9.299844 46.234863 2.0161133
8.683842 44.407852 3.7041168
30.91884 49.815857 2.322113
29.958841 48.62686 1.9701157
35.85784 82.57486 106.66911
36.33184 84.52286 105.64612
11.790841 76.582855 102.50712
12.844842 76.695854 100.84312
25.30384 75.79886 42.859108
24.95184 73.554855 42.539116
2.330841 74.30286 38.470116
1.4168396 73.69685 37.220116
20.252842 2.0098572 105.248116
19.198841 1.1318588 106.96912
3.2958412 4.416855 104.34112
3.594841 4.4798584 106.361115
31.861841 83.208855 86.569115
31.92884 81.64886 85.16911
8.855843 78.904854 80.44711
10.209844 79.00285 81.49211
10.678842 66.81686 2.2141113
10.003842 68.00686 0.5911102
33.14684 71.986855 110.96111
31.718842 71.360855 110.42311
26.14784 70.23086 62.086113
26.377842 71.92686 60.403114
2.8228416 69.973854 56.790115
3.337841 70.14186 58.332115
3.7908401 83.209854 41.263115
2.4938393 82.21586 39.836113
25.09684 84.89186 39.505104
24.91184 83.32686 40.244118
0.28084183 17.801857 74.737114
0.02684021 15.733864 75.67412
15.344841 16.229858 69.23012
17.20884 16.971863 69.17312
35.90484 10.44886 89.93712
33.83184 9.513855 88.48112
18.809841 5.99086 94.709114
18.58484 6.183861 93.05012
23.42484 57.043858 71.512115
22.76284 58.65386 72.70112
5.1428404 58.91086 74.69012
4.28684 58.26386 76.001114
24.22484 9.167862 110.35412
24.094841 10.600861 108.96912
0.40784073 4.7018585 104.306114
0.9638405 4.2728577 102.750114
26.585842 57.814857 93.99612
26.59584 57.848858 95.90411
11.006841 61.76986 100.278114
10.23884 60.22686 99.958115
36.21884 4.8768616 83.04311
36.15684 3.8268585 80.98911
14.824841 1.3848572 82.44911
16.371841 1.22686 81.834114
8.83084 82.07586 68.77212
10.24184 81.87986 66.46712
24.66184 77.91086 63.324116
24.88684 77.276855 64.695114
15.030841 101.79486 75.58811
16.20084 101.27086 73.26912
30.476841 100.123856 72.235115
31.57084 98.99286 71.46011
24.93584 105.36886 27.071115
25.20984 103.263855 26.781115
1.7468414 99.84986 22.780115
2.3718414 99.581856 24.261118
9.00684 25.370855 34.81611
8.1948395 22.809858 34.130104
31.844841 22.271856 34.14811
31.01884 20.923857 33.84011
36.17884 8.17186 71.56612
37.10584 8.280861 73.89712
14.04184 6.721855 69.164116
13.747841 8.08786 67.943115
18.32484 54.37886 36.166115
19.09684 56.287857 36.91311
34.72484 55.638863 29.74911
34.83284 57.346863 30.352106
30.95684 3.6828613 58.741116
32.34084 3.1438599 60.616116
8.981842 104.74486 55.615116
8.38084 103.54786 54.666115
23.44984 24.285856 95.49612
24.16184 23.040861 94.512115
1.2068405 20.710861 91.37112
1.6388397 21.772856 90.11311
4.7678413 68.124855 50.46111
4.1548386 70.304855 49.569115
19.63084 68.20486 45.735115
20.127842 66.791855 46.056114
28.163841 36.24186 5.440117
28.301842 37.47386 7.1721115
12.26284 41.62686 5.1601105
11.35984 42.664856 4.162117
33.24184 89.236855 101.026115
33.76284 90.164856 102.56111
34.11484 92.401855 106.859116
34.56184 90.805855 107.39411
8.080841 44.51085 95.71612
6.6648407 43.901855 93.83811
29.767841 48.472855 95.80911
29.25984 48.707855 97.50411
33.08184 80.85786 90.60311
35.10084 80.264854 89.68411
11.928842 80.56486 89.55212
12.447843 79.23286 90.776115
38.35184 102.96686 99.777115
36.88884 102.778854 97.806114
21.33484 104.16186 99.042114
19.88484 105.54386 98.499115
5.8008385 100.05186 29.090113
5.7328415 101.109856 30.773111
28.314842 106.85686 33.86811
27.583841 0.7698593 35.130104
38.10684 74.84086 24.671114
36.61484 73.749855 25.78612
23.71084 81.18886 26.761118
22.132841 80.53085 26.434114
34.22584 39.66986 36.932106
32.96684 40.53186 35.912117
17.17184 36.54586 39.341118
17.920841 35.53586 40.68911
28.71384 40.93186 3.3491135
29.420841 41.989853 1.8171158
5.8688393 40.412857 2.5971146
6.761841 39.330864 1.7961121
9.310842 76.49086 89.39311
8.46484 74.583855 88.68812
35.29384 77.956856 92.02911
34.27584 77.03886 93.41012
33.26184 65.639854 111.872116
33.87784 67.77186 111.914116
9.439843 64.278854 111.94112
10.311841 63.307858 110.38111
6.106842 67.86986 83.470116
5.386841 66.083855 84.667114
27.81084 72.01685 79.47911
27.690842 73.779854 80.36411
20.495842 102.97686 111.706116
19.134842 102.50886 0.44411469
3.313839 0.99985504 0.05911255
2.31184 107.056854 1.1681137
14.499841 95.40986 90.62911
15.90884 94.653854 92.49512
33.47984 92.60286 90.165115
33.59184 92.11786 91.763115
23.33284 32.735863 80.29511
24.236841 33.69586 81.90911
38.95184 30.659857 74.21111
1.08284 31.067862 75.24312
4.2608414 61.00386 58.702114
4.5298386 59.73986 60.916115
21.065842 60.99386 58.363113
22.760841 60.66586 59.292114
31.61284 6.3218613 60.511116
30.74484 6.3598557 58.698112
14.42484 7.0458603 63.920113
12.96984 6.1778564 63.647114
9.26284 47.940857 107.68611
11.209841 48.60385 106.29611
28.32484 45.00786 106.09412
28.756842 43.280853 106.59212
37.891838 96.73186 101.24011
38.46484 98.24386 99.36411
13.019841 92.88086 92.30911
13.22784 91.25286 92.03612
18.83484 29.206861 60.355114
17.968842 27.298857 59.533115
34.21684 23.024862 57.290115
34.27984 24.719862 57.709114
23.46684 94.86386 38.160103
22.51384 95.47586 36.627113
7.3928404 97.60886 34.02311
6.0638404 97.03586 35.261116
11.513841 7.294861 52.428116
10.758843 9.19986 53.104115
34.49384 11.794861 54.113113
33.46984 10.793861 52.948116
38.44784 107.11386 110.25411
36.76084 105.93786 110.64712
21.087841 106.33486 107.498116
19.66884 105.28086 107.20512
7.2818413 61.613857 94.65811
7.36784 62.48386 93.11411
29.503841 65.92586 93.91112
29.34284 64.43886 93.00511
4.53984 8.219856 8.901115
6.2798405 9.675858 8.883118
23.93084 7.608856 14.127114
24.47584 6.28286 15.088113
10.55684 51.12085 0.35511017
10.71484 50.522858 111.053116
27.034842 42.66185 111.49612
28.770842 43.014862 111.21712
16.597841 18.481857 55.984116
14.791841 17.639862 54.597115
29.527842 14.2018585 48.078114
30.02284 12.605858 46.896114
13.9638405 62.75386 12.461114
11.566842 61.39886 13.093118
37.65484 72.56386 13.013116
37.67484 73.28586 14.462113
38.00284 22.385855 66.75211
37.18684 20.983862 65.35212
14.446842 18.570862 59.149113
15.08984 17.261864 58.071114
32.87284 94.06286 72.44012
33.64384 94.46686 70.306114
10.310842 89.887856 73.56011
9.677842 88.54886 74.40611
29.79384 105.49286 49.724113
29.822842 105.21186 47.561104
5.2208405 100.53686 38.701103
6.045841 100.15786 37.183113
5.738838 98.70486 31.862116
5.417839 99.43986 34.33811
26.787842 101.71386 34.87211
25.607841 100.83786 34.186104
31.19384 20.388863 45.645103
30.42584 21.86386 43.324104
12.87284 20.93086 44.050117
11.909841 21.580862 42.861107
8.640841 10.666855 20.943117
9.357841 10.364861 18.960115
25.467842 12.038864 22.530115
25.70684 13.605858 22.444117
5.6898403 0.2318573 16.68812
6.6138406 2.0858612 15.789117
22.271841 104.82986 11.402115
21.68684 104.11686 12.806115
36.29384 94.52186 89.040115
34.61884 93.206856 87.93311
11.908841 86.82686 85.41012
12.20184 85.22686 84.82211
1.5858383 63.244858 44.920113
38.73984 63.38786 43.489113
23.67184 67.17286 50.109108
22.76084 65.73286 49.88311
2.3828392 90.77186 18.441118
4.280842 90.875854 19.083117
18.10384 88.21686 12.370118
17.39584 86.59786 12.908113
38.48084 91.56086 15.237115
36.78284 90.277855 15.341119
22.913841 94.93586 23.172113
23.60384 94.555855 24.500116
25.283842 23.380857 106.525116
23.19684 22.675856 106.21411
6.5478406 26.187857 110.929115
5.6308403 24.761862 111.40811
14.628841 21.134855 63.474113
12.758843 21.93186 62.893116
37.280838 20.099861 68.03812
36.20584 18.871857 68.50211
25.12884 19.993858 6.388115
25.420841 22.146856 6.112114
9.940841 23.420858 6.527115
8.7138405 22.526861 6.070114
22.333841 47.26886 77.96511
24.15484 47.708862 79.50611
1.3948402 48.553864 75.49212
3.174839 48.621857 75.85612
33.98284 29.798857 39.66111
34.25284 31.614859 37.88111
11.49384 31.745855 36.567116
11.400842 33.691864 36.584114
25.98084 17.69886 23.670115
25.32084 16.412857 21.760118
9.54084 23.99986 23.888117
8.23584 23.32086 24.558115
22.458841 64.53686 65.276115
20.48484 64.35286 65.109116
4.85584 63.79086 62.356113
5.6958404 62.24386 61.939114
14.869843 99.319855 105.44711
13.233841 100.84286 104.67011
38.99584 107.19086 100.41112
37.64984 1.1848602 101.11711
30.35684 46.356857 9.953117
30.90184 48.140854 11.302116
14.47984 48.58786 11.458115
12.95284 49.25685 10.814117
10.13984 7.139862 44.836113
8.292843 6.1068573 43.515114
33.75784 12.585861 44.60311
32.29384 13.446861 45.517113
30.05384 73.29886 97.57211
29.343842 71.289856 98.220116
13.89484 75.10186 105.136116
14.30984 73.51786 105.362114
19.830841 55.46586 46.51911
20.59684 57.92386 45.936104
36.74984 57.82686 40.46911
36.48484 58.717857 38.93911
1.8598404 8.50386 103.179115
3.3598404 9.676857 102.346115
17.565842 6.71286 100.66212
17.48684 5.4278564 99.39211
27.245842 83.79986 55.736115
28.558842 82.21186 55.932114
6.3268394 82.166855 54.194115
6.4138412 82.18486 52.273113
34.266838 40.75786 25.98112
35.97684 40.827858 24.763117
10.62584 36.21186 23.393114
11.001843 37.55986 24.234118
29.69584 87.583855 60.923115
30.52584 88.236855 58.809113
7.1618423 82.109856 58.447113
7.0348396 82.805855 56.644115
12.688844 33.95186 47.946114
12.255841 32.097862 47.173103
35.88184 30.467855 44.794106
34.26084 29.997862 45.04911
11.300843 11.864861 43.25611
11.135842 12.891861 45.138115
34.05884 16.237862 46.602104
32.95484 15.08786 47.67611
31.454842 39.633858 11.722115
31.49184 37.46486 11.994118
14.56284 40.64386 9.972115
14.25784 42.26085 10.833115
2.549839 52.151855 74.73012
1.3288383 53.88086 73.53211
24.719841 51.731857 77.12911
23.27084 52.33586 77.777115
21.913841 59.78186 55.340115
23.28384 60.94286 56.559116
37.74084 57.24286 48.655113
38.69484 57.980858 47.392113
9.663842 3.777855 48.548103
7.955841 3.0948563 49.40911
34.766838 13.583862 49.938118
33.79084 13.039864 51.34611
32.25484 101.10186 76.15912
33.41784 101.21586 78.11411
18.10384 103.13086 82.20011
16.74084 103.99686 82.33711
14.77884 52.78386 20.926119
14.61384 50.899857 19.291117
32.84684 47.873856 17.50812
34.04784 46.362854 17.70212
22.66984 100.60386 13.687112
24.20184 102.277855 12.768113
38.62984 103.83886 8.215111
38.25584 102.28186 8.141113
15.2138405 68.47686 19.320116
15.280842 69.789856 17.135118
1.5038414 77.80785 16.844118
0.3128395 76.250854 16.462114
1.0978394 16.354858 100.36711
0.095840454 14.428864 99.47511
23.486841 22.368856 102.21011
22.43884 22.405859 103.63011
18.59684 16.706863 80.139114
17.697842 15.813858 78.29711
1.8418388 17.64286 83.10712
0.745842 18.016861 81.70011
2.4638405 51.21086 60.355114
2.6488419 49.425858 58.947113
14.06884 46.38385 52.057114
16.056843 46.237854 51.917114
24.896841 2.00486 25.876116
23.021841 2.235855 24.644114
6.2338405 0.964859 23.98112
5.9468403 2.6948547 24.626116
24.896841 30.272856 105.41012
22.84984 30.412855 104.53311
8.258841 33.208862 112.23212
8.95184 34.634857 111.233116
12.713841 46.71585 14.956117
12.645841 47.637863 16.701113
35.72284 53.38585 16.219118
35.58484 52.40686 17.89712
31.131842 94.14386 60.479115
31.03284 96.09486 60.498116
14.07384 95.53186 66.820114
13.416841 96.111855 68.27112
22.06084 11.01886 107.17512
21.57684 9.005859 107.64411
5.6448402 6.136856 1.1621094
5.12484 6.416855 2.737114
27.65784 19.395859 6.715111
28.238842 18.47786 4.7711105
3.6568413 13.69986 1.563118
3.6258392 15.401863 1.7691116
29.802841 9.830856 46.981117
29.624842 8.418861 48.725105
13.00784 7.375862 48.84011
12.56684 6.5348587 47.583107
31.08884 38.14086 7.6011124
32.41784 38.986862 9.302116
7.247841 32.75386 2.7661133
7.3058395 31.441862 1.6771164
7.9668403 92.22886 49.02111
8.17784 90.67086 47.472115
24.27084 93.95486 44.013115
25.066841 92.48386 42.990105
8.31984 1.9408569 30.284113
9.100841 1.1518555 31.980112
25.13184 4.7138596 29.020105
25.992842 5.085861 27.39712
33.14284 8.219856 59.650116
34.26884 9.1898575 57.545113
11.117841 9.648857 57.710114
11.535844 11.380859 57.532116
14.968841 85.68386 91.03512
15.214841 87.08986 92.71311
31.788841 83.806854 89.78612
32.04484 85.15886 88.77312
31.117842 102.278854 63.081116
29.78284 103.02186 61.485115
13.919841 106.12086 66.09212
13.21584 105.99586 67.763115
34.80584 32.633858 51.389114
34.43784 34.78386 51.793114
18.93884 33.986862 58.373116
18.76984 35.484863 59.032116
35.05284 102.277855 82.03011
36.00284 103.64786 82.94112
13.779842 102.71986 85.22611
13.939842 101.04586 85.58012
16.13184 53.466858 37.321114
14.8318405 54.88086 35.27111
38.50084 58.42886 36.541115
37.83984 59.988857 37.14811
30.277842 8.816856 24.253115
31.20384 9.222862 26.658113
29.26884 5.9398575 32.108116
28.26584 5.928856 30.84411
23.920841 68.289856 73.63212
22.13784 66.987854 74.03312
6.3048406 64.31286 74.87012
5.3648405 62.751858 75.32311
26.363842 64.81686 90.42011
26.38384 65.12086 92.64411
11.32784 70.73886 96.540115
9.98884 70.139854 97.456116
20.347841 106.247856 2.3851166
22.28084 106.06186 3.421112
38.33084 100.71786 1.7141113
0.13183975 101.27286 3.046112
34.80084 62.591858 23.624117
34.42784 60.35286 24.257113
17.24484 59.61686 24.102114
15.853841 60.89386 24.673113
11.135842 61.64886 5.872116
12.0748415 61.89186 8.017113
35.63184 67.318855 11.3231125
35.31884 68.904854 11.326111
12.265841 10.454857 61.035114
12.999841 8.217857 60.436115
28.818842 3.9678574 53.533115
30.16584 4.428856 54.911114
4.51784 2.9398575 4.329117
6.0708404 4.4118576 4.350113
22.486841 6.2868576 111.39211
23.54184 4.874855 111.03211
15.78584 62.904858 20.651117
17.49184 64.24286 20.477114
33.22684 65.442856 12.817117
34.87884 64.61786 12.320115
0.80783844 13.345863 85.78812
1.9978409 12.959862 87.303116
15.863842 9.137856 82.596115
15.68684 9.153862 80.47611
36.15384 45.86586 47.690113
34.80484 45.09085 49.627113
18.941841 43.806854 54.439114
18.36384 45.78586 54.402115
0.9738388 81.35686 15.258119
1.7638397 80.499855 16.910112
18.640842 78.374855 17.292116
19.79784 78.34086 18.357119
3.9168396 76.26886 39.472115
5.80484 76.914856 41.00811
19.253841 73.220856 39.504112
18.739841 71.59386 38.61811
13.691841 100.79586 72.07311
12.150842 100.970856 71.124115
35.52684 105.64286 73.40611
35.03884 106.49686 74.72712
36.28684 89.19086 4.777115
35.90984 91.11586 5.4301147
19.021841 92.33086 2.3931122
18.23784 91.10686 3.159111
7.1968403 19.701859 110.62911
8.04484 21.103857 109.61511
24.46884 13.010857 110.943115
25.589842 13.04686 112.250114
30.35984 62.88486 109.790115
32.30084 62.99986 110.84012
7.11784 63.05586 103.555115
7.502842 61.571857 104.292114
11.87584 50.98285 5.473114
12.914841 49.308853 6.4811172
28.732841 51.03485 111.261116
29.426842 51.207855 112.803116
9.855844 72.55886 92.345116
8.6878395 74.16186 91.52911
32.25284 74.49286 93.84112
31.24484 73.71886 94.890114
36.82684 53.66986 41.824104
35.80184 55.61486 42.272118
20.201841 53.07286 48.494118
19.53684 52.665863 50.162117
18.27284 16.847862 71.820114
18.698841 19.179863 71.49312
34.09384 21.369856 65.541115
34.76784 21.109861 63.846115
13.51284 105.78286 57.985115
13.17784 103.431854 56.774113
27.246841 104.73386 49.177116
26.592842 103.55186 47.943115
8.87584 37.83886 103.179115
9.534841 35.58986 102.40611
22.49284 33.01886 96.845116
21.08584 32.86486 95.63011
4.348839 24.033857 102.485115
3.9148407 25.033857 104.09112
28.809841 31.747862 109.26911
28.10284 32.21186 108.012115
7.507839 20.208862 27.196115
7.8008423 17.988861 27.985117
30.13084 16.356857 30.710108
29.24584 17.607857 32.052116
29.961842 89.58786 69.77911
28.204842 90.56586 68.251114
14.060841 95.92586 77.15511
13.756841 97.49086 76.00211
11.06484 74.902855 90.386116
12.42684 76.458855 90.02011
26.90784 68.555855 86.77312
27.637842 67.43486 87.874115
11.617841 80.67086 83.21812
12.70984 82.13286 81.52211
29.67984 82.40786 83.34911
30.982841 82.79686 82.31212
26.187841 65.61986 83.91212
26.694841 65.84186 81.747116
5.3368416 64.00886 79.737114
7.0128403 64.250854 80.74211
22.14084 16.945862 104.569115
22.19784 18.924858 103.11511
37.87484 11.251862 96.570114
0.31584167 11.840858 96.41112
7.3548403 55.51786 85.013115
7.6018405 56.31086 82.790115
23.70184 61.33886 79.46812
24.62084 61.355858 78.13011
20.77184 55.77086 60.671116
20.51184 55.70486 58.501114
3.0228386 57.355858 60.128113
1.9468384 58.06886 61.487114
14.12784 49.29985 14.541116
16.11084 48.457855 14.775117
31.795841 49.305862 15.160111
31.975842 50.24585 16.602114
36.74284 37.49286 60.941113
36.28784 37.277863 58.933113
19.580841 36.901863 61.514114
19.22184 38.304863 60.605114
8.37884 29.983862 15.885118
9.56484 31.36386 14.598115
27.01584 26.442862 18.808115
27.47084 28.037855 19.365114
23.53684 65.47686 69.72912
22.85084 65.36686 71.900116
6.5518403 66.650856 70.069115
5.7518406 66.94786 68.57111
30.81784 18.620857 40.679115
29.47484 17.493858 39.499107
14.004841 24.464857 39.958107
13.94184 25.45886 38.60511
15.25684 24.531858 66.692116
13.20784 24.65286 66.85512
37.27184 23.37486 70.68311
37.08984 22.233862 71.83611
28.403841 10.329857 25.701113
27.366842 8.834862 24.691118
10.55084 12.08886 29.384119
9.55084 11.855858 30.513117
26.623842 80.23986 57.755116
25.628841 78.403854 57.732113
10.258841 81.069855 58.453114
9.59684 80.48986 59.906113
34.38584 39.954857 41.20211
34.43784 37.774864 40.854103
17.25184 38.230858 44.153114
16.39084 39.15986 43.048103
23.58584 91.276855 37.918114
23.42184 91.71886 40.236107
6.78384 91.68486 42.785103
5.1768403 92.75786 42.80311
25.22084 53.170853 73.984116
25.198841 53.53186 71.29712
0.27584076 52.07286 63.702114
0.8958397 50.722855 64.56312
28.899841 75.93986 76.70312
29.867842 75.74086 78.80012
5.0038414 67.10886 73.28412
6.7118416 67.14486 73.67212
7.8008423 61.10786 85.29311
6.309841 62.90986 85.443115
29.75484 68.97786 85.70412
30.38384 69.60386 84.30711
3.323841 64.19986 47.572105
4.139839 65.90586 46.305107
18.37384 68.57986 37.12011
19.073841 67.220856 38.101112
29.88484 25.773855 20.665117
29.74184 26.410856 18.346117
7.2208405 24.768858 22.16112
7.2208405 26.065855 20.937113
24.809841 41.96286 89.79711
23.74284 42.36386 88.083115
8.74184 47.05786 87.444115
7.4898405 45.82086 87.456116
23.91184 89.60386 33.19111
24.91884 90.359856 31.410105
2.141842 90.195854 25.626116
3.3638382 88.875854 25.288118
7.8348403 41.75186 98.46211
8.5888405 39.938858 98.05112
24.85784 41.90886 94.57211
26.30384 42.497864 94.233116
32.92684 46.305862 39.42611
33.99584 44.808853 41.518105
18.885841 47.35286 51.480114
17.823841 48.208862 52.760113
26.453842 85.00786 51.675114
28.169842 86.24186 52.25311
4.8108406 83.08786 50.129112
4.750839 81.43686 50.205116
18.989841 12.673859 81.45211
20.024841 14.0158615 79.66212
19.19284 10.300858 84.88512
18.284842 10.398857 83.40711
14.73384 89.276855 91.07712
15.02884 87.72486 89.31412
32.32584 91.625854 86.390114
33.23784 92.83886 85.512115
27.91884 65.194855 101.44711
27.11584 64.067856 99.09412
11.55784 65.66986 105.18211
10.34784 66.21586 103.84212
37.90084 71.24486 25.656115
39.01784 70.64486 27.584116
15.920841 63.87486 25.416117
16.223843 62.60186 26.584116
22.302841 8.349861 3.3711166
21.93884 6.6338577 2.6631165
5.9038405 9.100861 4.937111
6.4668403 10.244858 6.3431168
9.336843 82.16885 75.14512
8.87384 84.667854 74.85612
30.91584 86.373856 80.78211
31.201841 84.487854 80.25811
33.83984 46.55185 25.674112
34.38684 46.46086 23.60512
16.10284 47.177856 23.465113
14.982841 46.25685 22.417116
18.16284 7.8668594 84.92612
19.64784 7.537857 86.568115
34.41484 2.0828552 85.75511
34.66184 1.8958588 87.55112
17.81184 3.6688614 93.41811
17.71684 2.5468597 91.26711
34.59084 103.583855 90.14612
35.25884 104.02486 91.47711
17.926842 62.34586 41.235115
17.54184 61.01986 43.070107
2.891842 59.63986 46.319115
3.497841 58.99286 47.73211
9.84684 7.791855 41.95211
10.46584 6.6498566 40.076103
27.825842 1.3598557 38.27111
28.97084 1.9798584 37.25611
1.3438416 88.46586 31.617105
0.17184067 87.36786 30.102106
23.67984 92.069855 34.964104
22.49584 92.84286 36.035103
36.21884 27.400862 54.189114
35.74484 29.12486 55.446114
18.96184 31.08286 55.477116
19.42284 31.09686 57.350113
27.153841 33.10486 112.319115
25.703842 34.360863 111.29311
9.08984 35.400864 1.3871155
8.15184 36.180862 2.5831146
12.26884 95.46386 64.63012
13.71484 94.291855 64.21712
28.36984 97.513855 56.032116
29.492842 96.65786 57.163113
6.85384 70.78086 90.02011
5.7898407 68.93986 89.14712
32.00084 70.748856 97.042114
31.42584 69.652855 98.35211
7.8458405 69.78486 85.053116
9.95284 69.762856 84.12112
23.50684 62.96986 83.221115
24.09584 62.842857 81.596115
26.93184 36.99386 104.99011
26.955841 35.83786 106.80212
10.593841 36.787857 108.68712
11.05784 35.577858 109.95512
28.61284 71.708855 89.986115
26.95984 71.54385 91.763115
11.824841 73.45086 95.90611
11.17984 72.917854 94.61711
19.273842 8.995857 101.275116
19.093842 8.1408615 103.19012
4.3108406 13.783859 109.40511
4.516842 12.043861 109.208115
5.9478416 18.664864 17.200113
5.344841 19.439857 18.719118
28.090841 23.927862 19.561113
26.49484 23.706861 19.379114
12.463841 18.035858 53.209114
11.682843 19.61686 52.038116
35.68784 20.804861 56.755116
34.75984 19.83886 58.176113
21.78484 51.295853 72.42512
20.51584 52.038864 71.042114
7.4138403 56.65686 70.54712
5.99384 57.04386 71.40711
37.47784 100.50386 104.722115
38.31184 102.78286 104.62711
20.78284 106.58086 103.42211
20.51984 105.27286 102.31412
35.00584 14.047859 55.916115
35.26484 12.404861 57.107113
13.52784 11.321861 53.310116
13.467842 10.7278595 54.884113
18.11784 70.66286 32.059105
18.33884 72.707855 31.026117
17.23184 65.99186 32.237114
18.57884 66.943855 32.184105
1.3968391 36.32186 77.36911
1.438839 34.84986 79.096115
23.31484 35.00386 85.22811
23.52684 36.884857 85.61711
22.66484 20.758856 94.528114
23.50184 21.354856 92.43912
39.13984 14.876862 88.526115
1.3148384 15.020859 89.317116
11.260842 16.07386 34.729103
11.915841 15.433861 36.675117
33.39684 19.784859 39.642113
32.92084 20.386864 41.124107
31.84984 26.48786 37.201103
32.34584 24.393858 36.278114
9.997842 22.869856 38.147118
9.671842 22.54286 40.205116
4.9258385 12.079857 9.229111
3.4198418 10.279861 10.104111
25.10284 8.591858 11.386116
23.65484 8.78286 10.122116
37.36584 55.857857 32.736107
37.18984 54.64186 30.924112
15.289841 55.02986 28.603113
16.92984 54.155853 28.202112
15.106842 32.722862 55.887115
13.65284 30.90486 55.078114
37.06584 30.942862 53.787113
37.30584 31.97286 52.235115
12.723841 99.570854 58.614113
13.093841 100.91886 57.176113
28.649841 98.94086 53.635113
28.68884 97.415855 53.035114
13.796841 39.10086 29.817118
14.40484 38.84086 31.602106
31.013842 33.36786 29.569117
32.58984 33.50486 30.533106
16.594841 24.01686 70.17111
14.691841 23.409857 69.011116
2.483841 25.826857 79.13512
1.4608383 27.047857 79.194115
25.749842 14.710861 7.0101166
25.42884 12.436859 7.4101105
2.8718414 9.022858 3.3291168
3.4418411 7.6798553 4.2411118
35.93584 24.338858 73.27112
36.24484 22.857855 75.24212
23.12484 23.693861 79.00211
21.82984 22.553862 79.776115
2.8818398 39.917862 76.749115
1.0458412 40.011864 75.49312
24.83184 40.314857 82.56111
25.367842 41.54985 81.540115
6.6428413 34.15586 101.41212
6.5748405 35.57086 103.19911
29.07084 38.483864 105.71311
27.978842 39.70986 104.31512
35.54084 44.039856 24.401117
35.88384 43.92386 22.07812
13.322842 43.060852 20.337114
13.489841 43.004852 18.631113
15.440841 86.19886 106.83811
16.11284 88.153854 106.77412
32.73384 83.582855 106.89912
32.55184 81.97986 106.986115
17.850842 98.32486 96.664116
19.79684 98.514854 97.92412
35.37484 95.775856 92.25812
35.405838 93.900856 91.50411
9.13684 3.3428574 44.063118
10.83984 4.664856 45.647118
28.162842 4.7608566 44.675117
29.50484 4.6378555 43.528114
28.597841 42.33586 95.56212
28.992842 40.32186 96.03812
5.4118385 38.43586 100.87112
6.037842 39.414864 99.26012
