65.175644 90.05693 22.200634
66.51864 88.73193 23.241634
0.8966446 92.34893 17.659634
0.84864044 91.20593 15.837634
48.468643 78.47993 6.5226326
47.703644 79.785934 8.099632
38.524643 75.27693 7.2626343
38.89464 74.16593 9.530632
65.78464 43.572933 33.254635
65.96864 44.246933 35.305634
57.224644 41.85593 39.988636
55.56864 40.83993 40.194633
11.776641 4.061928 27.368633
11.753641 6.0929337 26.122635
19.32064 9.114929 21.451635
21.249641 9.52993 23.008635
49.691643 12.354927 25.960634
49.56264 10.297928 25.815634
40.13164 9.254929 23.112635
38.567642 7.72493 24.012634
35.030643 34.809933 24.112635
36.63764 35.355934 26.055634
28.766642 33.795933 30.380634
27.23764 32.835934 31.911634
21.29264 4.970932 16.503635
21.965641 5.4929276 14.2136345
29.479641 11.628929 14.302635
31.05964 11.840927 12.3316345
40.898643 43.753933 9.738632
42.299644 43.925934 7.7296333
50.157642 49.76493 6.304634
51.920643 49.071934 5.259636
63.599644 96.383934 26.643635
63.74964 98.02193 25.720634
0.105644226 99.86393 22.181635
72.88664 100.90393 23.703634
30.32364 11.73893 8.158634
32.26364 11.137932 6.5906334
38.52664 17.707932 6.797634
37.15864 19.677933 5.860634
36.031643 4.359932 16.958635
34.468643 5.285927 15.580634
26.186642 1.5259323 20.379635
26.22064 2.5239334 22.431635
34.252644 52.36093 1.6786346
36.15264 51.76493 1.4236336
43.827644 57.48793 38.747635
43.60364 59.745934 39.579636
68.63764 26.050941 25.316635
66.90464 25.311928 24.408634
59.49364 24.77993 30.572634
57.842644 25.339928 28.817635
13.550641 95.10993 12.475632
12.41464 93.19093 12.554634
3.436641 91.21593 17.651634
2.882641 92.14393 19.391632
8.633641 81.94593 20.927635
7.532641 80.79793 19.400635
-2.0193589 77.911934 19.052635
-2.6913588 77.47693 21.443634
34.23764 92.98693 23.437634
35.142643 93.87193 21.798634
44.528645 97.01193 23.111635
45.67964 94.883934 23.430634
47.46464 8.776932 13.806633
47.835644 9.90593 11.810635
54.023643 18.327927 10.955635
55.414642 17.04293 10.247635
26.978642 101.42293 6.3086357
27.95264 100.03593 7.912636
36.919643 102.05893 9.578632
37.91564 100.62993 9.903633
60.530643 5.524933 6.7016335
62.566643 4.77993 5.1356354
69.39664 10.048927 0.41963577
69.15564 12.51693 0.6856346
53.761642 27.959938 19.445635
54.226643 26.311928 20.717634
52.37564 32.50094 25.789635
52.63164 33.01693 23.400635
45.712643 102.51693 26.027634
47.02764 102.61493 24.506634
55.338642 0.8179321 24.075634
56.04764 1.6439285 25.836634
66.05164 79.69593 5.4116364
67.13264 78.924934 3.5516357
1.4086456 84.32493 9.159634
3.002642 83.47393 8.220634
70.301636 91.39393 4.983635
70.96164 90.63093 7.0366364
60.940643 87.10193 6.8906326
61.389645 84.75093 6.820633
17.194641 72.06493 29.201633
16.293642 69.91993 29.938635
8.076641 69.800934 35.328636
6.789641 70.21393 33.835636
36.04064 20.449928 40.756634
34.713642 18.36393 40.527634
25.46264 16.048927 3.391636
24.37664 14.9459305 1.9416351
59.900642 92.60193 9.455635
59.25764 94.424934 10.166634
68.00764 96.99393 5.0126343
68.72564 96.24093 6.992634
37.97264 46.397934 10.0626335
39.217644 44.92393 11.914635
32.94364 37.49893 14.765633
31.01864 37.477932 13.698635
59.488644 43.892933 12.814632
61.10364 43.33393 13.368633
67.18164 44.95993 6.742634
69.16864 46.70193 6.6026344
11.611641 43.81893 6.0196342
12.640641 45.392933 4.4616356
21.235641 43.947933 0.6346359
21.21364 45.440933 40.328636
63.23564 3.434929 1.1436348
65.12364 1.5769272 1.6306343
73.08564 5.097931 39.159634
72.53264 7.75193 38.532635
43.02064 94.51193 13.931633
41.72264 96.62093 14.743633
33.225643 92.79793 18.196632
34.157642 90.94993 19.540634
23.29064 97.17093 1.1546364
24.839642 96.19293 0.9086342
31.818642 101.53293 2.9936333
32.06164 103.04993 4.5906334
42.67964 4.505928 30.136635
42.175644 4.6649323 32.273636
31.788641 1.8869324 32.358635
30.30964 2.0949326 31.171635
19.826641 64.05593 22.837635
22.13764 63.13993 21.484634
31.71264 65.355934 19.010633
30.77164 64.575935 17.068634
51.60464 44.07693 35.979633
53.731644 42.772934 36.285633
61.460644 48.189934 37.048634
63.051643 48.378933 35.716633
45.82564 15.563927 16.368633
46.903645 16.18193 17.867634
54.04764 20.870934 13.018635
54.79764 22.161934 14.051632
26.01264 26.92994 25.112635
27.246641 28.83294 25.259634
36.155643 29.915932 21.971634
37.30564 31.004936 20.447634
41.935642 7.382927 31.502634
41.82564 8.992928 30.042635
49.75664 14.240929 30.240635
52.05564 12.811928 29.647635
31.90364 74.50593 27.412634
30.62364 73.43293 25.859634
39.038643 74.03893 19.492634
40.281643 75.62593 18.478634
11.982641 71.841934 38.711636
14.067641 70.79293 38.821636
14.42864 64.65093 3.5186348
13.700641 65.715935 5.5676346
19.878641 9.826927 14.111633
20.25564 11.62693 15.317635
29.502642 14.428932 14.469635
30.075642 16.284927 14.125633
64.10064 85.48293 17.942635
63.849644 83.38593 17.289635
57.70064 81.43793 25.679634
57.849644 79.15793 25.592634
36.836643 30.529932 14.842632
36.718643 32.71493 13.9636345
43.363644 38.683933 10.624634
45.46564 37.863934 11.712635
62.746643 44.97393 27.853634
64.78864 45.67993 27.334635
71.67864 52.162933 26.544634
69.87964 53.532932 26.721634
63.495644 42.483932 27.153635
62.11164 42.474934 25.449635
52.661644 38.85393 27.913633
51.920643 38.890934 29.878633
54.10464 26.499931 13.685635
54.289642 27.994942 12.269634
61.209644 31.938927 8.559635
59.829643 33.515938 9.234634
18.55264 59.08593 2.2536354
19.57064 57.434933 1.0486336
28.79664 59.97193 0.75463486
30.24864 61.711933 1.3276329
5.6146407 32.293934 16.725632
6.965641 31.360931 14.951633
14.60564 36.36893 15.517635
15.337641 35.68793 13.276634
16.84164 5.9159317 0.73163605
16.602642 5.646927 39.850636
24.61964 9.477928 36.687634
25.700642 9.8329315 38.891636
68.63364 80.51893 25.691635
70.02264 79.45193 24.332634
7.0376453 82.56593 24.436634
7.190645 83.83893 22.396635
24.79264 91.06493 40.645634
23.568642 89.30193 39.134636
14.913641 85.76193 36.277634
15.169641 84.00093 34.369637
4.699648 73.53793 35.859634
4.043642 75.12793 37.258636
68.260635 71.20893 40.437634
67.39264 69.15293 0.28663635
58.454643 52.26393 27.122635
60.446644 50.98593 27.654634
65.02664 59.75593 22.655634
67.149635 58.98193 22.120634
-0.6573589 35.197933 38.034634
0.6536411 33.478935 38.038635
6.4776406 29.212929 2.7936363
4.5356407 29.422935 3.4706345
67.83564 97.75693 1.3196335
68.24964 99.38093 0.034633636
4.3866444 101.77293 39.752636
2.6676428 103.20293 39.196636
29.64664 91.619934 5.4706345
29.225641 93.75693 5.316635
26.270641 97.55693 7.5746346
24.96664 99.41993 7.3716354
31.329641 79.20693 39.131634
30.53964 80.13693 40.896633
21.048641 77.59493 38.790634
20.971642 75.49193 38.282635
33.91064 23.683937 3.7256355
35.480644 22.228928 5.1046333
27.47664 17.359932 7.209633
26.25164 15.359932 6.1306343
31.86564 60.114933 4.9876328
32.109642 59.93193 2.8826332
39.75664 68.45993 3.7576332
41.732643 67.37893 3.2486343
21.194641 93.64593 29.178635
23.00564 92.76893 28.501635
28.138641 101.54193 24.655634
30.391642 101.14293 25.357634
23.27864 70.28893 1.594635
24.364641 70.08493 3.910633
15.833641 67.89893 9.647633
13.498641 69.20393 8.941635
68.14064 49.88293 8.430634
68.61364 51.55493 10.179634
0.48664093 56.815933 3.1076355
0.5916443 56.99393 1.2516327
72.03164 56.732933 37.380634
0.52664185 55.780933 37.626637
64.605644 51.44493 39.889633
64.96764 49.525932 40.863636
25.76964 57.275932 25.704634
24.22764 55.872932 24.838634
17.345642 48.66093 27.598635
16.880642 49.77193 29.091635
5.424641 68.97693 30.248634
7.001641 67.74793 31.296635
14.77064 72.00593 24.654634
15.320641 70.57293 23.357634
48.824642 35.406933 17.361635
47.08264 36.286934 16.756634
40.226643 31.643932 20.807634
38.863644 32.397934 22.288635
58.751644 50.84793 24.832634
59.670643 51.573933 22.393635
68.23664 54.53593 21.568634
67.05564 56.17593 20.656633
7.3716407 97.14093 3.9476357
7.9826407 95.10893 3.4096336
3.1846411 89.341934 7.1826363
1.828641 89.13293 9.030632
47.524643 34.733936 12.704632
45.639645 34.989933 14.277634
41.739643 25.81594 14.834633
39.620644 26.531929 14.659634
63.84664 6.109932 14.006634
63.962643 5.21093 15.816635
54.713642 0.6889267 15.810635
55.050644 104.023926 17.562634
25.11664 75.95093 15.040634
23.77564 75.67093 13.511635
15.786641 69.32993 11.938633
14.544641 69.94493 13.336632
2.759641 72.24293 27.981634
4.761641 70.76093 27.552633
11.331641 77.08993 25.808634
14.068641 76.92793 25.247635
7.1876407 57.205933 7.934635
8.147641 55.40493 6.5886345
17.883642 56.553932 7.667633
18.48764 55.76493 5.9656334
31.370642 82.58393 3.3216362
31.322641 81.71393 4.941635
22.64764 77.47193 7.0506363
21.520641 79.65793 8.061634
36.59764 4.8889313 20.771635
37.273643 5.9669266 22.296635
28.86564 1.6799316 25.710634
28.402641 104.302925 25.003633
53.15164 55.09793 23.501635
52.251644 55.35593 21.747635
44.51364 49.522934 24.699635
43.734642 47.592934 23.452635
21.90064 101.86293 5.2506332
21.791641 102.31193 7.1456337
12.784641 95.91593 10.156635
12.140641 97.940926 10.586632
16.405642 60.970932 4.901634
17.332642 61.34793 2.8486328
23.93164 65.70493 40.761635
24.735641 67.28393 39.515636
63.627644 33.22393 8.813633
64.59264 33.032932 7.047634
72.65364 35.13793 4.318634
73.106636 36.13293 2.410633
22.010641 21.718933 3.0076332
20.281641 21.964928 1.5166359
12.493641 17.910927 3.6946335
11.838641 17.469933 1.9636345
55.948643 52.524933 21.677635
55.504642 54.66593 22.151634
64.54864 58.246933 19.899633
64.50464 60.33493 19.459635
40.55564 66.09893 40.277634
40.253643 63.98193 40.823635
29.78264 62.49293 40.152634
28.502642 60.496933 39.454636
55.280643 16.082932 6.4286346
56.824642 16.05893 8.204632
64.22764 18.59893 1.7816353
63.344643 20.58593 1.9926338
54.477642 2.5919266 21.855635
53.177643 2.9139328 20.099634
42.674644 1.1229324 21.943634
42.344643 1.9139328 23.593634
0.878641 48.28393 23.300634
1.057641 50.447933 22.464634
10.2026415 50.84893 16.801634
10.941641 52.93293 17.830635
7.6746407 59.609932 21.650635
8.340641 61.337933 22.121634
15.718641 63.530933 17.482634
15.365641 62.308933 15.487635
4.213648 52.252934 39.614635
3.224642 51.810932 0.16063309
69.440636 49.461933 6.049633
67.31964 49.63293 4.839634
34.30464 32.55494 16.894634
34.239643 30.031929 16.180634
30.113642 21.672928 17.057634
28.31364 23.063927 17.183634
22.04564 103.71393 2.1336327
23.245642 102.25393 0.83563614
31.621641 102.57693 38.658634
33.602642 103.55493 39.373634
10.441641 57.71093 28.530634
11.600641 56.281933 27.529634
17.92064 59.32693 20.192635
18.17164 61.476933 20.694633
52.56864 35.698933 23.138634
51.63764 37.622932 23.782635
59.542645 40.211933 18.999634
60.787643 38.967934 17.056635
35.140644 51.538933 8.9446335
36.189644 53.407932 9.605633
44.101643 54.93793 2.955635
44.248642 56.650932 1.3606339
50.884644 2.9109268 14.577634
48.655643 2.8959274 14.188634
42.218643 103.40493 20.628633
40.267643 102.42593 20.401634
38.838642 29.189934 19.250635
40.037643 27.987938 20.583633
30.711641 22.22393 21.432634
30.10264 21.659927 23.658634
28.16564 53.336933 30.795633
26.523642 53.365932 33.186634
19.90364 47.29993 31.278635
18.58064 47.351933 29.902634
57.842644 103.08393 28.431635
58.085644 0.44493103 27.618633
67.38064 5.0849304 25.939634
68.22464 3.408928 24.591635
25.43864 40.90393 4.219635
26.34864 38.489933 4.662636
17.892641 33.073933 2.606636
18.624641 31.206932 3.2636337
6.645647 87.71093 24.008635
5.1506443 88.87393 25.395634
72.72664 81.13093 30.504635
70.66064 81.785934 29.693634
52.27764 74.77193 12.253635
53.216644 72.83793 13.089634
46.717644 65.96093 14.220634
45.317642 66.68793 13.1876335
18.475641 90.59093 14.921635
18.033642 89.71893 13.260635
24.794641 94.92993 7.473633
26.76564 94.72093 6.136635
10.144641 56.927933 31.171635
8.283641 57.817932 30.208633
2.359641 52.27293 32.759636
1.487641 49.97493 32.172634
21.711641 92.75293 24.823635
21.76264 91.35293 22.728634
29.541641 97.70793 23.201635
28.46664 99.86093 22.634634
10.370641 94.23493 4.4406357
10.616641 96.16593 4.1076355
20.465641 97.47393 2.1516342
22.048641 97.13693 3.8366356
44.99964 53.260933 40.040634
44.303642 53.781933 0.21763611
36.518642 49.108932 3.2436333
36.95164 47.08393 3.6386337
13.970641 61.663933 41.448635
13.814641 63.40893 40.375633
20.80964 70.008934 35.782635
22.15464 68.67393 34.311634
16.144642 89.28193 7.9566345
16.24064 91.90093 8.458633
26.04264 89.54893 5.356636
26.48364 87.47893 5.5696335
72.898636 7.9979324 4.330635
71.06164 7.493927 3.717636
0.38064575 5.7379303 3.4476357
2.1156387 6.1229324 2.134636
6.8116474 52.823933 7.372635
5.569643 54.56893 7.3436356
71.52864 47.59693 9.889633
72.80464 48.01493 12.015633
72.33164 84.52393 37.760635
70.41964 83.62793 36.267635
63.432644 80.49193 0.1966362
62.72964 79.49293 2.3366356
0.6436411 13.461929 11.036633
3.058641 13.267929 10.597633
9.164641 18.305931 6.2436333
8.763641 20.19593 6.8626328
69.67264 103.04293 15.476635
68.634636 104.32193 14.025635
4.088648 4.5629272 11.604633
4.1106434 6.87693 11.519634
72.61064 20.492928 23.350634
70.93664 19.325928 23.437634
63.113644 15.949928 25.954634
62.143642 17.218933 24.401634
45.063644 96.01193 14.622635
44.167645 97.063934 12.892635
51.017643 98.79793 6.3666344
53.372643 98.26693 8.116634
33.14764 58.94493 9.474632
34.037643 57.239933 7.735634
42.084644 60.752934 5.3016357
43.99264 59.280933 5.261635
68.67064 94.89193 36.504635
69.86864 92.84893 36.690636
1.0386429 98.02793 31.399633
2.8816473 99.30093 31.531633
1.134641 74.11193 21.483635
0.96864104 74.05193 23.760635
10.0446415 75.63193 20.241634
11.484641 76.33293 21.749634
15.162641 65.396935 9.269634
13.478641 65.94893 10.219635
11.6436405 55.405933 13.095634
9.638641 55.502934 11.662632
56.989643 61.810932 0.44563293
57.600643 63.27793 2.0456352
64.48664 70.19693 41.086636
64.82864 70.54293 38.686634
1.1326447 25.77694 0.2706337
0.01663971 25.547935 39.076633
66.17064 20.87893 1.7346344
67.15564 19.241928 1.7736359
26.239641 78.30193 22.934635
28.038641 76.69693 22.569635
20.73364 72.33593 25.955635
18.95264 71.56993 27.184633
33.40964 86.60093 12.493633
33.88264 89.04393 12.531635
41.372643 95.35093 11.341633
41.023643 95.40893 9.118633
55.18064 57.433933 33.751637
56.613644 56.42993 34.472633
47.75064 51.697933 36.117634
47.54764 53.456932 37.504635
48.14564 24.104927 5.363636
49.917645 22.689934 5.259636
44.786644 17.096931 12.644634
43.528645 16.520927 10.809635
21.770641 57.02793 24.139635
22.072641 55.024933 23.286634
12.759641 51.810932 24.444635
12.831641 50.440933 26.220634
11.057641 7.7549286 28.686634
11.531641 9.020927 26.888634
19.163641 15.03093 27.502634
20.78664 14.34993 26.264635
44.739643 51.502934 27.159634
46.31164 50.268932 28.623634
55.997643 51.594933 27.646635
56.359642 53.43693 26.287634
30.024641 67.43993 22.688635
31.21664 65.76793 23.126635
23.54664 58.91593 23.337635
21.822641 59.35593 22.148634
67.92364 10.437927 30.734634
69.48864 10.283928 29.371634
1.885643 16.869934 25.557634
2.8456442 15.013931 24.468634
14.283641 77.47793 28.986633
13.876641 79.12993 26.991634
22.253641 82.20893 23.320635
22.940641 84.23893 23.857634
46.816643 30.299934 3.8866348
48.27064 28.39994 4.5176353
40.115643 24.507927 7.860634
38.454643 23.55494 7.5056343
22.347641 33.904934 21.195635
22.04064 34.253933 23.176634
29.42864 42.307934 21.950634
31.22664 41.518932 22.941635
-1.156359 9.065933 1.825634
0.97864103 8.287933 0.7686348
6.9246407 12.50293 36.073635
7.3706408 10.611931 35.154636
47.94364 20.233932 28.560635
46.33364 21.032928 27.151634
39.56864 14.759933 30.319633
38.667645 16.011932 31.887634
10.734641 39.671932 41.293636
10.649641 40.959934 39.807636
17.815641 46.19393 37.004635
17.741642 48.857933 35.620636
16.884642 53.63893 36.220634
16.63264 54.66193 34.457634
25.04564 60.36893 34.557636
24.92564 61.969933 33.183636
66.57564 24.415932 17.625635
64.48164 25.69793 18.063635
59.10464 24.064934 24.806635
58.801643 26.26493 25.939634
4.387641 1.7679291 41.232635
5.240641 2.380928 1.2596359
12.228641 8.316933 38.449635
13.420641 6.7119293 39.181633
26.517641 97.62993 10.769634
24.947641 96.04293 10.184635
15.905641 94.33993 13.161633
16.336641 92.26193 13.190632
61.189644 41.79793 22.840635
61.703644 41.960934 20.626635
71.19664 43.877934 18.354635
72.74264 42.71693 16.790634
45.056644 44.039932 24.087635
44.05564 45.400932 21.762634
34.72264 39.122932 22.087635
33.04964 40.926933 21.342634
44.481644 2.8279266 33.656635
44.718643 3.373932 31.804634
51.115643 5.7379303 26.183634
51.584644 4.3709335 24.629635
21.79364 28.143929 14.329632
21.21364 29.83094 15.276634
29.839642 34.276936 12.190632
29.23664 35.860935 11.058632
36.984642 0.5189285 12.869633
35.09664 1.7299271 12.045635
26.784641 101.954926 14.899635
25.56764 101.89093 16.885635
49.003643 71.93993 36.081635
48.89564 70.08593 34.422634
43.052643 64.65493 40.871635
42.19464 62.483932 39.393635
47.36764 56.650932 0.6176338
45.918644 55.84793 40.416634
52.098644 61.47293 34.074635
52.980644 63.32793 34.715633
58.316643 94.39493 15.991634
57.74964 96.39193 16.668634
52.419643 88.95593 22.738634
50.022644 89.71093 22.506634
11.653641 21.37593 14.316635
12.102641 21.463928 12.2136345
17.87564 27.558937 8.973633
19.284641 28.013939 10.965633
1.5386429 43.627934 21.933634
0.14163971 44.76293 22.461634
66.82264 36.852932 24.183634
66.61864 36.024933 26.239634
44.272644 9.761932 11.363632
45.449642 8.452927 12.040634
38.616642 1.9319305 14.7066345
38.08964 1.5009308 16.903633
72.42864 31.26493 39.457634
71.26664 28.94094 40.225636
62.946644 25.87893 1.4666328
62.689644 24.002937 0.6566353
65.62664 93.75993 28.572634
65.57364 95.88793 28.578634
0.8836441 100.67593 27.580635
1.562645 100.19693 29.406633
19.13664 101.90793 29.954634
20.59164 101.204926 28.742634
17.59864 98.121925 24.541634
18.482641 96.355934 24.800634
35.286644 27.313927 5.4356346
37.299644 25.454933 5.2696342
43.917645 33.52294 2.2096329
44.116642 32.30094 0.6176338
1.7016449 14.403931 22.172634
73.17364 15.562927 21.363634
65.23464 11.967934 24.851635
64.18664 11.090927 22.875635
-0.511359 39.641933 6.8336334
1.3036411 41.05593 7.1116333
5.717641 45.670933 41.324635
6.927641 46.808933 1.4286346
43.274643 82.22193 30.799635
42.31164 83.03093 28.728634
50.952644 88.93393 27.641634
50.094643 90.27393 25.973635
71.05664 8.037933 34.232635
69.48864 9.7309265 33.365635
1.94664 17.540932 32.033634
3.3396475 17.743927 29.933634
11.95464 79.03993 21.793634
13.383641 78.01493 22.770634
21.00764 83.341934 19.001635
21.235641 85.51593 17.537634
27.80664 90.55393 3.5076332
27.82764 93.07893 3.1646347
31.086641 100.00893 40.261635
32.72864 100.30793 38.942635
47.744644 13.410927 20.539635
46.758644 15.30793 20.666634
37.669643 11.26593 22.105635
36.06264 12.661934 21.803635
42.03364 71.22593 9.787632
43.386642 69.63593 10.870632
53.81164 70.52893 9.557632
53.719643 72.30893 10.524635
13.813641 10.519928 40.361633
15.685641 8.969933 39.599636
24.60564 12.005928 0.76763535
25.722641 12.374931 39.901634
8.181641 60.241932 32.157635
7.1866407 60.280933 30.482634
-2.0223591 56.48793 31.401634
-1.227359 55.963932 33.477634
60.56964 101.20993 24.720634
62.079643 99.54793 23.952635
70.17064 103.51293 20.683634
69.58264 104.10893 18.780634
37.39564 89.93493 24.869635
37.99264 88.25993 23.761635
45.197643 94.25693 20.767633
43.925644 96.285934 20.541634
11.438641 83.00993 28.295633
13.564641 82.285934 27.853634
19.662642 88.14593 21.369635
21.135641 88.70493 23.010635
9.484641 5.3029327 28.255634
8.639641 6.15493 29.890635
2.489641 0.48493195 33.585636
1.338641 103.08193 33.555634
5.570641 12.109932 27.233635
6.722641 12.456932 25.194635
13.19064 18.802933 22.135635
12.273641 20.694931 21.896635
70.71664 4.0309296 32.209633
70.66564 6.51593 31.978634
3.5936453 12.953934 29.113634
5.355646 13.179932 30.907635
49.101643 94.37193 27.870634
51.107643 93.28193 27.242634
58.17964 97.46593 22.358635
60.271645 97.73493 23.492634
58.580643 35.254932 5.280636
56.788643 35.69593 6.360634
47.626644 32.599934 5.6566353
48.398643 30.507933 6.573635
70.71264 17.172928 6.226635
70.88964 18.623932 4.3506355
6.6016407 19.131927 0.7096329
6.678644 20.813927 0.8976326
15.554641 104.54193 29.816635
15.96164 2.083931 30.155634
23.704641 0.9439316 22.914635
24.63364 2.1889267 24.663635
59.204643 5.512932 41.028633
60.190643 7.843933 40.734634
68.079636 10.455933 37.938633
68.64364 10.393929 35.877636
25.96764 13.2949295 3.5376358
25.85864 10.719933 3.2346344
15.734641 8.482933 5.101635
16.680641 6.8329315 4.2416344
44.84664 85.008934 2.1806335
45.55464 82.45893 2.3626328
36.903645 77.133934 4.2556343
36.734642 76.28093 2.3476334
52.14564 13.109932 26.959635
51.15864 14.587929 27.073635
61.393642 17.76693 27.162634
62.163643 17.259933 29.425634
35.87464 70.67193 36.458633
34.26964 69.44793 35.142635
26.90064 65.99593 38.863636
27.815641 64.521935 40.353634
36.59764 54.26993 15.903633
35.87564 54.00793 18.054634
26.103642 51.58393 18.961632
25.82764 49.280933 18.197632
28.67864 94.29493 10.268635
28.63664 96.19793 11.440632
33.97264 100.912926 4.396633
35.55564 101.96593 5.749634
48.09064 72.18093 32.121635
48.546642 74.50493 32.564632
53.843643 80.48693 26.182634
55.20164 79.21493 25.921635
40.41664 63.01993 36.355633
39.88864 60.59193 35.653633
32.59064 58.80693 41.117634
32.843643 57.51593 1.3316345
50.622643 38.206932 26.387634
50.289642 37.156933 28.763634
41.279644 34.074932 31.431635
40.08964 32.190933 32.151634
53.09064 54.52093 18.664635
54.43764 55.94693 20.073635
61.609642 59.75193 15.622635
61.272644 61.435932 14.280632
17.692642 22.632927 34.739635
18.029642 20.65593 33.733635
8.407641 19.149933 34.999634
5.992641 20.078934 35.173634
32.594643 70.94593 28.369635
34.275642 69.980934 28.712635
39.706642 76.70593 24.242634
40.417645 78.40593 25.135635
47.489643 98.04893 27.726635
47.084644 95.98293 28.630634
38.741642 92.14493 26.181635
36.93664 92.61493 25.919634
53.827644 28.90493 9.576633
52.842644 30.05294 11.269634
57.36164 37.407932 8.779633
59.607643 36.556934 8.365635
66.91064 72.25193 1.4716339
67.63364 70.64893 2.7516327
58.491642 68.10493 7.360634
58.67264 68.911934 9.763634
62.379642 21.606934 35.315636
61.759644 19.896927 34.620636
53.386642 15.934929 36.451633
53.528645 13.678932 37.470634
5.5906467 61.93993 22.190634
4.260645 61.720932 20.101635
70.40564 55.96593 22.299635
69.03564 56.331932 24.213634
42.428642 65.452934 10.406635
42.04764 64.71993 12.393635
33.95764 58.933933 13.172634
31.95264 60.18693 12.9186325
3.109641 76.92793 35.161636
4.323641 78.83293 36.189636
12.251641 81.31093 33.089634
10.460641 82.40293 31.708633
4.1506443 87.72793 17.942635
4.0196476 89.14993 19.157635
69.66064 84.74993 20.423634
69.68864 83.01893 19.161634
23.266642 10.66893 28.432634
23.29664 11.833931 30.007635
15.224641 7.1489334 35.821636
15.842641 5.6959305 37.157635
33.148643 88.52893 16.189634
32.39064 89.08093 18.420635
23.187641 86.74393 21.108635
22.59464 84.71293 21.018635
61.421642 44.692932 24.014635
63.433643 44.115932 22.759634
72.74464 46.73593 21.357634
72.12964 49.129932 21.587635
67.95164 96.60893 40.266636
66.61464 94.83493 40.900635
58.76964 90.75193 0.50063324
57.599644 92.82393 0.8316345
22.55264 31.672932 19.271635
22.645641 33.435932 18.189634
31.06364 38.476933 20.185635
32.879642 39.780933 18.870634
1.584641 86.09593 39.756634
2.145641 86.64993 0.032634735
9.333641 91.89893 35.042633
11.063641 92.87293 36.434635
63.327644 36.803932 14.816635
63.160645 37.439934 17.113632
0.5426407 37.988934 16.485634
0.004638672 36.16793 16.463634
40.32664 39.518932 4.233635
41.142643 41.751934 3.3626328
49.342644 43.98793 40.379635
51.163643 42.75193 41.450634
40.17964 80.35293 21.301634
40.373642 81.24893 19.311634
50.00664 81.13493 16.351635
49.814644 82.42293 18.211634
27.773642 85.56193 29.616634
27.82364 87.86393 30.141634
29.363642 96.14993 25.694633
31.84864 96.15293 25.989634
60.036644 85.49993 2.1916351
60.574642 87.47593 0.99163437
69.357635 90.57293 2.1646347
71.16164 89.91793 2.967636
48.448643 21.775932 1.1876335
49.206642 20.771927 3.3676338
40.905643 19.160927 6.7986336
40.136642 19.520927 8.873634
66.69864 34.12593 20.943634
67.75264 35.185932 22.224634
3.467646 32.536934 19.265635
4.659647 33.810932 21.109634
24.704641 46.49893 10.446632
26.100641 44.84893 9.773632
33.782642 48.85593 4.466633
34.453644 50.82793 3.813633
15.597641 36.425938 2.2016335
13.892641 36.822933 3.740635
6.6206408 29.771935 5.6766357
7.113641 28.520927 7.186634
8.672641 102.22993 9.106632
9.078641 102.75393 7.2566338
16.394642 1.9349289 1.5656357
17.343641 3.7019272 2.0666351
68.08364 101.328926 10.0436325
70.38264 101.54193 9.525635
2.8766425 4.14093 4.818634
3.9856436 4.2909317 6.405636
41.594643 3.4409332 25.696634
39.324642 2.2719269 25.007635
31.21364 102.61293 27.774633
33.25864 100.87693 28.331635
23.565641 56.949932 20.774633
23.71964 55.45893 19.584635
34.245644 57.74893 17.700634
34.245644 58.483932 15.799634
49.68664 7.9879303 12.693634
50.551643 6.0789337 11.560635
60.72164 8.382927 12.550632
62.392643 8.416931 13.995632
7.882641 31.448936 23.431635
6.744641 30.392937 22.472635
0.1486411 23.152931 23.221634
1.493641 21.634933 24.302635
21.679642 54.54293 15.682632
22.895641 52.53593 15.665634
30.558641 57.86093 10.260635
31.979641 57.67293 12.124634
22.97464 66.34293 30.824635
22.11164 67.78793 31.649633
29.17164 75.21093 26.815634
29.86264 76.12693 28.672634
25.860641 53.79393 24.375635
27.642641 52.829933 24.277634
35.404644 56.010933 20.152634
35.04864 58.060932 20.085634
28.08564 88.62993 34.967636
30.28964 87.80893 34.805634
37.649643 90.25593 30.317635
38.710644 91.37693 31.404634
56.88864 82.48693 37.715633
56.142643 81.44793 35.788635
50.498642 73.97293 34.405636
49.330643 75.93493 34.739635
20.71064 51.89593 41.134636
19.99764 53.32193 39.355633
24.253641 63.23093 39.741634
25.60564 63.419933 0.1626358
49.22164 22.90493 34.445633
48.293644 23.806938 32.886635
40.564644 17.58593 34.067635
38.745644 17.180931 34.366634
1.771641 39.33393 1.7606354
0.595641 37.516933 0.08463287
9.144641 36.14493 37.731636
11.541641 36.609932 38.709633
1.3236411 83.73293 38.670635
2.7336411 82.92293 39.553635
12.207641 86.92293 38.088634
12.625641 84.51093 37.416634
61.879642 21.385933 41.320633
60.167645 22.53093 1.0136337
53.699642 15.191933 3.7186356
54.218643 13.90493 2.3106346
16.685642 79.63793 40.775635
16.895641 77.20093 41.283634
11.258641 72.06093 4.011635
10.381641 70.23693 2.8526344
22.864641 25.76194 12.973633
21.79964 25.293938 14.752632
14.88164 19.686928 17.398632
15.828641 17.69593 17.734634
16.443642 96.43293 22.763634
15.981641 95.15993 21.249634
9.460641 87.57193 23.984634
9.3276415 85.83393 25.773634
19.148642 35.680935 18.452635
18.001642 34.365932 16.772635
10.868641 30.862938 23.294634
10.469641 28.824928 22.608635
15.325641 52.42293 33.661636
15.28264 50.10393 33.348633
7.159641 47.829933 37.599636
6.902641 45.739933 38.766636
0.39164114 58.39693 36.443634
-1.1633589 60.47393 36.431633
7.748641 64.86193 36.720634
8.137641 67.42193 37.022636
53.849644 78.70993 23.434635
53.253643 77.73493 21.519634
50.251644 69.93693 26.976635
48.056644 70.25093 25.722633
58.626644 33.755928 0.3766327
57.285645 33.93893 39.965633
49.704643 28.19593 2.285633
48.038643 27.90194 0.2666359
72.08364 11.433929 7.742634
70.22564 10.908928 5.6946335
64.10864 2.7499313 7.242634
65.79264 1.0929337 7.3406334
61.380642 102.64293 37.875633
61.365643 104.52293 37.359634
69.62864 5.90493 35.986633
70.69864 4.01593 35.206635
31.64364 37.442932 11.055634
30.194641 38.72193 11.211632
34.69464 46.296932 5.139633
35.066643 47.877934 6.6906357
66.90264 59.552933 18.037632
67.57364 60.961933 16.840633
3.1586478 59.365932 13.085632
4.0586414 61.530933 12.988632
46.36764 42.227932 22.485634
48.05564 41.043934 23.437634
39.04864 34.794933 25.239634
39.697643 33.92293 26.917635
35.627644 61.595932 24.261635
34.04364 62.55693 24.581635
29.892641 56.93293 32.052635
30.09264 54.948933 33.173634
36.238644 73.77893 0.6456337
35.302643 74.13993 40.497635
26.29964 69.76693 2.063633
25.731642 68.18693 0.68963623
35.671642 82.98693 16.450634
34.712643 84.60193 15.318634
26.46964 80.49093 18.543634
26.66464 79.63593 20.746634
20.48464 0.57592773 6.696636
18.454641 1.2289276 6.085636
11.226641 101.18793 9.639633
11.092641 100.36393 11.755634
30.39364 21.83493 30.942635
33.171642 21.275932 30.998634
38.543644 29.015938 28.478634
39.565643 30.780937 29.871634
1.213641 40.772934 12.889633
1.532641 41.774933 10.853634
7.9706407 45.82593 5.4796333
9.421641 43.830933 4.389633
56.24964 59.427933 41.054634
55.06964 59.455933 39.051636
49.74364 52.02793 3.2706337
48.258644 53.52993 3.2706337
11.87464 80.24993 28.895634
11.69064 78.07593 28.457634
1.644641 76.94293 29.140635
0.90764105 79.37393 28.503633
2.1746445 9.045929 7.2446327
2.3926392 7.66893 9.236633
67.39564 1.3639297 10.214634
65.68264 3.4059296 11.246635
7.0056477 97.87593 38.238636
7.2576466 96.83693 39.973633
69.81064 95.32293 0.40763474
69.57264 93.10193 0.40263367
32.98764 62.565933 17.115635
34.21064 63.058933 14.958633
42.489643 67.63193 12.686634
43.396645 68.64293 14.296635
35.663643 94.19293 34.515636
36.317642 92.57393 36.459633
29.833641 85.64993 40.887634
29.30964 84.53793 39.040634
-1.6073592 13.427933 4.026634
-0.70235896 11.72493 5.0206337
7.725641 15.897934 40.791634
7.7016406 13.9579315 39.867634
69.953636 69.75393 4.016636
69.31264 71.20793 5.200634
2.8646414 78.17393 2.620636
4.8806477 78.105934 3.0626335
28.43164 85.40093 1.9296341
27.29564 84.37993 0.16163635
19.40864 78.99293 41.149635
19.707642 77.33693 1.0216331
14.74964 74.786934 29.293634
17.03564 74.78293 30.214634
16.071642 74.92093 39.735634
18.46764 75.23593 38.869637
65.71064 55.74493 8.077633
65.73664 55.351933 5.6236343
0.4196396 59.90493 2.0336342
1.8646393 60.40893 3.712635
59.022644 21.027931 24.116634
58.67264 21.493927 26.262634
49.09664 22.72593 27.960634
49.531643 22.95993 29.953634
33.71664 92.47093 27.354633
34.433643 91.07893 25.641634
30.73064 83.77193 27.266634
28.96664 82.62793 27.669634
20.659641 54.544933 4.728634
21.517641 53.39493 2.9996338
29.76564 57.57793 0.65063477
30.235641 57.850933 39.625633
12.029641 44.858932 15.388634
12.913641 43.808933 13.528633
20.30064 47.02793 8.358635
22.27664 47.717934 9.552635
42.609642 91.16593 40.745636
41.091644 90.44793 38.842636
49.984642 93.02393 35.585636
49.266644 94.19993 37.149635
63.755642 12.4809265 29.471634
64.58964 12.050934 31.392633
57.781643 5.9619293 34.775635
55.792645 5.184929 33.748634
37.935642 65.56793 31.515635
37.613644 67.38893 31.961634
43.689644 72.00993 24.103634
43.734642 73.08593 26.396635
71.58664 89.21393 37.394634
72.14464 89.68193 39.612637
6.232645 96.26693 36.028633
5.216646 96.58393 34.119637
71.14664 82.883934 33.860634
70.15264 81.84493 32.375633
63.349644 77.82593 38.521633
63.005642 76.425934 36.739635
58.477642 87.57093 8.341633
59.766644 86.59093 9.483635
49.976643 83.23593 12.727634
48.996643 83.619934 10.619633
37.779644 66.535934 34.994637
35.731644 66.66693 35.941635
25.929642 63.53593 35.041634
25.54064 64.03893 37.279636
15.386641 63.91593 7.0066338
14.24964 62.32093 5.245636
5.868641 59.878933 12.576633
4.513641 59.00893 10.704632
23.29564 86.99693 23.811634
25.20364 86.06093 24.484634
30.85964 94.09493 20.085634
32.75064 93.08693 20.756634
44.15164 80.11293 33.153633
44.550644 78.01793 34.832634
34.99964 75.00393 34.633636
35.358643 73.45493 35.708633
38.163643 36.556934 1.3786354
39.627644 35.207935 0.2726326
33.07764 28.834938 41.293636
33.378643 26.586937 40.973633
32.29364 51.84093 34.564636
33.88364 50.747932 35.906635
41.28364 57.39493 33.619637
42.86164 56.79293 34.945633
43.037643 21.819931 12.571632
43.148643 23.978935 13.476635
48.196644 28.410927 12.421635
50.30564 29.324928 12.415634
67.87264 86.36293 24.523634
68.40564 88.535934 24.997635
3.1356452 91.47993 21.948635
3.592646 93.77793 21.954634
56.27064 99.98393 15.665634
55.725643 97.74793 15.648632
46.093643 97.49293 16.760635
47.009644 95.41593 17.659634
62.536644 66.61493 20.063633
61.702644 68.43293 20.327633
68.523636 73.15693 15.024635
69.05564 72.35893 13.163635
49.891644 17.651932 33.471634
48.335644 19.23693 32.633633
42.154644 11.177933 32.309635
41.190643 11.674927 30.516634
37.466644 37.12393 33.045635
38.282642 38.934933 31.748634
45.552643 46.61893 31.092634
46.40264 45.037933 29.981634
51.767643 97.29493 40.905636
50.400642 99.03393 40.582634
58.918644 103.61393 36.906635
59.010643 0.0029296875 35.010635
68.68564 23.800941 10.339634
70.59764 23.104927 10.868633
4.649645 27.94094 6.4796333
3.1716406 29.995934 5.6826363
22.263641 102.38693 12.486633
22.273642 102.95893 14.600632
15.707641 97.79193 18.019634
14.264641 99.34193 18.092632
0.84664106 25.034935 30.453634
0.57364106 26.708931 31.524633
7.8986406 32.648933 28.862635
9.683641 33.273933 29.505634
19.41564 28.517937 41.270634
18.815641 29.023933 39.067635
25.71264 32.28794 37.449635
27.42164 30.87394 37.064636
7.3566456 79.12293 15.145634
6.5476475 77.30293 15.173634
70.48864 77.61893 13.350632
70.54864 77.69193 11.377632
32.379642 55.68693 9.544632
31.37364 56.289932 7.9706345
23.57364 50.455933 11.451633
23.34164 48.72193 12.634632
8.693641 55.607933 19.756634
8.799641 58.05793 19.759632
16.600641 59.684933 14.309635
19.11864 59.725933 15.262634
69.73464 76.97693 24.905634
68.18764 77.785934 26.028635
60.63164 72.33393 27.779634
60.101643 72.61193 25.715633
9.531641 104.29893 17.796635
10.109641 102.83793 18.412634
2.3256412 101.065926 23.593634
2.528641 98.926926 24.701635
19.81364 7.0499268 17.442635
19.36664 7.067932 15.260634
14.57264 102.77793 19.795635
15.326641 101.79593 17.933634
27.472641 44.213932 19.380634
26.33864 45.982933 19.309635
15.950641 44.246933 19.401634
16.10564 43.13093 21.599634
71.23864 17.971931 10.542633
70.78364 16.220932 11.857632
66.91664 7.337929 13.769634
65.76464 6.4499283 12.080635
28.70964 33.10694 0.3216362
29.28264 34.96493 1.2086334
32.231644 30.646935 3.5236359
32.905643 28.956932 5.129635
41.336643 84.51893 32.963634
40.650642 83.174934 31.261635
32.058643 80.75693 27.675634
31.287642 78.52793 28.300634
32.25164 103.04293 33.176636
30.878641 100.93493 33.288635
23.228642 99.60393 37.168636
21.88964 100.91893 36.673634
25.68464 10.374931 29.028635
26.11264 9.996933 26.807634
35.100643 11.698929 25.570635
36.251644 11.538933 24.340635
20.42764 78.09293 5.064636
19.238642 77.88493 7.3806343
9.637641 76.508934 7.441635
8.608641 75.31193 9.520634
46.878643 39.648933 16.291634
46.130642 38.148933 14.968632
37.348644 32.68193 16.718632
38.24264 30.917933 16.859634
12.016641 24.905937 26.225634
10.112641 26.520927 26.855635
1.3776411 24.49694 26.482634
-0.45435905 25.77494 27.159634
24.721642 18.425934 6.1996346
23.468641 17.555931 4.474636
15.521641 12.28093 2.2676353
13.563641 13.23893 3.7876358
61.841644 93.22593 22.833635
61.885643 91.19493 23.128633
52.778645 89.299934 25.459635
53.72864 87.64293 27.335634
0.9616394 1.0899277 38.687634
0.3116455 2.1019287 40.632633
66.481636 104.18693 4.945633
65.90464 102.106926 3.592636
7.915641 63.47893 29.399633
8.769641 61.636932 28.869635
16.729641 66.19893 24.370634
17.286642 64.03793 23.381634
1.6606411 97.32093 21.591635
2.048641 98.78693 20.271635
11.563641 100.54693 18.141634
11.89564 100.51793 15.937634
13.42164 88.18593 35.988636
13.96664 88.77693 37.824635
22.01164 92.02193 34.853634
21.52564 93.92193 33.545635
66.28764 10.923927 34.749634
66.42664 12.076927 36.538635
56.910645 10.465927 40.433636
56.620644 11.653931 0.56663513
31.128641 88.48893 9.383633
33.005642 89.24393 10.108635
38.523643 96.53893 8.397633
38.656643 95.39993 6.2346344
61.120644 1.9499283 0.035633087
60.425644 0.5029297 39.994637
53.334644 100.64393 3.332634
53.029644 98.50293 2.844635
40.073643 15.199928 35.591633
40.876644 16.999931 37.147636
43.004642 10.077927 40.272636
43.453644 7.908928 0.052635193
21.07364 57.933933 19.892635
22.72364 59.51993 19.477634
29.812641 62.288933 13.785633
30.84964 61.773933 15.274635
65.98464 75.67393 1.931633
67.70664 74.57093 2.6096344
2.5276434 80.60393 0.11063385
1.6126404 82.90093 0.53863525
26.41864 89.84393 39.068634
27.50564 89.89693 37.319633
34.08964 95.65093 36.576633
35.369644 97.08493 35.714634
57.176643 59.54293 36.507633
57.077644 61.08393 37.961636
64.09264 67.86393 36.004635
65.45564 68.55593 33.818634
28.583641 78.65093 28.162634
28.52664 77.97993 30.367634
19.506641 75.13893 30.924635
19.25164 75.26793 28.803635
8.641641 23.020927 0.325634
8.214641 21.768929 39.623634
13.321641 26.103935 32.458633
12.9926405 27.994942 32.486633
47.584644 74.68193 36.769634
47.459644 73.72393 34.944633
37.956642 69.89193 38.695633
37.890644 68.65393 36.625633
46.29064 72.24393 23.000635
48.017643 70.92293 23.251635
57.683643 72.13593 21.591635
59.01264 70.54193 21.927635
0.40364075 73.13693 26.310635
72.20664 74.61593 27.083633
66.829636 68.05893 29.845634
64.77064 68.56093 30.226635
27.67064 23.68293 21.700634
25.75464 23.172928 21.623634
20.929642 14.139931 22.434635
22.20664 13.156929 23.807634
40.113644 2.6739273 22.293634
39.75764 4.5669327 22.185635
48.356644 6.632927 18.605635
50.02064 7.6649323 17.098635
49.981644 78.28893 3.2776337
50.98664 78.39893 5.1996346
60.248642 80.02993 3.0376358
60.753643 81.19993 0.5186348
14.773641 41.57593 18.322634
13.043641 41.594933 20.495634
4.7856407 43.698933 23.254635
3.628641 41.88993 22.210634
21.83864 19.035927 39.914635
22.30364 19.781929 0.84163284
31.63264 23.256927 41.369637
33.66664 23.428932 40.243633
55.98664 19.79493 14.664635
56.078644 18.119934 12.752632
64.58864 22.54493 7.1526337
64.54264 20.769928 5.700634
42.806644 44.864933 14.288635
44.205643 44.593933 13.227634
50.932644 50.32693 13.008633
52.271645 49.06993 12.116634
15.007641 59.10693 0.47963333
15.061641 59.677933 2.7436333
6.185641 54.32893 0.64663315
4.030641 54.22393 1.7496338
-2.3553588 71.62793 14.977634
-0.42435884 70.49593 14.807632
6.4646406 77.75993 12.576633
6.664641 78.80393 10.695633
30.867641 56.24393 37.386635
31.82764 58.37593 37.117634
38.803642 63.15393 30.702635
40.891644 62.77293 31.796635
41.39464 86.93193 29.565634
41.494644 88.68293 31.684633
50.655643 90.51793 30.298634
51.56964 92.84993 30.150635
69.481636 16.927933 2.3746338
69.79164 15.422928 4.0796356
64.47864 9.243927 7.6146355
64.60464 10.827927 9.505634
16.35164 102.24093 26.761635
15.293641 102.079926 24.713634
23.096642 103.61293 17.619635
23.87664 0.31493378 19.641634
0.11464094 28.68293 38.644634
1.0386411 27.272942 37.313633
9.518641 32.44094 33.990635
9.758641 32.17994 36.184635
18.01164 35.857937 21.740635
17.964642 37.080936 23.317635
11.98764 28.413933 27.477634
11.194641 28.984932 25.602634
11.816641 65.43193 0.08463287
12.196641 64.38893 2.0816345
6.069641 56.60593 4.8756332
3.918641 57.67593 3.5116348
44.885643 66.01593 10.343632
44.205643 67.72993 8.759632
53.202644 72.15693 5.8196335
53.551643 71.54493 3.2016335
24.509642 22.216927 11.150635
24.06664 20.21093 10.471634
17.484642 12.604927 12.504635
16.60564 13.19693 10.860634
59.703644 65.40493 12.276634
61.01964 63.44493 12.409634
69.15164 69.76493 12.033634
71.50164 68.31993 12.5436325
22.749641 3.7829285 22.159634
22.745642 5.809929 21.940634
30.74364 8.885933 15.700634
30.46364 10.985931 16.761635
1.149641 46.75193 19.504635
2.4346411 45.779934 20.737633
11.043641 47.192932 14.695633
10.5586405 49.449932 14.663635
21.023642 6.5309296 9.994633
19.80964 8.301933 9.748634
27.781641 15.401932 9.442635
26.492641 16.622932 10.643635
51.23564 65.145935 31.853634
51.225643 63.88893 30.530634
42.88164 58.72293 29.308634
40.629642 58.26293 30.299635
33.21564 99.455925 32.287636
33.76264 101.40893 30.956635
42.837643 0.79592896 29.273634
44.50064 103.760925 27.922634
36.272644 49.064934 10.316635
36.65864 47.37393 12.0436325
27.391642 42.663933 12.441635
27.28564 41.031933 13.922634
66.83764 43.41593 0.6586342
67.72264 42.586933 2.5556335
58.787643 41.102932 6.912636
57.704643 40.29993 5.2416344
59.12464 88.841934 39.947636
61.02664 86.86793 39.788635
68.35964 92.76893 39.231636
69.95164 91.31093 39.214634
55.688644 42.38193 0.8806343
55.491642 43.61293 2.6436348
60.74264 51.359932 41.327633
62.259644 49.713932 40.842636
13.416641 16.622932 18.671635
14.646641 14.781929 18.101635
5.060641 14.156929 23.381634
4.774641 16.47593 23.231634
56.484642 91.48193 40.260635
56.514645 89.41893 38.834633
47.919643 84.17393 2.4126358
48.61864 82.20393 2.325634
16.123642 26.324928 28.848635
15.375641 27.538933 30.326633
20.63664 34.837933 25.613634
22.686642 33.79493 26.323635
59.247643 75.89093 28.130634
59.75664 77.88593 27.239634
67.37564 82.21593 23.671635
67.62464 84.55393 22.436634
22.95964 62.79793 29.106634
23.55064 60.81893 29.536634
16.12564 55.879932 32.020634
14.724641 54.206932 31.796635
54.691643 89.06193 32.207634
53.945644 87.29193 33.014633
43.90964 85.46493 33.426636
43.120644 87.91493 33.877636
1.533641 62.17993 8.525635
1.519641 64.54293 8.128635
12.167641 65.95393 7.7436333
12.28964 68.29493 6.660633
63.029644 19.867928 32.353634
63.799644 18.818932 30.938635
71.14564 21.451927 25.962635
72.32464 23.433937 25.555634
71.39264 53.870934 29.097633
71.36664 56.393932 28.647635
5.4876423 63.25093 27.352634
7.520647 62.31993 26.431635
43.90164 85.44893 38.073635
45.182644 85.71793 39.921635
52.661644 89.51093 34.480633
53.09064 90.76193 35.920635
41.640644 19.214928 12.027634
41.716644 20.23793 14.097633
32.71764 17.414932 18.828632
31.76164 19.59793 18.699635
7.492647 8.106934 21.631634
5.823641 7.3249283 22.792635
71.81364 2.4549332 26.145634
70.70664 2.7019272 24.062634
9.789641 82.07193 26.210634
9.467641 81.38793 24.361635
1.5206411 76.20993 26.649633
0.031641 77.76693 26.403635
3.776641 10.620934 10.436634
3.163641 11.234932 8.321632
11.337641 14.89193 3.120636
12.472641 15.109932 5.5586357
0.037643433 1.5789337 33.831635
72.39264 1.6769333 35.503635
66.76964 101.72193 0.6396332
65.42264 103.649925 1.0536346
30.225641 65.45693 12.922634
31.84464 64.91493 14.782635
38.845642 71.980934 11.060635
40.02764 69.84693 10.233635
19.54364 74.61793 33.775635
20.34264 76.76593 33.168633
24.94664 84.79793 36.142635
26.94264 85.25193 37.210636
11.69064 47.57093 26.570635
12.685641 46.740932 28.096634
4.642641 41.56393 25.730635
2.942641 41.475933 27.235634
58.737644 85.577934 4.889633
57.317642 86.00293 6.3626328
51.516644 78.39693 8.139633
50.511642 79.98693 7.716633
17.01864 5.5529327 6.6566353
17.008642 4.2289276 8.295635
8.328641 2.7919312 12.299633
8.415641 1.6149292 14.329632
61.911644 53.044933 39.570633
63.073643 53.572933 40.877636
69.43564 60.32593 37.439636
69.88764 58.14493 37.213634
42.38264 65.86793 7.294636
40.60364 67.25493 9.093632
31.19864 64.09993 7.9656334
31.107641 63.61993 10.670635
58.892643 79.13193 29.810635
58.662643 80.38793 28.115635
66.28764 86.36693 26.713634
67.93564 84.77493 27.068634
65.13964 46.99993 3.4546356
66.12364 47.226933 5.136635
58.352642 44.25093 9.561634
60.336643 43.086933 10.263634
5.126641 1.0849304 5.603634
5.087641 2.7519302 3.9936333
14.679641 7.1579285 1.5136337
13.089641 7.9979324 0.0066337585
57.56264 0.83393097 30.403635
57.56264 2.4539337 31.607634
63.29764 9.12693 26.848635
65.66964 10.012932 26.784634
7.860641 52.07193 9.824635
9.948641 51.17593 8.768635
16.41064 58.14493 11.837635
18.67864 56.740932 11.780632
6.121645 72.54193 41.199635
4.3406467 73.76593 40.572636
70.75264 66.24993 3.0246353
71.40064 64.70593 1.726635
8.741641 53.59793 13.435635
7.0756407 53.15393 12.420635
-0.24435903 48.066933 17.067635
-1.2983589 49.192932 18.724632
-0.757359 33.86793 35.583633
-0.96235895 36.04993 35.115635
9.401641 37.383934 34.665634
8.708641 38.157932 32.598633
50.593643 98.63693 1.7946358
50.184643 99.08293 3.7946358
41.917645 94.10893 6.103634
40.782642 95.25293 4.0556335
65.30264 59.47993 15.922634
64.19664 61.14093 15.184635
72.703636 63.77693 9.201633
73.21164 65.72093 10.059635
69.37964 24.956932 22.296635
69.649635 25.522942 20.129635
5.7496433 29.85093 19.382635
7.3606434 28.462929 18.793634
41.389645 64.69693 34.384636
40.622643 65.76493 32.691635
46.366642 72.33993 29.865635
46.398643 74.619934 30.226635
62.774643 51.23793 1.837635
61.870644 52.08593 3.9736328
57.845642 43.48693 6.698635
55.657642 43.84893 7.231636
28.93964 100.22893 19.664635
30.83464 100.34193 20.564634
35.48564 2.5929337 21.408634
37.391644 2.2369308 21.982634
1.700641 8.384933 39.462635
1.898641 6.0029297 39.799633
10.180641 6.4009323 32.192635
9.507641 8.64093 33.311634
1.264641 33.92493 3.4986343
2.7106411 34.657932 5.120636
12.634641 35.975933 41.172634
12.621641 34.26393 40.191635
45.301643 8.7339325 8.968632
46.12464 9.713928 7.478634
55.571644 11.180931 7.747635
56.83364 13.490929 7.945633
52.793644 84.89293 25.764635
53.40864 83.85493 24.292635
61.662643 87.09893 18.339634
62.733643 87.79593 20.196634
38.098644 44.97393 1.9196358
37.727642 45.83393 41.449635
46.15264 51.259933 38.797634
47.709644 51.817932 40.094635
18.51564 19.286934 29.786634
19.85864 19.798927 31.696634
28.14764 23.708931 30.360634
29.364641 25.162941 31.993633
8.847641 12.844933 33.928635
9.418641 11.874931 31.878633
17.18864 16.815933 28.884634
17.07064 16.40493 26.745634
72.79564 99.14093 19.358635
0.89964294 99.44993 17.778633
5.8506413 1.9659271 13.649635
5.0326405 4.146927 14.090633
61.730644 28.54493 36.573635
62.948643 27.870934 38.421635
66.691635 20.095932 40.603634
64.46164 20.021927 40.062634
33.94464 96.62593 28.017633
35.177643 98.40893 28.479633
43.302643 101.80793 25.049635
42.771645 100.50593 22.515635
23.51564 34.88193 31.856634
24.49864 33.43093 33.201633
19.179642 28.617928 36.159634
17.97664 27.25393 35.258636
49.671642 56.81193 18.234634
49.935642 59.25893 19.053635
57.271645 62.04893 13.695633
59.133644 60.25193 12.587635
67.99164 72.76993 8.316635
66.53464 70.96493 7.4546356
59.212643 68.51493 14.352634
59.227642 68.65793 16.206635
30.392641 97.46993 19.428635
32.28664 96.46793 20.712635
40.734642 100.07293 20.348635
40.45764 100.15393 18.246634
59.737644 73.45793 30.497635
60.377644 71.01893 30.432634
53.962643 65.563934 31.512634
54.470642 62.66893 32.287636
3.645641 94.675934 25.746634
5.052641 94.16493 24.491634
13.5586405 99.80793 23.549635
13.653641 101.75593 22.200634
69.28964 60.65193 33.458633
70.218636 61.89093 34.761635
4.635645 66.80893 31.917635
6.253641 65.13893 32.169636
2.0266418 66.93493 23.175634
1.923645 65.26293 21.616634
68.32164 61.23193 21.514635
65.92964 62.01493 21.780634
60.920643 88.98493 13.860634
62.95064 89.34993 13.186634
69.62764 94.19193 9.523632
70.04364 96.44193 9.541634
47.67964 17.708931 21.913635
46.44364 18.538933 20.515635
54.025642 24.160927 19.269634
54.212643 25.624931 17.429634
66.50664 82.49793 16.637634
66.01364 83.98393 15.195633
2.8726447 86.53793 16.076633
2.3696442 88.60093 15.178635
42.356644 34.760933 41.272636
41.92364 35.676933 39.444633
51.96564 40.63993 39.839634
52.66564 40.369934 37.477634
37.051643 58.912933 23.748634
34.58264 59.065933 23.922634
27.56464 55.10393 26.031633
27.419641 56.199932 27.972633
63.274643 10.004929 19.936634
61.844643 11.22393 20.782635
53.692642 4.797928 22.921635
54.16564 3.7509308 24.669634
49.918644 26.39193 40.600636
51.095642 26.144936 1.3826332
61.00064 27.79493 40.002636
61.445644 29.77694 40.904636
21.67064 91.27793 32.408634
20.11864 92.32493 31.468634
11.2686405 88.536934 29.515635
10.005641 87.05693 30.855635
51.754642 92.02493 33.972633
53.518642 91.59793 32.271633
60.36864 95.55893 27.469635
60.28364 97.61493 26.246634
31.975641 97.42893 30.073635
31.363642 97.59293 32.372635
23.98064 92.83593 36.468636
23.81364 93.36293 38.970634
3.7926428 79.93293 4.684635
4.6516438 79.94593 6.672634
68.36764 75.19593 7.1126328
67.36364 76.99593 7.931633
14.05364 87.91693 40.701633
15.207641 89.42793 40.312634
20.49864 85.81093 6.821636
18.46664 85.24293 7.0586357
29.90364 31.501932 36.397636
29.239641 33.913933 36.306633
39.091644 37.092934 39.672634
39.723644 37.51493 37.890636
56.633644 24.629936 21.580635
57.614643 24.893929 19.343634
65.06864 29.063927 15.707634
65.786644 30.06794 13.664635
16.169641 33.32593 0.48163605
15.122641 35.19593 41.305634
24.481642 37.467934 0.8006363
24.56664 39.023933 40.978634
29.36864 72.50593 16.549633
30.42064 71.08593 15.987633
38.358643 77.133934 15.4186325
37.223644 79.28993 15.246635
68.28964 77.33493 17.025635
68.03064 77.48793 15.014633
