57.286118 46.6284 33.64467
56.362118 44.616398 33.95567
53.620117 41.9974 45.64567
53.564117 39.6564 45.06167
90.34912 40.8104 67.38867
92.27412 39.763397 0.13366699
84.88412 36.447395 9.081673
85.24412 36.194397 11.106674
15.754112 52.9394 31.23267
16.789114 52.866398 32.75367
9.102119 50.478397 40.70467
7.178116 50.3994 41.88067
31.044117 20.2874 46.00367
29.244118 20.904398 45.66167
22.134117 14.857399 54.54467
21.518118 12.733398 54.95267
50.647118 31.392397 43.72667
51.01212 29.271397 43.23467
52.61112 34.663395 43.41467
54.51912 33.002396 44.20267
80.06512 7.4114 18.02167
78.55711 5.6194 17.76267
70.91212 9.942398 26.75667
70.68912 7.878399 27.158669
73.62711 45.867397 23.085669
74.54712 44.175396 22.397669
75.21512 49.694397 11.26967
74.01611 47.884396 9.77467
42.70112 37.499397 22.37867
44.052116 37.1284 20.81867
49.38212 37.599396 10.83667
51.37412 38.487396 11.08467
22.000116 32.080395 61.72367
23.392117 33.601395 61.64867
27.327118 34.064396 49.20567
28.882118 35.945396 49.29667
24.182117 17.462395 41.81267
23.824118 19.197395 40.63067
30.880117 20.029396 31.15067
31.903116 21.977396 31.006668
15.633118 10.699394 1.7866669
13.872116 12.057396 1.7626724
8.329117 9.7724 12.107674
8.968117 7.7143974 12.534676
50.63112 44.568398 44.39167
48.67912 45.632397 43.86767
54.28312 50.030396 33.22367
55.64512 51.7534 34.77167
81.90312 22.620398 39.45167
81.20912 23.414396 41.59167
77.96512 15.067398 49.624672
79.318115 13.0784 49.422672
93.87512 22.781397 10.85967
93.68012 23.500399 13.27467
89.48912 15.304398 22.49367
90.50112 16.584396 23.57667
66.93512 13.018394 27.84667
68.623116 14.977394 27.14667
73.52212 10.416397 16.02167
75.722115 10.899399 16.37067
43.599117 30.999397 38.47767
43.300117 31.166397 36.31967
46.05412 39.6154 28.88267
44.22912 40.799397 28.276669
19.799116 25.157396 41.22767
18.286116 23.326397 41.03667
12.703117 21.834396 51.845673
12.853119 20.024397 52.54367
21.294117 12.528397 39.14367
23.281116 14.176399 39.27267
27.432117 18.071396 28.362669
27.065117 20.2044 28.31167
93.03012 14.849396 8.54867
93.55712 15.942398 11.04667
88.67612 12.182396 20.62067
86.57012 11.6813965 20.26167
34.35912 29.365396 52.40967
32.960117 30.605396 51.69167
24.518118 28.284397 62.36167
22.858118 29.458397 61.12267
13.195114 41.061398 8.1206665
11.572113 41.540398 6.830673
17.179113 44.780396 65.95267
18.994116 44.971397 64.88267
54.03012 8.0504 39.07667
54.00012 5.9734 38.62767
47.92112 2.7714005 48.39567
48.28012 0.29039764 49.15267
23.792118 0.52339935 34.24967
25.208118 1.9314003 34.93167
30.687117 2.227398 23.77167
32.552116 1.5554008 24.41967
25.527117 10.082397 22.83467
26.138117 9.913399 24.94167
18.105118 5.607399 34.65467
19.310118 3.7893982 35.25567
58.36112 48.721397 50.69567
58.26412 50.831398 51.40567
60.45012 50.840397 38.62667
59.355118 50.162395 36.64367
93.73812 14.723396 44.42167
94.73612 12.745399 46.06367
88.27312 7.5224 52.79967
89.400116 7.8393974 54.68767
44.580116 16.514397 16.47267
43.10312 15.579399 17.27067
38.233116 11.108398 27.05167
39.197117 10.6474 28.68867
61.44412 6.0294 39.52367
60.34412 7.7654 39.97267
64.681114 7.0473976 26.90767
66.43211 8.602394 27.93867
16.472113 31.735397 60.728672
14.366119 31.695396 59.61567
7.692116 27.054396 66.62867
5.5691147 27.411396 67.00367
11.625114 41.875397 60.18267
13.049118 40.6984 61.55767
2.501114 35.953396 0.27867126
2.686119 37.689396 1.6746674
9.892113 35.645397 38.82967
8.758118 34.224396 39.33367
6.0621185 33.548397 51.429672
7.5361176 32.250397 52.82167
32.086117 54.977398 57.57267
34.02612 55.0384 57.56967
39.307117 5.0233994 48.533672
41.33812 4.9643974 47.10767
22.354116 18.298397 5.108673
23.979118 19.350397 5.1776733
29.895117 23.603397 64.18167
28.987118 24.768396 62.262672
52.328117 30.975397 26.18167
52.64312 29.814396 28.32667
43.72912 27.142397 35.53567
42.641117 25.286396 34.64467
12.426117 28.847397 38.06267
12.559117 27.110395 36.25067
20.303118 29.668396 25.94767
19.029118 28.933397 24.53867
85.81912 29.582397 25.925669
88.12112 30.244396 26.22967
95.415115 29.799397 16.24567
1.2641144 29.974396 17.52667
69.15512 42.465397 37.38667
70.429115 44.086395 37.30467
74.06112 47.543396 25.43067
76.35412 47.918396 25.82267
25.479118 37.169395 31.880669
26.183117 35.6434 33.10067
16.967117 32.085396 42.48867
19.304117 31.696396 44.12767
3.202118 22.132397 65.41667
4.346115 24.234396 64.74967
10.096115 27.953396 55.880672
11.307114 29.243397 56.60667
86.62112 10.8004 56.00167
87.470116 9.8134 54.33667
2.690117 14.5224 47.78967
1.4221191 15.625397 45.65667
13.784119 31.751396 23.48967
15.640114 31.586397 24.164669
7.672119 24.819397 30.537668
8.068115 25.190397 32.78667
19.101118 9.333397 1.8986664
18.698116 10.920395 3.4056702
17.428118 4.956398 14.512671
15.207117 4.4254 13.621674
22.016117 43.944397 48.77967
21.649117 42.006397 48.77167
12.705117 37.958397 56.82867
11.641117 39.910397 58.16967
64.056114 22.887396 46.10167
65.25312 21.446396 44.91167
70.08511 20.523396 32.83367
68.747116 21.522396 31.39967
51.22912 7.1083984 17.076674
49.44812 7.2654 15.569671
57.71212 11.9114 5.6046677
56.557117 10.986397 3.83667
30.709118 7.9433975 43.21167
30.002117 9.767395 43.13967
22.097116 1.8554001 49.05567
20.824118 3.100399 50.22367
16.547117 45.825397 46.23967
17.561117 45.176395 48.53567
9.557114 42.2474 56.38267
7.6611176 42.9354 55.60667
91.35412 42.710396 33.20267
90.96712 43.905396 31.131668
2.2681122 45.4064 21.605669
3.8901138 43.773396 21.435669
35.97212 26.327396 17.33367
34.26312 25.110395 17.85867
31.149118 20.699396 28.421669
29.962118 18.981396 28.74367
12.118118 8.130398 67.37867
11.488113 5.940399 67.02667
6.7261124 1.8653984 7.9296722
6.983116 1.3894005 9.86367
26.405117 39.6564 32.32267
28.292118 39.850395 31.237669
33.844116 43.439396 21.206669
35.226116 45.112396 22.185669
3.5171127 4.4083977 27.79167
1.1701126 4.9314003 27.81667
93.15212 5.8843994 39.16567
91.15612 5.600399 39.67867
9.965118 7.187401 47.82767
11.798119 6.7924004 49.40967
1.8431168 3.1103973 57.36867
3.2931137 3.9304008 58.59367
15.683113 42.9274 63.68867
15.102119 44.9764 64.16767
7.239113 40.905396 3.287674
5.1731186 39.874397 3.6496735
62.34412 42.703396 67.23067
60.71912 42.742397 65.98467
67.55711 47.027397 57.26867
68.57812 45.5804 55.727673
39.119118 29.213396 52.82067
39.175117 27.242395 51.48367
44.008118 32.210396 40.86767
45.481117 33.482395 39.78367
20.376118 34.103397 25.99367
17.526117 34.614395 26.44167
13.962117 32.544395 36.95667
11.430118 32.064396 36.92467
34.35912 12.237396 47.01767
33.744118 14.075394 47.82367
25.698118 12.226395 56.39167
27.238117 12.214394 58.18167
49.501118 41.429398 10.811668
50.86612 40.584396 9.561668
54.65312 45.915398 67.525665
56.75312 46.026398 67.84267
14.839119 21.312399 37.90067
12.788116 21.043398 36.97267
7.773117 17.401398 48.394672
8.924118 18.5784 50.221672
77.14712 20.175396 35.56367
79.10012 20.782396 36.24367
86.108116 26.665396 26.90967
87.68012 25.850397 27.942669
6.5761185 3.4223976 27.623669
8.455116 2.7603989 27.56267
14.757118 3.9034004 16.21567
14.493118 6.5303993 16.67567
75.388115 23.275396 55.790672
73.99112 22.401396 54.40767
71.52412 18.396397 65.86467
70.25812 19.726397 67.77967
91.80012 9.546394 41.23867
92.30712 10.753395 43.23467
82.50512 4.6433983 49.23667
82.69112 6.2943993 50.65767
58.68612 23.753397 26.77567
58.50012 22.199396 24.84667
64.361115 28.006397 14.62867
63.570118 26.716396 13.62967
48.33112 43.179398 45.06467
47.26212 42.895397 43.131668
53.466118 45.085396 33.38767
53.988117 42.6354 32.69267
26.979118 8.388397 39.12967
26.535118 8.125401 37.25367
30.873117 12.5074005 27.876669
30.694117 11.4254 26.158669
11.850113 10.4384 49.02367
13.713112 11.319397 49.081673
16.264112 17.6204 40.70967
17.798117 18.969398 41.50967
77.876114 29.954397 3.6926727
75.20012 29.491396 3.5546722
82.09612 35.832397 63.860672
80.82312 36.295395 62.353672
76.012115 15.879395 68.05967
76.653114 15.1813965 65.86167
78.61412 20.163399 55.123672
77.32812 18.500397 53.55867
78.04412 0.5473976 47.922672
77.25812 1.1613998 45.78467
82.52312 3.3793983 35.38267
83.23012 5.352398 34.13567
79.20212 2.5984 15.12467
77.34012 3.020401 16.50567
68.97411 54.8924 24.85767
68.123116 1.0253983 24.02567
46.226116 11.3824005 52.15967
47.55512 9.7164 50.77867
48.08712 13.659401 38.97267
49.96512 15.081398 37.93367
8.567116 12.040398 48.60167
9.461113 11.381401 50.50867
3.011116 8.487396 58.88667
2.2951126 6.4804 59.82867
76.32412 18.442398 19.24267
75.59012 16.4804 19.77167
64.723114 19.2434 26.453669
64.09212 16.891396 26.70467
45.357117 0.30339813 13.441669
43.82612 1.6493988 13.51367
41.384117 0.26839828 25.671669
41.37912 2.1184006 26.69767
10.7621155 55.312397 46.98167
11.461113 53.693398 46.36267
4.157112 50.923397 55.45467
2.9661179 49.3994 56.92367
44.760117 51.369396 63.11567
42.86812 52.1294 63.17667
35.572117 48.542397 2.1686707
35.161118 49.582397 4.235672
88.02012 30.506397 61.49367
87.76612 32.216396 61.71267
92.88012 36.9204 51.24367
92.08012 39.195396 51.35767
52.834118 50.786396 12.842674
51.18612 50.582397 11.289673
52.870117 54.751396 0.671669
53.33812 1.1423988 1.2556686
18.808117 17.682396 3.6556702
17.914118 17.298397 1.3566666
17.498117 24.392397 3.622673
18.329117 26.407396 4.195671
95.82612 2.8493996 25.42767
94.775116 4.4503975 26.66767
88.66212 55.723396 34.45167
88.70212 0.37039948 36.72067
12.877113 33.703396 58.074673
11.837112 34.313396 56.21667
17.583113 37.710396 45.67867
18.820112 36.063396 45.72167
32.41512 38.429398 35.71067
31.346117 39.626396 34.16367
36.74212 45.3034 24.57567
38.640118 44.084396 23.56667
4.8231125 10.735397 48.21767
3.2901154 12.194397 49.62767
92.06612 6.676399 56.568672
92.26012 6.8983994 59.25867
25.040117 19.6184 9.429672
23.440117 19.3014 8.479668
14.569118 16.360397 15.245673
14.236117 14.241394 16.48567
39.584118 34.896397 3.0926666
38.300117 36.099396 2.2536697
44.87512 41.041397 61.75367
44.40012 41.1154 59.85767
76.04812 5.2584 66.35567
77.71912 6.034401 67.21267
74.49112 54.6554 9.581673
73.291115 0.33839798 10.792671
58.47512 49.540398 68.36167
59.04112 47.2684 0.7856674
52.79012 46.749397 11.982674
51.890118 44.356396 12.07267
36.41012 50.203396 6.4536667
34.27812 51.306396 7.1686707
31.986116 50.1154 19.154669
30.337118 51.370396 18.19567
11.479118 29.036396 19.686666
12.574112 27.487396 18.04167
16.515112 37.835396 9.66967
14.777115 37.527397 8.594673
80.02412 21.191397 19.45967
80.59312 23.180397 18.571669
83.512115 21.714396 8.084671
82.65912 20.365396 6.9956665
52.88812 14.4674 3.397667
50.83312 14.087395 5.1156693
48.11812 6.239399 13.463669
46.515118 4.899399 14.027672
32.62212 14.991394 26.10867
31.824118 13.1553955 24.692669
38.31012 20.521399 16.85767
38.987118 22.297396 17.98667
6.0451126 36.845398 37.56667
7.268112 36.725395 39.62467
2.8941193 32.7824 49.408672
0.8661194 32.607395 48.86267
88.02812 45.4354 13.4086685
85.92712 45.979397 13.162674
93.00512 51.8584 4.702667
94.25612 49.838398 4.1666718
14.110115 5.8093987 34.77867
13.919113 8.1544 35.29167
9.192116 1.152401 44.08467
8.996117 54.526398 45.03367
68.651115 42.482395 40.11267
69.54612 40.942398 41.13367
66.34911 39.978397 52.43067
66.929115 37.951397 52.80867
92.62412 24.856396 63.470673
94.27012 26.563396 62.37667
3.5731125 30.134396 52.78167
3.7561188 32.566395 52.179672
23.285118 31.830397 29.66567
23.101118 34.008396 30.96867
16.739117 28.602396 40.17067
18.785118 27.462397 40.44967
72.056114 22.455397 34.78667
74.49412 21.287397 35.06067
68.94912 18.754395 46.17567
68.068115 20.720396 44.91667
52.46412 45.808395 27.74767
51.39412 47.3714 28.03567
57.64512 55.6064 20.98167
57.42812 53.9684 19.88867
36.343117 13.736397 29.28767
38.335117 12.6614 30.05267
31.092117 10.065399 39.20167
29.782118 9.100395 40.64867
19.457113 22.468397 59.76667
17.661116 23.933397 59.48367
10.541115 23.401396 0.6486664
9.001114 24.671396 0.2776718
61.570118 37.854397 50.77467
61.16512 35.4974 50.80267
56.27612 31.179396 60.33067
56.87312 30.002396 62.318672
5.707115 45.732395 57.52367
6.247116 46.380398 59.76867
94.193115 48.175396 1.0246735
92.71212 47.793396 68.107666
77.75812 51.728397 28.053669
79.81412 52.944397 28.210669
86.45012 50.582397 17.20867
85.651115 52.610397 17.48167
94.96212 42.103397 0.55867004
0.36711884 42.248398 67.65267
9.234116 46.6784 62.04867
9.069115 45.814396 59.748672
71.75512 25.110395 16.994669
73.35412 23.876396 18.33567
65.64312 23.247396 28.27067
66.33712 21.090397 29.70967
41.135117 11.233398 13.456673
41.74812 12.860397 13.263672
45.925117 17.115395 5.136673
45.10312 18.407394 3.0686722
89.91212 16.981396 38.23467
92.37612 17.605396 38.58567
1.2411194 24.378397 29.751669
95.608116 26.173397 29.491669
34.273117 50.4214 58.081673
32.799118 52.284397 58.17067
24.815117 49.368397 66.82167
25.097118 47.459396 67.218666
31.044117 18.401398 59.60067
28.755117 18.9934 59.43267
32.656116 16.3134 47.80567
33.184116 18.283394 47.589672
44.22912 4.1203995 12.160675
43.210117 3.3143997 10.150673
48.127117 8.059399 2.0916672
49.474117 9.894394 2.2696686
36.72712 4.6173973 59.38967
35.49312 2.9713974 58.387672
39.67912 7.5663986 48.93267
40.23412 8.950394 47.44667
43.46312 13.045395 48.589672
41.83312 14.1474 47.62767
51.69112 20.261398 41.49067
51.06612 22.280397 41.88967
29.345118 12.620399 42.81767
28.686117 11.442398 41.256668
31.610117 14.0504 29.90667
32.924118 14.5563965 28.67667
48.54712 10.303398 16.42767
47.87812 8.214397 17.59767
37.86612 8.087399 23.19867
37.31812 8.255394 25.265669
89.65612 47.738396 34.32367
88.43012 46.915398 32.60167
95.46512 47.429398 21.13667
94.582115 49.141396 20.30067
26.904118 50.214397 34.83467
28.667118 48.952396 35.05967
35.13612 50.487396 24.02567
36.26212 48.381397 23.76767
36.975117 24.517397 49.49367
38.17112 23.348396 47.84467
41.98512 28.925396 37.74967
43.557117 27.109396 38.28567
10.084114 48.3584 42.09667
9.478119 50.196396 43.30767
2.3521194 44.1634 51.401672
95.74612 44.234398 51.053673
40.52712 34.093395 21.31967
38.878117 34.243397 22.52367
31.250118 31.399397 29.078669
31.230118 31.258396 31.513668
42.72012 47.5464 41.39567
42.445118 46.446396 39.57967
49.43412 50.875397 30.582668
47.733116 51.237396 28.71967
70.58912 54.070396 7.4936676
69.818115 52.8704 5.6806717
74.95412 0.8274002 64.04467
76.64312 0.05139923 62.55967
57.88012 34.809395 62.87167
55.432117 34.344395 63.77367
52.911118 29.518396 6.5266724
51.19912 30.346397 6.1206665
56.47112 26.326397 59.71267
55.61512 25.512396 58.07767
59.474117 33.0464 48.70867
57.78712 32.962395 47.28067
50.293118 26.298397 42.11767
50.73212 26.529396 44.52167
47.051117 17.718397 53.11167
46.806118 19.417397 54.02067
73.278114 36.647396 21.70067
73.11712 38.651398 20.39867
78.81112 42.151398 11.35267
77.861115 41.3934 9.53667
37.84012 15.9254 66.63867
37.364117 13.8964 66.01367
31.661118 11.362396 6.2296677
33.41512 10.130394 7.7576675
48.259117 23.006397 6.2406693
46.441116 21.861397 5.0416718
42.940117 20.120396 16.451674
41.63112 21.457396 16.881674
19.153116 43.0254 62.69467
20.230118 44.780396 62.28767
26.884117 49.388397 54.23267
25.963118 48.454395 52.98967
1.4441147 27.885397 33.41567
1.5361176 25.620396 34.62367
89.08712 19.637396 40.36967
88.07512 18.845396 38.69967
21.307117 15.871399 40.22067
22.271118 15.437401 42.24867
19.074118 11.074394 51.89267
19.036118 12.273399 53.53467
26.308117 38.463398 13.599669
24.216118 38.630398 12.70567
19.312117 35.078396 23.68467
17.474117 33.487396 23.90767
0.7341156 0.47839737 57.186672
95.22512 1.7873993 57.71867
86.82712 52.785397 66.72067
87.84612 53.7254 68.10067
50.88012 28.208397 58.352673
49.47812 28.030396 56.685673
57.633118 27.840397 47.242672
59.52812 27.754396 48.339672
6.761116 34.6784 36.25267
8.401115 35.808395 36.81967
16.973112 39.563396 27.68367
15.5501175 40.932396 26.54867
31.847116 17.8984 45.40567
31.687117 15.877396 44.30867
38.655117 19.100395 34.48167
39.53512 20.713396 34.21267
21.655117 54.5734 67.663666
21.015118 53.977398 65.58467
29.124117 3.359398 58.70867
29.206118 1.9543991 57.36567
66.93912 51.6294 23.852669
67.96312 53.151398 22.84867
73.56412 1.2743988 13.23467
71.845116 2.3113976 12.56567
84.06312 39.109398 29.89567
81.86712 39.348396 29.244669
75.957115 39.498398 40.90067
76.971115 39.596397 42.78067
46.746117 34.325397 21.772669
46.737118 36.654396 21.73867
55.51212 41.7264 14.23567
54.75612 40.204395 13.19067
38.273117 17.0774 50.96567
36.490116 16.338394 50.26667
31.269117 11.413399 58.37667
32.174118 10.256401 59.838673
25.635117 3.2094002 17.947668
24.320118 4.159401 17.102667
29.697117 10.4254 8.28067
29.211117 9.412399 6.676674
95.01412 28.788397 13.916672
94.50912 30.709396 12.1846695
3.702118 32.809395 2.6346664
1.7791138 33.223396 1.3026733
13.708115 15.392395 18.75667
13.636116 17.8264 20.067669
9.750114 14.002396 30.867668
9.676117 12.192398 28.76367
13.794113 44.860397 26.12967
13.134117 45.986397 27.81167
5.989113 41.189396 37.29167
6.8771133 39.388397 37.78867
25.816118 25.751396 26.394669
24.088118 27.282396 25.46867
33.149117 29.931396 17.296669
33.545116 27.997396 18.02467
87.46512 20.211395 61.262672
85.49512 19.492393 60.90067
79.54912 16.1344 1.9276733
77.96112 15.0784 0.97367096
3.622116 2.1734009 41.80467
1.3531189 2.8583984 41.83667
93.11512 2.454399 55.02467
90.81212 3.0713997 54.39067
39.655117 12.598396 66.50167
40.61112 12.876396 64.40567
44.57412 19.1474 55.66867
46.63112 20.096397 57.01167
3.7921143 37.785397 36.10067
3.8951187 36.051395 34.15767
11.790115 42.780396 25.921669
13.466118 42.063396 24.95167
12.817116 4.2593994 49.19067
13.356117 2.468399 48.57167
9.438118 53.015396 59.75267
8.949112 54.6644 60.88567
89.77412 8.672394 39.24567
91.66312 8.413399 38.67667
1.4031143 7.7873993 28.23567
3.824112 8.223396 28.001669
6.422119 54.8434 61.39367
5.3431168 0.5733986 61.90567
93.55712 2.0564003 2.631668
94.54912 1.2623978 4.036667
8.714119 0.30039978 12.07667
6.702118 55.1834 11.599669
0.80711365 51.159397 19.73967
1.1411133 49.408398 21.831669
76.25211 48.638397 62.16867
77.58511 46.874397 62.80867
69.39412 44.124397 3.9826736
68.887115 46.166397 4.9536667
60.54612 48.391396 18.842672
60.91612 46.748398 17.650671
65.306114 48.9964 6.4246674
64.35212 47.152397 5.6946716
52.516117 30.887396 23.21867
54.273117 29.157396 23.70567
59.46812 26.263397 12.5596695
59.85912 27.441397 10.99867
4.039116 35.131397 53.05867
5.046112 33.628395 53.99767
93.29812 37.028397 63.16667
91.94512 35.475395 63.630672
86.88312 33.556396 29.230669
85.48112 33.478397 27.59967
87.99412 37.910397 16.355669
86.91112 38.520397 14.13467
91.318115 39.029396 34.19767
91.46812 41.152397 35.37767
81.78812 36.971397 43.34367
82.36612 35.006397 43.60967
80.15412 12.3424 3.355667
81.36812 12.249397 5.1486664
76.81612 8.798401 14.814673
74.61712 8.116398 14.858672
89.46112 46.6774 52.15567
87.581116 45.232395 51.91867
84.46012 41.618397 63.34167
84.59412 39.515396 63.62267
70.97612 50.8584 59.206673
72.69112 49.790398 59.706673
65.220116 42.7604 68.32867
66.39912 41.342396 0.15567017
35.480118 7.9743996 46.37067
33.939117 9.7803955 46.457672
23.977118 8.797394 54.394672
23.966118 6.774399 54.227673
16.690117 0.4713974 14.32167
17.298117 55.167397 12.831673
22.186117 2.4783974 4.330673
22.788116 4.7313995 4.261673
35.14512 28.619396 67.73567
36.71412 29.207397 66.61167
40.732117 31.248396 56.22667
38.92912 31.382397 54.97267
85.91112 46.2194 31.23667
84.98212 46.332397 29.23967
90.67612 49.349396 18.71167
91.32312 51.898396 18.713669
8.123116 25.177397 53.09267
6.5801163 23.559397 53.37767
1.3991165 20.660397 62.57967
0.6391144 21.974396 64.205666
81.78112 43.5454 46.915672
81.400116 45.487396 47.540672
87.97312 48.238396 36.71367
87.054115 50.2614 36.74667
10.965118 54.5584 12.035675
10.315117 53.4324 9.941673
17.846113 2.5473976 0.9006729
20.266111 1.6933975 0.921669
84.25512 11.944397 4.485672
83.88212 9.749397 3.8876724
81.00412 6.3484 15.648673
78.78312 5.2973976 14.963668
2.4221191 51.849396 24.505669
0.66511536 50.887398 23.89667
91.57812 52.431396 35.42467
89.179115 53.200397 35.32267
39.56112 7.9553986 29.748669
41.30412 7.798401 30.585669
37.15212 5.2024 42.98967
35.545116 6.956398 42.98467
79.00211 43.585396 44.81267
78.68512 43.2194 43.08467
82.02312 44.653397 30.766668
84.16212 43.843395 30.714668
9.501114 7.6614 66.57667
8.153114 9.0634 66.747665
4.1651154 2.6483994 7.2296677
3.5881119 4.520401 8.539673
15.383118 19.567396 54.16967
14.428117 22.049397 54.02467
21.446117 26.377396 44.62467
23.276117 25.669395 43.66867
62.724117 19.783396 10.454674
62.82612 17.977396 8.543671
65.27312 24.811396 66.719666
67.041115 24.129396 66.20167
90.193115 28.633396 29.12267
89.275116 27.976397 27.17067
2.1671143 32.406395 20.39467
0.8441162 32.458397 18.71067
19.375116 1.6744003 48.32767
17.437117 3.0284004 48.87567
20.524117 9.640396 39.24467
22.382118 9.789398 37.80267
79.692116 33.611397 23.31567
80.63412 33.586395 25.24767
76.93612 29.218397 36.06067
74.32512 30.481396 36.53367
36.406116 51.1774 56.70567
35.69912 49.6854 55.44867
42.28412 49.1354 46.08767
40.22812 49.541397 44.57767
59.29812 44.029396 52.26167
57.46112 43.2754 51.20467
56.363117 35.028397 60.43767
54.23612 34.329395 60.568672
69.46412 22.708397 14.824668
71.29311 23.362396 14.727668
76.42212 26.255396 5.4706726
78.108116 27.930397 5.310669
71.77911 53.776398 9.91467
70.72411 52.085396 9.672669
66.28212 46.063396 20.23467
64.47712 45.960396 18.93167
51.369118 3.2084007 35.38367
51.68012 2.8544006 33.42867
57.224117 5.762398 24.51867
57.65312 6.218399 22.54067
67.54311 26.552397 32.98867
67.88512 24.404396 33.71367
62.13112 24.194397 43.90167
61.16512 22.393396 45.15267
28.847118 38.138397 67.94667
27.293118 37.3924 67.43867
21.571117 33.149395 7.7326736
23.319117 31.180397 8.269669
42.35412 12.376396 31.612669
42.107117 14.305397 32.41867
37.813118 8.2714 43.631668
36.121117 9.4524 44.05267
51.279118 44.1564 65.72867
50.45412 41.8094 64.83567
45.633118 40.380398 7.1656723
46.68512 41.3104 8.868668
51.92112 53.213398 13.246674
53.793118 54.6414 13.056671
60.75712 4.5443993 6.108673
59.44112 4.0193977 4.2836685
75.32712 45.711395 59.70467
77.03612 47.3724 60.01567
82.79812 52.5454 51.102673
82.039116 51.653397 49.339672
50.32412 26.976397 25.32767
50.542118 24.520397 25.95567
43.702118 19.102396 35.32667
45.01912 20.114397 36.19467
36.990116 28.995396 17.438673
35.50512 28.758396 15.87667
41.69212 36.079395 6.126671
41.752117 34.256397 4.8216705
75.86412 13.9244 31.43067
77.63212 15.210396 32.25867
84.443115 22.876398 25.34767
85.32212 21.565397 23.51367
65.638115 54.831398 4.2526703
65.18512 53.1504 3.18367
67.37711 2.8694 61.62767
68.17512 4.831398 61.699673
65.13512 33.859398 18.09967
66.556114 35.340397 19.230669
61.68312 32.505398 30.953669
63.11412 33.970398 32.20967
82.78112 21.528397 19.75967
82.97412 22.498396 21.75667
89.19012 33.116398 16.935669
91.52112 33.399395 15.7106695
60.20512 46.564396 53.02567
61.078117 45.015396 54.27967
54.33012 41.609398 64.19767
54.85912 41.098396 66.09667
89.70512 12.750397 23.33467
87.51312 12.8974 23.480669
84.65712 10.213394 24.35867
83.50712 9.747398 22.59167
26.440117 21.610395 10.89867
27.807117 20.1064 11.24267
22.338118 14.915398 19.442669
20.022118 14.0784 18.72667
57.328117 33.766396 15.61067
59.07412 34.8654 15.35967
56.80112 31.742397 27.02867
55.96112 30.855396 24.859669
32.705116 6.906399 57.94667
31.322117 8.6054 57.60867
40.87412 13.714394 50.860672
39.40312 14.802399 49.28567
58.01012 10.720398 25.67467
60.01412 10.377396 26.404669
56.24812 6.5504 37.42467
56.28012 4.0593987 37.57867
32.40712 48.971397 2.4556732
30.369118 48.041397 2.9556732
28.129118 40.8934 11.65567
26.072117 40.419395 11.270676
70.43812 8.006401 43.55867
71.235115 6.319401 42.81867
74.88012 5.5373993 30.922668
76.74112 4.489399 31.45167
49.21812 30.666397 57.25767
49.849117 32.653397 56.720673
50.49312 33.6224 45.03367
49.61612 34.406395 43.42367
72.54912 11.197395 29.47567
72.10312 12.988396 31.13567
67.82412 8.555397 41.65767
68.70412 10.208397 42.98867
25.138117 40.176395 49.70567
23.557117 41.4074 50.51767
14.271117 39.625397 59.339672
15.018117 38.634396 60.90267
57.904118 41.4274 48.93167
56.946117 40.301395 47.18767
63.55212 40.064396 36.59467
61.51912 40.349396 35.99267
65.81612 34.856396 53.09967
63.78412 34.120396 53.26067
61.95512 31.731396 65.40467
62.07512 29.761396 65.70867
93.48912 43.528397 17.34767
93.248116 45.2544 18.87067
87.109116 44.617397 29.029669
85.54112 42.699398 28.758669
60.529118 22.989397 12.58667
58.702118 23.923397 13.65367
52.00512 25.996397 23.08067
50.53512 24.718397 22.498669
50.37912 11.537399 17.76267
51.79812 13.962395 18.80367
58.30112 18.059395 10.91967
59.60412 16.249397 9.551674
45.572117 36.640396 40.79567
44.251118 36.479397 39.22367
51.959118 42.151398 30.796669
53.35712 40.829395 30.627668
33.19912 52.125397 22.644669
33.813118 53.859398 21.54967
36.75012 54.646397 8.62867
39.210117 53.533398 9.02467
17.541113 1.1594009 34.02867
16.033117 2.7733994 33.80867
12.596115 50.526398 42.81367
13.286118 51.7404 44.54567
26.078117 55.756397 16.655668
24.431118 1.8614006 15.552672
30.813118 5.303398 5.068672
32.834118 6.2584 5.640671
1.6331177 47.944397 2.9536667
0.69511414 48.728397 4.594673
91.43712 45.535397 15.428672
91.429115 43.572395 14.930671
13.700119 33.0604 39.67167
12.519119 31.443396 39.44067
9.832115 30.085396 52.57067
11.562119 29.011396 53.76367
24.471117 16.726395 6.048668
25.698118 15.560394 4.5096664
33.419117 22.752398 66.73967
35.577118 22.806398 66.81967
55.56012 32.851395 10.94367
56.723118 31.203396 12.62967
49.69912 30.360397 22.59367
50.55412 28.251396 22.62567
49.31112 18.6614 37.60267
50.66512 16.972397 36.18867
52.58812 18.768394 25.19767
54.11412 20.1044 24.85767
75.50211 51.822395 29.13567
74.25612 51.433395 27.74567
66.373116 45.625397 34.64167
66.108116 47.6854 35.62167
21.800117 27.516396 7.82267
21.045116 29.661396 7.824669
23.812117 29.978397 65.70867
24.764118 27.916397 65.04667
88.47912 20.548397 43.41367
89.53312 22.054396 44.39667
82.78012 19.960396 55.839672
81.068115 21.352396 56.06967
6.3971176 51.2534 58.658672
4.0571136 50.7814 58.81967
0.44011688 50.4064 1.9616699
95.38512 52.144398 3.1376724
84.65912 28.276396 42.65067
86.40712 28.175396 44.22867
79.61311 27.291397 55.97667
80.87912 25.557396 57.00067
20.029118 0.12239838 33.75867
19.048117 54.0574 33.45467
14.961117 47.081398 42.97567
13.072117 47.895397 43.07367
89.33012 11.894394 39.49667
89.42312 13.718399 38.32667
95.33412 12.407394 27.852669
93.067116 12.316399 26.751669
46.41512 23.019396 22.592669
47.426117 21.384398 22.97467
46.17912 12.1614 32.08567
44.75712 13.9313965 33.83767
59.35212 34.4834 31.540668
60.56012 34.807396 33.66167
54.64512 26.889397 41.61767
54.758118 24.998396 42.23067
95.68912 11.180397 44.14767
94.79112 9.162399 43.42767
94.14812 5.1083984 55.31367
95.37512 4.289398 56.33467
54.69112 53.3164 36.93067
56.36412 52.209396 37.58967
48.08012 49.505398 47.28667
48.952118 50.744396 49.192673
12.870117 51.7334 12.66767
11.102119 52.4534 13.96967
11.243118 51.735397 25.62767
9.558113 51.508396 26.38267
58.83712 32.4004 13.87367
58.29712 31.110397 15.48767
57.26912 28.210396 23.99667
56.674118 28.540396 26.12167
67.359116 22.250397 64.10667
68.998116 20.868397 63.68267
70.890114 23.885397 53.33567
71.85212 22.160397 51.102673
71.484116 18.416397 33.47467
69.944115 17.5624 33.04267
67.64712 14.654396 44.92467
65.29612 14.371399 45.32467
42.654118 8.626396 13.37167
40.76912 8.413399 13.85367
35.488117 3.1884003 23.467669
35.633118 1.0733986 23.98667
45.927116 25.582396 39.35867
47.01112 23.700396 40.52167
39.717117 21.824396 49.43167
38.858116 19.394396 49.249672
5.1211166 51.632397 23.75267
4.9561157 53.637398 23.53767
10.660118 4.343399 13.783669
9.305115 3.1693993 12.37767
80.47912 31.695396 8.1206665
78.92512 33.586395 7.770668
73.499115 31.618397 17.912672
71.85312 32.320396 17.773672
27.533117 26.964396 11.888672
29.254118 26.248396 12.616669
33.75712 27.097397 1.2316666
35.369118 28.764397 2.400673
83.803116 12.185394 54.94667
84.94412 12.670395 57.32067
80.88212 8.884399 67.41667
80.65712 6.176399 67.32067
82.29112 10.7854 34.23867
80.983116 12.307396 33.47367
81.92512 13.072395 21.980669
83.96012 12.423401 21.73367
7.4701157 15.362396 31.32667
6.503113 17.3414 30.39267
13.278114 20.514399 20.72167
13.203117 22.112398 19.522669
57.696117 21.910397 43.91467
58.73412 23.140396 45.85867
53.988117 23.719397 56.29267
51.85312 23.949396 55.91767
48.51412 38.835396 28.144669
47.87412 39.0314 26.251669
58.61412 38.6364 18.43967
58.08612 40.897396 18.126669
84.46512 55.1364 17.52567
85.28812 55.7664 19.56367
78.039116 1.145401 28.658669
78.69012 55.0454 29.880669
77.80212 28.404396 21.345669
77.54712 30.609396 22.61567
74.55711 26.738396 34.62967
73.35512 24.770397 34.32967
7.763115 27.006397 14.988669
7.023117 29.238396 16.047667
13.902115 32.456398 5.5456696
16.10111 31.963396 5.9226685
83.37412 34.124397 7.136673
85.71712 34.273396 6.945671
87.568115 34.517395 63.303673
87.651115 36.000397 61.553673
86.90912 5.6913986 35.27367
85.57312 6.0943985 33.63567
89.193115 9.760399 23.293669
87.192116 10.3673935 22.460669
17.785118 15.167397 37.71467
18.515118 13.801399 35.83567
23.154118 16.850395 24.53167
24.537117 18.7294 25.05467
35.398117 54.193398 6.298668
33.37912 54.999397 5.6886673
40.662117 55.6554 62.922672
42.549118 1.1023979 64.11567
5.588112 11.781395 63.06567
3.3211136 12.404396 61.89567
9.790115 16.8544 53.30667
11.020119 15.207397 52.824673
19.974117 37.9624 25.81567
21.311117 39.6354 24.03567
27.866117 40.521397 14.42367
29.040117 42.064396 14.58767
84.94512 31.798397 43.77267
86.02712 30.309397 41.80367
93.41312 35.838398 36.35367
93.45412 33.847397 35.44867
65.900116 6.5284004 62.200672
63.932117 5.4804 62.41967
60.67812 55.2934 1.4266739
62.03212 55.188396 2.775673
89.69712 5.0004005 42.31967
89.14412 3.2673988 40.80067
90.29912 53.791397 52.04467
88.00212 54.616398 51.839672
14.512117 10.0924 32.70867
14.070117 12.3443985 31.779669
17.811117 11.097397 19.44667
16.903118 11.7864 17.87167
15.776117 29.481396 21.99267
18.079117 29.019396 21.99867
24.234118 30.028397 10.882669
23.335117 28.687397 9.67867
14.418118 8.000401 49.151672
15.903117 9.889397 49.28867
24.769117 13.282394 41.68367
26.292118 12.1744 42.76767
94.70812 19.666397 64.27267
94.94912 20.2864 66.18167
85.26412 13.483398 2.5246735
86.15712 13.993401 4.6286697
95.03212 51.0464 56.05167
0.3421173 49.099396 56.68967
91.99412 45.290398 67.46767
93.55812 44.2674 68.02867
46.696117 19.3404 38.59167
44.38212 19.649399 39.44467
41.37512 21.311396 36.41867
40.419117 22.851397 36.00467
86.71712 28.367397 7.838669
86.28512 30.442396 6.5526733
90.59712 33.047398 64.57067
90.47112 31.422396 63.17067
6.3651123 11.126396 27.10767
8.473114 11.543396 26.25767
10.374115 15.7423935 16.43867
10.900116 17.794395 16.28767
0.685112 55.5594 25.56267
1.8771133 0.9524002 26.59867
94.22312 52.7194 37.06467
94.11912 54.2744 38.70067
84.45312 16.235397 5.1466675
85.51312 15.850395 7.2436676
79.53412 16.7714 17.255667
80.94512 17.767395 18.68067
47.86612 47.7054 61.52467
49.307117 49.0044 62.32967
57.67312 55.4004 55.32667
56.99912 1.7584 54.533672
50.009117 1.093399 67.01267
48.17212 2.409401 67.14567
41.786118 1.2863998 8.992668
41.383118 55.1774 10.14267
0.84511566 54.776398 40.17467
0.12711334 0.5354004 39.09667
6.4441147 1.7693977 29.98367
6.681114 0.039398193 28.38467
12.251114 6.260399 31.01467
12.666115 7.748398 32.89967
5.900116 3.6324005 42.42867
6.485115 4.8303986 44.35867
88.79712 10.723396 5.6216736
90.77112 12.113396 5.8636703
1.3991165 13.252396 64.81167
1.8511124 15.0084 63.582672
77.12711 25.380396 20.56967
75.46011 26.838396 20.60067
68.973114 24.054396 31.10167
70.28812 24.565397 32.90367
18.778116 25.948397 9.023669
16.706118 25.412395 10.429669
19.426117 19.679396 19.48667
17.482117 19.046396 19.60667
39.22912 37.654396 55.47567
39.183117 39.792397 54.949673
45.613117 43.7534 45.17267
44.038116 44.8724 44.47167
65.66012 46.158398 3.1796722
63.58812 46.311398 3.2066727
57.112118 44.4414 13.605675
58.78412 43.918396 15.008674
21.475117 51.660397 50.90467
22.837118 50.4764 51.92167
15.111117 47.3104 62.95567
16.884117 47.187397 64.25767
55.45112 35.447395 10.2836685
56.994118 36.9354 11.468674
62.93612 41.086395 0.6316681
62.953117 38.574398 68.60067
49.084118 1.8134003 14.009674
48.35012 3.8253975 12.278671
56.76112 3.4073982 3.9906693
57.65912 1.456398 2.5936737
69.96011 23.406397 68.21567
71.54812 23.567396 1.096672
65.264114 18.0074 10.726669
65.19611 16.0624 11.118675
9.270119 47.994396 7.35067
9.804115 50.144398 6.3196716
14.340118 53.5854 65.95767
15.9911175 55.2674 65.594666
79.97112 48.8374 62.46567
80.30712 50.9284 62.14267
85.55612 55.541397 52.61567
84.68712 1.3064003 51.53067
14.621118 43.8584 23.37867
15.162117 42.447395 22.164669
25.845118 44.666397 16.35667
26.552118 42.862396 15.70467
2.7541122 52.2674 42.57067
0.73311615 51.2194 42.66967
93.09212 45.1214 51.32867
93.00612 43.248398 51.609673
46.274117 53.5364 63.880672
43.980118 54.345398 64.84967
37.25712 52.4964 5.369667
38.63212 51.9274 6.9036713
45.33312 18.988396 17.270674
46.705116 20.692396 18.650671
51.37112 26.002396 7.6566696
52.80812 24.380396 7.2536697
68.71912 4.5764008 26.57367
67.944115 5.9944 27.921669
64.37012 0.83939743 38.33267
66.234116 0.32239914 39.28867
62.33112 26.167397 65.39867
63.36112 26.544395 67.10267
61.703117 25.472397 11.215675
63.02512 23.883396 11.778671
67.39512 27.066397 15.355674
66.13512 25.844397 13.452675
68.02212 29.615396 1.8006668
69.470116 28.084396 2.0056686
11.391113 49.7614 10.941669
9.933113 51.451397 11.587669
6.775116 46.192398 21.71767
4.654114 47.123398 21.26767
82.09612 52.176395 31.355669
82.72112 51.736397 28.932669
91.15312 0.76739883 20.70067
89.64212 1.9174004 20.44467
82.14212 25.879396 59.45967
82.581116 23.752396 59.55167
82.62512 20.655396 4.284668
83.50012 18.988396 4.5096664
80.68912 53.2464 64.66667
79.67612 53.576397 62.42067
87.47212 3.506401 56.096672
87.36612 5.812401 54.77767
52.39512 22.599396 4.676674
51.522118 21.941397 2.5716705
54.696117 24.594397 60.30267
53.314117 23.623396 58.880672
58.05412 19.240396 7.9676666
56.549118 19.725397 5.9036713
56.509117 25.589396 63.90267
56.70112 24.697397 62.05767
46.321117 41.5944 11.40767
45.49112 43.5394 11.9346695
39.97212 41.660397 22.210669
40.765118 42.571396 23.48267
35.80312 21.531397 13.7606735
37.91012 21.640396 14.481673
42.40212 27.468397 3.8066711
44.35912 26.186396 4.1116714
44.530117 45.084396 25.456669
43.03312 45.482395 23.932669
47.15812 50.328396 26.175669
46.682117 52.7194 26.68167
85.415115 7.5713997 18.59867
83.90212 7.2504005 17.30567
87.20412 12.491394 6.9956665
87.79812 14.436394 7.6046677
66.78112 43.230396 23.335669
64.764114 42.6714 23.807669
59.69112 39.562397 31.773668
59.28312 37.383396 32.21267
71.792114 30.504396 52.37667
71.973114 32.307396 53.94567
75.07312 37.333397 42.68267
74.972115 36.799397 40.42467
51.22712 53.1494 30.119669
50.34312 52.5104 28.592669
53.85712 54.978397 17.16367
52.897118 0.35839844 15.264669
67.00812 12.583397 62.09067
65.62112 13.727394 63.603672
57.411118 8.338394 3.511673
58.38712 6.586399 4.6276703
87.10312 42.2894 49.42567
89.05212 43.146397 50.66767
90.21512 37.598396 62.39867
88.80512 38.972397 63.43767
51.93012 11.0924 55.14067
53.377117 11.824394 56.92167
49.52712 3.6303978 64.96567
48.863117 5.0354004 66.35567
82.317116 13.435394 53.10567
82.150116 15.350395 52.44767
86.63512 18.441399 41.52767
86.193115 20.533396 41.77967
48.10912 55.0864 13.36467
46.579117 53.8004 13.70867
41.940117 50.200397 23.87467
41.641117 52.234398 25.37767
47.746117 8.283394 36.28967
49.03812 9.695396 36.83867
43.72212 5.350399 48.78667
42.29012 6.7103996 49.290672
17.675116 40.644398 63.068672
17.218115 38.373398 63.00067
8.625114 36.241398 4.1776733
6.5141144 35.7544 2.8066711
31.197117 32.611397 33.87767
32.162117 32.238396 35.65567
25.601118 29.839397 45.38767
24.678118 27.994396 44.94467
44.04812 51.944397 26.98367
43.351116 50.957397 28.44867
39.99912 48.220398 39.32067
37.975117 47.561398 38.10567
73.72712 20.437399 52.58367
71.609116 19.795395 52.34467
69.01812 17.581398 63.560673
69.721115 15.016396 63.40567
33.86112 41.4064 4.4866714
34.11812 43.110397 5.827667
24.584118 39.508396 9.2456665
25.111118 37.1224 10.035675
72.59911 27.431396 2.7026672
71.248116 25.788397 2.7796707
64.68912 21.410397 11.17067
65.612114 21.983397 12.796669
5.5781174 14.111397 64.63167
4.013115 12.622398 65.12667
3.1151123 10.873398 8.928673
4.9881134 9.747398 9.491669
77.59312 0.27740097 33.19167
78.60512 53.5574 32.72767
68.66212 47.0034 36.38067
68.07812 48.190395 38.31267
91.84312 6.6153984 23.23867
91.71312 5.878399 21.154669
1.0181122 10.914398 10.67867
1.7041168 8.687401 10.68967
77.66312 50.596397 63.40067
75.791115 50.794395 63.96867
71.540115 48.6984 6.6846695
69.93812 50.092396 7.550667
9.826118 32.241398 56.19067
11.284119 31.515396 57.62967
2.1891174 33.196396 64.664665
2.1651154 33.728397 67.21367
34.397118 5.7364006 9.75667
36.705116 5.9603996 10.52067
34.72212 1.3983994 21.39567
32.397118 0.51539993 21.78267
43.482117 24.167397 18.983671
42.70612 24.430397 16.862669
45.987118 27.459396 5.838669
48.01912 27.920397 5.9656677
14.598114 24.037395 4.2916718
16.18511 23.924397 6.0906677
15.372116 20.500397 17.941671
15.122116 18.300396 17.551672
58.37812 45.736397 16.75267
58.02712 47.262398 18.44367
53.29112 43.488396 28.54967
51.08112 42.821396 28.10767
26.188118 1.5214005 54.22967
25.532118 2.8463974 52.019672
29.500118 2.666401 42.47667
29.496117 4.7803993 41.27567
65.36912 9.9923935 11.69467
64.38412 8.363396 10.57567
56.383118 9.7304 21.10167
54.52612 9.215401 20.11867
39.044117 3.6433983 27.293669
39.62312 2.086399 28.83667
33.461117 52.485397 36.16867
31.572117 53.5094 37.06567
28.021118 41.8714 33.49367
27.471117 43.838398 32.33267
31.070118 46.925396 21.93267
29.982117 48.467396 20.89567
22.814117 13.2314 21.57967
21.689117 14.881401 23.418669
14.457117 6.887398 28.935669
14.838118 7.3554 31.41367
1.1901169 37.258396 36.42167
0.54011536 35.264397 36.91767
87.46512 32.759396 44.44467
87.35212 30.598396 44.18567
50.95812 51.485397 65.68267
49.44112 52.952396 66.400665
45.34612 50.154396 9.272667
43.960117 51.348396 9.777672
2.7661133 40.563396 36.70467
3.6511154 42.314396 36.15367
4.3161163 42.482395 24.50767
5.8161163 43.887398 23.26867
49.66012 54.437397 50.96167
49.96912 52.436398 51.08567
44.29712 45.391396 57.644672
42.760117 43.787395 56.81367
40.857117 41.3304 41.21167
38.97212 42.771397 40.58267
34.40812 37.555397 51.859673
35.06212 35.955395 52.679672
94.09812 37.375397 0.6826706
95.79812 36.999397 0.99066925
91.858116 31.303396 10.199669
90.64112 31.989397 12.194672
93.75312 30.669397 31.356668
91.81512 31.483397 31.932669
87.40612 26.047396 42.44867
88.15212 24.179396 42.65367
36.43012 17.680397 31.905668
38.16512 16.707397 33.34267
34.308117 11.677399 44.32667
33.06712 10.0644 43.50767
63.252117 30.572397 13.213669
64.30711 28.886396 12.052673
62.69812 30.614397 68.54567
64.32312 29.021397 67.52167
42.99312 10.408394 49.707672
42.841118 8.7444 51.588673
34.174118 8.5563965 59.83367
34.093117 8.723396 61.99767
74.46712 11.579399 62.824673
73.36412 10.434395 61.36267
72.50812 10.622398 50.75167
71.83012 10.662399 48.66167
18.396116 44.7894 44.85867
17.440117 43.4554 43.30167
22.050117 48.1294 33.23867
22.923117 50.439396 32.00767
30.277117 30.728397 13.07267
29.488117 28.907396 11.96167
37.412117 33.075397 2.6926727
35.987118 34.745396 1.3216705
10.382118 1.581398 64.45367
8.343117 1.5103989 64.00267
2.5181122 55.166397 4.7126694
3.9841156 54.208397 5.5716705
52.01912 32.249397 7.5676727
54.098118 31.961397 8.303673
61.244118 36.631397 67.579666
62.82612 35.356396 67.50667
21.195118 20.930399 23.21467
20.882118 18.5084 24.07767
14.531117 19.506401 35.24267
16.246117 19.2154 37.15367
93.609116 52.6004 19.82867
93.68212 54.9204 20.10067
1.1601181 3.699398 9.74167
0.624115 4.944401 8.38367
49.32512 55.255398 29.58767
50.710117 0.49340057 31.175669
53.93312 3.3323975 18.77867
54.61712 5.4034004 19.26267
6.154114 14.205399 47.50767
8.526115 14.664398 47.484673
13.450119 16.874397 36.08867
15.477119 16.531395 36.97467
31.946117 44.841396 54.68267
30.120117 46.0324 54.62867
27.478117 39.423397 65.77267
26.123117 40.814396 65.13967
44.413116 3.609398 29.31967
42.16012 2.7453995 29.30667
35.34612 53.8924 37.89467
36.14312 52.694397 39.55767
46.69312 42.137398 27.83967
44.883118 43.640396 28.36367
41.266117 37.924397 37.64667
41.870117 36.100395 37.78267
43.06012 21.956396 53.14767
42.91612 24.027397 51.76767
44.969116 29.373396 40.68767
46.404118 28.330397 39.85967
24.685118 44.547398 31.40767
24.511118 46.722397 32.57167
30.511118 52.575397 23.10167
30.124117 55.0394 22.19067
32.328117 4.7364006 41.30167
32.766117 5.880398 43.21167
28.563118 54.5584 51.721672
28.445118 55.230396 53.59767
8.394119 41.981396 22.869669
7.166115 42.641396 21.22467
12.281113 46.812397 11.54367
13.291115 45.905396 10.09667
19.630117 48.619396 13.217674
17.956118 47.7754 11.801674
22.726118 48.588398 0.1826706
22.723118 51.109398 0.28767395
61.15512 14.067398 8.496674
62.92012 13.590401 7.0896683
68.51712 18.417397 65.97167
68.07712 20.531397 66.23967
86.18812 50.007397 66.73467
84.14312 50.109398 67.50667
80.984116 46.151398 9.6236725
81.78012 46.942398 11.499672
49.54412 0.75640106 34.42767
48.55512 3.1983986 35.20467
43.19212 55.723396 44.80667
44.279118 1.4454002 45.84367
33.51312 30.953396 65.05467
35.273117 31.294397 66.107666
40.981117 36.0464 56.73067
40.38112 33.848396 56.38167
66.93211 46.5734 6.65567
67.027115 44.397396 5.702667
58.063118 40.154396 15.3006735
58.424118 37.867397 15.478675
71.77012 43.699398 22.57767
70.36412 44.092396 20.977669
79.289116 45.771397 13.1516695
78.86812 44.887398 10.62667
10.449112 44.862396 26.63467
9.642113 47.294395 26.80867
3.7941132 44.902397 37.42167
4.174118 45.630398 39.49567
57.154118 46.002396 51.37967
57.06512 47.175396 53.26167
52.26012 41.0454 62.42767
51.59312 42.869396 62.70167
65.291115 24.646397 32.25067
63.349117 24.809397 31.786669
63.62412 19.551395 43.59467
65.70312 18.197397 43.23367
52.93512 32.007397 46.34867
52.411118 34.010395 47.019672
53.31112 29.782396 58.21267
51.72812 31.089397 58.64367
29.995117 9.817398 61.10667
29.312117 7.916401 59.85167
24.842117 2.7024002 68.24367
22.889118 1.9273987 68.38867
72.12812 40.3724 40.57267
74.027115 41.096397 39.72967
80.497116 43.207397 28.842669
79.18512 44.9694 28.10367
54.26812 19.360397 7.4016724
55.47012 18.649399 9.310669
50.47112 16.304398 19.614668
48.27612 15.293396 19.662672
64.00712 7.1814003 6.536667
65.77412 5.9514008 6.3046722
74.18312 6.2883987 68.00067
75.72612 8.191399 67.18667
75.747116 3.3264008 26.33467
74.00712 4.954399 26.62267
75.261116 3.1044006 14.57267
75.166115 3.7403984 12.62267
4.5121155 1.8423996 26.42367
3.471115 3.3863983 25.47867
9.531113 7.3143997 15.14367
10.758118 8.127399 16.44567
93.72112 25.904396 47.214672
93.01312 25.078396 45.35367
1.1811142 32.140396 36.27667
0.61411285 31.269396 34.20167
7.973114 40.975395 58.27267
5.8051147 39.8924 57.73767
92.08512 41.056396 53.43167
94.13312 40.638397 52.30667
51.59012 5.385399 1.4226685
50.87412 3.4603996 1.2126694
47.04112 53.8004 11.193672
46.098118 51.942398 11.634674
6.3791122 48.305397 7.3636703
4.440117 48.411396 7.1286697
0.6321182 46.592396 18.367674
0.09811401 44.631397 19.711668
0.89011383 47.845398 39.51467
0.20111847 46.113396 39.32167
89.56512 41.701397 48.12667
88.62912 39.960396 48.74567
67.66912 37.954395 21.15567
69.20412 39.741398 21.85967
67.69712 37.207397 34.67367
65.695114 36.225395 35.03867
75.25812 52.4044 60.47267
77.08712 53.0924 61.35667
81.733116 2.7973976 51.52867
81.90512 1.0774002 50.11967
8.010117 11.5914 30.83067
7.8331146 9.7164 29.411669
3.7931137 5.2003975 39.15467
1.7831192 4.923401 40.16067
7.478119 9.9433975 64.288666
9.868118 10.032394 64.371666
15.141113 11.830399 53.92767
17.211111 10.983398 54.589672
44.35212 36.5324 6.4156723
44.203117 36.226395 3.9326706
49.848118 39.043396 64.28667
49.44212 38.489395 61.73167
48.953117 14.909401 3.237671
50.42912 15.959396 2.3756714
58.81612 15.665398 60.866673
57.54612 15.082397 59.51367
56.45112 51.5324 53.55267
54.89912 50.703396 52.339672
46.786118 46.221397 59.60867
47.543118 44.965397 60.99667
87.30612 0.80339813 17.023672
86.14312 0.4333992 15.146674
94.86912 55.347397 6.421669
0.9201126 0.9143982 6.251671
79.54812 38.8094 45.30867
78.318115 40.6434 44.85867
71.889114 37.195396 56.22267
73.07712 35.324398 56.09767
38.934116 46.168396 5.228668
38.988117 48.405396 5.7066727
49.431118 49.235397 65.288666
48.80212 51.2894 64.09967
66.150116 55.034397 22.213669
67.11912 0.8684006 21.47467
67.81012 2.1513977 10.39167
69.749115 1.7444 10.43867
35.95012 13.696396 63.457672
37.90012 13.371399 63.50167
40.68012 16.4104 52.26367
42.47112 16.866394 51.54867
80.93712 21.541399 58.92767
82.84112 20.171394 59.51167
78.00211 12.376396 66.76267
76.23811 10.974396 66.43467
69.46011 17.375397 30.54567
70.41012 19.709396 30.204668
80.51912 22.738396 22.82767
79.27412 24.818396 22.37867
47.351116 48.442398 28.56167
45.529118 49.804398 29.289669
38.05312 43.114395 37.40767
39.529118 41.453396 38.10167
7.315117 9.0943985 46.485672
9.278114 9.7724 47.05667
14.746117 10.773399 35.52267
16.273115 12.579399 35.513668
63.70412 13.715401 41.07867
62.28012 12.017395 39.87167
68.48112 12.006401 29.630669
69.666115 13.710396 29.41067
27.388117 23.045397 28.609669
29.016117 22.106396 28.10467
35.56712 29.465397 19.74567
36.02512 31.752396 19.140669
84.57712 15.851395 55.87267
85.58612 14.183395 55.26867
93.61412 19.124397 44.95367
95.84412 18.6734 46.19567
27.992117 16.040398 9.66267
30.003117 15.623398 10.39167
24.380117 11.277397 20.50467
23.452118 9.510399 20.14567
67.861115 9.239395 12.203674
67.08612 8.004398 10.208672
75.30812 14.225395 1.5186691
75.41912 13.192398 68.27067
59.28912 55.3354 3.8646698
57.49612 54.0644 2.9246674
56.25412 47.3094 12.76767
56.501118 47.556396 15.179671
41.467117 45.035397 42.75567
42.11812 46.610397 43.84967
37.126118 40.360397 53.32367
35.273117 41.6494 54.40967
38.15912 34.142395 19.273672
37.10912 33.485397 17.05567
46.14312 33.558395 8.168671
48.36512 34.868397 8.020668
13.966118 12.773399 51.29367
13.000114 10.1334 51.59967
6.756119 6.5943985 59.797672
5.0161133 5.9944 58.61367
48.60212 23.337397 20.96467
48.307117 25.344397 21.01967
52.00312 28.314396 8.7436695
54.31512 27.646397 9.238669
32.04612 25.401396 30.808668
33.10412 27.348396 30.44167
38.447117 32.105396 21.02567
38.577118 30.926397 19.57267
61.62812 22.168396 62.80067
64.17012 21.754396 61.89367
66.69112 27.031397 50.55867
66.084114 25.695396 49.16867
49.932117 2.7854004 50.735672
50.98612 3.5624008 52.25467
43.41512 54.248398 61.172672
41.358116 53.507397 61.44467
66.91212 38.287395 0.0386734
65.487114 39.3374 67.63867
68.944115 36.5604 57.380672
68.764114 36.419395 55.380672
27.977118 53.123398 2.8906708
26.688118 51.5104 2.1496735
23.697117 46.380398 13.512672
25.682117 46.8784 14.66867
92.94112 33.925396 17.95367
91.32912 35.262398 18.11667
90.18412 36.849396 30.44167
91.83812 36.090397 32.02267
88.07312 19.156395 9.191669
88.39412 16.970398 9.94767
83.63112 14.738396 19.96267
81.415115 15.1754 19.77667
26.360117 47.859398 0.9196701
26.075117 45.764397 1.7596664
21.763117 44.842396 12.833672
20.361116 42.916397 12.638672
23.745117 16.292397 56.54367
24.219118 14.482399 57.32867
20.260117 10.326401 67.81867
17.673117 10.461395 68.705666
42.08212 38.741398 25.12967
39.78312 39.8304 24.432669
34.996117 34.450397 34.07467
32.563118 35.0464 34.02667
94.49412 17.0794 43.50167
94.081116 18.4814 41.63567
4.664116 17.483398 32.49967
3.8941193 18.226395 30.697668
15.944113 5.3484 67.177666
15.641113 4.433399 0.076667786
10.600113 4.4973984 10.177673
12.571114 4.121399 11.987671
30.427118 44.492397 18.17967
30.029118 46.0244 19.56367
22.180117 40.338398 27.70967
22.630117 41.3924 29.96467
67.02412 52.896397 5.425667
68.00812 53.855396 7.379669
64.06112 51.110397 19.435667
62.488117 53.0464 19.73667
93.67712 9.423401 8.10067
91.42012 10.172394 8.60367
90.497116 10.2444 19.50767
90.27112 8.337395 20.52567
5.3491135 30.990396 35.03467
3.4171143 30.656397 33.88567
10.553116 36.325397 23.40967
