6.4013557 52.9935 83.02941
6.3723564 54.801502 83.21041
5.618355 78.1885 81.902405
7.1503563 79.1945 80.874405
24.39236 75.0055 81.58041
24.916359 73.316505 81.79841
25.375359 38.27951 13.220406
24.145359 36.582504 14.315407
9.177357 38.440506 18.137405
8.233356 39.148514 17.083405
35.298355 73.6715 28.857399
35.666355 75.5335 29.260399
13.8703575 76.081505 30.907402
15.484359 75.262505 31.429405
14.090359 1.6334991 91.858406
13.402359 1.0665054 94.31041
38.245358 6.2175064 99.77441
37.927357 6.4885025 98.24841
5.704357 74.7425 79.24141
5.987358 76.762505 79.358406
23.19836 76.5585 76.44741
23.057358 77.2805 74.97041
33.296356 36.742508 62.83641
33.303356 36.2305 64.96541
18.42836 39.387512 72.66141
18.363358 40.714508 73.59441
28.735357 60.5195 14.915405
27.09436 61.5265 15.703407
12.15836 59.806503 18.830406
10.728359 60.2425 17.9794
38.523357 61.785503 56.008404
36.798355 60.862503 57.962406
19.279356 65.275505 54.58241
19.015356 63.8185 53.869404
4.664356 26.877502 5.971405
5.4013557 29.227509 5.2744064
21.690361 24.372513 5.114403
22.86536 23.265503 4.842407
18.864357 7.5165024 10.325401
19.035358 9.699501 10.045403
2.7813568 14.455505 8.263405
2.7873573 13.572502 9.840401
25.867355 40.6465 10.683403
27.677357 40.73851 11.907402
4.4333572 40.326508 7.0004044
5.3563576 39.774506 5.8214035
27.002357 96.096504 87.011406
26.73236 96.4465 88.88341
12.688358 103.9865 85.22841
11.561359 105.0885 84.45441
11.329357 53.939503 14.763405
11.530357 52.869503 12.747406
28.705359 49.9375 11.360405
29.969358 50.8185 10.426407
8.077358 53.4025 18.670403
8.012356 55.1085 17.776405
30.664356 54.211502 25.759407
30.701357 54.627502 27.5514
13.451359 21.296509 81.89741
13.823357 22.081512 79.86841
36.087357 21.482513 75.73641
36.651356 20.289505 76.97741
3.7943573 71.0905 71.04941
4.4123573 68.9035 70.74241
19.981358 70.1875 68.06141
21.315357 71.3905 67.39741
22.807356 43.1805 90.18141
24.544355 43.8165 91.206406
1.3013573 40.7495 86.63341
1.7073555 40.557503 84.99441
19.934357 3.6565018 0.4514084
20.173359 2.428505 2.5904007
36.456356 0.37750244 103.41341
37.499355 1.088501 102.32741
28.768358 23.681503 53.241405
28.589357 25.055511 54.52641
13.916359 25.2585 55.08041
12.924358 24.892502 56.756405
2.6513557 6.9205017 7.443405
1.7373581 5.428505 5.7324066
17.614357 2.0205002 3.1474075
18.232357 0.40650177 3.4324036
17.343357 1.2815018 102.84141
17.668358 0.21850586 101.49541
33.986355 111.6305 96.40741
35.357357 111.4815 97.25341
23.673357 8.3955 21.2864
22.520355 8.456505 19.291405
0.049358368 5.836502 18.343407
1.0853577 4.3964996 17.832405
12.568359 114.1345 90.39141
12.822357 1.8745041 89.58741
36.313354 4.7714996 94.49641
35.654354 4.180504 93.221405
15.809356 111.1295 4.4484024
14.48436 110.6575 5.995407
0.5613556 0.9085007 10.733406
38.320354 0.60650635 12.2344055
7.477356 89.372505 86.03541
8.171356 87.3665 87.37941
30.436356 91.3475 89.62641
29.471355 92.5705 88.78241
35.589355 108.2755 7.6254044
36.304356 106.8245 6.622406
14.22736 109.0435 3.2674026
14.523357 107.9375 1.7264023
25.083359 43.2075 10.996407
26.13036 44.3195 12.262405
10.624359 44.5825 17.251404
9.4153595 43.8395 16.318405
17.953358 70.3065 49.13841
17.32536 72.3255 50.383404
2.2123566 67.873505 53.177402
1.4923553 69.3785 53.063404
15.518359 20.959503 71.18441
14.480358 22.762512 71.28741
32.062355 22.649506 68.78441
33.236355 21.7305 68.01841
11.51236 97.3495 94.12741
13.738358 96.316505 94.62641
30.126356 98.385506 94.664406
30.337358 96.7425 94.42141
6.7193565 36.97351 16.364403
5.3893585 35.59851 16.9794
28.404356 40.360504 15.454407
27.861357 38.842514 14.3854065
3.5683556 110.582504 45.518406
4.0323563 110.555504 47.260403
26.680357 108.5705 54.336407
26.656357 108.6155 56.049404
2.7743568 60.461502 84.35741
3.015358 61.5835 82.25141
26.709356 63.2005 85.61541
25.909357 64.49551 85.11541
26.73536 52.9225 20.596413
24.597359 52.037502 20.519402
10.335358 51.8095 18.887405
9.947357 51.717503 20.604408
0.093357086 77.6155 48.81941
0.9593582 76.2295 47.214405
14.51836 77.177505 39.027412
15.15136 76.080505 40.112404
9.37236 19.107506 51.259403
9.156357 17.457504 52.879406
32.326355 17.7415 55.640408
31.846357 18.206505 57.363407
18.889359 57.5895 52.559406
19.41436 60.064503 52.477406
35.867355 56.9415 53.423405
35.879356 56.6565 51.744404
6.8213577 71.914505 88.00341
7.584358 72.652504 90.263405
30.407356 76.8505 94.19941
29.695356 77.3665 95.79141
24.980358 96.693504 68.10741
24.94236 99.2405 68.97141
8.214355 100.99551 65.18141
8.959358 102.4225 65.60341
3.3483582 61.8255 73.39241
4.366356 63.883503 73.46041
18.948357 66.8905 69.87041
18.570358 65.2785 69.53741
30.087357 12.124504 59.144405
30.374355 13.851501 57.440403
7.331356 11.537506 54.682407
7.9673576 11.237503 52.892406
24.046356 31.14151 13.116402
25.369356 31.326508 11.315407
1.515358 28.976501 7.4544067
2.5843582 28.55951 8.917404
26.24136 108.5945 74.74341
26.481358 106.4795 73.37841
10.460358 108.7995 77.90441
9.613358 108.1045 79.26041
3.2973557 16.4105 15.263405
3.4513588 15.178505 13.586403
20.237358 9.8685 12.4464035
21.30436 11.232506 13.000404
7.7783546 44.5625 8.334404
6.102356 43.210503 8.279404
28.443356 42.980503 12.851402
28.689356 43.2435 14.5104065
4.260357 48.987503 101.08641
4.331356 49.8265 99.24841
22.01136 50.2155 94.27941
23.20636 51.4215 94.469406
29.515356 76.2135 91.68041
31.429358 75.150505 91.67641
5.8673553 74.8535 85.01441
6.9003563 73.8195 85.85641
23.509357 66.2395 80.914406
21.91436 66.4875 79.89541
5.8063583 67.7975 83.03641
6.539356 67.3255 84.64041
27.278358 1.0105057 60.713406
25.702358 1.1815033 59.549404
9.299358 3.338501 60.974407
7.487358 3.5055008 61.436405
9.356358 17.502502 31.60241
8.037357 16.933502 29.764412
23.384357 12.457504 25.47541
24.231358 11.111504 25.834404
13.90136 88.6895 99.37341
12.426357 90.5605 100.53441
36.606358 97.2695 99.84741
35.234356 98.2375 99.79141
18.851357 54.6635 61.71541
18.764359 55.5465 63.52741
1.4953575 59.578503 62.90241
0.48135757 58.368504 62.96941
36.583355 54.8465 56.599407
37.811356 55.4385 54.981403
15.493358 51.301502 53.34541
16.63636 51.2435 54.548405
7.171356 106.374504 80.61641
7.0943565 108.3025 79.24541
29.663357 108.277504 80.57841
29.521357 107.9075 82.26841
23.83036 78.5715 72.68341
21.924358 79.7035 72.90241
6.6203575 84.2155 71.70241
5.216358 83.7445 72.86941
36.275356 90.0775 30.2864
38.051357 91.0315 28.859413
15.562358 85.8235 27.04441
16.926357 86.176506 28.358406
12.53936 102.788506 90.38541
10.62936 102.0195 91.79541
35.867355 107.1015 92.13241
35.248356 108.3835 90.34941
17.882359 30.011505 97.03141
17.918358 28.742508 98.97641
0.66835785 31.040512 101.06041
0.25135803 31.30751 102.74041
14.530357 32.10251 72.65541
14.78936 34.3515 72.87541
37.284355 35.55951 75.16341
37.386356 34.7865 76.64641
36.234356 104.941505 4.9134064
38.616356 104.6325 4.7324066
14.078358 105.304504 1.3084106
14.930359 104.9585 2.8094025
29.238356 44.001503 18.040405
30.286356 45.0735 15.989403
7.857357 45.9365 13.596405
7.3043556 44.9555 12.1354065
11.21336 37.845505 31.652412
12.121357 38.188507 33.554405
25.86436 30.84851 29.54641
26.92136 31.40651 30.9524
31.978357 53.9865 33.323402
34.129356 53.6105 33.06141
8.950359 50.1795 30.568413
9.770359 51.4975 31.050407
9.600357 2.0725021 79.82641
9.385357 2.5195007 77.30541
32.751354 2.9785004 82.78141
31.575357 3.800499 81.68641
18.309357 81.9355 50.765408
16.92136 82.902504 51.868404
0.61135864 83.178505 50.95741
0.8983574 84.1535 52.298405
38.280357 97.3795 19.962402
1.3793564 99.3695 20.539406
14.885357 93.540504 24.67141
16.13836 92.6875 23.792412
15.557357 97.7575 4.103401
16.306358 97.62051 2.0514069
32.650356 92.6535 2.2064056
33.827354 91.6545 1.2184067
18.932358 102.5075 14.407402
20.467358 102.3195 15.555405
35.702354 105.2815 11.951401
35.564354 106.4985 13.117401
8.800358 99.219505 90.44441
8.635357 96.8655 90.21641
33.547356 99.5995 94.86441
33.819355 101.2425 94.76341
11.487358 23.5345 64.52641
9.42136 22.767502 63.85741
33.564354 25.060501 68.49341
33.536354 26.610504 69.37441
4.477356 55.5205 90.58441
3.7263565 56.9015 91.91941
26.921356 59.834503 97.41541
25.572355 60.549503 98.01541
9.987358 57.7365 9.905403
10.78336 59.259502 10.738403
27.604359 57.9295 6.3734055
27.854359 57.3735 7.945404
19.327358 76.7935 54.309406
18.007359 77.3245 52.619404
2.843357 78.872505 56.566402
2.6203575 77.7155 58.021404
15.375358 113.9885 89.72741
15.170357 111.8845 89.73941
30.136358 105.2155 86.19741
30.608358 106.8935 85.66141
11.945358 62.3995 26.994408
12.99036 62.7745 28.428413
36.457355 67.2695 31.116402
36.777355 66.513504 32.85441
27.895357 33.6855 20.785408
27.285357 31.7845 21.7304
25.536356 25.668503 14.076401
23.885357 26.467514 14.568405
9.815357 7.2365036 65.71541
10.856358 9.184502 66.98941
26.67036 5.213501 59.57141
27.11736 3.942505 58.56241
13.76936 70.9645 36.650414
13.09536 71.4125 34.93441
35.963356 76.093506 32.04641
36.386356 77.4865 30.945412
0.21735764 20.698502 1.485405
38.838356 18.679504 3.0664062
23.142357 18.638504 5.301407
22.651356 18.1475 3.884407
32.265354 105.2155 102.51641
31.861357 106.7095 101.09841
15.270359 108.9365 100.11841
14.23436 108.6555 98.87841
5.572357 88.305504 71.81341
5.598358 86.6585 73.31441
26.380356 88.6855 78.19841
26.555357 87.6285 80.01641
15.10236 51.2425 50.712406
15.353358 49.4285 50.76141
37.803356 49.7195 46.834408
37.638355 48.9485 48.269405
25.057358 57.772503 98.10041
24.39936 56.4245 96.35741
9.739357 62.1165 99.19841
8.297356 62.952503 98.62441
31.704357 81.8115 7.3874054
33.446354 83.151505 6.3874054
9.513359 75.524506 3.4874039
9.913357 74.7715 4.874405
35.161354 95.6735 1.3514099
35.429356 93.8905 2.8414078
13.334358 90.317505 4.0934067
13.86536 89.220505 5.2554016
24.24636 31.581512 8.470406
22.862358 32.912506 6.7294006
8.974358 35.1595 14.790405
7.229355 34.6315 13.666405
23.784355 14.172501 7.409401
24.921356 14.360504 5.2934036
0.94135666 12.911499 3.8164062
1.8173561 13.683502 5.0364075
8.87236 102.8405 70.01841
9.160358 104.6405 71.05441
26.133358 99.0725 75.30741
26.80436 98.580505 73.70741
2.2243576 70.4535 63.967407
4.0583572 71.8615 64.21841
19.267357 67.0465 59.813404
19.862358 68.24351 58.885403
7.288357 81.302505 86.70041
8.81736 82.6295 87.46741
25.17236 79.1755 84.14241
25.84536 79.149506 85.651405
24.773355 1.489502 28.014412
25.262356 2.8404999 25.984413
1.3143578 111.5145 22.844414
2.7053566 110.2975 23.478401
4.708359 106.0925 39.8014
5.8063583 107.0105 40.985405
22.313358 104.442505 41.584404
23.22836 105.1715 42.998405
16.877357 60.5405 46.546406
14.75436 59.905502 47.104404
2.0533562 64.4455 52.74941
2.1253586 65.7375 51.505405
32.189354 35.22551 60.882404
32.072357 34.7675 58.602406
16.059357 37.288513 64.93141
15.305359 35.802505 65.87941
6.347355 60.7205 101.18741
6.4743576 60.7135 99.21641
26.894356 64.4615 99.50341
27.468357 65.85651 98.57641
13.28936 35.64151 57.116405
13.785358 34.1035 58.066402
35.788357 31.615509 59.897404
34.685356 30.583511 59.188404
15.9033575 59.889503 43.32041
16.39336 61.7695 42.804405
37.734356 65.9055 43.552406
37.173355 66.4175 41.810402
29.956358 87.4095 92.78041
27.99836 87.206505 93.59841
14.128357 84.9785 97.96541
14.97736 86.3105 98.73741
20.395359 35.719513 87.06241
18.335358 36.109512 86.638405
3.3043556 33.91751 86.29641
1.9593582 34.5625 87.28841
3.7693558 55.7885 79.35441
3.9413567 54.1925 77.77841
20.661358 53.8325 78.83441
21.694359 54.9425 79.45941
24.688356 2.2164993 39.7154
25.199356 1.6474991 37.96241
2.442356 4.0245056 37.55941
3.0393562 4.439499 39.0884
27.68436 40.6995 26.568413
27.662361 42.3305 27.584404
10.642357 45.4165 30.734413
10.953358 47.4365 31.441399
14.26236 100.204506 105.73141
13.010357 101.025505 107.30641
34.800354 101.9895 106.56441
34.890354 103.317505 105.57341
5.2903557 26.207504 11.211403
4.8043556 27.8555 12.563408
20.260357 23.07051 9.491402
21.31836 21.7695 9.022408
24.957355 75.2785 78.66641
26.625357 75.318504 76.900406
3.7823563 73.7255 72.97741
3.220356 73.8255 71.30241
0.8433571 96.1815 29.1594
0.50935745 94.872505 26.734413
15.473357 87.0835 21.282402
17.016357 86.23151 21.683403
22.623356 57.418503 78.92141
24.244356 56.1565 78.512405
0.52635574 61.252502 74.32141
0.54535675 61.203503 72.72741
28.050356 33.6615 16.559402
28.843357 32.21051 14.995407
4.555355 31.7155 15.381401
5.819355 32.875504 15.806404
6.1703568 12.473503 26.802406
6.791355 11.341499 24.963402
22.99036 8.419502 26.634407
23.438358 6.9085007 27.04441
18.86536 96.8975 39.050407
20.208359 95.441505 38.51841
23.154358 92.8625 45.739407
22.32336 92.0915 47.02741
26.424358 19.398514 31.208412
26.167358 18.985504 33.39141
9.036358 19.266502 34.6354
8.459358 20.392502 33.597404
0.65135574 68.291504 63.57641
38.372356 69.1315 61.71241
21.411356 65.4445 64.38141
20.387356 64.4605 65.31741
18.29636 40.40851 56.563404
17.946358 38.386505 57.161404
32.398357 33.4485 52.898403
32.067356 34.7545 53.814404
31.514357 16.293503 64.93941
32.506355 14.818504 66.04041
8.6013565 14.1465 62.98541
9.724358 15.755501 62.46041
30.028357 79.9075 96.78141
29.549356 80.0285 98.93341
12.253357 82.4365 98.70141
12.001358 84.1895 99.40641
4.659355 18.732506 23.025414
4.055355 16.849503 21.775414
25.948357 13.722504 25.134407
25.932356 15.179504 24.640404
26.323357 44.398506 2.2204056
27.819357 42.804504 2.6334076
2.8683586 37.510513 103.72341
3.7023582 37.371506 102.21041
10.573357 80.5085 11.843407
9.882359 77.831505 12.221405
33.537357 84.5345 10.327408
33.198357 84.8625 8.797401
14.947357 72.344505 33.386406
16.167358 71.7645 31.782402
32.628357 67.77251 33.735405
32.268356 67.3115 32.178413
36.861355 19.038506 89.97341
37.918354 18.961502 87.65541
12.405357 10.809502 83.74441
13.660358 11.944504 84.02041
16.329357 18.774506 76.45641
17.808357 19.546509 75.40941
31.779356 17.898506 70.080414
32.503357 18.968506 71.35841
15.627357 92.21751 29.770409
15.8843565 93.9795 28.803413
38.471355 97.276505 25.849403
37.521355 98.5845 26.442406
14.42836 73.679504 41.121407
14.348358 71.303505 40.97941
36.503357 74.121506 36.890404
34.920357 73.401505 37.7434
19.67836 10.5075 5.6044006
18.770359 11.550499 3.3554077
2.241356 15.158501 2.3684006
1.9443588 16.9525 1.8014069
35.955357 88.1445 19.738403
37.296356 86.8365 21.260399
12.797359 82.5565 18.081406
14.360359 81.7705 19.139404
38.519356 40.2155 71.41941
0.74235535 40.386505 69.75541
14.179359 33.1725 69.59241
15.08136 32.538513 68.36641
16.369358 58.147503 53.655407
15.223358 56.2695 54.335407
38.781357 59.1305 56.204403
37.485355 57.989502 55.98641
20.757359 87.1685 57.16641
18.93536 88.358505 56.062405
2.067356 84.3935 54.69441
1.9003563 82.787506 54.273403
6.121357 0.9035034 39.58541
6.4783554 0.23750305 41.815407
22.264359 108.3935 39.40641
22.21236 107.0665 38.291405
23.134357 96.235504 49.12341
22.201359 94.430504 48.90141
5.237358 95.831505 48.017406
3.6223564 96.6435 48.232403
24.91436 13.086502 30.593407
24.06136 11.443504 31.9524
8.133358 13.807503 35.8014
7.447357 12.236504 35.2434
10.700359 15.989502 42.739403
11.25536 15.455505 44.813408
26.79036 15.879501 43.351402
27.31036 15.351501 44.90141
16.291359 37.97551 59.51141
16.26336 36.216507 58.308407
28.923357 28.151505 55.240406
30.264357 28.553513 56.103405
18.175358 95.9895 27.757408
16.362358 95.5075 26.277412
2.3213577 102.635506 27.956413
2.7033577 104.2515 27.175407
4.8633575 77.124504 76.76941
3.4953575 74.9065 77.85141
27.145357 78.4235 77.872406
26.602356 79.9535 78.74341
22.043356 75.748505 57.148403
22.926355 74.012505 57.425404
38.812355 72.8075 53.744404
0.9153557 71.6555 54.257404
18.230358 58.259502 64.06141
16.12936 59.0265 64.15941
1.6123581 62.959503 59.560406
0.66635513 62.246502 61.015408
32.869354 55.5845 31.498405
32.336357 56.0895 29.347404
8.109356 47.426502 27.683403
9.468357 47.9295 28.469414
8.346355 3.9965057 50.981403
7.498356 4.7854996 49.140408
29.409357 4.5145035 49.578403
27.578356 4.744499 50.05341
16.02636 101.4355 1.9124069
16.097359 99.7835 0.48440552
32.785355 99.5585 107.12341
33.072357 100.665504 0.7074051
19.479359 96.8485 23.116402
20.452358 98.1175 21.7434
35.175354 97.0065 19.024406
35.704357 98.220505 17.857407
22.458359 36.941513 5.711403
21.454357 38.884506 5.8454056
21.69936 33.162506 2.6904068
22.42736 31.693512 2.4374008
20.930357 78.4865 52.670406
22.354357 76.7395 52.256405
36.629356 81.969505 49.004406
37.983356 81.8415 47.98341
11.515358 49.293503 29.461403
12.819359 49.9695 27.838402
27.97636 49.988503 22.19941
29.245356 48.841503 22.287407
30.991358 113.2085 81.32341
29.076357 113.2305 80.16041
12.634357 2.4244995 79.55041
11.869358 3.564499 80.45241
0.25535583 32.245514 98.66641
37.423355 32.538513 99.803406
20.819357 28.767502 98.94641
20.265356 26.917511 99.09141
31.420357 78.2535 23.2584
33.273357 77.9865 22.3274
10.017357 72.721504 21.5234
11.0023575 71.388504 21.558403
27.187357 8.053505 36.192406
26.034357 8.370506 34.446404
2.8583565 4.1455 27.41941
3.2043571 3.6105042 28.876411
17.52636 97.538506 37.02941
17.320358 99.7955 36.16941
1.227356 97.565506 31.8964
0.71035767 97.2785 33.6334
1.3633575 107.2585 30.501411
0.11935806 105.6015 29.336403
23.334356 107.0605 34.525414
22.778357 106.8555 32.998405
25.46136 64.6405 102.09041
24.24836 65.2785 103.67241
9.010357 72.7945 103.44441
8.767357 74.3945 103.05841
20.856356 10.236504 8.304405
21.795357 10.522499 10.096405
37.303356 4.4835052 6.4914017
38.226357 5.852501 7.0104065
23.347357 79.3335 59.25041
24.417356 81.0305 58.393406
38.500355 77.0195 53.574406
0.16135788 75.402504 52.767406
10.663357 110.9175 84.30941
9.9953575 109.8975 86.01641
35.829357 2.4765015 90.79341
36.690357 3.8235016 90.79741
0.30635834 89.7025 39.89141
0.5693588 91.9875 39.526405
18.237358 89.9775 34.877403
18.88136 91.3525 33.514412
30.439356 79.1605 10.906403
30.722357 81.1745 11.114403
14.682358 87.1815 9.751404
14.65736 87.9945 8.375404
35.841354 80.2955 44.127403
35.089355 80.360504 42.0904
19.149357 85.1455 40.17141
18.97136 86.2505 38.8404
18.286358 42.0895 62.210407
18.51136 41.2855 64.46441
33.099354 37.595505 59.853405
34.552357 38.479507 60.52541
27.956356 28.229507 30.010399
28.779356 27.40451 28.524406
6.352356 25.721512 24.963402
6.7823563 27.479507 24.53341
31.124355 62.9025 22.617409
31.016356 64.829506 23.068413
6.861355 63.079502 19.769402
6.6673546 62.0405 21.32241
37.329357 2.1795044 10.078407
38.487354 4.0634995 9.444405
23.752356 12.781502 12.685402
22.416355 13.436501 12.074402
23.47536 71.498505 76.90441
22.697361 69.5435 76.78241
5.9273567 71.7585 79.27941
6.072357 72.4245 80.93441
19.74236 45.614502 56.87341
19.95636 43.514503 57.226406
32.792355 36.280502 50.187405
33.635357 35.688507 51.83041
16.795357 62.8235 67.85941
16.899357 61.2605 66.52641
2.048355 64.3335 62.89041
1.727356 65.859505 63.57241
20.783356 7.3735046 1.0694046
22.068356 7.690506 2.6174011
38.582355 9.189499 0.11040497
38.323357 10.920502 0.5974045
27.902359 56.8605 22.593407
28.062359 58.190502 20.8124
11.591358 61.6165 23.460411
11.486359 62.8875 22.232399
38.086357 40.94951 77.75641
38.323357 42.014503 75.35941
15.700358 38.030502 73.09641
16.61736 37.1165 72.02241
10.062359 21.520508 61.30341
9.314358 23.556503 59.965405
32.608356 22.408508 63.313408
31.895357 20.9095 63.706413
21.578358 68.7295 65.85741
19.98536 67.0995 66.20041
4.1673584 71.6855 67.91841
3.1643562 71.6755 66.63141
0.5443573 6.069504 21.019402
38.102356 7.9015045 19.958405
23.816357 13.1325 21.716408
23.903357 14.279503 23.206413
32.741356 81.2365 18.059402
33.072357 79.4215 19.751404
7.3603554 70.4265 15.530403
8.903358 69.916504 15.421402
27.03836 86.5345 91.19541
25.584358 84.3265 89.91241
11.344357 94.6845 91.07041
11.26836 94.773506 92.90741
7.4263573 24.173508 20.981407
6.008358 25.010513 19.001404
22.28136 24.420502 12.903404
22.23536 24.1165 11.179405
25.022356 72.3505 74.74741
23.680357 70.305504 74.10041
0.32235718 63.9865 73.60941
1.0573578 65.5905 74.14541
11.902359 19.455505 62.45341
11.70636 18.013504 63.82541
29.654356 18.4775 64.68141
29.950357 18.111504 66.17841
12.291359 77.8955 13.550407
14.04636 77.0205 13.884407
29.40536 78.5565 5.820404
30.036356 80.275505 5.8994064
12.500359 111.4535 90.69741
13.01836 111.707504 92.60641
36.910355 0.79050446 94.65741
36.680355 113.8295 96.08641
21.778357 35.676514 92.93041
23.208357 38.12651 93.58541
0.22335815 34.554504 95.44941
0.8513565 34.647507 96.97141
30.629356 57.2885 9.871407
30.900356 54.6015 9.1094055
3.029358 54.843502 105.59541
4.262356 54.0625 106.74141
16.454357 88.3205 5.315407
16.196358 85.9605 5.933403
29.832357 79.942505 1.634407
30.331358 78.7035 0.53440857
11.52636 53.114502 38.2324
9.964359 51.723503 37.830406
34.405357 56.7265 43.58741
34.078354 58.5465 44.121407
18.42936 63.064503 56.362408
17.93536 61.931503 58.225407
2.5773582 66.498505 60.97141
1.8873558 67.4075 59.691402
14.871357 10.365501 92.36541
17.037357 10.892502 92.74241
32.363354 7.810501 88.55641
33.411354 6.5245056 88.34841
31.024359 78.012505 19.006401
30.017359 79.942505 18.133408
15.514358 78.8505 23.79641
14.357357 77.6735 23.929405
34.551357 63.480503 39.277412
35.866356 65.261505 39.205406
12.10236 56.967503 37.856407
12.500359 56.182503 36.496407
32.883354 18.141502 74.51841
31.14136 18.600502 75.59441
17.12936 20.607513 78.66841
16.351357 20.846512 80.22341
19.83936 12.920502 107.02941
18.508358 14.710503 107.16641
1.982357 19.597504 106.94141
1.0323563 20.96251 106.27741
27.355356 21.524506 33.15641
28.289356 22.0195 34.994408
5.998356 17.428505 33.2304
5.656357 15.566505 33.782402
37.915356 72.7525 43.6314
37.495358 75.1965 42.49241
16.517357 75.526505 44.0514
16.577358 74.9495 42.123405
9.193359 53.050503 9.331406
9.304359 53.947502 7.525406
22.58836 53.9665 106.34341
24.30336 53.9845 107.00441
3.4723587 90.99551 51.88841
2.2873573 89.4395 53.33341
18.786358 85.6025 52.33341
19.195358 87.2365 53.55541
23.837357 1.1225052 19.721405
24.688356 2.303505 21.589409
2.345356 1.065506 21.269402
2.8583565 113.805504 22.037407
28.924356 73.1005 98.93441
28.184357 71.1145 98.08241
5.6503563 64.5985 96.39641
7.258358 63.626503 96.25941
1.9053574 48.3665 84.11141
3.6043587 46.8445 83.69441
20.573357 47.2125 84.373405
21.038357 47.2425 82.80941
21.296356 70.6675 56.806408
23.319357 71.6435 56.020405
38.436356 67.873505 51.116405
38.302357 66.582504 50.029408
32.372356 69.8985 31.201408
33.214355 71.8005 31.110405
16.702358 78.2985 35.736412
15.887359 77.9525 34.254402
30.538359 28.874512 45.245403
30.594358 31.041504 44.896404
14.413357 30.3535 51.892406
13.186359 29.7845 50.836407
27.466356 113.9835 58.363407
27.377356 112.2735 57.146404
4.8823586 107.8725 52.576405
5.2033577 109.6135 52.454403
29.303358 109.7395 85.32341
28.12236 108.2325 84.50641
12.34536 114.0695 83.58341
10.934357 113.1875 83.11741
37.561356 60.654503 62.75741
36.940357 61.4725 60.974407
20.341358 60.891502 62.016407
19.798359 61.8535 60.808407
1.4683571 19.686508 101.57641
2.5323563 22.0215 102.12541
19.76836 19.591507 104.25641
20.000359 17.9085 104.06141
26.666359 113.7035 65.36641
26.30336 111.7755 66.56441
9.5403595 111.4515 68.61241
8.205357 111.3175 67.83741
33.939354 89.9055 12.637405
34.947357 88.3525 11.736404
12.670357 86.9585 12.055405
12.967358 85.274506 11.957405
35.985355 90.6755 21.042412
36.161354 92.7105 20.006401
14.81736 90.5295 20.5074
14.981358 89.831505 22.106407
38.260357 44.4985 68.49041
38.847355 43.496502 70.31041
36.523357 40.308502 75.68741
36.425354 39.5965 74.00741
33.628357 28.635513 65.08341
35.058357 29.977509 65.80941
11.899357 26.2155 64.25041
12.69236 27.286499 63.18241
23.865356 113.3675 36.0384
24.126356 112.0085 34.2844
3.0753555 112.8445 32.170403
2.2893562 114.1835 31.414406
36.246357 88.35651 9.038406
36.508354 86.2385 9.969406
11.864357 83.177505 3.5194016
12.677357 82.2815 2.3634033
33.500355 36.336502 55.40041
31.743357 35.987503 56.338406
18.850357 39.498505 59.167408
18.195358 39.871506 60.68041
3.9983559 70.802505 84.21841
3.9263573 68.7275 84.969406
27.870356 69.4605 86.89941
26.997356 67.943504 86.23741
14.668358 25.589508 64.35641
15.569358 26.873505 66.06541
29.238356 26.084503 57.001408
29.470358 24.435501 57.076405
34.284355 95.553505 100.56741
34.105354 95.5475 102.76741
16.778358 95.4475 0.011405945
16.31136 93.7995 106.525406
8.559357 77.454506 96.52841
7.590355 77.206505 98.35641
32.045357 76.3415 106.98441
31.216356 75.9035 1.1024094
9.36636 76.012505 99.80641
10.538357 75.373505 101.664406
27.00436 70.580505 100.77241
26.979359 69.3205 99.84341
29.415356 50.461502 28.735405
30.635357 50.7195 26.765404
7.510357 45.2545 25.619408
7.918358 44.6465 27.0924
28.687357 57.570503 3.8734055
29.373356 58.1525 1.4134064
7.072357 58.3535 3.1644058
8.195358 59.7125 3.0304031
15.920356 69.969505 38.15641
16.396358 72.124504 39.17341
32.707355 67.02151 38.58741
33.950356 67.3505 37.44941
34.207355 16.830505 88.64141
32.890354 15.460503 89.26641
17.99936 18.711502 92.97841
17.759357 20.818512 93.47441
30.690355 52.5765 31.404411
31.448357 50.3245 30.85041
8.187355 45.675503 29.69941
8.214355 44.1035 29.8124
11.132359 15.947502 53.320408
11.954357 17.668503 54.51441
27.030361 15.378502 48.993404
28.13036 13.918503 49.67841
2.4383583 70.484505 59.072407
2.8333588 69.055504 57.362408
16.36736 66.2925 50.506405
15.842357 67.5005 49.27541
24.10936 62.8675 83.90641
23.74736 61.197502 85.56041
8.118355 65.110504 90.15641
6.760357 66.2505 90.400406
13.62236 82.5775 8.9844055
12.5403595 82.7835 11.067406
35.007355 85.4885 15.422401
34.568356 85.718506 17.244408
3.1913567 82.276505 65.11841
2.963356 84.247505 66.19941
27.149357 89.9245 68.55641
26.936356 89.858505 70.43541
27.353355 72.374504 95.73641
29.079357 74.0335 95.38241
6.4523582 69.0605 93.08841
7.341358 68.3375 91.596405
16.465359 106.6815 6.955406
17.26936 108.4105 7.233406
33.652355 105.8075 3.1704025
35.103355 105.3655 2.3314056
5.2643585 2.4934998 41.744408
5.333359 3.4505005 43.489403
29.046356 6.005501 41.89141
27.700356 5.027504 41.851402
17.40836 27.33751 81.43541
17.947357 25.8405 83.24541
32.920357 18.942505 82.32541
34.646355 18.129501 81.77041
21.90636 98.970505 59.543407
20.891357 99.789505 61.046406
6.0353546 97.8895 59.920406
5.3083572 99.1605 59.112408
27.615356 109.5565 67.11141
28.368357 110.0195 65.32241
5.935356 105.6015 64.96741
7.1573563 104.485504 65.20241
6.1273575 111.2255 66.15241
6.029358 109.3365 66.55341
28.445356 0.59550476 69.34041
29.199356 0.24150085 71.01341
8.714359 72.846504 3.0384064
9.468357 72.539505 1.172409
27.397358 71.4315 104.85341
28.446358 70.3655 105.08441
25.795357 42.8245 99.22641
25.793356 44.8755 100.00141
2.8263588 47.620502 98.094406
2.7543564 46.4495 96.65441
15.4223585 56.078503 47.115406
16.37336 57.8465 45.519405
32.507355 55.072502 40.361412
33.634354 56.4425 40.69941
12.878357 5.037506 87.776405
13.26236 6.5385056 86.636406
35.812355 7.471504 89.402405
35.581356 6.2695007 90.64641
19.127357 109.1285 27.997414
19.460358 109.2405 30.41941
3.5163574 108.8135 35.420403
3.6033554 109.0445 33.78141
23.76036 82.707504 79.08441
23.26136 82.98151 81.414406
7.2383575 81.7655 81.67741
7.208355 82.151505 80.094406
15.619357 62.376503 39.0644
16.600357 64.38351 38.819405
29.737356 60.639503 28.634407
30.199358 61.966503 29.451408
14.0403595 94.8345 17.016403
12.037357 96.0295 17.338402
0.5553551 103.263504 18.931404
38.354355 102.511505 20.002403
5.350357 56.710503 85.09741
4.2563553 58.0905 84.13041
26.633356 60.6805 86.64841
25.409357 60.926502 88.03141
34.758354 42.225502 56.660404
36.684357 42.484505 57.677402
14.64436 40.2545 51.615406
15.473357 41.890503 50.941402
18.967358 82.3975 44.1764
20.07536 83.2975 45.98541
34.957355 87.2085 42.078407
35.917355 88.566505 41.553413
5.692356 3.0945053 31.944405
6.913357 3.9325027 30.04641
21.26336 0.5815048 22.741402
22.187359 1.9175034 22.233406
7.534355 31.967514 22.828407
8.496357 32.2585 24.384407
25.148361 30.065506 21.72541
25.966358 28.716507 20.806404
24.347357 93.5985 51.907406
25.199356 91.6115 50.961407
38.621357 98.791504 41.89141
38.843357 100.0845 40.85041
22.03236 19.455505 102.55541
22.028358 18.3695 100.16641
21.555359 21.7995 104.34941
20.267357 22.880508 103.75641
5.546356 7.1065063 42.67341
4.2033577 7.0715027 40.7324
27.650356 10.775505 44.5664
27.015356 9.122505 44.7284
8.793358 64.4865 7.2694016
8.867359 66.440506 8.377403
31.637356 65.9515 8.929405
30.029356 66.5735 8.307404
36.232357 107.3275 0.8684082
37.210358 107.2795 2.8014069
13.135357 105.2235 100.56241
13.988358 106.2135 99.69741
9.422359 70.4175 11.332405
8.53336 69.608505 9.380402
30.935356 71.4635 10.898407
30.524357 71.9055 12.948402
38.328358 79.35651 45.24841
38.677357 81.3355 45.238407
16.37236 82.2085 48.729404
17.396358 82.1845 46.989407
32.409355 64.7245 36.987404
32.020355 62.8615 37.81141
19.461357 63.044502 45.15041
17.99936 62.5525 44.7134
11.69236 79.705505 106.21241
10.884357 78.582504 0.39840698
34.116356 85.9175 3.506401
33.226357 86.5035 4.923401
25.010357 81.9945 63.11641
26.751356 82.1295 64.92341
0.17835617 72.6195 59.589405
0.12835693 71.0225 60.030407
1.0723572 57.3615 69.32241
2.1433563 58.9435 67.82241
18.937359 57.078503 66.57741
20.604359 56.8855 66.98141
30.267357 53.0885 16.671402
31.440357 54.1185 14.955406
7.3043556 50.8535 10.255402
8.2263565 51.6535 11.375404
11.962357 60.1665 29.356407
13.811359 60.799503 30.392403
29.17636 57.717503 27.441399
29.646357 59.0105 26.442406
8.600357 24.929504 45.834408
8.115356 24.7995 47.959408
34.542355 32.88051 51.20741
33.501354 31.629501 50.952404
26.42836 39.364502 22.907402
25.46836 36.926514 22.444405
9.008358 42.236504 21.570412
9.147358 44.001503 21.953407
8.299358 87.0995 93.86441
8.49036 84.9585 93.206406
31.762356 85.6165 97.36141
31.350357 83.7965 97.11041
14.371357 18.5895 71.33941
15.628356 17.665504 72.86241
30.386358 15.038506 73.85541
31.584356 15.831505 74.78841
26.079361 28.55751 18.010406
24.38836 27.507507 17.487404
7.894356 27.524506 20.380402
7.6033554 26.786499 21.774406
11.332359 65.31351 6.164406
13.059357 65.6855 7.8684006
29.698359 68.0345 4.893402
28.745356 69.8295 5.1254044
37.903355 64.3645 48.827404
38.161354 64.31351 46.654408
16.652359 65.82851 47.09741
17.632359 65.17551 45.96941
31.95436 92.8755 5.0054016
32.574356 94.5355 7.0994034
16.87236 93.537506 13.890404
15.26936 93.0325 13.277405
8.948357 68.8545 88.80041
8.986359 70.3425 89.98241
24.65736 64.20351 90.98041
25.92236 63.779503 89.761406
27.029358 45.231503 16.246407
27.81036 46.3175 17.707405
11.965359 51.1725 23.415413
10.941357 50.2365 22.617409
1.7353554 49.5275 76.02041
3.5593567 48.058502 76.64541
19.645359 50.9925 74.40141
19.857357 49.2645 74.73341
18.397358 78.067505 48.520405
17.08236 79.3335 47.58341
1.9403572 74.5875 55.976406
2.0253563 75.3245 57.575405
14.536358 9.458504 87.35241
15.601356 8.184502 87.87041
31.851358 6.2205048 84.94541
32.067356 7.8115005 84.00941
11.19936 109.7675 97.00541
12.066357 110.3415 99.16341
35.368355 106.4745 100.88541
34.484356 106.1125 99.52041
0.9683571 49.072502 78.54641
0.19835663 50.926502 78.22641
25.294355 53.8195 87.42141
25.208357 55.2225 86.26941
35.538357 100.6815 4.233406
35.412357 98.4365 4.6824036
13.82436 96.082504 1.4754028
13.128357 94.4315 1.2224045
5.0263557 50.794502 2.3034058
3.7633553 52.704502 1.6624069
27.847357 48.6495 7.2744064
26.036356 48.869503 6.7884064
11.698357 102.8235 94.18541
13.77536 103.971504 93.86941
30.718359 102.165504 90.41041
31.127356 101.9065 92.04241
28.064356 74.9525 85.63541
26.763357 74.2295 84.65841
3.5793571 72.1155 77.86741
4.489357 70.930504 77.00241
29.061356 95.6195 90.32141
29.440357 95.2395 88.081406
5.4503555 90.358505 83.93341
6.7263565 91.523506 84.42441
2.2033577 86.594505 46.371403
3.3193588 88.1715 47.256405
19.941357 88.387505 46.716404
20.51836 86.900505 47.36141
23.807358 114.1215 44.50341
23.410358 1.7275009 44.64141
7.440357 1.6235046 48.08141
6.9343567 2.9085007 47.177402
11.232357 108.0195 82.99541
11.12336 109.3035 81.094406
27.369358 103.969505 76.68541
27.662361 105.0595 75.31641
37.808357 42.456505 51.781406
37.264355 40.328506 50.723408
13.216358 36.737503 46.880405
14.820358 37.0905 47.162403
8.401356 104.860504 60.549408
8.952358 103.555504 59.39841
24.90736 102.6425 66.18341
25.362358 101.5145 67.49141
0.46635818 7.2085037 105.13141
2.1203575 7.7765045 106.83341
17.03336 6.779503 102.81041
16.521358 7.9035034 104.13041
20.493359 56.4795 60.297405
22.12136 56.169502 59.413403
35.166355 54.0885 52.167408
35.583355 52.523502 51.978405
5.473358 21.308502 22.589409
5.0593567 23.552505 22.673409
27.657356 22.808502 26.91941
28.466356 24.734512 26.888405
9.043358 68.39651 2.4604034
8.142357 66.1315 3.056404
8.57436 72.358505 6.481407
9.244358 71.525505 7.865402
23.08236 32.2265 105.14441
22.049358 33.884506 106.78541
5.7613564 37.2585 4.513405
5.237358 36.464508 3.0624008
5.751358 69.1595 102.77641
7.692356 69.9825 103.775406
23.882359 66.2825 97.44941
24.79036 65.774506 98.78641
11.01236 84.676506 106.15341
9.523357 85.6675 105.56041
35.585354 93.412506 105.07741
34.736355 93.693504 106.539406
20.33136 90.873505 43.670403
19.87336 90.8785 46.170406
4.3213577 98.0595 45.882404
3.4153557 99.6005 45.785404
12.530357 59.3535 38.97541
12.061359 60.0395 36.515404
36.789356 70.8775 41.819405
35.478355 69.8575 41.82441
8.79636 14.725502 45.811405
8.76236 16.782501 45.81941
31.374357 17.5475 52.226406
31.245356 16.3535 50.88841
6.121357 23.43451 13.206406
7.5873566 23.6595 11.482407
21.231358 14.871506 9.932404
21.71336 13.134506 9.330406
25.24736 62.0485 100.52241
24.433361 63.1035 98.78241
7.7643547 63.1305 102.89641
6.9413567 61.9515 103.71241
10.453358 45.856503 14.595406
9.966358 47.7265 15.743401
28.70436 47.036503 15.0334015
30.186357 47.4235 14.784401
23.266361 54.829502 91.178406
23.092358 53.5605 92.67541
6.392357 54.7015 97.247406
6.868355 55.280502 98.91941
33.132355 87.6735 7.844406
33.083355 89.5015 8.395401
16.555359 90.8675 11.977402
15.851356 89.666504 10.956406
31.036356 82.1865 105.74441
32.129356 80.50951 106.88841
7.9673576 80.5765 97.55941
8.753357 81.3145 96.51041
38.193356 24.463501 87.317406
1.1733551 26.0195 88.45441
16.764359 23.7435 93.40441
18.010357 23.533508 94.42141
20.997356 54.342503 63.014412
22.487356 54.6465 61.50441
38.303356 54.7055 63.82241
0.6633568 55.5535 64.58741
8.133358 105.4335 68.04441
6.7383575 104.663506 69.64341
29.993357 106.6255 71.79241
28.104357 107.3115 71.45441
24.850357 25.054504 5.197403
25.882357 24.19551 3.5774078
0.38035583 23.227509 0.045410156
1.7943573 23.470505 106.43441
13.447357 83.3225 107.06441
13.023357 81.843506 104.97641
29.716356 77.3835 103.14741
30.247358 76.6715 104.83641
31.447357 12.108505 67.59941
32.809357 13.6775055 68.47441
8.702358 9.3965 63.33341
8.170357 7.749504 62.76141
38.132355 81.6445 53.074406
38.081356 82.705505 55.088406
22.941357 83.3925 57.02741
22.365356 84.7795 57.342403
26.972359 1.5185013 67.23041
27.520359 2.8515015 67.95841
10.510357 6.4555054 72.24541
10.1013565 4.912506 73.12341
13.430359 90.0495 11.914406
12.298359 89.0865 10.194405
35.565357 92.5225 9.920403
33.980354 91.7025 10.638405
24.988358 47.1155 106.53741
23.44336 46.5285 104.77441
7.508358 47.6255 2.9864044
6.0403557 48.4235 3.2344055
19.038357 106.8145 26.311409
20.716358 106.8645 27.91941
36.280357 99.4865 20.1874
37.327354 100.081505 21.50541
24.139357 29.959503 5.365402
24.835356 28.060501 5.841408
1.9473572 28.811508 4.256401
2.6303558 30.300507 5.185402
29.516356 6.8515015 56.147404
29.382357 5.328499 57.645405
4.7433586 110.541504 56.83241
5.4363556 109.3715 55.60941
26.89236 50.0145 33.0514
27.042358 47.8265 31.849403
11.438358 54.8205 30.795403
10.6653595 56.3725 30.519402
11.40736 10.694504 76.76441
11.354359 10.393501 74.92741
27.203358 5.239502 74.53041
28.347359 4.791504 73.71041
10.236359 85.6595 90.15541
11.280357 83.8645 90.372406
25.74036 79.8095 88.30541
27.33036 79.138504 88.57541
7.366356 92.8895 51.488407
6.397358 91.110504 52.812405
21.569359 87.776505 61.488407
21.92836 86.3515 62.038403
22.86636 90.5695 51.186405
21.75436 89.4615 50.001408
5.1773567 92.9505 47.20541
5.4933586 92.5895 48.823406
9.105358 9.523506 55.799404
7.625355 8.009506 55.939404
30.006357 8.702499 54.08241
29.506357 9.456505 55.58141
23.931356 111.8935 31.6484
24.132357 113.3855 29.9804
1.0313568 109.1395 28.343407
2.6413574 109.6955 29.3014
19.466356 98.7695 34.54441
20.380356 100.0875 36.2884
37.714355 93.9495 34.49041
37.673355 92.747505 33.18241
11.11636 80.1875 97.40141
10.97736 77.9485 97.80041
26.035358 74.469505 97.60741
26.536358 75.6325 98.90341
19.559357 52.9445 58.51141
18.146358 51.6385 59.282406
1.8813553 53.871502 62.82341
1.7823563 53.099503 61.10941
16.44336 79.2705 29.706413
16.488358 77.1295 29.984413
32.489357 71.749504 27.000404
32.564354 71.707504 25.389412
15.566356 84.1705 34.373405
15.486358 85.8365 32.9634
38.194355 85.59251 33.17341
37.970356 84.2575 32.5064
37.000355 111.1555 9.512405
36.604355 112.8445 11.325401
20.421356 5.2434998 9.217407
18.906355 5.142502 8.558403
32.283356 2.0494995 85.91141
30.838358 0.68650055 86.40341
14.693359 1.7065048 87.539406
13.439358 2.5935059 86.85141
37.867355 1.1705017 15.424408
37.513355 2.8845062 13.614403
22.247356 5.282501 12.026405
20.503357 6.093506 11.988403
2.3773575 38.711502 93.596405
4.260357 38.7545 91.86941
19.465359 37.237503 89.13541
21.163357 38.0085 89.06541
10.01836 5.564499 48.293407
10.724358 7.287506 49.86141
24.19936 3.3665009 48.95741
25.258358 4.616501 48.105404
3.824356 1.1685028 27.5214
2.6783562 113.4545 28.542412
25.632357 4.3455048 28.24041
24.486357 5.281502 29.135399
38.410355 54.4385 72.72841
36.910355 55.474503 73.83641
23.217356 60.7495 73.29241
24.222357 60.7775 75.03041
30.063356 82.3965 3.9844055
28.36536 82.4205 4.9484024
15.320358 92.317505 7.5334015
15.392356 92.2095 9.322403
5.7943573 29.893509 24.4394
5.0963554 29.295502 26.46241
30.677357 36.51451 34.3554
30.375357 38.0175 34.68641
26.119358 108.4145 59.27641
25.27536 109.9745 58.23641
7.840355 107.791504 58.592403
7.3063583 109.0695 57.51241
4.062359 52.779503 4.2104034
4.7243576 52.7005 6.228401
30.896357 61.808502 9.294403
30.903357 63.6365 9.860405
38.875355 49.9275 53.74941
0.7073555 48.815502 55.99941
17.368359 45.9435 54.825405
17.444359 45.188503 53.08141
15.618358 102.735504 5.433403
17.270359 103.3255 3.7554016
32.647354 97.0005 5.3474045
33.828354 96.0575 4.304405
3.1933556 57.251503 77.15341
3.9243584 58.996502 76.93941
19.403358 63.4095 73.30741
19.462357 63.9015 71.72241
8.199356 23.02951 35.218407
8.825359 22.916504 33.1914
25.74236 23.319504 37.565407
25.446358 24.046509 39.000404
3.744358 81.1305 67.83641
5.1343575 80.152504 66.01741
21.307358 75.2365 66.97341
21.06036 76.1745 65.74941
28.09536 8.0215 52.396404
27.58736 9.960503 53.853405
9.857357 8.654503 58.384403
9.392357 8.416504 60.162403
25.36036 112.3565 59.910404
23.69136 111.5225 60.21941
8.1013565 113.2745 64.02441
7.541355 113.5935 65.60141
4.725357 29.162506 19.999405
4.128357 29.711502 21.75341
27.383356 29.177505 26.417412
26.338356 30.689499 26.42141
14.510357 29.787506 79.71241
15.945357 30.134506 81.15541
3.3773575 38.89151 87.63941
2.8933563 37.954514 89.17141
37.481358 49.6995 59.538403
0.23335648 49.141502 60.93041
17.564358 48.723503 57.766407
17.444359 48.8855 59.431408
24.488358 102.304504 59.948406
22.98936 101.4945 60.62341
7.5733566 107.791504 61.612408
7.5263557 106.555504 62.87641
7.409355 94.6255 86.89641
8.322357 93.0475 87.82641
31.695356 94.4355 93.66641
30.189356 94.2085 93.02041
29.751356 33.4525 28.466408
29.717356 31.57251 29.412407
6.7573547 31.5195 31.353401
6.9623566 32.59851 30.093407
36.450356 89.25951 27.4264
36.098354 90.00951 25.58741
13.919357 81.8835 24.611412
15.087357 81.760506 22.959404
28.482359 60.1435 22.821404
29.156359 61.2615 24.500404
14.58836 63.5605 33.959404
14.49836 61.6455 33.026405
16.04736 110.8505 1.0954056
15.042358 112.5845 2.4014053
38.349358 0.9595032 6.301407
37.580357 1.8635025 7.3054047
33.211357 1.2945023 88.82841
32.135357 0.74850464 90.89341
16.40736 8.093506 93.817406
15.756358 6.305504 92.97441
16.666359 34.612503 67.94841
16.730358 34.704514 70.45141
33.331356 33.15451 64.47341
34.188354 31.994507 63.89641
0.65335846 99.8355 35.69741
38.316357 99.7945 33.905403
23.431356 101.9585 39.64341
22.331356 103.176506 38.711403
0.80135727 9.009506 8.277405
38.624355 8.313499 6.237404
23.462357 16.392502 9.116402
22.202356 17.3545 9.904404
28.26036 30.370514 35.22541
26.75336 29.459503 35.3554
11.112358 34.34651 37.2694
10.082359 35.910507 36.670403
6.5093575 91.2035 71.74641
5.300358 90.455505 73.43441
28.085356 93.2225 74.80441
27.484356 91.7115 74.55541
33.514355 99.636505 6.0054016
31.65536 100.2125 6.782402
17.508358 100.4515 11.4724045
17.195358 99.9585 9.976402
4.380356 1.3554993 18.431404
4.6843567 113.6735 19.158401
19.51936 107.9445 16.485405
18.87436 106.2225 15.835403
5.0893555 107.4055 62.391407
5.673355 109.3495 60.667408
28.620356 111.9425 62.998413
28.858356 112.6955 64.37641
3.1043587 21.0775 15.813408
5.1343575 20.818512 17.636406
21.757359 20.461502 11.505402
22.751358 19.155502 11.725403
24.576357 81.8105 66.913414
25.540356 80.2815 66.62941
1.3473587 76.788506 61.97041
2.6303558 77.6145 63.19041
25.107357 101.5485 42.0194
25.456356 103.593506 41.3124
1.213356 105.040504 37.3944
1.9293556 106.6455 38.09841
10.292358 107.693504 71.14141
12.356358 108.9765 70.66741
26.48236 105.2605 66.64041
27.708359 106.5515 66.15741
30.633356 74.287506 103.23441
30.344357 72.3515 103.61541
7.1773567 64.5155 100.45241
8.045357 65.609505 101.74141
5.994358 97.7675 72.88141
5.128357 96.0065 73.67741
28.880356 92.8515 71.09441
27.777357 92.0055 71.830414
12.259357 15.1605 74.64941
10.973358 13.274506 75.32741
35.189354 19.2275 72.25541
35.130356 20.408508 73.69141
14.74136 103.679504 98.89441
15.168358 104.373505 96.46341
29.555357 101.9195 95.22041
31.082357 100.998505 94.90341
34.811356 39.1365 51.046406
34.281357 41.5195 50.76441
19.028358 42.362503 51.163403
18.08136 41.7755 49.701405
0.83335876 95.9245 41.14141
1.5453568 95.301506 42.750404
2.961357 99.1405 37.8854
1.390358 98.7855 38.746407
0.30335617 43.9065 84.234406
0.8623581 45.7345 84.19641
27.516356 54.6185 91.85241
25.736357 54.2825 92.41741
4.7003555 57.0125 102.90341
2.8633575 55.3525 103.00641
26.459356 55.1355 1.523407
27.616356 55.3025 3.0054016
38.698357 99.081505 12.991402
37.608356 97.2845 13.619408
13.13036 96.12051 10.202408
13.31036 94.63451 9.827408
10.191357 43.4855 39.63241
10.306358 41.7905 38.65841
31.390356 40.605503 37.96441
30.481356 39.079502 38.412407
28.18436 37.747513 33.032402
26.66536 37.397507 31.265404
10.604359 41.759506 31.994408
9.857357 40.165512 32.262413
27.728355 102.3545 66.59241
29.011356 103.9345 65.96841
5.487358 100.6125 64.52141
6.2833557 99.1725 64.50241
21.495358 103.7575 17.585403
22.271358 103.5895 19.7294
33.864357 97.305504 10.611404
33.927357 98.692505 9.320404
32.098354 46.2535 35.958412
33.470356 44.613503 37.058403
9.83136 38.6185 35.2284
11.28236 38.982502 35.994408
16.670357 3.8775024 94.46441
16.60936 1.550499 94.29241
33.240356 112.0695 93.68741
33.109356 110.2125 94.13141
15.14336 24.7305 67.81941
13.62236 24.9915 69.49541
35.192356 28.561508 70.03741
34.670357 29.224503 68.54041
14.348358 69.6005 32.4674
14.9763565 68.468506 30.711403
30.276358 64.0145 31.0904
31.221357 63.433502 32.696404
19.19236 70.6455 51.995403
19.952358 70.3775 53.83341
35.631355 63.188503 49.629406
37.030357 62.6155 50.796406
26.667358 90.523506 81.52241
25.815361 88.8115 82.28441
11.13636 88.2965 90.00541
10.216358 88.401505 88.59041
11.270359 79.0035 15.660408
10.839359 81.2985 14.683403
32.805355 78.1265 14.096405
33.023357 78.6975 12.238403
20.344357 112.8215 11.453407
20.843355 0.87550354 10.282402
36.364357 110.1975 2.9904022
36.952354 111.8955 2.5364075
9.874359 43.6595 12.136406
9.388359 43.3105 10.124405
22.597359 41.4315 7.1914062
22.555359 40.0265 8.013405
26.255356 36.4115 19.678406
27.964355 35.456512 18.713402
2.0713577 30.505508 16.655403
2.449356 29.119507 15.771408
24.891361 58.3875 107.03641
24.611359 57.634502 1.4774017
8.51136 60.2055 106.27741
7.8273582 59.5275 104.80741
17.197357 44.0525 57.882404
17.24736 41.7075 58.364407
37.991356 46.0075 58.45641
36.571358 45.1505 57.907406
33.943356 4.4585037 86.846405
34.397354 4.1655045 84.75541
9.934357 113.5325 80.43841
10.739357 112.0435 80.58541
25.229357 94.0215 62.324406
25.014357 93.275505 60.731403
3.0713577 96.5365 60.324406
3.3883553 95.3505 61.34441
22.976357 15.851501 0.97541046
22.828356 18.278503 0.97341156
34.029354 14.480499 97.85941
33.876354 13.792503 96.30941
18.104359 0.14250183 10.989403
16.96336 1.3465042 9.198402
2.3543587 9.6325 12.498405
2.1043587 10.794502 11.254402
22.792358 108.5325 43.6164
22.918358 110.1605 44.990406
6.0513573 109.5815 42.8574
6.501358 111.0435 41.469414
7.5133553 88.74551 82.25441
6.1383553 87.4495 81.47341
30.160357 93.0065 83.41241
28.943356 92.0845 82.55541
26.958357 59.5695 100.26841
27.384356 59.8785 102.02041
5.031357 58.390503 94.89341
6.303356 59.342503 95.04641
27.893356 67.124504 88.85441
28.729357 66.940506 90.89041
5.4863586 64.471504 88.45341
5.7953568 62.7905 87.90441
6.425358 50.6305 91.66341
6.868355 52.9315 90.22841
21.772358 53.044502 87.42141
22.391361 53.468502 88.89541
0.05835724 114.1145 0.85041046
0.63235855 112.3455 2.386406
14.575359 107.7815 105.98541
15.2713585 107.4835 104.48741
23.715357 47.605503 92.665405
24.533356 46.0315 93.45941
0.8303566 42.6525 93.59841
2.116356 43.6095 93.20141
37.305355 47.8035 62.264412
36.578358 48.4025 63.94841
22.747356 50.8595 70.51041
23.595356 52.147503 71.70741
30.626356 35.54651 39.1464
31.625357 36.7435 40.498405
7.6703568 31.515503 34.08941
8.188358 29.7845 33.9914
15.613357 21.527512 75.75341
13.767357 20.808502 76.96741
37.010357 17.9935 79.67741
35.597355 17.128502 79.07841
24.326357 10.2155 29.710411
25.455357 11.574501 28.26841
3.2783585 10.679504 26.61541
4.7223587 10.162506 27.2734
3.0853577 50.0915 82.21141
1.5943565 51.0555 83.55741
25.972357 57.0325 83.51941
25.272356 55.489502 83.41341
6.7803574 0.37950134 51.131405
5.288357 111.9315 51.23341
27.941357 1.0815048 53.963406
27.837357 1.2045059 55.55441
26.92236 7.9524994 75.02041
25.050358 7.4524994 75.53541
11.488358 4.6884995 77.75941
10.59536 5.0074997 76.40541
2.9003563 109.5375 37.99041
1.1853561 108.9685 37.063408
25.420357 111.8365 43.97941
24.967356 111.5195 45.744404
1.6963577 69.42451 70.58641
1.5973587 67.940506 72.31841
25.193356 68.6025 77.11941
25.634356 67.037506 77.18741
9.933357 17.385506 56.334408
7.9523582 18.490501 54.945408
32.606354 21.657501 58.862408
32.176357 22.218506 60.519405
38.057354 79.7225 55.169407
0.07035828 78.4075 56.089405
24.466356 83.3275 60.716404
23.880356 83.664505 59.209408
1.4533577 44.2535 81.608406
1.9813576 43.663506 79.69641
18.105358 40.703506 81.27941
19.591358 39.446503 81.20241
8.72736 60.363503 91.28641
8.307358 61.918503 89.66241
24.26036 56.3875 88.83341
24.89936 56.967503 90.46641
24.59636 52.2785 100.07441
23.652359 54.259502 99.74841
6.038357 53.621502 100.97041
4.784355 53.5635 102.12641
18.198357 57.7535 49.839405
20.327358 56.6885 49.933407
34.062355 60.6575 42.5214
35.020355 61.7745 41.828407
8.379356 16.2025 39.47341
9.979359 16.836502 38.524406
25.70636 10.494499 36.51641
26.090359 12.170502 36.772408
37.180355 29.134506 93.21341
37.470356 30.53151 94.97541
21.085356 30.964508 96.47341
20.073357 31.847504 97.61941
36.012356 78.3895 39.7024
36.557354 77.2095 37.5214
14.001358 73.6595 36.9094
14.892357 74.3005 38.377403
24.164356 32.426514 0.7164078
24.155355 30.438507 106.93741
0.77635574 24.477509 102.82241
0.883358 23.214508 103.92641
13.661358 30.367508 62.43241
12.13736 29.497513 61.48641
35.409355 34.369507 65.97241
35.424355 35.97351 66.62641
0.4423561 67.0285 66.82241
2.404358 67.2665 66.03341
17.785358 63.0805 64.73641
18.79036 62.855503 63.65241
35.400356 109.3905 95.28241
36.179356 107.4325 94.65541
34.399357 104.0055 91.46841
32.727356 103.8975 91.91841
31.334356 81.8195 99.64041
32.195354 81.3655 97.76641
8.083355 78.720505 93.09241
8.573357 79.2125 94.55241
5.826355 48.6575 5.717407
4.036358 50.1045 4.921402
28.429356 53.0045 6.905403
29.882357 51.8105 7.7504044
15.453357 51.307503 41.9824
17.152359 53.1665 43.19741
30.363356 44.2055 39.4914
