35.85388 99.112206 66.15814
36.571884 101.4412 66.429146
14.618879 97.0322 65.377144
14.357882 96.1162 63.984146
27.810883 17.379196 106.04114
26.019882 17.574203 104.87014
9.364882 18.902206 105.90114
8.632883 17.3992 106.11114
38.268883 45.905197 49.804146
38.809883 45.24521 51.955143
23.207884 40.979202 56.388145
23.268883 42.1252 55.300144
8.375881 105.5392 20.665144
7.0908813 104.2832 20.132145
30.236883 109.9522 23.491144
29.662882 108.8392 24.594145
11.891883 111.3442 30.192144
12.445883 110.126205 32.261143
29.551882 109.0942 30.170145
29.778883 109.6162 32.012142
14.327883 10.516205 27.571144
14.453882 10.378204 25.373144
29.543882 5.9162064 27.330145
30.411882 7.330208 27.705145
30.330883 3.1122055 25.564144
31.116882 1.026207 24.506145
8.066883 111.3032 23.648144
9.887882 111.9792 23.746145
13.793882 56.513203 98.93314
13.320879 57.760204 97.49514
37.976883 59.530205 104.70414
0.4288826 59.076206 105.02514
28.482882 106.30521 25.145145
28.118883 107.6652 26.661144
11.948883 112.226204 25.731144
12.493883 0.9402008 24.489145
31.714882 66.5102 68.182144
33.088882 64.7152 68.79414
8.047882 60.391205 65.34414
8.846882 60.143204 63.548145
34.470882 53.143204 0.33714294
33.699883 54.594204 107.51314
18.789883 55.368206 8.098147
17.667883 54.790203 9.772143
10.206882 75.9632 38.813145
9.936883 77.0352 37.012142
26.033882 76.625206 33.299145
26.131882 74.987206 32.373142
10.453882 110.6362 34.126144
9.309883 110.0512 32.711143
31.891882 108.4002 37.712143
31.717882 108.3462 36.011143
4.553883 102.517204 97.00414
4.191883 100.5322 96.36614
20.214884 99.7862 94.19114
21.222883 100.974205 93.74614
24.325882 34.191208 81.97514
23.835882 36.0952 83.28414
8.503882 40.072205 82.28314
9.314882 40.701202 83.76014
17.41688 82.98421 82.95114
16.627882 81.23421 84.30314
38.208885 83.8122 87.48214
37.107883 83.81721 88.710144
14.31288 11.752205 42.158146
13.90288 9.982208 42.376144
35.354885 9.124207 45.104145
34.557884 9.47921 46.461143
29.725882 102.611206 22.094145
31.131882 100.9252 22.737144
5.398884 99.808205 13.219144
7.0278816 100.490204 13.230144
34.705883 44.2072 13.442144
33.696884 43.656204 15.283144
16.922882 43.336197 10.348145
15.928883 43.7162 11.5861435
38.251884 108.3942 87.53514
0.97888184 108.545204 89.08214
16.858881 106.085205 90.07714
17.65388 105.7762 91.63714
0.0538826 31.574203 49.265144
38.507885 33.237198 51.037144
21.601883 36.236206 49.712143
21.807882 34.695206 49.132145
31.781883 82.1322 72.06614
30.252882 80.16621 72.210144
15.958882 87.5602 77.42014
14.752883 88.0062 78.40814
31.396883 49.963196 92.53814
30.081882 48.652206 94.38714
13.917883 51.296204 95.460144
13.822883 51.7352 97.140144
28.862883 62.970203 60.742146
29.288883 64.473206 59.487144
5.889881 59.640205 56.537144
6.728882 60.668205 55.365143
21.093884 98.4702 83.140144
21.066883 96.9112 85.26614
36.487885 92.458206 88.34114
37.746883 92.655205 87.28914
1.1708832 81.226204 8.732144
2.3818817 81.375206 10.7891445
25.854883 87.833206 16.506144
26.752882 87.6172 17.899145
18.705883 49.713196 28.504145
19.771883 50.3732 29.825144
4.560883 57.585205 36.424145
3.7478826 58.80021 35.350143
17.607883 94.558205 83.27214
18.487883 94.167206 81.570145
34.619884 92.6622 81.60414
36.058884 92.1222 82.36414
23.015882 3.7952042 96.23614
24.338882 2.495201 97.64314
1.8498802 112.1362 99.79014
2.2578812 112.0052 101.39214
3.3878825 9.1502075 85.54414
3.1998827 7.078209 84.23014
19.476883 4.5672073 84.98214
20.126883 3.3402023 83.62514
36.768883 36.867203 29.581144
35.553883 35.684204 31.194145
19.233883 41.086197 30.172144
17.821882 40.372208 29.502144
26.415882 50.922195 68.19014
27.300882 52.683197 66.33115
9.937882 55.809204 65.596146
10.389883 55.874207 67.21314
13.661882 15.0132065 24.822145
14.846883 16.1512 26.538145
29.178883 11.996208 22.798143
30.065882 10.720207 21.944143
23.290882 76.876205 13.549144
22.687883 75.1472 14.308144
6.2648826 79.8942 18.696144
5.423883 81.5522 19.065144
32.664883 95.6612 33.499146
34.170883 96.1322 34.971146
8.193882 101.7832 32.018143
7.087883 103.1482 31.449144
12.31188 83.5912 66.63414
10.419882 81.3992 66.46214
34.462883 84.2142 74.36614
34.282883 82.919205 73.24014
9.952883 26.341202 108.79514
11.606883 27.127197 107.47614
25.299883 19.814209 6.4681396
26.852882 20.270203 6.124138
33.560883 17.283203 13.276144
34.571884 18.428207 11.071144
9.965881 20.867203 13.404144
8.529884 21.632202 12.680144
11.823881 78.226204 69.51814
11.254881 78.83221 67.43614
35.164883 85.698204 67.30114
35.194885 86.2552 68.75914
9.849883 76.8832 31.002144
11.749883 76.489204 32.382145
24.534883 78.42821 23.396145
24.679882 79.2312 24.932144
29.323883 13.213203 15.676144
29.455883 12.805206 17.875145
13.452883 18.354202 20.903145
12.053883 18.906204 20.354145
7.752884 34.255203 98.29814
6.997883 31.769196 97.66514
29.214882 34.201202 99.224144
28.396883 35.729202 99.252144
16.023882 111.02721 70.665146
15.90288 109.0772 71.19914
38.313885 111.8542 70.98214
37.066883 0.9042053 70.92514
21.074883 48.420197 18.812143
21.751883 49.780197 19.986145
34.100883 50.004196 11.860144
35.372883 48.838196 11.451144
36.903885 12.319206 65.75514
35.581882 10.945206 64.958145
18.607883 9.406204 68.722145
16.970882 9.162209 69.81614
27.340883 2.7372055 2.75914
29.462883 3.6692047 3.4921417
4.8088837 111.9672 108.08714
5.401882 0.4302063 106.737144
19.646883 50.7442 22.168144
18.074883 51.70221 23.710144
2.5058825 52.381195 26.525145
1.8898823 51.9272 25.021145
17.895884 108.3112 88.37414
16.615883 107.3282 86.75914
2.8598826 2.3832016 89.20314
2.0598829 3.575203 88.49914
23.643883 50.997208 46.267143
25.036882 51.201202 44.998146
37.931885 47.130203 36.738144
0.19787979 47.1382 38.146145
4.856883 75.6482 13.693144
6.320883 76.6342 15.212144
23.155884 72.5212 10.635144
22.243883 70.9522 10.022144
10.667883 77.7142 42.736145
11.202883 79.4262 43.702145
27.551882 80.267204 45.686146
28.114882 81.8552 45.915146
8.525883 65.778206 49.219143
8.450883 64.531204 47.574146
24.591883 62.169205 47.390144
25.199883 61.561203 46.023144
16.289883 24.757202 28.710144
16.588882 26.788208 28.562145
31.207882 21.438202 27.865145
32.614883 21.756195 28.903145
33.574883 0.9792023 62.872143
32.741882 111.5752 61.707146
16.474882 2.0512009 62.053146
16.209883 1.113205 63.563145
23.564882 98.765205 0.29314423
22.985884 99.460205 107.53414
5.998883 102.1792 2.6791382
4.7888827 101.1572 3.0191422
14.785883 9.123207 30.751144
14.365883 6.9912033 31.282145
26.945883 111.8982 24.108145
27.360882 109.9502 23.774145
4.4408827 101.3432 103.24314
5.193883 99.0392 103.14514
20.368883 98.3182 99.37414
22.060883 97.6222 99.598145
23.129883 29.013199 82.51914
22.931883 31.124207 82.99714
7.781883 37.266205 80.10614
7.7628827 37.31421 81.61114
16.017883 70.0082 91.26014
16.333883 68.9362 92.96114
30.927883 67.851204 92.22014
32.297882 68.378204 91.16314
24.647882 53.293198 43.611145
22.784883 53.603195 45.262146
5.0978827 55.742203 43.258144
4.417883 54.296204 42.174145
13.86688 80.2332 75.52814
13.300882 82.2412 76.02614
35.322884 86.654205 78.10814
34.275883 85.4782 77.93614
10.288882 1.5822067 20.009144
10.955883 112.1022 20.691145
26.956882 2.2412033 17.138144
27.043882 0.6202011 17.659143
26.826883 19.989197 106.36814
28.168882 19.587204 108.16114
4.7118835 18.206207 100.63414
5.4428825 17.069199 99.68814
6.0998826 73.2722 9.740144
6.528883 73.323204 7.404144
21.338882 68.056206 12.000144
21.877882 69.7682 12.353144
3.8898828 84.4112 2.1711426
5.1308827 85.6162 3.6031418
21.408882 80.8702 0.046142578
21.738882 81.279205 106.96414
26.779882 20.953201 1.1271439
25.203882 20.573196 108.64514
12.526883 29.291199 0.6051407
12.621882 29.57721 2.3151398
37.76388 76.571205 101.75514
36.696884 74.378204 101.59614
23.091883 78.5362 103.65114
22.274883 79.88721 103.11014
32.557884 77.06921 62.853146
32.667885 77.3862 60.966145
10.824881 76.045204 60.861145
12.00588 75.892204 62.143147
6.574883 41.6382 57.750145
6.765883 41.4402 60.343143
22.054882 45.0242 57.344143
23.450882 43.85521 57.068146
11.0748825 86.6892 33.042145
12.079883 87.0182 34.933144
25.549883 82.212204 27.834145
24.446882 81.3292 26.937145
1.1068802 48.548203 26.241144
37.830883 47.78621 25.879145
23.943882 56.752205 26.631145
22.454884 56.558205 25.711145
34.436882 31.495209 23.716145
35.179882 33.525208 23.110146
13.081881 34.484207 19.563145
13.66688 35.712204 18.639145
29.626883 85.3722 47.501144
27.420883 84.045204 47.465145
14.358883 92.1602 47.221146
12.733883 93.1872 46.283146
27.182882 75.01221 26.837145
27.757883 77.083206 26.796144
4.098881 74.3142 25.318144
4.898884 75.5202 24.567144
38.317883 39.367203 32.648144
37.035885 39.35521 30.558146
20.149883 40.7742 32.863144
19.664883 42.331207 32.689144
2.2378807 98.8292 96.93914
0.84088135 100.7862 97.96414
24.765882 107.6432 101.53914
24.443882 109.0052 102.31914
2.4358826 63.945206 27.199144
2.0418816 65.779205 25.601145
24.071882 70.003204 24.607145
22.750883 69.0652 24.926146
32.518883 98.0762 29.797144
32.643883 100.462204 29.988144
7.9008827 98.3862 26.848145
7.7018814 99.0942 25.044146
6.747883 55.316204 67.87114
7.542881 55.805202 69.91914
31.246881 60.524204 67.17514
30.684883 58.862206 67.28114
17.697884 89.723206 76.55214
17.267883 88.1612 75.21314
32.102882 88.516205 69.21114
32.806885 87.433205 68.21814
36.315884 32.38321 46.100143
35.422882 32.242203 44.141144
19.288883 36.042206 42.861145
18.632883 34.478195 43.746143
29.942883 96.48521 29.972145
30.886883 94.9262 31.302145
7.125881 94.1352 24.679144
7.742882 92.5892 25.775145
15.74288 43.640198 15.015143
14.18088 44.719208 13.816144
3.0018806 54.8432 16.552145
2.66288 56.358208 15.805143
11.710882 74.1162 68.30014
11.210882 72.0242 67.762146
34.004883 77.9512 69.432144
34.313885 77.6722 71.19914
21.655884 82.348206 12.101144
22.130882 84.058205 10.006145
5.804883 84.184204 8.7041445
4.325883 83.2862 9.727144
25.579884 48.5542 59.606144
27.505882 50.0562 60.798145
1.9088821 42.665207 56.723145
3.5538826 42.934204 55.927143
1.2498817 21.7612 62.576145
0.07888031 21.088196 60.927143
23.565884 23.847198 65.124146
23.566883 25.175201 66.06014
11.318883 60.571205 76.55014
11.500883 58.048203 77.44414
26.512882 52.995205 70.45114
27.257883 53.249203 71.87814
11.503881 5.7512054 26.799145
9.542881 5.841202 25.522144
34.856884 11.137207 32.817142
34.056885 10.098206 33.735146
27.523882 57.939205 71.37214
29.072882 59.206203 72.67614
6.0018806 53.483204 69.91214
6.618881 51.736206 69.81114
29.151882 57.402203 74.70114
26.609882 58.455204 73.96214
11.614882 60.129204 79.50514
11.023883 60.083206 81.05614
36.015884 39.8412 18.878143
34.98588 41.6622 18.431145
19.584883 47.074203 24.936144
18.665882 46.281204 26.181145
27.246881 89.19421 14.048144
28.238882 90.6042 15.243144
5.6238823 86.69321 14.048144
6.0938835 88.434204 12.783144
2.8668826 53.390198 38.381145
4.783883 52.365204 39.281143
20.519882 49.560196 37.081142
20.776882 47.752197 37.465145
37.871883 18.224197 52.817146
0.06188202 16.585205 52.023144
15.99988 17.6902 53.175144
16.705881 16.7482 51.982143
9.117882 35.71721 103.05214
9.247883 37.9312 103.89114
32.705883 37.298203 2.450142
31.399883 36.4682 2.6031418
20.757883 17.887207 66.80814
22.325882 19.497208 67.181145
36.958885 16.147202 61.673145
38.161884 17.422195 62.399143
33.52788 17.020203 36.100143
35.452885 18.405197 35.448143
12.912882 12.149208 33.840145
13.330881 11.702209 35.565144
4.8148828 21.714203 76.80514
5.779883 22.67421 75.06014
21.422882 22.562195 69.863144
22.197884 21.751205 68.71814
34.240883 21.223206 35.037144
34.606884 20.571198 37.008144
18.032883 25.433197 41.200146
18.005882 26.087204 39.252144
35.552883 9.663208 56.881145
35.465885 11.577209 55.840145
20.192883 14.103203 59.796146
19.256884 13.422203 60.942146
30.077883 110.226204 37.044144
28.844883 108.8662 38.379143
11.235883 111.5262 36.434143
11.412883 0.38220215 35.508144
20.295883 10.976204 65.48214
20.493883 10.346207 63.191143
36.59688 11.448204 62.456146
35.241882 12.81321 62.481144
9.151882 60.267204 74.29614
8.553883 60.429203 76.53014
32.386883 63.215202 72.86614
31.688883 63.730206 71.15114
36.997883 79.850204 96.974144
35.99988 77.8522 97.17814
21.328882 83.042206 97.91314
19.887882 82.085205 98.182144
34.404884 44.77321 9.234141
36.49288 45.837204 8.120143
13.31888 37.7892 6.1831436
13.611879 38.846207 7.581142
34.463882 6.2302017 38.08214
34.391884 3.8302078 37.219143
9.998882 0.5022049 32.374146
11.077879 1.549202 31.557144
28.778883 46.172195 78.69214
27.087883 45.27121 77.473145
11.409883 45.460205 80.59114
9.891883 45.113205 81.24714
23.080883 108.489204 105.35314
24.175882 110.281204 106.40214
9.332883 109.1472 2.1871414
9.292883 110.3422 3.521141
25.551884 78.9252 28.005144
24.580883 77.3242 27.196144
9.902883 81.125206 32.227142
9.709883 81.6632 33.959145
9.659882 67.126205 66.263145
8.478882 67.02621 67.82614
32.539883 72.445206 66.99114
31.278883 73.3022 68.43314
19.490883 89.6472 99.13514
21.214884 91.058205 98.112144
38.73588 88.3972 96.015144
38.304882 87.8402 94.60614
31.433882 33.60521 9.602144
31.138882 31.917206 10.524144
14.421883 34.882202 6.856144
14.630882 35.507202 5.090144
3.8788826 86.363205 108.28014
3.9438827 84.4812 108.22614
19.003883 76.9382 105.15514
19.514883 77.13721 103.70714
31.936882 95.4802 36.723145
30.185883 94.4102 35.897144
12.9238825 95.8182 37.235146
12.761883 96.2842 38.982143
6.9068832 108.1432 3.758144
5.389881 106.572205 4.5231442
28.822882 110.5372 11.850144
27.345882 111.0222 11.015144
27.937883 86.211205 19.955145
28.395882 84.30321 20.705145
4.591881 82.7162 13.792144
3.7158813 81.3132 13.159144
14.042883 25.45221 8.607144
14.849883 27.214203 8.213144
30.556883 25.879196 12.544144
31.792883 25.1232 13.7701435
7.5138826 46.7742 68.67014
7.0658827 47.1062 66.44914
21.135883 42.209198 63.696144
22.818882 42.614197 64.182144
9.647881 7.2042084 17.455145
9.040882 9.307205 17.491144
32.257885 13.272209 19.071144
32.13188 11.844208 18.454144
24.110884 27.181198 75.88514
24.653883 28.79921 74.91014
1.3408813 23.063202 73.40214
1.7648811 22.313202 74.751144
23.185883 47.45221 59.069145
22.057882 46.17621 60.381145
9.346883 53.253204 66.78314
7.859883 52.642197 67.568146
27.278883 62.405205 47.579144
28.140882 64.66421 46.240143
4.689884 58.840206 43.345146
5.7328835 59.516205 44.739143
11.273883 98.0052 33.407143
11.672883 95.6302 34.291145
27.510883 93.6072 31.863144
27.328882 93.1892 33.524143
7.6688843 82.406204 24.501144
5.2938843 81.9372 23.920145
29.913883 85.780205 25.762144
29.644882 86.85921 27.029144
5.0488815 9.351204 107.24114
4.8528824 7.976204 0.08314514
29.546883 11.178207 108.75914
28.849882 9.893204 107.807144
25.141884 32.1882 84.10614
26.298882 32.691208 85.55914
3.9308815 30.887207 83.52014
5.2878838 30.004196 84.015144
30.883883 110.836205 39.565144
29.022882 110.4842 41.173145
15.151883 0.6382065 47.454144
14.224883 1.2192078 46.260143
2.13488 68.9672 8.483144
1.160881 66.8572 7.625144
23.933884 72.4502 14.440144
22.548883 72.2842 15.434144
20.075882 77.9102 107.73414
21.698883 77.1202 106.113144
36.898884 75.24821 106.22214
37.265884 75.8402 104.36114
31.919882 8.905205 31.741144
30.128883 9.102203 30.445145
14.441883 12.114204 30.764145
13.156883 13.141205 31.129145
6.405884 95.1652 17.018145
5.976883 97.2302 17.123144
29.414883 96.084206 21.071144
29.603882 96.4082 19.341145
20.398884 101.0222 87.18814
21.185883 100.766205 84.82314
36.968884 97.698204 82.36614
36.660885 99.1742 82.97014
32.707882 9.440208 37.646145
30.379883 9.695206 37.446144
15.716883 8.466209 41.175144
14.348883 7.573204 40.538143
38.209885 42.79921 40.195145
37.453884 43.8002 41.610146
22.452883 46.751205 46.659145
21.280884 46.798203 47.805145
35.982883 54.594208 9.932144
34.664883 53.089203 10.768144
21.736883 53.665207 16.714144
21.125883 55.220207 17.143145
18.446882 7.2132034 66.61914
20.335882 8.470207 66.86914
35.349884 5.8672028 63.845146
36.615883 6.8672028 63.206146
13.051883 61.047203 70.67514
15.018883 62.229206 71.72614
27.720882 57.529205 64.99014
29.016882 58.395203 65.319145
31.340883 49.5092 85.02314
31.980883 47.783203 86.20314
6.250881 46.004196 76.12014
6.8248825 47.284195 75.09714
16.086884 71.0502 80.765144
16.593884 71.529205 82.68514
30.730883 64.585205 78.66214
31.794882 65.308205 79.86914
29.054882 13.35421 8.623144
28.774883 13.36821 10.626144
12.849883 19.360199 15.732143
12.115883 18.4982 17.233145
37.949883 88.3522 99.81314
37.685883 85.9092 101.39914
23.774883 93.627205 104.24414
22.645884 92.5822 104.75314
18.718884 107.3282 78.62114
19.555883 109.4642 79.16014
35.02088 107.267204 74.23914
35.739883 105.7202 74.05314
33.935883 106.3562 52.537144
33.36088 104.1792 52.611145
12.47888 103.6482 53.782146
12.300882 103.892204 51.800144
34.393883 101.9252 68.110146
36.113884 102.2982 69.235146
12.724882 104.781204 64.877144
14.13088 105.44421 65.09114
32.947884 8.045204 40.037144
32.658882 6.1992035 39.976143
16.048883 6.7892075 46.912144
15.184883 5.373207 46.590145
31.212883 31.737198 17.231144
29.769882 29.736206 17.118145
16.182882 37.632202 14.688144
15.514883 36.566208 16.004145
24.349882 65.639206 32.158142
24.210882 65.1192 34.123142
9.204883 69.264206 40.392143
8.611883 68.933205 41.943146
32.066883 72.05421 64.17714
33.373882 73.8442 64.53614
9.193882 69.3992 61.919144
10.63788 70.05221 62.632145
1.9188805 89.6852 107.67914
1.6738815 87.5382 108.09014
25.569883 87.0812 3.7371445
23.882883 86.48421 4.5501404
36.037884 23.04921 38.165142
36.313885 22.79921 36.134144
14.83988 17.915207 34.785145
15.913881 19.0932 34.066143
32.561882 78.78921 72.83014
32.668884 79.9252 74.62514
18.453882 80.625206 81.960144
17.552883 80.8412 80.41914
4.516884 41.4422 63.675144
5.5088806 40.728195 65.83614
7.021881 33.52121 71.01314
6.495884 34.471207 69.680145
29.507883 13.920204 5.8871384
29.300882 13.200203 4.1141434
5.332882 10.520203 1.4411392
6.8408813 11.406204 1.0581436
31.927883 86.6182 78.14314
32.479885 89.37421 77.97214
16.907883 90.333206 81.67814
16.572884 91.7822 82.599144
19.526882 28.050201 55.436146
19.698883 28.796204 53.808144
3.980883 28.110199 58.649143
2.7038825 26.958206 58.979145
16.733881 18.710205 46.069145
16.246881 16.694199 46.557144
38.878883 19.637207 48.837143
37.976883 18.013199 49.569145
26.064882 110.2742 17.356144
24.505882 111.4402 18.064144
10.488883 104.490204 17.187143
9.180882 105.0052 16.098145
37.319885 68.2712 103.10014
35.509884 67.2722 102.60914
19.254883 72.987206 102.88414
19.786882 74.4092 103.77514
8.640881 77.2742 47.595146
8.176884 75.835205 49.454144
32.084885 76.8972 56.348145
30.903883 75.878204 55.563145
13.163883 95.3442 51.087143
13.841883 94.0112 52.672146
30.391882 88.8432 45.792145
30.454882 90.2192 44.826145
14.831882 106.4682 56.887146
16.405882 105.9912 55.265144
32.997883 108.6772 50.706146
33.444885 109.5652 49.217144
5.9408836 44.38321 59.929146
4.587883 43.1922 59.219143
27.819883 48.991196 64.58614
26.912882 49.45221 63.249146
3.1628826 34.792206 56.717144
3.9798825 32.701202 57.724144
20.446882 30.6232 58.612144
20.774883 31.619202 60.222145
34.128883 10.407204 24.610146
31.996881 10.004204 23.460144
7.0538826 3.4632034 20.032145
8.740883 3.6352005 19.301144
24.063883 83.141205 8.381144
24.472883 83.292206 10.550144
1.8408813 80.6772 4.778144
3.1308823 81.849205 4.4441442
32.097885 110.2572 33.356144
32.690884 108.05521 33.366142
10.3718815 104.545204 28.984144
9.720882 103.3972 30.290144
3.5708826 19.581207 75.79714
4.625883 20.266205 73.85114
18.825882 10.329208 77.71814
17.975883 10.533203 79.37514
21.971884 111.5362 93.59714
22.194883 109.5052 93.53214
0.7338829 111.44421 95.08614
1.9148827 110.139206 95.07814
0.9958801 76.3522 4.007141
0.16987991 76.6052 2.0511398
23.892883 75.5242 4.4511414
22.684883 75.5482 2.8831406
14.715879 48.282196 4.50914
14.245882 46.171204 4.7461395
38.397884 53.102203 7.760143
38.761883 54.184204 8.849147
27.317883 71.0632 47.360146
26.431883 71.12321 49.381145
10.750883 75.23421 50.885143
9.743883 76.3262 51.974144
31.228882 38.017197 105.95714
29.601883 36.295197 105.93314
17.664883 42.708206 5.9941406
17.193882 42.2162 7.609142
34.943882 76.6202 85.60214
33.808884 76.656204 87.668144
20.318882 84.31821 91.96914
20.553883 85.474205 93.01814
11.54088 98.9932 35.995144
9.872883 100.6912 36.492146
31.179882 100.8432 35.362144
29.688883 101.0392 36.520145
36.705883 44.53621 29.507145
36.437885 43.4012 27.399145
21.327883 45.740204 35.417145
20.251883 44.978195 34.362144
23.967882 72.38721 22.743145
25.749884 70.960205 22.073145
3.6298828 74.2032 22.480145
3.6758842 73.058205 21.497145
6.352883 19.3152 94.51014
8.233883 18.992203 95.32514
23.119883 17.78621 90.89114
24.487883 18.9402 90.98114
10.910879 61.789204 86.05914
9.551884 61.595203 83.94814
34.501884 64.7542 91.62514
34.205883 66.6332 91.12314
32.691883 3.5222015 48.970146
31.208883 2.2152023 48.238144
15.940883 111.848206 54.517143
15.329883 110.2602 54.073143
25.783882 35.463196 62.234146
26.691883 37.685196 61.840145
3.1438828 32.8062 63.517143
3.5698814 34.3582 63.868145
8.3838825 87.3962 22.093143
9.746882 88.656204 22.956144
23.109882 84.115204 12.984144
24.405884 85.12421 12.458144
18.827883 110.5122 73.71614
18.703882 108.542206 73.99914
34.487885 107.458206 67.555145
34.133884 106.417206 66.20414
7.122883 76.669205 27.416145
8.587883 77.2572 28.379145
22.538883 72.279205 25.128145
22.671883 74.156204 25.681145
7.2558827 44.159195 68.42714
8.071883 44.4702 70.51014
22.608883 37.82921 67.596146
24.118883 36.934204 67.28414
23.816883 18.228195 83.16114
24.569883 15.861206 84.334145
1.9588814 14.769203 85.68114
1.3248825 13.353203 84.57414
4.332882 108.9392 96.07814
4.6098824 106.8022 96.26414
3.8218842 100.4832 99.06114
2.8638802 100.308205 100.50914
4.3598824 33.419205 82.22914
2.38488 32.880203 81.53514
27.580883 37.795197 79.58214
26.485882 39.045197 80.459145
22.924883 76.31721 8.014144
22.342882 76.847206 10.069144
4.882883 79.0222 9.6641445
4.8488827 77.226204 9.702144
35.060883 50.484207 0.6471405
35.309883 48.6532 107.64614
12.142881 43.32921 106.05414
11.612879 43.84221 104.46314
14.344883 33.88521 11.394144
14.385882 31.7482 11.035144
30.152882 26.851196 16.570145
31.492882 26.120209 17.180143
8.268883 93.5082 29.194145
8.159882 91.3462 29.717144
31.549883 92.583206 33.871143
30.012882 93.0892 33.188145
22.781883 22.245209 80.37314
23.008883 20.334198 81.41414
7.015883 22.433197 86.237144
5.4338827 22.379196 85.53214
7.831883 51.012207 60.923145
7.971883 53.3732 61.484146
25.450882 52.419205 60.603146
26.765882 52.711197 61.686146
31.819883 105.6792 45.870144
30.384882 104.1482 46.601143
14.9828825 106.1472 52.861145
15.465882 107.708206 52.802143
38.13888 85.17921 85.195145
38.101883 87.0182 83.35614
13.620882 86.336205 76.30414
13.203882 85.15021 74.81514
17.063883 36.305206 29.076145
17.136883 34.562195 27.621145
32.514885 32.602203 25.494144
32.53488 33.27321 27.272144
36.160885 46.471207 12.9611435
36.046883 45.4832 11.309144
15.04888 40.937195 13.719144
15.18788 39.2742 12.828144
36.420883 99.9822 80.52114
36.189884 101.2622 78.93614
20.998882 104.0662 82.001144
20.144882 102.530205 82.49614
35.502884 84.7702 84.66614
35.893883 83.05521 86.28414
19.197884 90.434204 89.06414
18.557882 88.792206 89.307144
2.1368828 31.406204 59.337143
1.094883 31.087204 57.445145
22.588882 27.437195 58.162144
22.041883 26.5392 59.478146
15.8578825 92.6072 65.30214
15.833882 94.6572 65.85414
33.143883 94.502205 61.833145
33.920883 96.0102 61.572144
19.079884 51.447205 16.568144
21.073883 51.140198 17.138144
34.115883 47.165207 7.985144
34.455883 47.66121 6.339144
0.73287964 73.865204 2.5801392
0.2488823 72.3292 1.4501419
24.556883 73.531204 7.3461413
23.320883 73.2312 6.122139
2.2358818 93.2142 103.39614
2.3008804 94.725204 105.113144
25.380882 96.11021 106.74114
24.065884 97.2012 106.85714
27.608883 17.726196 102.22914
28.609882 16.1082 103.73014
5.1628838 11.232208 105.00014
5.990883 12.680206 105.32614
2.1578827 107.4642 99.613144
1.2378807 105.7292 99.03514
26.207882 111.224205 102.83114
25.586884 110.445206 104.05114
7.2158813 33.208206 89.69814
5.485882 34.8192 90.76714
29.263882 39.713196 88.85414
29.398882 39.04921 90.34014
27.594883 31.6362 92.81614
28.335882 31.156204 94.95814
5.250881 24.400208 93.39614
5.6078835 24.115204 91.85514
33.843884 46.0542 104.39414
34.312885 44.497208 105.349144
10.906881 41.2632 103.515144
10.7278805 39.794205 102.30914
0.5518799 110.601204 76.85614
37.403885 111.7432 77.64314
22.108883 0.023200989 81.63614
20.933884 110.9772 81.56214
27.340883 92.9132 21.771145
26.237883 95.1222 21.850143
8.907883 95.4912 22.582144
9.054883 96.2742 24.249146
7.9418826 86.3932 12.318144
7.5928826 86.5182 10.189144
22.724882 91.9012 4.685144
23.806883 92.293205 6.049144
0.24688339 69.9092 108.668144
37.740883 68.3672 0.5711441
21.089884 70.2742 2.5641403
20.699883 69.8112 4.34214
13.660883 69.1492 75.24814
14.353883 70.794205 76.40714
26.485882 61.546204 71.98414
28.387882 61.771206 72.32414
25.052883 10.113205 103.752144
23.890882 11.697205 105.08014
12.595882 20.420197 2.2941437
12.112883 21.488205 3.6351395
37.252884 11.917206 51.590145
38.188885 14.258209 51.330143
13.466879 5.8242035 44.561146
13.953882 5.9752045 42.858143
38.700882 100.9262 77.81914
0.5558815 101.2982 75.94014
16.108881 104.4362 70.09214
17.531881 105.2982 70.613144
6.8628807 57.055206 52.878143
5.360882 58.255203 54.200146
5.8838806 48.213196 58.786144
7.424881 48.7312 59.474144
1.853883 87.0652 94.03214
2.8858826 87.9702 95.65614
19.226883 86.0492 97.69914
20.112883 86.626205 96.19714
31.869883 58.109203 86.69714
32.821884 56.087204 87.44014
10.030882 53.897205 80.94314
10.46488 52.199203 80.80814
10.813879 15.662209 18.092144
9.444881 13.596207 18.125145
32.785885 15.21521 23.607145
31.616882 14.186203 23.717144
17.744879 40.6772 46.250145
16.67188 38.8732 45.561146
0.76688004 42.157196 44.523144
38.604885 41.99321 43.167145
16.443882 93.1292 72.19214
16.712883 95.2622 71.02814
34.636883 91.460205 71.223145
33.748882 90.6462 70.043144
5.586883 21.224197 90.62314
7.7828827 22.634201 91.20414
24.747883 21.781204 87.88114
26.063883 20.895203 88.30914
0.7168808 0.7862015 88.31514
38.188885 0.12320709 90.14614
20.948883 110.8542 88.25914
20.882883 110.154205 86.71814
18.454884 6.7422028 85.55514
17.026882 6.5562057 87.42514
4.430883 16.175201 83.49814
3.1048825 15.982208 82.25814
9.960884 85.1332 35.016144
9.646881 83.90121 36.387142
32.181885 90.126205 42.528145
32.195885 91.4972 43.452145
38.406883 9.6732025 64.71814
38.661884 9.726204 62.425144
16.087881 13.374207 57.679146
17.233881 14.356209 58.997143
5.250883 87.2182 1.5301437
5.613883 88.529205 0.0011444092
21.207884 86.601204 103.01714
20.538883 85.1342 102.66114
31.321882 19.431198 26.066145
29.704882 18.564209 27.749146
16.654882 21.596207 32.900143
16.408882 22.296204 34.540142
19.574883 106.195206 88.11614
20.867884 107.7832 88.35714
35.187885 102.5322 82.09214
35.947884 103.5182 83.16214
13.744879 94.2872 58.384144
12.847879 92.6432 57.983143
34.828884 96.3872 58.594143
33.884884 97.3402 57.798145
18.592882 95.2472 90.84114
18.927883 93.722206 92.80414
1.4998829 96.4782 93.35514
0.04788232 96.0242 92.890144
2.5348816 63.104206 13.794144
2.8248825 64.0902 12.198144
17.35288 59.978203 9.065145
17.67288 60.162205 10.725144
5.807883 34.588196 74.91414
7.332883 34.5262 76.68714
23.364883 30.045197 77.08014
24.810883 31.1642 76.31014
14.2588825 74.709206 68.38214
14.830883 72.6592 68.38314
29.617882 69.725204 69.46414
29.868883 68.1322 69.264145
19.529882 15.74321 68.11914
18.500883 16.331207 66.10414
4.664883 20.741196 66.210144
3.4708827 21.919205 65.03014
9.773884 87.642204 26.046144
8.524883 86.167206 24.935144
29.995882 89.3702 26.801146
29.535883 91.265205 26.727144
32.316883 52.31421 102.81614
32.137882 53.361206 101.09414
11.493879 50.6382 99.24114
12.440882 51.5262 100.20414
4.4798813 71.4092 17.028145
3.210884 71.9912 14.766144
27.887882 76.8582 21.045145
26.387882 76.6072 21.388144
37.750885 10.717209 58.326145
38.238884 9.017204 59.524143
16.30488 11.446205 55.440144
17.154882 12.825203 55.228146
12.29888 69.8142 77.91414
10.948881 68.084206 77.11014
34.406883 67.2002 81.29514
33.008884 67.5352 80.16214
22.730883 58.053204 19.400145
22.915882 58.668205 17.602144
38.279884 52.804203 18.345144
0.20487976 54.324203 19.091145
31.734882 32.228195 2.1531448
29.579882 30.917206 3.6711426
15.660883 38.6812 2.7141418
14.9168825 37.960205 3.9331436
4.4338837 85.278206 6.273144
3.589882 85.83221 8.611144
26.057882 88.1482 11.785144
24.510883 87.573204 11.563144
18.833883 14.543205 78.626144
19.678883 16.494202 78.89814
5.613883 17.096207 86.47614
4.759883 15.675201 86.26814
12.877883 88.100204 51.671146
14.306883 89.5952 50.688145
31.537882 87.9702 51.979145
32.33988 86.653206 50.663143
10.467882 0.19520569 39.687145
9.375881 110.806206 38.250145
33.331882 2.9022064 40.763145
32.669884 3.1312027 39.241146
24.686882 41.37021 65.67714
26.402882 42.9422 65.72514
3.566883 38.978195 64.81614
4.5088806 38.838196 63.380146
10.550882 84.6632 23.901144
10.596883 86.17821 22.558144
23.302883 77.19421 18.485144
23.862883 77.3532 20.291143
33.773884 40.727203 5.5031433
33.717884 38.538208 4.485138
11.43088 32.632202 4.952141
12.48488 33.910202 4.851143
34.018883 95.3242 51.576145
34.181885 97.294205 52.021145
12.0958805 92.19421 51.796146
12.982882 91.1332 52.861145
37.032883 22.109207 51.627144
35.107883 23.084198 51.790146
21.583883 24.369202 50.709145
20.401882 23.1642 50.043144
0.7898829 49.9532 37.915142
2.6288826 50.697205 38.966145
18.774883 45.933197 38.135143
18.622883 46.004196 36.469143
10.535883 69.05221 58.149143
10.745883 68.06921 60.179146
25.916883 68.4112 57.462143
27.407883 68.8822 56.929146
31.452883 96.4002 45.540146
32.996883 96.6632 44.197144
8.966881 90.86021 45.084145
10.55488 90.9842 45.600143
37.301884 70.3932 101.25014
36.332882 68.779205 100.52514
18.752882 69.18021 99.41414
19.376883 68.764206 98.01314
2.0328827 78.709206 7.079144
38.766884 79.0322 7.552144
23.471884 79.2832 8.461144
22.738882 80.9262 8.372144
36.931885 27.191208 35.159145
38.274883 28.835205 34.512142
14.965879 26.5672 37.724144
16.267881 25.389206 37.454144
14.009882 86.683205 72.765144
11.474882 85.833206 72.99614
35.729885 91.4642 74.90714
36.209885 92.9552 75.20814
19.222883 80.5362 90.91514
18.649883 78.2702 90.47814
33.043884 70.7542 84.86514
33.821884 71.043205 83.52714
16.64688 40.437195 23.078144
15.635881 40.833206 21.256144
38.171883 36.490204 23.011145
37.28488 38.0372 23.546144
0.9398804 29.313202 51.973145
1.3948822 29.062195 54.054146
24.247883 35.2032 58.886147
24.096884 36.934204 57.952145
5.812883 30.311203 81.46714
6.6578827 32.012207 80.501144
22.154882 25.540207 77.071144
23.545883 25.0392 78.01614
19.711884 90.948204 93.74414
21.733883 91.587204 95.26914
36.915882 84.81921 91.62414
36.663883 83.2152 91.43814
29.795883 69.834206 64.72514
30.220882 68.6622 63.121143
8.793884 64.58021 65.53514
9.706882 63.051205 64.93714
25.630882 94.27721 5.7701416
27.627882 95.9812 6.4191437
3.5538826 98.0342 106.88514
3.6348839 97.74921 105.01114
2.7828825 18.850204 68.498146
4.838883 19.96521 68.79414
18.251883 13.713203 72.46714
18.335882 12.18821 72.33314
10.345882 74.81921 41.682144
10.710883 73.24821 39.806145
25.930883 72.1582 37.354145
26.388882 73.29021 36.209145
25.066883 65.7452 29.167145
23.962883 64.585205 27.655144
1.9308815 60.737206 22.915144
2.4398804 61.607204 21.471144
4.276883 79.6172 5.1691437
4.673883 78.086205 6.5791397
21.920883 78.2452 2.5791397
22.580883 79.65121 2.2601395
14.7018795 86.8692 81.38914
13.758879 88.890205 81.07514
37.637882 89.0402 88.79914
36.454884 87.8322 89.127144
10.20088 42.9552 92.48314
10.294882 45.305206 93.21614
34.294884 47.433197 100.45114
35.11088 46.5002 101.63214
6.818883 4.325203 106.043144
8.804883 4.1452026 107.22714
23.224882 4.7722015 100.35414
23.766884 5.042206 98.834145
14.18788 16.6772 29.198145
13.16688 15.779205 31.643145
35.250885 20.589203 32.307144
34.265884 19.59021 33.011143
21.012882 70.17921 15.768144
20.436882 71.5472 14.110144
7.4358826 76.960205 17.967144
6.2698827 77.26321 19.334145
19.957884 41.047195 40.785145
21.381884 42.449203 40.754147
35.389885 38.2052 41.769146
35.803883 39.168198 40.374146
8.823883 13.668205 12.079144
7.9338837 11.308205 12.647144
30.755882 15.614204 10.570144
31.257883 17.104202 11.385144
15.5088825 92.5652 59.379147
16.590883 90.904205 59.737144
31.773882 89.8002 60.258144
31.602882 88.1032 59.808144
16.237883 96.94421 67.484146
16.987883 98.7892 66.14914
34.051884 95.8802 66.64714
35.707882 95.197205 66.99714
17.510883 58.819206 0.6011429
15.593883 58.673203 108.098145
19.197884 59.502205 7.162143
18.678883 57.831203 6.9251404
11.877883 34.2892 104.320145
12.588882 34.129196 106.37014
26.711882 23.698196 107.96814
28.041882 25.064209 107.91214
2.6788828 10.272209 91.31414
4.886883 9.671204 90.24614
17.570883 5.2062073 91.12114
17.889883 5.3782043 89.64214
15.1078825 110.5932 48.377144
16.258883 111.807205 50.090145
31.509882 109.7762 43.997143
31.990883 109.6742 42.429146
14.878881 52.560196 11.191144
14.961882 54.846207 10.397144
1.2298813 57.433205 9.422144
0.0538826 56.505203 10.1971445
29.119883 85.3552 35.83914
30.006882 83.765205 34.426144
13.623883 83.365204 36.659145
12.287883 84.1162 35.944145
37.519882 38.9252 17.052145
37.604885 37.321198 18.123144
11.282881 30.160202 12.839144
12.059881 31.572205 13.766144
12.046881 105.7332 49.851143
11.135881 105.9672 48.198143
32.88188 104.781204 48.444145
32.981884 104.0202 50.030144
30.003883 82.3832 39.179146
28.131882 83.1342 40.320145
11.092883 83.184204 43.360146
10.214883 84.1162 44.281143
31.922882 82.280205 36.373142
32.126884 83.7322 37.966145
8.195881 79.100204 33.853146
8.683884 77.40221 33.591145
11.941883 62.486206 83.33014
13.909883 62.649204 83.76314
29.432882 57.428204 81.974144
30.757883 57.444206 80.88414
10.873882 78.5642 54.428146
12.086883 79.057205 52.559143
27.461882 75.073204 50.012146
28.075882 73.3402 49.845146
36.533882 78.40121 81.30614
36.047882 76.600204 82.640144
12.04188 72.4212 77.75914
13.05588 73.333206 76.67714
16.15088 27.265198 31.618145
14.844881 26.294205 30.592144
38.713882 30.8302 32.247143
38.418884 32.514206 32.300144
13.299883 66.837204 76.56914
13.768883 64.834206 75.877144
29.643883 62.958202 76.21214
31.092882 62.228203 76.877144
30.641882 23.798203 107.47614
31.408882 25.972198 108.53914
8.926884 23.003204 106.58714
8.545883 21.515198 105.91714
21.155884 83.4112 100.63214
23.316883 84.196205 100.90114
38.456882 80.3662 99.61614
1.2398796 80.6432 100.05314
7.5518837 75.6062 38.617146
6.3298836 75.52721 40.264145
30.798882 75.418205 43.633144
30.364882 76.615204 42.190144
32.457882 93.2022 48.354145
30.746881 94.626205 49.295143
14.217883 99.8152 51.614143
14.100883 100.0402 53.426144
28.270882 97.433205 17.184145
26.835882 99.029205 17.516144
10.354882 99.837204 18.811144
9.651883 98.237206 19.080145
10.736883 92.44421 37.70714
13.4168825 93.1622 37.881145
27.973883 88.000206 35.764145
28.176882 89.2472 36.787144
36.276882 5.948204 54.795143
36.218884 6.254204 53.074146
14.840879 8.645203 48.583145
15.678881 9.625206 47.504147
23.335882 22.9702 97.36814
21.165882 22.477203 97.98214
6.765883 24.765198 97.34414
6.470883 23.201202 96.334145
38.836884 42.727203 30.306145
0.6708832 40.922195 30.801146
17.57688 38.3042 31.697145
18.26188 38.701202 33.239143
5.3748817 107.418205 1.3551407
4.443882 105.738205 0.29214478
27.303883 109.056206 5.9661407
26.933882 110.5062 4.891144
10.958882 11.371208 12.098144
11.786882 13.2982025 12.338144
28.396883 8.136208 9.002144
29.303883 6.675209 9.608144
26.326883 15.746201 2.8831441
26.865883 14.303207 4.859144
13.345882 19.262207 10.690145
11.908883 20.1492 10.507144
33.396885 90.417206 48.496143
35.469883 89.6512 48.401146
11.13188 90.52721 48.295143
12.884882 90.128204 48.775146
8.915883 59.937202 56.428146
8.965882 58.274208 58.146145
22.456882 53.63521 50.159145
23.077883 52.140198 50.813145
38.885883 69.695206 98.90914
1.542881 71.1742 99.85114
15.357882 65.9632 100.42014
16.56288 67.04021 100.78114
34.164883 26.791199 28.108145
34.205883 28.547195 28.745144
17.418882 30.042206 31.269144
18.253883 29.453201 32.597145
1.6618805 4.841202 85.78414
2.3218803 6.4792023 87.31314
24.893883 12.177208 92.34614
24.452883 13.428207 93.19714
7.0488815 95.4122 20.146145
7.1808815 97.6432 19.739143
30.925882 97.7422 26.053144
31.248882 97.5352 27.721146
34.568882 72.7842 85.66514
35.697884 72.3252 87.49514
13.48588 73.0772 84.00914
15.213881 73.62321 83.92714
35.362885 111.1762 71.61414
34.366882 110.2202 69.52214
19.057882 108.80521 69.77114
18.398884 108.097206 71.377144
26.157883 72.086205 31.556145
25.107883 72.40221 33.661144
9.195883 70.127205 37.074142
9.453883 71.2992 38.494144
14.985883 52.5242 107.16414
16.103882 53.0562 104.98614
31.427883 50.945206 99.66314
31.945883 49.626205 98.54814
3.4668825 93.1992 98.41614
2.6038826 95.2582 97.70014
18.999884 95.2982 97.53914
19.485884 93.9082 98.25514
18.695883 1.2512054 73.97814
20.405884 0.38420105 72.73414
37.258884 3.9752045 71.45214
37.368885 3.637207 69.73914
25.259882 39.413208 67.49714
25.957884 39.7442 69.62014
2.4878807 33.654205 67.45214
3.4978828 33.5822 66.23014
1.6638832 108.1312 93.22714
2.1738815 106.8582 95.07314
18.27888 101.445206 88.96314
19.626879 102.253204 89.64514
38.672882 42.171204 47.287144
1.6598816 42.624207 47.038143
2.455883 42.434204 53.449146
1.3768806 42.816208 52.133144
25.288883 19.570206 100.55914
24.088882 21.285202 100.53014
8.914883 22.791199 103.56814
8.170883 22.391205 102.15114
28.594883 67.06721 61.313145
28.913883 65.168205 62.379147
13.220882 70.06921 68.94914
13.349883 70.544205 67.42714
18.400883 16.800201 55.549145
19.562883 15.66021 57.393147
33.486885 9.538208 49.392143
34.914883 10.546204 49.143147
28.063883 77.958206 53.436146
29.068882 79.906204 52.456146
14.450883 84.95621 53.105145
13.497883 84.903206 54.497143
22.997883 89.5682 103.20814
23.506884 87.87421 103.82814
38.172882 86.0932 97.76014
0.26388168 85.68021 99.01214
16.941881 80.1592 92.08614
15.626879 78.2982 91.30414
38.301884 78.13821 92.459145
36.477882 77.7872 92.61914
28.557882 84.20721 44.766144
28.470882 83.3562 42.979145
10.168882 88.1752 44.986145
9.142882 86.9262 44.197144
6.885883 84.37421 15.417144
7.075883 84.0662 13.325144
22.849882 86.44421 8.876144
24.357883 86.5072 8.077144
24.629883 74.476204 12.419144
24.433884 74.6772 10.018144
3.5088806 72.5342 7.070144
3.6688843 74.33121 6.743144
12.697883 71.11021 64.76814
12.665883 69.2862 64.75514
26.226883 61.037205 59.652145
26.143883 62.428204 60.489143
33.033882 70.639206 75.70814
34.415882 71.54021 77.04614
10.745882 71.642204 74.49914
11.032881 69.73521 74.83114
27.979883 32.3282 101.98414
27.588882 34.038208 101.25014
11.630882 37.7162 104.88314
10.807882 38.210205 106.44214
9.489883 56.762203 73.53614
7.9238815 56.347206 75.18714
30.521883 53.254204 75.279144
29.611883 53.405205 73.88314
31.479883 98.155205 33.652145
31.173882 100.2472 32.542145
12.859882 101.321205 36.769142
13.086883 103.1642 37.447144
35.225883 41.2892 9.636144
35.806885 42.5932 11.163144
12.252882 33.4852 7.629144
13.633879 33.10521 8.806144
4.981884 32.0632 73.05114
4.7048836 30.796204 71.46714
27.801882 33.594208 73.848145
27.720882 34.816208 75.29614
31.389883 74.0602 57.647144
31.156883 72.7052 59.088146
8.002884 74.6432 53.413143
8.341881 73.321205 54.216145
21.609882 85.7162 105.65814
23.604883 85.9222 106.70214
0.06288147 77.93021 105.63414
1.2608833 79.55421 105.60514
13.876879 104.280205 60.817146
14.001879 104.931206 59.079144
35.201885 109.5802 55.909145
33.754883 108.8152 55.584145
30.813883 78.764206 36.989143
32.014885 80.072205 37.862144
8.105881 75.391205 35.636143
9.536884 74.9802 34.420143
11.529882 63.332203 77.53514
8.847881 63.036205 76.77414
34.578884 63.827206 86.696144
33.699883 62.533203 87.38914
24.815884 69.2852 19.620144
25.606882 71.1762 19.495144
1.5668831 71.2612 19.458145
2.9828796 70.7162 20.358145
1.469883 82.31721 105.182144
0.20388031 81.63821 103.80414
24.638884 81.44221 3.2541428
23.650883 81.4512 4.6591415
35.490883 28.673203 26.083145
36.04888 30.734207 26.193144
14.598879 25.935196 26.308146
14.426882 24.770203 24.947145
36.338882 13.35421 47.556145
35.022884 13.256203 49.659145
19.648884 15.474205 50.487144
19.314882 17.0932 50.715145
20.438883 56.529205 19.898144
20.523884 57.205204 21.889145
4.7098827 67.850204 21.075144
3.9678829 68.9102 22.188145
15.404882 101.167206 58.903145
16.216883 103.3272 59.820145
30.805882 103.391205 53.429146
30.946882 105.196205 53.690144
24.415882 55.090206 51.716145
24.207884 57.163204 51.313145
8.613883 61.515205 53.347145
6.9948826 61.410206 52.841145
35.165882 14.21521 44.309143
34.761883 14.147209 42.065144
12.808882 9.264206 36.818142
13.051882 8.385208 35.349144
10.578883 90.2962 28.608145
11.068883 92.0062 29.774145
27.578882 88.279205 30.217144
28.928883 89.3312 29.606144
11.807882 4.2632065 30.159145
13.111883 5.882202 29.205145
25.720882 110.5192 20.395144
27.028883 109.073204 21.287144
22.172882 93.8592 98.51414
23.464884 92.8442 97.05014
0.47688293 94.043205 96.79014
0.92988205 94.8442 95.502144
4.1498833 6.934204 103.25014
2.556881 7.6572037 101.44114
25.386883 7.151207 101.65014
24.329884 8.346207 101.93314
33.312885 6.5032043 31.200144
32.194885 6.0642014 29.057144
8.710884 6.139206 20.920145
9.965881 7.1342087 20.424145
15.452883 54.364204 98.66114
16.806883 55.611206 99.50814
31.679882 58.655205 95.51414
33.470882 58.988205 95.85914
29.210882 4.217201 10.932144
30.113882 5.5702057 12.167144
6.5488815 1.1352005 9.2891445
6.417881 0.9322052 7.707144
20.834883 23.022202 58.051144
23.002882 23.779205 59.363144
37.621883 17.716202 57.777145
0.45988083 18.4962 57.944145
3.5548828 79.7322 106.58714
3.3308828 78.5802 108.60214
19.318882 73.973206 2.4141388
20.684883 74.0462 1.2001419
23.004883 33.2632 65.47914
21.471884 31.795197 65.693146
7.0608826 28.6492 75.03814
6.384883 29.5952 73.37214
31.875883 93.641205 52.063145
30.781883 92.6072 53.783146
32.632885 93.0202 56.997143
33.896885 93.9382 57.251144
2.3498802 53.744205 47.816143
3.3148842 54.276203 49.561146
28.931883 58.935204 59.177143
27.516882 58.572205 58.336143
29.818882 78.059204 50.590145
31.407883 79.6432 51.111145
6.9878807 74.45721 42.647144
8.102882 75.6882 42.841145
32.320885 2.7282028 45.747143
30.710882 3.464203 43.605145
16.088882 3.0682068 52.870144
14.972882 1.8502045 52.645145
38.488884 95.6602 87.68414
37.963882 97.0462 89.27314
22.423883 99.2722 95.75414
22.519882 98.7152 97.27614
33.486885 74.2612 77.18414
32.73588 73.2822 75.43714
17.440882 77.26221 84.94914
16.885883 76.2282 83.80414
25.630882 24.943207 100.79114
24.197884 24.003204 99.73314
8.457883 28.7892 100.42514
8.572883 30.587204 99.80114
23.168882 31.7202 62.761147
24.536882 33.173203 62.966145
3.160881 28.659195 62.611145
3.5238838 29.976196 63.733143
8.756882 79.2312 45.207146
7.6788826 80.66521 46.800144
30.494883 82.5352 47.444145
31.276882 83.309204 48.548145
32.747883 63.888203 75.45814
33.560883 66.20721 74.90314
11.4708805 62.972206 72.59314
11.04188 61.276203 72.54214
6.9168816 67.309204 40.773144
5.762882 66.58121 38.624146
27.305882 67.5512 42.458145
27.243883 68.15221 44.033146
12.969881 94.6992 61.224144
12.7208805 97.0402 61.192146
34.044884 100.0752 62.716145
34.469883 100.5252 64.57814
12.128882 94.1312 41.321144
13.911882 93.7612 40.481144
29.417883 89.1752 42.404144
30.075882 88.571205 41.057144
22.492884 49.7352 43.749146
21.857883 48.033203 42.903145
35.922882 39.225204 37.58914
36.420883 38.21721 36.305145
3.7398827 76.0332 4.7061386
3.1578825 74.56721 3.7531433
20.145884 71.83121 6.307144
21.537884 71.2722 7.0681415
28.906883 5.632202 14.585144
28.042883 7.2442093 15.516144
12.252883 9.427208 22.249144
13.078883 8.584206 23.630144
3.3978827 35.8132 60.891144
4.827883 37.534195 60.988144
21.475883 38.406204 57.293144
21.357883 39.962204 58.138145
30.236883 95.9112 41.024143
32.884884 96.4152 41.490143
9.147881 95.2872 39.687145
10.591879 94.9012 38.755142
12.762883 22.041199 14.623144
12.805882 21.338196 12.761144
29.229883 17.930206 8.692144
29.175882 19.331207 7.505144
18.272882 88.4382 94.81314
18.872883 90.16621 96.13314
4.697883 89.948204 106.071144
4.5458827 90.6912 107.63314
10.654882 20.978195 8.332144
9.592884 21.417206 9.875144
33.681885 26.834198 8.881144
31.943882 26.306198 9.045144
31.347883 98.4802 56.632145
31.684883 99.821205 55.334145
15.132883 96.0402 55.813145
13.957883 95.6232 54.726143
5.108883 57.780205 50.497143
5.198883 59.316204 51.665146
26.443882 59.290203 56.027145
25.504883 59.515205 54.467144
0.7758827 4.4612045 81.12814
2.1978798 5.452202 82.00614
17.973879 5.724205 74.33614
19.572882 5.9302063 74.92714
6.969883 55.041206 59.591145
6.4148827 52.740204 58.989143
21.036882 48.3452 54.403145
21.268883 49.566208 53.296146
10.253882 7.809204 5.8831406
10.799883 9.331207 4.2631454
24.200882 2.4022064 106.57814
23.768883 1.811203 105.07814
15.48488 66.56621 92.30014
14.10988 65.92721 93.75414
36.338882 70.73321 91.20114
35.667885 69.2742 91.78514
32.477882 14.294205 16.704144
34.21488 15.261208 16.389145
8.107883 6.7852097 7.665144
8.274883 5.6852036 6.396144
33.483883 111.016205 46.501144
33.468884 108.906204 46.555145
11.565882 108.5472 42.200146
12.931879 109.5942 42.855145
24.900883 98.0902 2.6381454
25.878883 100.084206 2.1401443
1.5918808 97.8542 103.51414
1.674881 99.5532 103.78014
1.1038818 93.5512 99.27314
38.463882 91.8672 98.64214
24.267883 97.7842 102.07614
22.690884 97.101204 102.10814
32.079884 29.931198 5.6781387
31.661882 31.852203 7.6401477
13.769883 29.460205 4.7111435
13.475883 30.989197 4.3931427
5.428883 12.233208 90.06214
6.333883 12.38221 92.08814
21.125883 13.79921 84.31714
22.324883 14.892204 83.52114
2.3488824 4.6542053 94.49714
3.2268827 2.7072067 94.37014
18.587883 2.649208 90.64214
19.793882 1.4582062 91.02514
30.739882 83.669205 41.560146
31.341883 83.6732 43.467144
6.7938843 88.1032 45.848145
6.4068832 89.9222 46.426144
38.536884 65.3812 2.5241394
37.65288 67.545204 3.3811417
23.362883 62.373203 7.246143
23.689882 60.927204 6.3641434
38.801884 93.1732 82.627144
0.318882 92.43021 84.67614
14.920881 91.153206 76.96314
15.511881 92.099205 75.78614
35.866882 100.098206 74.25614
35.057884 100.7322 72.57714
18.697884 104.7282 75.16014
17.970882 105.8702 74.24014
18.147879 11.279205 66.847145
17.335882 9.657204 65.333145
1.0938797 11.649208 69.10014
1.2108803 13.218208 68.56715
10.592882 16.742203 20.575144
9.287884 14.806206 21.030144
33.89588 18.325195 22.334145
33.352882 17.877197 23.926146
20.622883 18.495209 72.65114
19.012882 16.818207 71.97714
3.3368828 23.506195 71.42114
1.9798825 24.312195 70.35614
25.502882 54.699203 48.008144
26.787882 55.654205 50.201145
1.8878822 52.64821 42.926144
2.6478806 52.353195 41.522144
28.696882 21.467209 4.6591415
29.308882 22.4832 2.4471436
8.556881 19.91121 1.2321396
8.391884 18.3172 2.2811432
23.399883 16.767197 86.779144
22.198883 17.176208 84.98114
6.8758826 17.0392 92.46214
6.804883 15.022209 92.76814
19.723883 64.27621 15.289144
18.308884 65.81721 16.766144
3.1148827 66.3292 17.484144
2.0848825 66.3852 15.8951435
11.32588 97.2052 52.243145
12.340879 98.0122 54.274143
35.02088 101.2412 56.219143
33.83988 99.9502 56.987144
25.597883 38.9162 83.77514
25.053883 41.0802 84.98014
12.561883 50.546204 84.61614
12.679883 51.3712 86.25014
4.1498833 4.3812027 104.65314
4.341881 2.7192078 105.52414
26.439882 3.7722015 105.88214
25.760883 4.443207 107.55914
30.263882 71.1482 61.958145
29.896883 72.986206 63.127144
12.196883 74.1472 59.621143
11.327883 72.8002 58.818146
18.998882 67.042206 3.021141
19.075882 67.10921 0.5921402
34.47888 60.882206 104.45114
34.685883 60.382206 102.86814
34.72888 110.4952 60.403145
35.427883 110.66621 62.287144
12.552881 110.2012 58.685146
13.125879 108.5322 59.112144
28.254883 82.3962 25.769144
29.073883 83.52521 24.084145
4.523884 79.85921 20.992144
4.6098824 78.80521 22.560144
25.289883 36.240204 87.362144
25.639883 35.3452 85.54114
4.389881 35.9982 85.54814
5.6688843 34.961197 86.01014
28.342882 94.226204 18.278145
28.983883 92.351204 19.511145
6.028881 92.3272 12.938144
6.446884 90.7892 11.842144
