65.87895 96.7439 33.216908
58.341953 91.259895 38.417908
56.510952 91.51489 39.02691
27.97995 25.250893 18.507908
29.363945 26.361893 19.605907
37.772953 29.290894 15.599908
37.286953 31.397892 14.373908
34.70595 39.281895 19.945908
35.83195 41.308895 19.128908
44.952953 44.174896 16.274908
45.183952 46.155895 16.788908
25.122948 34.289894 21.547909
24.796951 32.153893 20.807907
15.75795 29.692892 25.771908
16.247948 27.347893 25.685907
68.97295 97.022896 2.728908
68.87795 95.0199 2.3629081
59.056953 92.66589 6.085908
57.535954 93.911896 5.413908
44.897953 61.217896 2.908909
45.18495 61.054893 0.7449074
54.084953 65.108894 38.43691
54.438953 67.3249 38.913906
49.33895 20.153893 26.152908
51.17095 20.770893 27.737907
59.48495 23.953892 25.956907
58.38095 25.558893 25.085907
8.88295 2.408893 5.7859077
7.5939484 3.390893 4.2079086
14.302948 8.092893 38.759907
14.322952 6.890893 36.69891
70.92595 12.269893 28.987907
71.01495 11.363893 30.621908
6.3579483 12.455893 27.630907
5.533951 14.299892 28.129908
10.644951 79.9939 22.294909
11.375954 79.69489 24.150908
4.116951 73.177895 30.128908
4.5899506 71.11489 28.897907
0.8649521 83.1459 35.31991
1.0329514 82.4909 37.30491
67.19595 77.189896 40.38191
67.57595 75.98589 1.0419083
55.95095 23.759893 6.961908
56.19995 22.507893 5.400908
65.07195 28.028893 0.91390806
65.62695 27.957893 3.323908
9.544952 75.98989 3.3559077
11.151947 74.44689 2.757908
19.095947 77.827896 40.383907
20.616951 77.9249 38.648907
50.78895 6.7688932 16.56091
50.92895 4.555893 16.701908
44.70095 0.03989297 22.948908
43.50595 -0.15810698 21.049908
35.618954 51.372894 4.055908
35.68395 52.493896 6.081908
30.60595 44.399895 6.949908
28.361946 44.144894 7.848908
12.135948 46.821896 11.147908
11.137947 48.448895 10.923908
1.8819504 42.995895 14.222908
0.5719528 44.570896 13.724908
52.26295 50.594894 0.61190796
54.959953 49.968895 0.2869072
62.51895 51.931896 35.38791
63.842953 53.499893 36.93691
54.439953 12.005893 24.968908
53.188953 10.916893 23.790909
45.772953 6.821893 30.925907
44.10395 7.671893 29.975908
62.29595 50.801895 27.649908
62.550953 50.502895 25.476908
70.58495 52.900894 20.301908
72.04395 52.477894 22.222908
47.15095 48.426895 22.007908
47.869953 49.049896 23.702908
54.31895 54.236893 17.47091
55.265953 52.081894 17.671907
63.54895 20.521893 28.520908
65.11395 18.544893 29.195908
58.26395 11.365892 29.170908
56.22895 12.162892 28.646908
43.551952 36.124893 31.532907
44.97695 38.435894 31.586908
54.70595 36.613895 32.64491
55.774952 36.368896 30.839909
45.460953 56.891895 27.303907
44.12495 56.893894 25.534908
54.30495 57.193893 22.149908
54.24795 56.883896 20.263908
22.263954 72.844894 35.78391
22.07795 74.52989 34.63891
31.74295 77.12789 32.34391
32.27095 79.08389 32.82591
30.727951 22.562893 21.085907
30.45195 20.063892 21.778908
21.110947 21.359892 25.354908
19.227951 19.590893 24.536907
42.452953 28.862892 24.643908
41.54795 29.357893 26.638908
34.585953 23.769892 30.592907
33.86095 22.046892 30.182907
24.975952 100.68389 4.1199074
26.17295 102.98489 4.196907
33.911953 2.0468886 39.65891
33.95795 3.07189 0.16590881
26.72995 71.3669 7.316908
28.64795 70.2409 6.801908
36.023952 76.369896 4.078908
36.217953 78.58289 4.941908
30.762947 91.7269 11.720908
29.990952 89.855896 12.577908
23.557945 85.4929 17.525908
21.926949 86.636894 16.091908
70.68895 66.0349 33.96891
72.45195 64.149895 33.99591
5.237953 67.691895 30.245909
6.128952 69.14089 32.09491
65.82595 14.612893 19.080908
66.88695 15.009892 20.776907
1.8969498 19.444893 17.387909
1.651947 18.316893 15.334908
24.727951 63.305893 27.865908
25.06395 64.969894 26.452908
34.215954 67.025894 22.528908
34.436954 68.591896 24.605907
31.302952 41.474895 10.516908
31.855951 42.531895 8.753908
40.468952 43.249893 4.756908
40.813953 44.077896 6.754908
51.495953 33.539894 16.020908
51.66695 30.999893 16.721909
44.959953 23.954893 18.777908
43.67095 24.372892 16.811909
27.682945 24.172894 15.918908
25.303947 24.914892 16.558908
25.001945 23.721893 8.7689085
26.310951 21.950893 8.446908
26.55095 4.4998918 26.305908
27.042946 2.146887 25.124908
18.732948 101.38989 30.008907
19.847954 99.5769 29.331907
45.31695 46.682896 12.184908
47.690952 46.625896 11.692908
54.140953 51.527893 6.776908
55.96995 50.484894 6.908908
66.07395 51.851894 37.32691
66.79295 54.221893 38.15091
70.41395 58.933895 30.295908
72.60895 58.966896 30.912909
15.8799515 22.437893 17.979908
15.525948 20.217894 19.275908
5.9839478 18.186893 23.032907
6.719948 17.885893 25.509909
5.97995 100.577896 36.114906
4.694954 102.0629 37.02791
69.99195 95.88989 37.38191
69.17895 95.94689 39.321907
45.31695 19.656893 16.86991
45.280952 21.903893 16.813908
55.126953 24.592894 15.333908
56.73595 23.704893 13.863908
34.84695 84.1459 13.075908
35.68695 86.622894 12.692908
39.829952 90.775894 4.4689083
41.988953 91.689896 4.6209083
72.819954 14.764893 3.0929081
1.1589508 15.138893 4.286908
9.191948 20.377893 2.6119082
9.122948 22.688892 1.7879081
71.52295 21.101892 6.178908
69.443954 21.033894 5.053908
61.175953 17.126894 7.5359077
60.514954 14.871893 5.854908
37.20995 70.72289 30.046907
37.04995 72.400894 31.411907
47.667953 73.4499 27.516909
47.114952 74.47289 25.532907
35.83195 67.6329 19.862907
35.40695 69.216896 21.196907
42.042953 75.827896 19.712908
44.05595 74.9639 20.152908
1.9569473 97.89189 20.936909
1.1069489 98.495895 22.914907
66.46995 93.5329 25.400908
64.944954 93.70789 23.754908
51.661953 5.586893 8.534908
53.20095 4.597893 7.143908
59.65195 10.200892 2.933908
58.806953 11.033893 1.5089082
34.18895 71.53089 23.713907
34.71395 72.0339 21.354908
40.03595 80.26689 19.831907
40.24795 80.9509 17.719908
10.7669525 82.7159 21.857908
9.383949 84.15689 22.808908
0.654953 80.828896 25.545908
1.1209488 78.5769 24.961908
35.994953 24.207893 38.531906
38.00695 23.077892 38.236908
45.83295 26.542892 33.333908
46.80495 28.050892 34.58091
54.391953 15.739893 26.937908
55.26195 16.814894 28.874908
59.52795 22.268892 21.053907
59.272953 23.589893 23.162909
8.68895 8.296893 25.103909
6.6929474 7.6828933 24.666908
3.0499496 1.320893 30.913908
2.8139496 -0.539107 29.846909
25.106949 95.69489 41.142906
28.055946 95.480896 40.926907
34.690952 102.7129 0.4159088
35.227955 0.022888184 40.611908
48.231953 70.2149 24.401907
48.50595 68.66789 26.575909
39.04895 64.51289 28.251907
38.071953 65.49889 29.731909
15.355949 0.12789303 25.563908
16.723953 0.757893 23.321907
26.026947 4.385893 21.278908
26.157951 6.7748933 21.723907
56.45795 29.900892 33.084908
57.974953 30.038893 34.973907
53.16495 25.450893 40.43691
53.50595 25.727892 1.0779076
11.650948 63.238895 39.01991
11.610947 64.82689 41.27691
11.105949 71.09789 3.4199107
9.247948 72.356895 3.5209086
44.280952 100.606895 14.478908
44.537952 101.18089 12.637908
52.093952 103.50289 7.242908
52.841953 103.438896 5.175908
65.42195 76.0629 38.535908
63.79595 75.077896 37.065907
58.648952 68.05489 2.6039085
58.378952 66.98989 0.79190826
3.977951 39.426895 21.119907
3.4439468 41.561893 22.195908
68.44095 38.037895 27.378908
68.33795 37.545895 25.363909
11.777954 20.315893 3.8389094
12.905952 19.238894 2.0759087
18.083954 27.766893 41.114906
18.446953 28.504892 38.822906
19.891953 63.933895 21.384909
19.93895 62.405895 19.703907
11.922951 57.447895 17.69291
11.234947 56.085896 19.664907
39.05495 88.063896 21.337908
40.667953 86.966896 22.126907
48.307953 94.8809 22.062908
48.47795 94.6869 19.628908
36.656956 5.330893 8.476908
37.392956 4.463893 10.449908
27.890945 2.247893 14.005908
27.290947 -0.023106992 14.343908
10.323952 77.15189 10.851908
8.665947 76.23689 9.453908
73.63495 74.1319 11.254908
72.40795 76.62689 10.877908
27.095947 3.3918898 16.085909
26.207947 1.2958908 16.653908
16.696953 103.51289 19.359907
15.769951 102.09789 20.695908
24.969948 66.037895 29.631908
26.790947 64.8689 29.646908
32.61895 73.07189 28.702908
33.524952 73.3119 26.185907
51.472954 77.844894 2.8819082
49.758953 77.442894 1.8699081
41.41695 74.230896 6.954908
41.86595 72.02889 7.3919077
63.641953 104.05589 26.783909
63.785954 102.56989 25.735909
72.901955 103.5479 23.568909
72.65895 104.0609 21.555908
28.734947 96.35989 9.852908
28.083946 95.15489 12.036908
21.013954 90.90589 16.301908
19.352951 89.86189 15.446908
23.767952 17.223892 35.20691
25.137947 16.046894 33.361908
33.879955 17.365892 31.877909
33.732952 19.281893 30.504908
73.14495 49.743896 14.822907
0.83395386 49.264896 13.6909075
8.128952 55.136894 11.126908
7.5349503 57.182896 11.360908
37.54895 65.77689 26.248907
36.37595 67.39289 25.958908
44.28995 72.72289 22.600908
46.348953 72.496895 22.214909
44.147953 43.745895 9.782908
44.65895 46.031895 9.930908
51.861954 50.493896 5.541908
52.56795 50.242893 3.254908
56.753952 61.248894 31.345907
56.023952 61.228893 28.664907
62.84495 66.98689 25.384909
64.18295 68.0329 27.013908
1.8639526 87.87389 4.180908
2.6729507 85.3109 4.109908
67.72995 81.87589 9.090908
67.01095 80.050896 7.6609077
9.468948 26.839893 7.932908
8.850952 27.398893 5.670908
18.135948 32.525894 4.052908
17.532951 34.356895 2.9219081
53.57395 78.814896 11.435908
53.982952 80.815895 10.306909
61.197952 86.4649 10.170908
62.952953 86.7289 7.873908
37.07795 27.276894 3.623908
38.043953 25.915894 4.771908
29.479952 23.379892 8.205908
28.761951 21.840893 9.537909
22.02195 62.874893 12.417908
22.653954 60.613895 13.028908
32.429947 60.872894 9.054908
33.41695 62.739895 9.994908
62.13695 53.875896 30.265907
61.77695 56.213894 30.321907
69.721954 57.257896 25.337908
70.36895 56.456894 23.136908
57.43595 10.312893 26.716908
56.878952 12.784893 25.957909
64.10195 18.409893 24.482908
65.470955 17.426893 22.834908
36.76395 90.6299 21.574907
36.65595 88.25389 22.521908
26.731949 86.3539 25.118908
27.17395 84.20789 25.017908
40.74895 79.98589 14.181908
42.078953 79.05889 12.976908
49.16395 83.122894 8.866908
48.51895 85.024895 8.254909
27.820946 98.68289 7.590908
29.263947 97.203896 6.481908
32.840954 2.0778868 2.6909082
34.257954 0.9248886 1.6859081
11.305954 61.561893 27.869907
10.718948 63.166893 29.419909
14.985947 69.9929 24.281908
17.35495 69.50389 24.010908
17.414948 88.591896 11.956908
15.57695 89.3109 11.260908
8.523949 84.98989 14.520908
8.067947 85.38989 16.694908
25.106949 92.456894 32.598907
25.45295 93.147896 30.663908
34.866955 94.677895 28.183908
36.495953 94.830894 29.861908
50.64395 71.30589 24.869907
49.437954 72.9659 24.737907
58.251953 79.592896 25.734907
57.40195 81.50089 25.421907
2.3449478 90.3269 5.202908
2.8859482 92.07289 6.901908
11.428947 91.4379 0.8869081
13.760948 91.202896 1.0219082
57.246952 85.48789 32.598907
54.863953 85.51789 32.17091
46.17895 82.0069 35.148907
45.503952 83.0199 36.90191
7.1489487 40.499893 29.268908
5.4709473 39.329895 29.354908
72.98895 33.975895 26.720907
73.32695 32.306892 25.190908
26.00895 77.66989 17.887909
27.695946 78.9369 17.843908
35.34595 81.578896 13.203908
36.62695 81.80789 15.278908
72.38695 33.127895 36.674908
73.360954 31.351892 37.43791
65.80695 30.549892 2.8929102
64.78295 31.900892 1.5629082
72.75995 9.545893 39.038906
72.11995 7.334893 39.743908
64.16795 0.992893 40.925907
63.675953 0.893893 38.70691
62.862953 63.197895 5.797908
63.855953 61.058895 5.455908
69.679955 68.122894 1.1049081
71.81295 67.9099 3.2139082
70.89595 59.357895 26.789907
71.98995 60.226894 28.696907
4.57695 66.5769 24.736908
6.833954 66.5899 25.103909
63.98395 34.732895 13.805908
64.74095 32.870895 14.257908
58.62495 29.637892 22.324907
59.40995 28.041893 23.624908
71.02595 13.925893 40.98591
70.79595 12.465893 0.9019089
63.43695 5.712893 2.39991
61.979954 7.192893 2.2739067
12.781952 16.078894 40.924908
12.736954 16.843893 38.69891
21.142952 23.837893 40.266907
21.28695 22.221893 0.828907
36.537952 101.885895 2.459908
37.61695 100.272896 4.112908
31.39895 97.27889 11.225908
33.24895 96.27789 12.847908
67.74295 27.336893 5.501908
68.58095 28.300892 7.7139077
3.6889496 29.671892 2.327908
4.21595 30.576893 3.997908
64.42495 79.400894 3.665908
65.51595 79.58389 5.216908
59.82495 73.5889 10.131908
59.19395 71.64189 11.550908
17.389954 96.05489 12.0259075
18.39595 95.0479 10.567908
24.293945 102.68189 8.560908
25.087952 102.2699 6.834908
19.456947 37.104893 12.436908
19.542953 35.564896 13.744908
12.9789505 29.261892 18.315908
11.135948 30.259893 17.877909
20.934952 101.6039 37.72891
20.60595 103.525894 37.023907
14.214951 97.88789 39.169907
12.014954 97.704895 40.59691
38.85295 25.503893 11.727908
38.34495 27.205893 12.901908
29.79095 23.912893 13.871908
27.682951 24.261892 12.573908
70.13395 36.191895 29.966908
67.93295 36.285896 29.350908
62.618954 30.727892 36.18591
60.76295 30.456892 34.41491
38.29595 35.195896 19.948908
39.801952 33.288895 20.036907
46.86695 39.200893 19.750908
48.57595 40.528896 20.201908
20.981949 48.260895 35.94291
22.31295 47.465893 33.66591
31.241951 50.255894 29.542908
32.76295 48.901894 30.824907
55.612953 85.60989 29.181908
54.86695 84.52889 27.557907
46.878952 80.941895 31.247908
44.988953 81.4379 30.018908
66.34295 43.164894 35.01191
66.11595 45.414894 35.306908
59.44295 42.641895 39.302906
57.989952 43.819893 41.14591
24.750946 4.741893 9.357908
26.222946 3.305893 10.588908
31.45295 10.971892 7.413908
31.71495 10.575892 5.6409082
25.609947 67.0069 39.336906
24.376945 68.8679 38.22691
14.552948 65.25389 0.83691025
14.332947 64.68689 40.466908
50.17795 92.0619 19.801908
50.79195 94.009895 20.323908
58.51295 97.03089 13.983908
59.90695 97.608894 14.963908
39.010952 38.417896 26.209908
39.08995 38.224895 23.916908
45.58095 45.162895 20.101908
46.737953 43.866894 18.346909
24.636948 10.705893 24.336908
24.157951 11.314893 22.398909
31.67395 12.886892 17.357908
32.93095 11.579893 16.184908
72.79795 11.851892 40.906906
0.8219528 10.301892 40.545906
9.532951 15.380893 39.217907
10.14695 16.921894 38.31891
59.67995 63.679893 2.2689095
60.369953 65.702896 2.9549105
66.29695 71.55589 2.5849075
66.56295 72.47589 0.9059067
45.849953 58.117893 39.156906
45.99895 58.581894 37.22191
53.752953 63.577896 36.279907
56.04195 63.667896 36.39491
16.837952 42.021896 12.830908
17.608948 43.226894 11.204908
25.404945 50.552895 14.148908
25.468948 51.788895 12.432908
2.550949 98.772896 27.256908
0.71595 97.92089 25.814907
67.88195 91.843895 28.185907
69.17795 90.872894 29.563908
28.27395 101.286896 9.2099085
29.840952 99.97189 9.285908
38.18495 104.162895 6.124908
39.32795 102.2429 6.852908
55.222954 9.027893 23.264908
54.74795 9.630893 21.017908
60.204952 16.772894 18.375908
60.980953 17.419893 20.037909
32.584946 10.093893 9.790908
33.214954 11.372892 10.968908
24.748947 7.723893 14.771908
24.580948 6.831893 16.524908
39.377953 75.6019 4.714908
39.21395 77.8099 4.934908
44.31095 84.1849 0.2529082
46.149952 84.383896 1.4179082
9.515953 96.122894 36.68791
9.832947 96.21189 34.32391
15.472954 103.5899 31.115908
16.737953 101.8239 31.673908
70.39995 80.092896 18.885908
70.595955 77.69689 18.753908
62.128952 73.928894 23.345907
62.71995 73.04589 25.294909
57.42895 23.851892 16.955908
59.68495 23.487892 17.722908
66.845955 29.689892 13.285908
65.56495 31.367893 12.504908
13.621948 62.861893 33.50591
14.113953 63.268894 31.357908
22.067947 62.419895 27.752909
22.657951 63.220894 25.631908
40.26495 96.620895 10.1439085
40.892952 94.59989 8.813909
32.83395 89.758896 13.587908
32.550953 89.77789 11.248908
58.385952 20.513893 10.217908
59.612953 18.944893 9.282908
66.89095 24.785892 5.063908
69.14095 24.701893 5.672908
61.60195 16.497892 15.747908
63.06195 14.899893 15.130908
72.07795 20.739893 14.117908
71.94195 22.559893 13.713908
67.82495 10.440892 17.225908
68.10895 12.240892 18.430908
1.7569504 16.321894 13.773908
0.9489517 18.120893 12.306908
60.968952 36.483894 1.7859077
62.41595 35.273895 1.498909
70.35095 39.413895 40.69491
72.374954 38.513893 0.17490768
13.816948 59.027893 31.158909
12.760948 58.161896 32.42191
3.3819504 55.474895 33.73891
4.0119476 53.803894 32.60191
56.883953 93.86489 1.8749084
57.703953 95.55489 2.9809077
64.85895 100.6169 40.093906
63.459953 102.190895 39.466908
19.861954 76.5209 34.73491
17.64695 77.523895 34.892906
9.777954 72.37589 37.62991
9.204948 70.813896 36.10291
32.28495 99.4089 18.380909
33.877953 99.011894 19.973907
41.821953 102.51789 18.089909
42.697952 0.16288757 16.098907
27.50595 51.713894 18.141909
28.600952 52.433895 16.409908
37.77695 53.953896 16.245909
38.38695 56.465893 16.880909
20.429947 90.8549 19.415909
18.513954 91.6589 19.223907
11.444954 85.9489 21.818909
9.573952 87.036896 22.753908
49.80295 53.427895 0.78791046
49.600952 50.911896 41.21991
40.343952 48.427895 0.73890686
40.30595 46.372894 41.299908
52.66495 99.566895 3.1919081
51.62995 97.884895 1.9799081
44.69995 97.2149 10.350908
42.988953 97.328896 9.123908
49.48395 48.322895 34.90991
48.077953 48.168896 33.521908
40.45895 42.583893 33.05891
38.425953 42.408894 32.18591
43.717953 15.552893 5.121908
42.91495 15.2198925 6.896908
34.54195 11.175893 8.656908
34.36795 10.486893 6.541908
46.51895 28.538893 38.356907
46.30995 28.921892 41.153908
39.24195 22.075893 40.361908
39.25095 20.882893 1.5169067
29.212952 31.777893 32.16291
29.02395 30.903893 30.617908
36.633953 35.046894 25.098907
38.77195 35.759895 24.580908
15.3539505 55.091896 36.47891
14.718948 56.352894 34.744907
5.538948 52.392895 36.545906
6.991951 51.017895 37.571907
18.53695 97.606895 27.069908
19.401947 96.788895 29.291908
14.686951 89.40289 32.95691
12.218948 88.9369 32.63891
19.977951 99.97389 32.04691
19.873947 97.64089 32.31191
11.3919525 94.0899 37.531906
12.378952 92.32289 38.58091
20.372948 65.3829 12.292908
22.544952 65.58489 13.718908
31.66095 64.78089 9.053908
32.55995 65.74289 10.549908
70.42895 84.078896 20.187908
72.31295 85.1039 21.367908
3.0609512 92.7549 16.382908
5.2949524 92.13789 16.137909
20.41195 26.362892 39.710907
21.89795 27.509893 0.19890976
28.413948 28.597893 32.605907
29.884949 27.250893 32.321907
71.887955 6.2668934 33.33791
71.60195 7.259893 35.38191
63.85995 3.062893 34.890907
62.654953 3.078893 36.480907
65.86295 20.103893 25.972908
67.193954 19.257893 24.042908
3.5149536 19.535892 22.236908
3.9549484 19.620893 24.059908
68.61195 44.616894 1.3789082
68.92095 46.417896 1.9919081
58.864952 44.395893 4.758908
56.87395 44.845894 4.806908
66.610954 50.451893 39.795906
64.330956 50.939896 39.627907
57.097954 46.126896 40.16691
57.202953 44.906895 38.31691
56.29095 65.5359 1.7399101
56.808952 63.660896 0.3889084
49.33195 55.712894 2.1399078
47.36095 56.724895 1.2669067
53.494953 99.078896 39.523907
53.80395 99.15289 37.55591
62.65695 101.4239 37.24791
64.944954 100.372894 37.21391
30.824951 9.746893 36.653908
31.867952 9.777893 38.452908
39.385952 15.841892 38.412907
41.43695 15.348892 37.538906
7.196953 30.129892 11.448908
8.487953 28.246893 10.383908
2.5099487 20.642893 14.686908
0.7579498 21.756893 14.252908
47.13795 36.656895 16.687908
47.13095 34.462894 16.002909
43.16595 28.038893 22.220907
41.12395 29.244892 21.901907
33.323956 85.25289 4.280908
31.307945 84.28189 3.594908
24.002945 79.79489 6.655908
24.845947 80.52689 8.373908
30.177948 83.52789 31.786907
27.65995 83.688896 32.36591
20.039948 79.09689 35.44191
19.946953 81.5329 36.38191
63.44295 37.287895 12.833908
65.401955 36.364895 11.939908
73.430954 42.289894 12.469908
0.72395325 40.616894 13.265908
63.454952 62.683895 13.074908
63.47895 60.838894 14.239908
54.729954 59.285896 16.70691
54.16595 56.931896 17.603909
36.18895 84.82189 4.981908
35.384953 86.5069 5.142908
43.46295 89.220894 3.826908
45.744953 89.5749 3.1589081
18.24495 47.913895 21.559908
20.084953 46.263893 20.474909
28.03695 53.274895 23.535908
27.628952 52.885895 20.705908
69.67095 40.976894 37.54091
69.24095 39.697895 35.90191
61.341953 36.694893 40.350906
59.90295 35.329895 39.37291
49.85295 43.392895 26.734907
48.93695 43.140896 24.641909
43.07495 34.241894 28.024908
42.348953 35.417896 29.304909
17.887947 28.428892 33.97091
18.823952 28.079893 35.83091
25.92495 33.051895 32.556908
27.388947 33.758892 30.667908
22.261948 83.06989 16.991909
21.486954 82.0909 14.932908
14.084953 75.29389 18.261908
15.111954 75.4079 20.433908
63.67995 55.790894 39.88091
63.286953 56.931896 0.07890701
55.03895 50.997894 4.2619095
55.37395 49.054893 3.0749094
50.634953 13.712893 18.983908
52.097954 14.728892 20.427908
59.29795 15.323893 14.517908
60.55495 17.392893 13.484908
56.215954 -0.14510697 12.659908
57.139954 -1.2501069 11.360908
62.16395 7.075893 6.883908
62.90195 6.3068933 5.091908
71.72395 44.857895 1.873909
72.665955 45.727894 3.5919077
4.307953 52.266895 39.12991
4.5739517 54.464893 38.861908
29.140945 79.2709 25.222908
27.449951 80.55789 26.751907
20.52095 77.37689 32.321907
19.593948 75.3679 31.344908
66.52895 31.208893 15.801908
68.38495 32.267895 14.710908
2.300949 35.742893 11.295908
1.6699524 37.855896 12.741908
28.220951 51.015896 14.132908
29.667952 49.695896 13.164907
39.13795 53.685894 11.735908
38.82695 53.692894 9.115908
30.891945 32.722893 40.389908
30.56295 32.375893 1.203907
23.544945 27.800892 4.665909
25.42395 26.527893 5.144909
18.027954 57.855896 3.5399082
17.099953 56.775894 2.2179081
8.695953 51.319893 4.844908
9.42395 50.161896 6.194908
59.38795 45.882896 17.188908
57.49895 45.628895 15.673908
50.113953 41.928894 16.67891
48.647953 40.430893 17.632908
45.49995 36.051895 2.008908
43.81695 37.173893 1.3559082
35.80995 31.965893 2.962908
35.13095 30.016893 3.344908
49.82395 67.2019 20.016909
48.091953 68.635895 19.645908
45.63895 61.477894 28.134909
43.32495 62.074894 27.821907
73.708954 47.129894 21.661907
73.38395 48.993896 20.928907
63.18495 46.849895 24.446907
62.036953 48.434895 23.506908
69.53295 2.8108885 14.651908
68.37095 1.5588913 13.429908
61.364952 102.60989 19.535908
61.687954 102.56889 21.432907
55.051952 25.530893 12.030908
57.26995 24.071892 11.165908
65.99395 27.695892 8.309908
66.20695 29.680893 7.994908
59.989952 8.293893 32.86791
60.870953 6.292893 32.279907
68.92595 10.199893 29.539907
70.54995 8.375893 28.858908
25.97995 56.574894 17.809908
26.690948 58.607895 16.277908
33.44195 58.907894 12.288908
32.982952 56.676895 11.590908
12.656952 87.3529 28.349909
11.860947 87.1179 30.829908
6.5759506 81.147896 33.49891
4.328949 80.33689 33.965908
12.27095 43.275894 0.91291046
12.8799515 44.506893 2.335907
19.22995 50.340893 38.81191
20.955948 48.874893 39.38691
72.62595 90.787895 0.514908
72.16895 91.092896 2.530908
64.873955 85.650894 5.054908
65.53695 84.23489 6.693908
64.25695 7.0378933 8.955908
65.17595 6.770893 6.675908
72.94895 11.798893 3.034908
0.46295166 12.720893 4.8119082
6.592949 68.65489 28.115908
7.1279526 70.384895 29.778908
13.773949 73.8959 24.516909
14.567947 76.0069 24.246908
28.52295 5.9848933 30.507908
27.969948 3.804893 30.659908
18.95295 2.525893 34.27391
18.09195 1.021893 33.362907
60.064953 64.0079 7.735908
60.322952 62.741894 9.586908
53.07595 58.136894 13.033908
50.709953 58.685894 13.310908
36.63895 90.4379 18.760908
38.79795 89.7409 19.128908
46.90995 89.773895 14.773908
48.58295 90.675896 16.360909
54.627953 87.61089 22.342907
55.91495 89.02989 23.028908
60.760952 94.82089 18.336908
62.446953 93.70889 17.478909
29.509949 69.61289 13.837908
27.75695 70.45889 14.145908
20.698952 66.03189 19.538908
19.78395 66.525894 17.695908
64.98095 12.966892 21.178907
66.38995 12.256893 23.233908
57.529953 5.734893 21.502909
57.640953 4.910893 23.914907
41.870953 24.210894 10.691908
40.97695 26.420893 10.749908
49.84695 32.231895 12.479908
48.41095 33.812893 13.238908
21.155952 55.879894 9.303908
22.567947 53.774895 9.4269085
15.878952 46.748894 10.675908
15.09095 44.579895 10.336908
35.72295 84.220894 16.099909
35.16495 82.817894 17.854908
28.95295 79.27889 20.205908
29.084946 80.86389 22.201908
51.654953 70.6159 4.8909082
51.97795 72.455894 4.125908
46.121952 71.7999 10.133908
44.36895 72.091896 11.141908
56.210953 28.754892 22.925907
56.369953 29.486893 25.081907
47.79795 23.425892 25.923908
48.18695 22.078892 27.663908
26.181946 93.4649 40.58291
26.954948 93.18189 0.79190826
19.10495 86.7839 5.2899094
18.25695 88.64189 4.8489075
69.55295 101.899895 8.989908
70.39695 101.7559 11.078908
59.785954 98.649895 11.923908
58.72195 100.60089 12.401908
70.78595 46.131893 5.473908
71.17595 44.017895 4.961908
61.88095 42.404896 2.395908
59.774952 42.109894 2.844908
61.543953 65.71289 15.000908
60.06895 65.327896 13.786908
51.15295 63.584896 16.488909
49.59695 64.50589 14.903908
50.111954 87.537895 10.210908
49.764954 88.065895 8.228909
54.86795 95.661896 3.8429081
54.10395 97.025894 1.9249082
54.40095 43.628895 36.968906
52.015953 44.696896 36.474907
44.890953 37.309895 37.133907
45.917953 35.415894 36.06691
68.46895 7.515893 24.019907
68.72695 7.7078934 26.381908
61.24295 2.038893 26.685907
59.750954 1.2778931 28.342907
42.974953 93.5489 10.832908
42.88895 92.356895 9.148908
37.391953 86.688896 15.343908
37.55995 85.7559 17.500908
62.83995 77.87889 36.24991
60.86695 77.69589 35.745907
54.24195 71.147896 40.35891
54.66395 70.54189 38.61591
10.497948 75.802895 13.857908
10.078949 75.063896 15.985908
3.2049484 71.40189 19.674908
2.8299484 72.86289 21.678907
39.447952 48.891895 3.347908
38.92095 46.858894 2.7399082
30.892952 43.566895 4.478908
29.541952 41.956894 3.370908
47.994953 33.518894 0.19791031
47.827953 35.984894 0.34391022
55.903954 37.569893 34.74891
55.767952 39.783894 34.335907
30.536951 65.967896 4.16391
31.94395 66.83289 5.618908
36.15195 73.802895 41.336906
38.12295 74.96189 1.1939087
35.77195 55.087894 7.1809077
36.002953 55.622894 4.923908
45.19295 58.160896 2.8719082
45.44195 58.543896 0.5139081
25.609947 89.719894 34.86691
23.510948 90.775894 34.67191
18.838951 89.54589 2.1649094
16.915947 89.954895 1.2219086
51.26395 65.06989 21.331907
51.424953 64.719894 19.116907
61.180954 68.82289 17.967909
63.24895 67.98889 18.002909
22.93695 67.259895 31.084908
23.38395 66.134895 32.786907
16.189949 63.325893 38.06991
14.073952 62.932896 38.170906
6.833954 95.246895 28.768908
4.913948 95.06889 27.776907
70.74295 92.6739 30.862907
69.93395 90.99989 32.85091
62.175953 9.214893 4.5289083
62.89395 10.322893 2.9019082
71.248955 16.277893 6.9579077
71.53195 17.241894 4.688908
25.289948 32.073895 17.91891
25.235947 34.107895 17.214909
33.16895 36.918896 11.323908
32.37995 38.823895 10.287909
59.95695 49.268894 20.268908
59.857952 50.130894 17.58891
69.99595 51.309895 17.611908
71.75695 50.726894 18.330908
5.850952 37.436893 20.346909
8.005951 36.036896 20.793907
14.38195 43.117893 17.991909
14.096947 45.812893 17.615908
58.878952 39.141895 5.475908
59.340954 37.520893 7.018908
53.24195 31.496893 10.919908
51.44395 30.877893 10.229908
36.99195 97.536896 32.17991
38.50795 97.7689 30.434908
47.29595 102.4799 34.14591
48.134953 101.800896 32.465908
6.0849533 52.575893 5.870908
5.1599503 51.833893 4.039908
70.59495 48.874893 6.635908
70.194954 47.296894 8.672908
1.8279495 45.230896 20.473907
2.4389496 47.374893 20.905909
10.6649475 50.831894 22.400908
12.13195 51.659893 20.722908
34.33495 42.405895 26.072908
33.368954 43.447895 28.211908
25.731949 40.300896 33.50591
24.51995 40.773895 31.903908
54.002953 97.8269 5.349908
53.743954 99.470894 6.876908
48.67295 92.73989 12.500908
47.134953 92.593895 11.180908
60.55495 87.52789 39.99291
59.77095 88.8409 38.378906
69.14795 91.9109 35.35991
69.05795 93.51789 33.83791
2.1279526 62.020893 0.5599098
3.4289474 63.883896 0.5639076
6.85495 71.206894 37.412907
5.0089493 70.4089 35.81091
37.65195 16.542892 34.47791
37.41695 17.057894 36.54691
30.39495 13.336893 0.10990906
29.334951 13.956893 1.6209068
55.47195 86.9509 25.310907
57.043953 85.34689 25.457909
62.180954 94.45889 23.006908
62.003952 93.76589 20.730907
23.892952 75.7579 41.118908
23.14795 76.6749 38.81291
31.969948 80.05589 35.223907
31.358948 82.2989 34.30591
10.38295 102.34689 5.690908
10.28495 0.18089294 6.412908
17.252953 4.0538926 -1.231092
19.178947 3.9928877 -0.006091868
32.934956 51.091896 33.16691
33.936954 50.912895 35.132908
26.017952 46.240894 38.030907
25.212952 46.757896 40.23591
29.274952 39.299896 2.6509094
29.032951 38.074894 0.9569092
37.301952 44.364895 38.232906
37.65695 43.177895 36.993908
53.854954 42.620895 28.723907
55.10995 41.396896 28.015907
59.760952 49.860893 28.333908
58.83095 52.168896 28.201908
62.62995 65.30689 12.359908
61.51295 66.218895 10.671908
69.04595 71.90389 7.900908
70.708954 72.73489 8.945909
28.026947 86.80889 39.00491
26.710945 88.62889 38.13791
19.616951 83.845894 0.55290985
18.61995 83.716896 2.9549105
50.778954 73.88789 34.99791
52.410954 73.537895 36.19491
59.210953 79.5069 34.854908
58.341953 81.62689 36.267906
21.402954 5.731893 5.539908
23.182945 5.273893 6.349908
27.809952 11.346892 1.6699082
29.27295 10.700892 -0.36909178
51.065952 5.883893 14.177908
50.29195 7.837893 13.276908
40.56195 5.082893 12.1509075
42.56695 3.782893 13.448908
44.63795 24.579893 28.298908
42.68695 23.690893 28.610909
36.334953 18.168892 29.427908
36.09495 15.750893 29.883907
4.286949 44.095894 24.061909
4.9929504 41.852894 24.707909
13.795952 47.691895 23.189907
13.296951 49.102894 21.884909
54.981953 92.5619 40.96291
53.34595 92.72489 39.65291
47.864952 88.969894 4.97591
47.83895 87.4229 6.6439095
25.67595 27.041893 14.888907
27.069946 27.137892 12.744908
33.478954 34.211895 12.099908
34.690952 33.274895 10.067908
47.378952 82.220894 2.29591
48.765953 83.6589 2.9289095
57.32595 87.35089 40.44891
56.19295 88.663895 38.523907
32.94595 14.751893 10.978908
32.89495 16.598892 11.746908
42.114952 18.734892 11.200908
44.24295 17.765894 10.967908
55.37495 65.899895 34.759907
55.612953 67.6579 36.384907
63.51395 69.551895 31.062908
65.499954 70.6449 31.467907
5.5189514 33.429893 8.4269085
5.524948 31.608892 9.525908
72.34295 26.348892 15.237908
70.78695 25.495893 13.256907
67.93395 70.178894 34.26791
68.25795 69.72489 32.007908
2.1679535 74.760895 29.099909
1.8909531 76.650894 27.613909
59.321953 27.814892 31.814907
56.85195 27.791893 31.070908
51.53895 21.855892 33.93491
50.322952 22.712893 32.52791
12.969948 29.187893 24.666908
11.517952 27.767893 23.243908
5.2999496 23.918892 29.548908
3.656952 24.997892 29.611908
19.365952 35.731895 4.529908
20.699951 36.272896 6.139908
29.763947 39.179893 5.916908
30.523949 40.603893 7.217908
8.302948 103.33589 0.89390945
10.22995 102.02989 0.16390991
17.016953 0.62989044 36.098907
18.399948 2.337889 36.75491
39.642952 85.787895 24.406908
37.78295 87.315895 25.475908
39.97295 85.54289 29.461908
41.76495 84.244896 29.887907
2.793953 63.062893 10.193908
3.6749496 61.311893 10.184908
69.57095 56.316895 12.469908
68.40995 57.144894 10.915908
31.607952 9.804893 0.8609085
31.45095 11.772893 2.3389091
41.95795 15.116893 41.33891
42.34695 16.241894 1.6079102
18.973953 38.706894 9.790908
18.60395 41.524895 8.663908
27.209946 43.565895 4.806908
26.66195 41.972893 3.5499082
54.153954 28.221893 12.679908
53.725952 27.427893 14.724908
44.225952 23.252893 14.4999075
45.16595 21.912893 12.335908
6.364952 61.115894 16.465908
6.385948 59.491894 15.143908
0.18795013 51.533894 16.745909
72.17895 52.734894 16.620909
40.356953 28.494892 13.652908
39.67195 30.380892 13.408908
47.33295 37.063896 13.3749075
48.016953 36.479893 11.758908
23.051949 83.9359 12.008908
24.04995 82.87889 9.885908
31.35495 89.661896 8.784908
32.962955 88.7859 7.111908
39.933952 6.3538933 18.880907
39.710953 6.329893 16.635908
46.911953 13.090893 15.270908
46.06195 13.968893 16.785908
68.67795 68.3399 39.92991
68.78795 70.634895 39.321907
3.527954 69.79589 33.53791
3.930954 70.6049 31.655909
4.3819504 86.6469 9.728909
2.8369522 86.23789 8.402908
66.35295 84.62689 11.661908
66.68295 84.706894 13.920908
39.155952 95.68389 37.168907
39.29995 93.244896 37.251907
30.31895 89.49989 38.403908
30.663952 87.20989 38.653908
31.42295 56.061893 35.065907
28.596947 56.337894 34.33191
22.196953 51.070896 36.75691
20.471947 50.930893 35.43691
28.998951 92.4629 39.938908
29.386951 94.317894 38.649906
36.10495 101.081894 37.24191
36.517952 102.0499 35.181908
38.147953 68.466896 34.217907
35.98395 69.273895 34.753906
30.614952 63.525894 40.28391
31.586952 61.338894 40.71991
71.53895 22.338892 10.996908
73.52895 21.735893 10.170908
3.7979507 31.047894 6.498908
6.031952 30.894892 6.808908
52.60195 57.047894 15.549908
50.503952 57.431896 16.755909
44.70595 53.881893 21.991907
43.03295 53.585896 20.638908
44.744953 101.7969 23.546907
45.04895 100.13789 24.349909
40.503952 94.0489 27.646908
39.73395 91.9249 27.829908
3.5829468 63.804893 21.021908
1.352951 64.90689 21.286907
68.24195 64.136894 25.689907
66.70595 65.760895 26.251907
47.349953 90.15589 12.221908
48.300953 88.510895 12.172908
39.982952 82.3679 13.193908
39.47995 82.29189 15.428908
34.198956 14.647893 20.796907
32.90195 15.959892 19.967907
24.268951 15.416893 23.890907
22.266953 16.011892 23.412909
70.49395 37.309895 34.74191
70.208954 37.210896 36.766907
63.80295 31.430893 40.17991
63.76295 29.699892 40.58291
16.073952 48.369896 20.284908
17.155952 47.509895 18.802908
25.142952 51.424896 16.931908
24.199951 53.373894 15.963908
17.45095 25.869892 34.89491
18.142952 23.766893 35.60391
10.1039505 19.332893 36.38691
9.018951 17.821892 35.183907
23.126945 102.33489 0.32390976
22.293953 103.04489 39.758907
29.831947 4.042891 35.181908
29.401947 3.163893 32.83891
5.3139496 77.302895 35.94491
6.9479523 77.052895 37.74991
12.594948 82.150894 31.520908
14.698952 82.664894 32.82291
33.53995 34.525894 4.3279076
33.91495 33.782894 2.236908
41.67795 38.564896 40.625908
43.489952 37.482895 39.45591
33.311954 42.755894 23.204908
33.41595 41.400894 21.695908
25.191948 37.992893 26.091908
24.417946 38.226894 27.798908
45.40395 11.125893 7.617908
44.51295 11.866893 5.997908
35.27695 8.055893 6.478908
34.51895 7.336893 4.254908
17.651947 17.482893 19.881908
18.53595 19.024893 17.762909
27.732948 17.803892 17.866909
29.960945 18.702892 17.144909
17.530952 49.655895 33.23991
16.60495 51.527893 33.084908
8.653954 48.617893 39.946907
8.42495 46.648895 38.995907
16.834953 27.543892 28.412909
17.293953 28.341892 30.838907
24.177948 34.327896 25.141909
23.415947 35.776894 26.741907
9.325951 6.350893 21.926908
10.710953 7.680893 23.222908
17.09195 15.381893 18.101908
18.935951 14.543893 19.563908
67.804955 32.166893 12.0329075
68.36595 34.382896 12.112908
1.5379486 37.261894 8.730908
1.927948 38.722893 10.177908
21.24395 9.256893 16.66191
19.18795 10.644893 17.209908
10.894951 5.371893 18.221909
10.806953 3.553893 19.256908
56.398952 73.57189 9.205908
56.488953 75.7839 9.930908
64.67395 80.69589 10.194908
65.26995 82.78189 8.981908
38.49395 73.216896 40.03991
37.51495 75.218895 39.06291
45.940952 78.134895 34.215908
47.41495 79.24989 35.744907
26.199951 5.369893 18.848907
28.29995 4.255893 18.523909
37.57195 4.637893 17.006908
37.509953 5.174893 15.057908
71.53895 98.6609 6.634907
71.31295 98.60989 4.4199104
6.9999466 101.5079 41.11591
5.765953 102.55489 39.72691
16.370949 52.297894 26.874908
18.305954 51.083893 27.353909
26.060951 56.655895 24.972908
28.14795 55.902893 24.298908
70.45195 12.128893 26.012907
71.43795 10.394893 26.704908
5.7149506 10.118893 22.178907
7.402954 9.880893 23.136908
47.995953 96.31889 24.149908
49.994953 96.8399 24.597908
58.04095 103.19489 21.957909
59.135952 101.17989 21.668907
39.82795 0.20388794 19.446907
40.926952 103.5069 21.583908
33.66095 99.72189 26.518908
33.31695 102.14089 27.005907
29.75295 72.3539 15.122908
31.730951 72.8239 15.505908
40.66495 73.870895 10.036908
41.36895 73.47389 11.9999075
33.116955 103.19589 30.809908
31.218948 103.8239 29.661907
22.678947 100.80689 33.01391
22.280952 101.7699 35.19491
61.635952 70.66789 19.897907
62.314953 72.14089 17.833908
72.81395 73.72489 16.934908
73.78895 72.04289 18.318909
48.02795 3.819893 3.8429081
47.59695 2.887893 1.8029081
39.61195 2.181893 7.2009077
39.67795 2.643893 9.975908
6.630951 22.238894 34.014908
6.163948 24.152893 33.813908
13.21595 29.102892 29.631908
13.432953 28.275892 27.562908
4.902954 56.628895 40.18691
4.908951 58.905895 39.850906
14.345947 62.370895 0.99790955
15.200951 61.542896 40.132908
62.486954 59.710896 41.34591
61.29595 59.861893 39.418907
68.23995 67.16989 35.008907
66.526955 67.94389 33.779907
22.748947 25.225893 5.698908
22.363953 23.379892 7.2399077
15.669952 18.352892 6.354908
14.725952 17.424892 5.319908
32.83795 62.300896 2.727909
34.52595 62.891895 4.41391
37.773952 69.39189 38.29891
39.26895 70.274895 39.37491
37.273952 14.673893 27.740908
39.55995 13.965893 28.562908
46.41395 19.189892 23.963907
46.96395 21.323893 24.384909
43.02795 20.889893 18.121908
41.55295 22.507893 19.481909
32.07695 19.124893 18.968908
31.216951 20.799892 18.67891
28.000946 46.385895 14.5659075
28.407951 47.297894 16.326908
24.153946 42.087894 20.674908
21.13095 41.959896 20.697908
66.53895 102.995895 40.28491
67.52395 101.5629 40.47691
1.2699509 103.371895 35.12291
0.9789505 0.78189087 32.65691
33.21295 38.405895 5.491909
32.30595 40.584896 4.979908
40.65795 43.698895 40.42991
39.829952 42.672894 38.800907
60.90695 28.822893 25.608908
62.17395 27.621893 26.891909
70.99695 30.179893 27.305908
71.42295 30.706892 24.741907
67.27395 19.764893 38.79091
66.402954 21.672894 37.524906
56.46395 17.691893 39.912907
56.167953 15.945892 40.259907
27.06395 73.636894 14.732908
25.941948 73.706894 13.087908
19.25595 68.341896 13.4669075
16.666954 67.191895 13.856908
16.074951 93.59689 11.7169075
15.015953 91.828896 10.595908
7.5969467 87.397896 14.582908
6.9649506 88.2019 16.872908
52.127953 71.581894 38.45591
50.62395 71.2689 36.730907
42.24095 69.2419 39.715908
43.08295 67.23589 39.598907
8.901947 60.615894 20.557907
10.3159485 59.668896 18.412909
17.528954 65.592896 16.243908
18.943947 64.412895 14.949908
62.530952 69.981895 25.272907
62.083954 69.82289 22.889908
54.33295 65.358894 24.096909
53.715954 64.44889 26.421907
33.086956 54.566895 38.65891
32.97295 55.014896 40.85991
23.114952 52.871895 41.086906
23.24395 50.751896 39.47691
33.73595 55.183895 35.975906
35.56295 54.639896 36.71991
42.60895 60.768894 32.522907
44.155952 61.018894 30.562908
64.63295 90.91589 16.808908
64.37995 90.69789 14.446908
71.12295 96.5609 8.468908
69.74595 96.40589 6.761908
12.684952 98.28089 7.050908
14.902954 99.25089 6.693908
20.00695 1.49189 2.6289082
22.28595 0.6358948 1.4199082
53.65895 90.716896 24.494907
55.891953 91.1309 25.322908
63.02095 95.1439 28.022907
62.424953 94.956894 25.996908
57.850952 39.141895 0.7189102
60.30995 38.949894 1.3759079
67.833954 41.180893 41.320908
69.651955 42.098896 1.4369087
22.803947 41.637894 35.639908
22.330948 40.985893 33.507908
14.84095 37.413895 36.69491
14.710953 38.598896 38.246906
72.48095 2.675893 16.353909
73.95495 1.021893 16.325909
5.649948 10.016892 14.206908
6.8459473 9.990892 15.737908
18.30095 92.456894 10.470908
18.403954 91.0489 8.347908
26.14695 96.4659 6.051908
27.179947 96.3389 4.484908
34.496952 35.349895 8.240908
34.52795 37.593895 8.797908
40.482952 40.081894 1.7409081
41.871952 41.606895 2.7239082
20.746948 51.328896 -0.30209187
21.069954 50.274895 1.8969082
14.183952 43.961895 5.019908
14.426949 42.140896 6.353908
52.085953 37.014896 17.73491
53.753952 37.604893 19.620909
60.37495 42.490894 14.262908
61.954952 41.404896 13.116908
20.557953 49.711895 32.86791
19.828949 51.412895 32.74591
28.511948 55.401894 31.706907
29.788948 54.719894 30.396908
47.40695 35.872894 4.163908
48.77795 34.787895 3.0169082
57.509953 40.409893 3.2049081
57.23595 41.856895 4.062908
48.96495 11.431892 14.365908
49.55495 10.559893 12.220908
59.751953 14.173893 9.980908
58.58895 14.4368925 7.722908
15.066948 5.4658875 34.592907
13.378952 5.8318925 33.79691
7.612953 102.90589 36.85391
9.069954 102.5499 38.92191
48.83795 49.637894 31.184908
50.648952 48.779896 32.410908
56.862953 56.865894 30.213907
57.278954 57.344894 28.274908
6.6749496 54.936893 7.668908
5.1749496 55.059895 6.447908
71.290955 52.945896 12.054908
69.38595 54.166893 10.470908
44.029953 75.33489 14.959908
43.69195 76.8109 13.086908
52.45595 78.91689 8.805908
51.715954 79.3799 6.646908
20.125954 2.568893 39.146908
21.472954 1.276893 38.44991
28.140945 6.167893 33.84491
30.00695 8.058893 34.72691
48.857952 74.76689 33.24191
47.50495 73.18189 31.389908
40.009953 70.2579 36.822906
39.38795 70.84989 34.53991
20.557953 36.802895 18.412909
18.599953 36.343895 17.037909
12.670952 29.834892 20.958908
14.176949 28.720892 22.190908
23.915947 31.535892 14.464908
25.762947 30.848892 12.924908
31.07795 37.612896 7.8459077
32.413948 36.025894 6.523908
58.861954 85.343895 37.75691
58.085953 83.43289 38.32491
49.321953 79.83589 39.31091
49.340954 78.65289 37.434906
1.1219482 26.118893 20.786907
1.9639511 25.842894 22.673908
10.490952 27.425892 18.466908
12.24295 26.047894 18.58191
18.39695 8.116893 4.833908
17.640953 10.412892 4.2759094
25.226952 15.645893 1.236908
26.972946 14.939893 0.005908966
11.606949 26.518892 15.823908
9.8919525 26.021893 14.980907
3.7869492 18.514893 19.647907
5.2669525 16.912893 20.193909
32.51895 84.75189 32.660908
31.051952 86.1299 34.30391
38.04995 90.384895 31.190908
37.40995 91.90389 29.589909
64.99695 32.633892 6.589908
67.33595 31.742893 6.221908
1.430954 34.100895 -0.34209183
2.1579514 35.903896 0.14190814
26.606949 26.361893 22.019907
27.053947 24.036892 20.926908
16.803947 20.804893 21.404907
15.461952 21.475893 22.743908
64.92295 41.242893 22.673908
66.66295 42.081894 21.794909
1.8999481 44.380894 25.972908
1.5289536 46.017895 26.706907
58.564953 60.443893 39.06191
59.009953 58.546894 38.237907
50.820953 53.200893 39.48591
49.71395 54.276894 38.043907
30.663952 94.40189 9.099908
31.857952 92.5879 8.880908
39.68195 95.97189 6.961908
39.05295 98.2709 8.286908
23.751945 28.631893 13.556908
24.375946 27.380892 11.790908
17.167953 21.156893 12.029908
17.583954 20.529892 13.8749075
34.973953 30.473892 0.40590668
35.238953 29.918892 40.14591
41.49995 36.243896 35.958908
43.56795 35.526894 34.70191
28.946945 35.148895 1.7509081
28.025948 36.295895 2.9219081
21.847954 32.242893 7.926908
21.858948 30.940893 9.309908
47.19895 44.223896 13.988908
47.732952 46.078896 15.055908
56.71395 48.916893 10.257908
57.40295 49.570896 12.241908
54.342953 3.772893 9.596909
53.392952 4.448893 11.635908
45.294952 4.041893 14.277908
44.189953 2.620893 15.307908
26.887947 64.37689 33.74691
27.695946 62.369896 33.85391
36.74995 67.9659 29.612907
35.90495 69.3129 27.879908
9.491951 24.833893 5.816908
10.293953 24.505892 3.395908
19.678947 26.244892 1.2469082
21.696953 26.093893 2.742908
73.790955 64.06889 40.452908
73.06195 62.156895 40.432907
66.26895 56.771896 37.398907
66.152954 57.047894 39.820908
58.94995 30.680893 25.925907
58.111954 31.524893 23.921907
65.19195 38.971893 24.538908
64.64095 38.866894 22.658909
15.810951 70.469894 18.827908
16.95295 72.2279 19.865908
23.379951 78.733894 15.702908
24.467949 78.023895 14.101908
68.14395 88.0199 22.722908
68.68295 89.6029 24.504908
2.9149475 93.580894 19.125908
4.5589523 94.091896 21.010908
13.782951 94.2299 41.39491
15.605949 93.2139 0.5219078
21.918953 97.90389 37.829906
22.344948 99.470894 36.61591
12.748947 71.510895 39.654907
14.057953 69.51589 40.063908
23.170952 73.567894 39.684906
23.787949 71.9229 41.28991
14.485947 86.12689 31.499908
14.594948 88.192894 29.998907
24.071945 90.342896 27.322908
23.86995 91.0609 25.553907
35.070953 46.398895 29.218908
34.97695 47.264896 26.886908
43.13995 54.230896 27.631908
43.279953 56.481895 28.815908
46.336952 67.16989 6.954908
46.598953 68.8959 8.3939085
54.56195 72.17989 10.942908
56.411953 71.30489 11.991908
6.0209503 0.911893 39.640907
5.7689514 2.598893 38.461906
11.162949 10.666893 36.60391
11.973953 10.688892 34.313908
31.224945 101.273895 28.279907
32.60495 99.802895 29.761908
25.986946 94.5059 34.10291
24.02095 95.120895 34.74291
2.4089508 11.438892 10.443908
3.5139542 10.983892 12.909908
69.58895 7.3408933 15.144908
69.92295 5.150893 16.373909
4.175949 96.5489 20.249908
4.85495 95.3539 18.517908
12.030952 102.3539 16.180908
12.634949 102.15389 14.167908
29.26995 13.762893 8.414908
28.667946 15.177893 9.724908
21.565948 10.629892 14.338908
19.39795 11.479893 14.546907
65.34095 8.2858925 12.613908
63.926952 8.964893 14.600908
55.168953 3.841893 13.677908
53.356953 4.276893 15.009908
67.79395 22.215893 40.20691
69.78495 21.447893 40.980907
4.6539536 24.646893 36.32491
4.3519516 27.052893 35.295906
73.32695 47.287895 12.384908
73.11295 47.080894 14.354908
65.263954 42.240894 19.423908
63.524952 43.768894 19.402908
33.45195 75.8829 30.016909
33.647953 77.8109 30.526907
42.97895 80.33389 28.246908
43.03895 82.3389 28.348907
39.578953 41.585896 35.75491
37.67395 41.421894 34.570908
32.376953 34.291893 38.53491
30.46795 35.317894 37.63791
14.457947 50.303894 24.476908
16.76995 50.213894 25.200909
22.60595 57.796894 21.806908
24.06295 57.349895 22.967907
27.793945 28.838892 28.093908
28.335945 27.589893 30.052908
19.134949 24.661892 30.634909
18.985947 25.641893 32.47191
73.89795 73.80789 20.636908
0.001953125 72.81889 22.697908
65.73795 67.82189 24.683908
63.81795 67.94789 22.894907
0.628952 37.701893 3.8319094
2.1959534 39.512894 4.370907
7.522949 42.465893 36.558907
6.3019485 44.324894 36.355907
69.484955 72.19589 4.60791
69.095955 72.50389 2.5489082
3.21595 77.80889 41.17291
4.6039505 78.0199 39.08791
60.51295 84.594894 40.02691
60.938953 82.802895 0.43990707
51.95795 78.827896 39.89391
50.938953 79.442894 0.49490738
61.348953 78.845894 32.41391
62.579952 79.77789 34.38791
71.65395 82.149895 29.587908
72.860954 81.4659 27.558908
3.4229507 28.463892 37.689907
4.4719467 27.176893 39.114906
71.360954 24.024893 3.5659106
71.67395 23.572893 6.0799103
58.11595 81.869896 22.647907
60.403954 82.397896 23.189907
68.58795 85.12889 21.970907
68.37995 86.00089 20.199907
23.63195 44.826893 37.431908
22.90995 46.472893 38.97791
13.860947 42.038895 40.051907
14.457947 41.587894 1.0119095
45.50695 95.77689 12.871908
43.22795 96.23789 12.719908
35.01395 93.30589 17.049908
33.357952 94.40289 17.47091
17.60595 36.954895 1.26791
17.666954 39.157894 0.979908
22.747948 46.437893 3.007908
22.82695 48.466896 1.479908
28.975952 0.40089417 26.085907
27.53495 103.54489 25.155909
21.682953 97.886894 28.316908
22.197952 96.08489 29.793907
58.00595 38.513893 32.46491
57.09595 38.947895 30.640907
63.244953 43.755894 26.264908
62.202953 44.332893 24.304909
67.04695 5.9988933 12.463908
68.151955 3.814893 11.687908
3.5169525 9.188893 9.6769085
4.7599487 7.199893 9.001908
54.586952 5.634893 19.519907
56.74095 5.626893 18.823908
62.23595 12.426892 19.105907
63.67395 13.721892 17.443909
23.934952 96.0499 38.63691
24.74295 98.25189 38.661907
33.88995 101.88789 35.925907
33.840954 103.5209 35.184906
53.00695 36.282894 21.731909
51.363953 35.791893 20.136908
43.377953 32.517895 25.873907
43.70695 30.802893 27.309908
20.71595 96.98789 25.303907
21.338951 98.1159 23.515907
30.485947 100.76489 19.520908
30.371948 102.358894 20.648909
20.208954 41.288895 25.268908
20.53395 39.406895 26.234907
13.846947 34.742893 31.233908
12.586952 36.045895 32.050907
73.430954 94.774895 8.8609085
0.7749481 94.78189 10.830908
8.459953 99.73989 5.809908
9.7929535 99.9639 7.7799077
63.593952 0.3578949 36.15791
64.80795 103.12589 37.058907
71.89895 4.0478883 34.97191
73.15895 3.9618895 36.642906
70.59395 70.50089 1.4179077
72.81595 70.2129 2.2659073
6.0919495 73.83589 38.21291
8.019951 74.1049 39.62391
13.689949 66.8249 3.1029081
12.411949 66.93389 1.5679082
4.3279495 63.939896 5.136908
2.3869476 62.061893 5.154908
12.553947 44.057896 10.100908
10.278954 44.472893 9.438909
4.0919495 38.660896 11.672908
4.5729523 38.920895 13.781908
29.319946 12.843893 37.59591
28.469948 11.240892 36.20591
22.000954 4.816893 0.06290817
21.49495 5.962893 2.6909103
58.717953 2.6858885 25.099909
56.88195 3.4908888 26.714909
49.54595 100.43189 27.882908
48.52795 101.5599 29.923908
24.153946 15.0028925 30.589909
23.323952 14.247892 32.21891
17.414948 6.679893 33.26791
17.578949 4.241893 32.424908
25.664948 0.76889294 9.037909
27.572952 -0.78710693 7.6349077
32.321945 7.501893 2.7969081
31.697952 7.0178933 0.8049081
8.366951 63.089893 27.879908
8.930954 60.625896 28.766909
0.4789505 58.888893 33.02391
72.50395 59.800896 33.751907
60.76895 5.141893 -1.0310919
58.96395 5.786893 0.15490815
55.320953 -1.5501069 5.926908
54.528954 -0.9951071 8.086908
44.75595 28.373892 30.058908
