25.342543 92.53907 32.584087
25.885542 94.644066 31.815088
3.9595413 91.77707 37.083088
5.3935394 92.97107 37.25309
24.957542 40.397068 81.66609
24.161543 37.83107 81.18409
10.848542 43.73607 85.31209
11.090543 44.397068 86.89108
0.32454294 76.26607 16.898087
1.805543 74.54107 16.209084
16.427542 70.87607 13.678085
17.828543 71.16807 14.927086
-2.1144571 89.31807 88.84009
-1.945457 89.21607 90.96109
15.550543 87.811066 87.304085
16.081543 88.53007 85.750084
4.556543 68.43507 51.82509
6.180543 68.00307 50.32009
22.914543 61.00507 51.31909
22.838543 60.919067 53.28609
12.251543 29.398071 21.599089
13.680543 29.52707 20.11109
29.918543 28.314072 19.06909
29.776543 26.434067 18.676088
21.069542 56.682068 43.819088
20.505543 58.260067 46.05209
4.713543 64.27407 50.16209
5.074543 65.76207 49.42209
13.71954 75.44307 93.12009
11.853542 76.02907 92.985085
35.643543 77.58607 96.96309
34.84754 77.21507 98.39409
18.428543 82.65907 10.417084
18.825542 84.65607 9.688087
1.639543 88.242065 13.474083
1.199543 88.26407 11.831085
25.763542 61.538067 64.64209
26.976543 63.54707 65.95009
5.0095406 62.121067 62.17909
6.588543 61.822067 62.88909
24.776543 109.105064 1.7870865
24.773542 108.03706 107.635086
1.64954 107.187065 103.94009
2.4085426 105.76607 104.24309
20.425543 101.45507 92.86509
20.487543 99.39807 91.62009
35.242542 100.55707 87.777084
35.48954 99.15307 86.85309
25.869543 19.125076 104.33709
27.102543 20.88507 104.957085
4.2405396 18.531067 102.20009
4.8485413 17.645065 100.611084
12.80854 40.92207 18.88209
10.887543 39.63707 18.162088
33.899544 39.502068 14.911087
33.55654 41.232067 15.963089
34.818542 83.27507 84.678085
36.75154 82.57807 86.483086
13.992542 84.42907 82.10009
14.488541 85.83107 81.469086
35.444542 62.71407 104.123085
35.359543 63.254066 106.03109
18.052542 67.00907 1.0680847
17.326542 68.60107 0.8360901
14.115542 62.09507 93.97709
14.475543 63.086067 91.84109
31.541542 62.800068 95.81409
30.757544 61.649067 94.61509
3.8505428 108.93207 107.43909
3.5305429 108.091064 105.747086
20.956543 104.826065 103.01508
20.682543 103.61307 102.12708
27.841543 26.623077 100.930084
27.243544 28.63707 101.639084
3.9675407 25.172073 99.45908
4.522541 23.990067 98.46609
9.217543 63.33407 67.71409
8.961543 61.481068 69.21209
25.656544 65.632065 67.16709
24.653543 65.631065 65.84209
8.813542 32.401077 107.57108
8.966543 33.287064 105.56009
25.286543 31.228073 103.54909
26.189543 30.60707 104.85409
8.379542 13.473068 12.602089
10.424542 12.955063 12.423088
27.281544 17.834076 10.368088
28.246542 19.067062 9.872086
7.3095427 97.26707 38.24909
6.812543 95.89607 39.680088
22.985542 91.12407 38.02909
24.663544 90.76507 38.430088
9.192539 100.020065 49.055088
7.9015427 98.24507 48.709087
29.315542 97.98807 47.48709
29.232542 98.80507 45.96309
32.84054 31.237076 27.544088
32.851543 32.528076 26.05609
15.489543 32.879074 30.530088
15.560543 34.424072 29.861088
22.066544 39.42807 59.83609
22.932543 37.99207 60.23809
0.79154205 35.696068 59.08009
1.0545425 34.93707 60.62009
21.926542 56.16507 54.98809
21.659542 58.427067 53.94009
5.1915426 63.891068 55.67209
5.155543 65.18507 54.74709
5.561543 106.091064 5.088089
6.313543 107.84907 3.2070847
21.482542 100.869064 105.402084
21.843542 101.980064 104.03309
5.720543 31.33207 98.46409
6.7315407 33.47707 98.48808
30.723543 38.68707 97.98808
29.230543 38.071068 98.51608
23.123543 83.76107 48.33809
23.189543 85.87907 47.63109
6.970543 88.45507 44.50209
5.662543 88.81207 43.62909
29.659542 0.76306915 35.12309
28.085543 112.82906 35.65109
13.180543 5.027069 36.88509
12.735542 6.493065 36.32909
2.2165413 21.526077 81.50009
0.8265419 21.412064 79.78109
23.939543 26.544067 85.081085
23.407543 24.921066 85.00509
24.517544 94.07207 34.67709
24.550543 96.01807 33.946087
11.232543 102.68207 44.89809
11.202542 104.24007 45.715088
16.017542 19.016068 55.23309
16.021542 21.252075 55.65509
33.046543 15.062073 53.70809
32.25254 13.725067 52.85709
31.305542 38.88507 18.214088
29.708544 40.211067 19.641088
14.989543 38.08807 21.029089
13.737542 39.057068 20.161089
0.22454256 85.25007 104.24309
1.0585427 83.44007 106.319084
15.700542 82.59807 102.332085
17.168543 83.16307 102.56309
32.587543 8.886063 42.45309
34.699543 8.40107 43.58209
10.73954 9.751068 38.93309
11.29554 9.847069 40.49109
5.136543 103.366066 7.5230865
4.8015428 101.312065 6.498085
21.014542 97.28607 3.2610855
21.351542 95.84807 2.6260834
1.6165428 28.720078 70.43509
0.60054016 27.521072 69.45009
25.098543 35.46707 76.63209
25.264544 36.754066 77.84709
15.813543 25.093063 40.785088
15.585543 27.447067 41.305088
-2.4124575 26.554077 40.23109
-3.4674568 25.710068 39.06809
-0.97545725 72.19207 21.64609
-1.6794572 72.17507 23.62509
16.884542 73.14107 25.315088
17.663542 73.60107 23.69809
12.647541 43.43707 13.39209
12.013542 45.08307 13.80909
34.205544 42.21507 18.28409
33.679543 42.29707 20.15909
15.417542 23.833069 34.07509
14.644543 24.016068 32.11409
29.804543 24.821075 26.405088
31.057543 24.197067 27.36909
19.986542 74.074066 32.25209
19.151543 76.17407 31.479088
5.7115426 80.40707 41.868088
5.143543 78.94307 43.042088
10.766542 100.46207 58.22709
11.984543 102.07007 57.06609
28.402542 98.67607 51.51509
28.988543 99.14207 49.882088
20.507542 98.56307 100.319084
19.403542 100.65607 100.26709
3.6985428 103.133064 104.746086
3.062543 103.19807 103.347084
11.486542 22.327072 27.331089
10.951542 22.036072 25.33009
32.212543 26.763077 25.995089
31.991543 28.541077 25.79609
5.1175423 35.78507 78.46509
4.28154 37.55207 78.35009
27.709543 36.265068 80.28409
27.374542 37.745068 79.234085
16.439543 99.53607 85.14008
15.964542 97.54307 84.886086
-0.7694574 95.83307 90.17109
-2.170457 96.24807 89.59009
20.722542 46.050068 56.99309
19.695543 47.45807 56.33209
7.287543 53.10407 62.43709
8.196543 54.31707 62.659092
16.691542 6.185066 71.66809
17.210543 4.5300674 70.46409
33.477543 3.9450684 72.29409
33.275543 2.892067 70.97809
13.714542 36.078064 16.566086
13.539542 36.87407 18.336092
29.012543 32.147064 17.575089
29.473543 31.840073 16.053085
10.893542 92.57807 61.35909
11.993543 91.19707 60.45109
27.664543 91.53507 61.22709
28.645542 90.82007 59.98709
12.941543 67.56707 85.24209
13.205543 69.90707 85.59808
29.629543 67.256065 83.28409
28.897543 66.24607 81.999084
-1.2044573 48.522068 33.314087
-1.0094571 48.35907 35.83809
17.140543 46.503067 32.28309
16.622541 48.03407 31.041088
14.833542 2.9380646 56.01409
13.060539 3.927063 56.12109
35.84954 5.441063 58.68109
36.032543 4.798065 60.45409
12.535542 53.975067 100.77808
12.410542 56.696068 100.54408
36.03654 61.04907 101.249084
35.402542 60.085068 102.429085
31.271544 43.856068 107.930084
31.338543 45.34507 1.2750854
10.44154 43.27607 1.2820892
11.362541 44.71407 0.7890854
2.7645428 22.235077 71.98609
3.4795427 20.172073 72.74309
17.437542 13.286064 68.553085
19.018543 12.923065 69.08909
6.903543 75.68507 61.94309
7.806543 77.46207 62.37709
24.579542 74.25207 61.82009
26.118544 74.86907 61.159092
0.39754105 85.08007 20.909088
0.14054108 86.27107 22.890089
22.206543 83.08207 24.937088
20.797543 84.18407 24.269089
35.16254 2.0630646 61.88309
35.944542 113.616066 61.18309
14.36554 113.30507 61.19909
15.388542 112.116066 61.22509
14.257543 46.67207 25.34409
14.8185425 48.62607 25.378088
-0.3854571 52.70707 28.274088
-1.070457 51.092068 28.151089
29.992542 42.42007 100.56509
31.186543 42.39407 102.42409
9.020542 40.731068 98.82409
9.214542 40.97607 100.50609
-1.6264572 90.79207 86.372086
-0.6704574 91.43307 88.194084
16.474543 92.44107 85.63209
16.788542 91.03207 86.692085
15.816543 61.108067 27.04209
14.885543 60.61607 25.595089
-2.281457 56.91707 26.298088
-2.5494576 55.211067 27.29609
24.022543 62.768066 62.84409
23.175543 62.67307 64.68009
7.424543 68.63607 64.70109
7.035543 69.68407 66.18509
20.591543 79.47007 24.819088
22.110542 80.311066 26.443089
0.22154236 80.91407 24.086088
1.2415428 81.10107 22.64309
0.9975395 80.90707 33.945087
1.1595421 79.76707 35.53409
25.449543 87.27407 40.73409
24.533543 88.66307 40.44709
13.333542 25.46907 36.21109
12.853542 24.451065 34.56109
36.039543 24.713074 36.424088
34.899544 23.758072 37.14409
10.12854 89.41807 73.999084
9.534542 91.255066 73.00609
32.64054 92.38207 75.76709
32.30754 91.78407 77.74309
36.85654 72.81907 15.488083
35.01454 73.13207 15.811089
19.691542 72.01207 18.543085
18.292542 72.56407 17.454086
18.977543 108.90307 87.80009
19.220543 106.80707 86.54609
36.35454 107.467064 84.60109
37.345543 106.04407 84.486084
14.459541 50.37207 99.707085
13.444542 51.07307 97.89709
35.84154 50.405067 104.93509
35.26454 50.94507 103.31509
36.520542 78.30207 91.746086
35.909542 79.73907 90.07309
11.514542 78.02607 83.541084
12.049541 77.713066 85.06209
19.864542 19.507065 71.165085
17.445543 18.750076 72.23909
3.4785428 27.070068 68.816086
2.0255427 25.757065 67.66009
11.091541 48.84807 92.49009
10.215542 47.06107 93.111084
37.623543 53.10307 101.360085
35.98654 53.175068 101.71409
16.434542 33.526077 42.91309
15.005543 32.187073 44.38809
0.35054296 34.242065 51.10909
0.7815427 35.518066 52.17709
5.074539 102.86407 29.71209
5.49654 105.68007 29.738089
29.087543 109.93107 33.90809
28.114542 109.70907 35.33909
15.728543 63.531067 15.929085
17.660542 64.492065 16.633087
34.985542 62.29007 11.995087
36.775543 62.008068 12.764084
5.5895424 55.77807 72.32809
4.3255424 57.038067 73.16909
27.165543 58.439068 70.73109
26.130543 57.29207 71.47309
33.96554 76.09107 87.500084
34.57854 75.214066 85.53109
11.258541 70.76707 81.09709
11.248543 72.39107 81.94809
8.841541 9.007065 19.92809
7.756542 10.671066 18.79909
29.888542 8.9170685 19.416088
29.677544 9.624069 17.99409
29.360542 64.00407 88.69809
29.482542 65.520065 87.26809
12.488543 69.01707 88.193085
11.103542 68.95807 89.00909
35.25354 110.074066 83.18308
34.69754 112.72007 84.108086
21.674541 1.9050674 90.496086
20.424541 1.7500687 88.998085
28.091543 93.03007 54.02409
27.013542 94.28707 52.93309
9.773542 95.824066 56.74709
8.975543 97.08507 55.99409
3.9085426 15.903076 93.72408
4.5075417 16.697067 95.37809
29.461542 27.40207 97.47609
28.163544 26.389069 97.82609
23.946543 29.231064 85.00509
22.814543 29.013077 86.60509
7.575543 30.659073 86.08709
7.028543 32.212067 85.858086
31.758543 42.58707 8.025085
32.91954 44.36007 8.043083
9.18354 38.62807 6.9480896
8.883541 37.40107 5.764084
29.321543 16.17807 12.810089
30.013542 17.876068 11.730087
5.5605392 17.184067 4.6640854
6.866543 18.350067 4.967087
28.702543 75.645065 68.33409
30.897543 74.70607 69.23709
5.369541 72.62307 61.62209
6.293541 71.23107 62.07809
37.061543 44.95907 33.78009
35.59854 42.996067 34.09409
20.872541 49.21607 33.55809
19.279543 48.46407 33.543087
12.158543 37.64407 21.92809
11.949539 39.38607 23.496088
35.629543 40.06007 24.43409
35.26054 41.94107 24.437088
21.487543 18.297073 78.84909
22.999542 18.268066 80.14509
37.060543 12.301064 78.57309
37.87054 12.538063 80.06409
6.027542 19.058075 2.5070877
6.6605415 19.927063 0.90509033
27.989542 22.253067 3.5400848
27.401543 21.755066 2.1120834
2.299543 84.42507 29.71909
3.756543 84.36207 31.12209
20.674541 88.506065 24.831089
20.187542 89.96907 25.475088
20.035542 13.428062 88.66009
19.732542 12.486069 90.77309
4.5655427 13.54007 95.10209
3.6035428 12.235069 95.25709
17.096542 2.9090652 62.11309
16.839542 0.9610672 61.31709
31.966543 112.284065 54.10909
33.401543 111.40207 54.59509
18.566542 38.62407 33.548088
19.076542 40.21507 32.10009
33.219543 37.23507 24.67709
34.25854 38.287067 25.95509
15.401543 13.178062 51.63709
13.508541 14.604065 52.10209
34.788544 14.600067 49.46309
35.553543 14.223068 47.73209
19.155542 3.5040665 87.732086
19.651543 4.2820663 85.77109
35.75154 7.529068 85.25709
35.21754 7.821068 83.82509
8.203543 57.446068 77.899086
9.972543 57.81707 78.70209
25.193542 56.843067 77.59309
25.588543 56.36207 76.02809
11.347543 50.717068 87.90909
10.426542 50.74707 86.11709
25.230543 48.689068 79.39609
25.928543 47.82507 80.67109
6.2095428 12.508064 0.899086
7.056543 13.955063 2.385086
24.652542 11.74807 107.71709
24.230543 11.964066 106.21409
28.721542 37.21407 107.13109
28.349543 38.32607 105.08909
12.880543 44.87207 105.18509
12.340543 46.16607 106.39809
33.804543 3.6180649 44.556087
34.596542 5.890068 44.86909
11.473541 2.1550674 41.542088
12.034542 1.8270645 40.04409
6.581543 107.77306 17.82309
7.6915426 109.07207 16.16909
22.748543 100.91507 13.135086
22.067543 99.394066 13.30909
14.508543 8.922066 61.47509
13.066543 10.420067 62.10909
-0.003457123 16.74907 65.21109
-1.2394571 16.100067 66.25009
13.348542 73.30707 90.82509
12.800543 72.477066 89.37009
30.106543 69.91607 86.44708
30.980543 70.492065 88.276085
16.366543 13.001068 55.82609
15.935543 11.310066 56.86709
32.16954 4.5530624 55.33009
33.31354 3.2440643 55.08709
2.7005424 23.084076 88.121086
1.2945404 22.216064 89.49409
26.326542 27.021072 93.17009
26.132544 27.802063 94.83709
0.058542676 10.236069 79.511086
0.23254293 8.247063 79.92309
15.554543 5.6970673 80.012085
15.975543 4.177063 79.44009
14.465543 29.686066 26.923088
13.602543 27.569077 27.519089
29.337543 26.34607 22.881088
30.892544 25.727066 23.49009
24.252542 17.133072 105.70109
24.950542 18.638077 107.11509
9.142543 18.904068 6.675087
7.9535427 20.233063 7.222084
2.1125412 13.356064 93.36609
1.0235405 15.2200775 92.73109
23.802544 14.462067 92.136086
23.269543 13.670067 90.73009
38.020542 111.91206 90.652084
37.052544 112.41807 87.82909
22.247543 5.725067 91.75709
21.829542 4.996063 90.28008
21.729542 77.87007 30.92809
21.879543 76.07207 31.288088
36.601543 75.27207 23.592089
37.325542 75.10807 25.16009
23.565542 108.82007 18.43509
22.185543 108.45406 16.908089
8.430543 108.855064 21.52509
8.755543 110.436066 21.529089
29.975542 16.313065 23.248089
30.536543 17.459076 21.696089
7.7145424 14.231064 15.322089
7.5615425 15.795074 14.174089
36.187542 49.411068 43.174088
34.97454 47.61607 43.51809
19.061543 49.32007 41.48509
19.208542 50.912067 41.090088
12.699543 32.173065 5.8760834
12.335543 33.899063 7.9340897
26.755543 30.095078 5.147087
27.331543 31.696075 4.982086
28.520542 44.63107 83.61208
29.989542 43.37907 84.76608
7.0875397 41.72907 82.91109
8.314541 41.404068 83.95209
28.353542 64.549065 74.371086
28.504543 64.05407 72.44909
5.4885406 61.865067 71.39009
6.7245407 63.19307 70.66809
36.20254 29.223068 49.01109
34.909542 30.273071 47.84309
20.486542 33.927063 55.89809
19.753542 32.761063 56.87909
5.1635427 99.17007 23.878088
4.220543 97.08407 24.14209
19.984543 89.16507 22.23709
20.551542 88.422066 20.86109
5.9865417 31.507069 94.09109
5.9785423 32.92807 92.330086
31.147543 40.57607 95.665085
31.009542 41.68607 97.04208
32.87754 52.413067 107.55708
32.207542 51.56307 105.819084
16.878542 58.955067 107.02309
16.517542 60.282066 105.57609
27.201542 12.173065 12.373085
26.994543 14.583069 12.496086
9.376543 16.810074 15.847084
9.415543 17.689072 17.138084
22.491543 110.994064 15.480087
22.215544 113.48207 13.709084
6.8365426 6.5810623 11.652084
5.300543 6.2660675 11.521088
24.033543 39.02807 76.76709
23.514544 40.52407 75.39409
7.9285426 42.766068 78.63209
7.094543 43.12607 80.18709
36.624542 105.65707 76.41809
36.464542 106.814064 74.56109
13.894543 104.67907 73.05109
13.873543 106.27907 73.16009
11.96954 91.15107 74.943085
10.30254 92.92507 75.52309
34.68954 90.894066 78.95309
33.62654 89.69007 79.68309
18.841543 26.079071 40.47809
18.767542 28.718063 40.62309
33.566544 27.192062 32.96109
33.672543 27.225067 34.57909
13.583543 49.99807 4.939087
14.138543 49.170067 6.7070847
30.992542 47.42907 5.673088
31.059544 46.43807 7.0560837
15.368543 101.479065 73.81309
16.173542 100.14307 75.28509
31.434544 94.23807 72.47409
31.795544 92.48707 72.79509
26.202543 30.141068 83.49509
24.899544 28.508072 82.57609
1.923542 27.710068 76.74009
3.0935402 28.709076 78.00809
34.38254 79.91307 98.81509
34.69054 80.52207 101.36509
17.631542 80.575066 103.552086
17.245543 79.05307 104.19909
8.955543 51.10907 82.86709
8.088543 51.120068 81.17309
24.504543 44.20007 76.21509
25.077543 42.44807 75.96209
6.4555426 2.6470642 8.772087
7.582543 1.2970657 6.994087
24.560543 111.12407 8.832085
24.355543 112.716064 7.71109
36.275543 103.17107 90.014084
35.63954 103.51107 87.84109
19.545542 105.99707 94.06209
18.515543 104.645065 94.12608
12.123543 43.83407 3.147087
13.424542 45.86907 2.998085
14.324543 44.475067 11.049088
13.832542 45.99007 9.985085
37.22954 41.98307 46.937088
38.16154 43.044067 48.76009
22.283543 40.370068 53.80409
21.312542 40.322067 52.31809
38.71654 14.118065 82.52309
38.57754 16.317062 84.54609
23.384542 18.642075 92.50809
22.364542 20.049072 93.32809
16.946543 9.942062 72.50009
15.598543 10.302063 74.25709
0.62054294 14.023064 75.748085
0.82054275 15.389069 74.66809
4.932541 93.116066 40.01309
4.076542 92.49307 41.49509
29.068542 101.67007 45.063087
28.920544 100.48907 43.94009
25.263542 104.43207 19.25709
27.303543 104.20406 17.28009
2.4315414 104.050064 13.863083
3.1115417 103.97207 12.186089
30.675543 48.06007 0.4160843
30.399544 50.92807 0.2720871
13.988543 51.710068 2.2510834
13.898542 52.31107 3.923088
32.27354 10.561066 36.12809
33.19754 11.306068 34.222088
9.766541 12.087067 32.423088
10.549541 11.346069 34.014088
8.777542 99.65107 60.11509
8.957542 98.172066 58.71309
31.855543 91.81207 61.76009
31.248543 93.56507 61.38009
29.427544 40.23507 6.6880875
27.957542 38.77407 5.854088
13.216542 44.29107 7.564087
12.290543 44.55607 6.250084
34.677544 21.901077 47.38509
33.23854 20.360077 46.67809
17.824543 24.508072 47.30909
16.996542 24.952072 48.61409
29.923542 110.12607 37.45309
29.735542 107.84307 37.69309
6.786541 103.116066 41.09609
6.9055405 101.313065 41.45709
16.920542 72.15407 8.508087
16.053543 70.91107 10.9760895
0.15754265 74.227066 8.222084
-0.42945725 72.602066 8.01609
21.896542 43.648067 57.63909
22.652542 44.75407 59.38109
0.12953949 43.121067 53.53909
38.713543 42.07507 52.37209
9.519543 9.231064 31.273088
9.593543 8.785065 29.130089
27.399544 3.727066 27.649088
28.009542 5.185066 27.092089
25.868544 50.50707 67.46509
26.485542 50.378067 65.02009
4.4125404 46.60207 61.75709
4.7685394 48.19207 62.33809
27.380543 22.37407 10.052086
26.507544 22.08107 12.224083
8.668543 25.481064 12.6360855
7.708543 26.131073 13.805084
26.860542 73.57807 63.23009
27.730543 71.49707 63.23309
5.3725395 69.69207 56.16009
6.64954 70.93007 56.14009
18.158543 77.98707 16.48609
17.421543 78.66407 18.350088
0.639543 78.25907 19.151089
-0.6554571 79.01707 20.12109
28.062542 93.51507 58.83709
28.257544 95.11507 60.44709
9.603542 97.17407 61.13809
9.471542 96.99307 62.91509
16.881542 70.46207 26.576088
16.464542 68.78007 28.419088
0.49454302 72.80207 31.381088
-0.99645716 73.006065 30.770088
31.268543 70.14107 91.27209
30.308542 68.603065 90.33909
14.798543 68.57807 94.62608
13.919542 67.31907 93.25909
-2.9314575 56.18707 12.445084
-2.6834574 57.906067 14.021088
14.753543 56.803066 12.58609
14.085543 56.803066 10.960083
1.3115425 97.58207 6.782089
38.39654 97.28207 5.439087
23.925543 104.90307 6.708084
23.796543 106.425064 5.694084
34.693542 22.26207 44.60709
36.199543 23.631073 45.81409
14.17754 19.702072 40.493088
13.9175415 17.995071 40.80809
23.045544 93.85007 11.71209
23.195543 95.73907 10.335083
38.198544 89.54107 4.847084
0.7775421 89.94207 4.65609
4.6935425 29.41507 94.93809
3.0775414 29.821075 96.98708
28.597544 32.784073 101.817085
27.837543 32.866074 99.92309
10.9695425 5.2820663 32.26009
12.470543 6.524063 33.619087
28.778543 4.469063 33.633087
29.843542 3.1180649 33.03809
10.160542 30.215073 15.951088
9.873543 31.307068 14.257088
31.796543 32.08307 13.637085
31.316544 33.47307 14.469086
23.122543 106.396065 101.013084
23.386543 107.145065 99.03309
37.46054 107.65307 91.95409
37.68954 109.20807 91.11509
17.073542 16.136063 80.53209
15.878543 14.107063 81.70209
1.8265429 12.511063 83.91708
0.9645428 11.586067 82.80009
27.075542 7.055069 6.14209
28.131542 5.638069 5.340088
5.930542 5.083069 7.097084
5.9855423 6.658066 6.1480865
26.489542 36.890068 104.012085
25.809544 35.12007 103.24009
11.382543 30.472076 3.7300873
9.706543 30.145065 3.6480865
37.795544 17.099075 69.845085
36.976543 15.278076 68.58709
21.072542 16.093063 71.18809
19.966543 15.294067 70.25309
2.003543 68.20207 38.250088
2.8865428 70.145065 37.87709
18.126543 73.27207 36.472088
19.385542 72.22007 36.709087
13.123543 2.4900665 44.180088
14.457542 2.7600632 42.48909
30.313543 109.73307 43.882088
30.951542 111.160065 42.93409
27.732542 10.082069 9.817085
28.324543 8.010063 10.581085
5.703541 5.6390686 14.2230835
6.94154 5.2920685 15.383087
3.680543 94.51107 10.75309
4.5675426 92.630066 10.408089
20.250542 86.964066 4.977089
19.815542 86.92507 3.4090881
15.960543 96.84507 78.45409
16.236542 95.20607 77.78109
31.190542 89.380066 78.29409
31.641542 87.867065 78.36209
3.2235413 99.144066 30.599089
3.2895393 97.92007 32.335087
26.792543 99.49307 34.86309
25.778543 98.39907 35.12609
31.681543 32.903076 22.31309
30.381542 31.972076 20.350088
14.055543 31.904068 25.463089
12.917542 32.797073 24.39609
34.68254 77.79507 94.39209
33.219543 77.87607 96.03008
18.747541 82.64607 98.264084
17.685543 83.16907 99.636086
13.4365425 2.4840698 61.42809
12.652542 4.191063 59.80209
36.33454 9.197067 61.74209
35.150543 9.0540695 63.09609
27.903543 18.883072 5.526085
27.935543 18.202072 7.234085
4.498543 11.273064 5.032089
5.8425407 11.710068 3.7350845
2.8955429 30.310074 66.27009
3.6955428 31.890076 67.00209
19.125542 24.335068 66.47709
18.930542 22.627075 67.43609
18.252542 52.73707 43.96309
16.986542 51.197067 42.76309
4.0065427 55.40107 51.80909
3.427543 55.240067 49.812088
15.912543 78.93907 98.59309
14.815543 79.51307 96.982086
-0.6404572 82.92407 102.568085
-2.0494576 82.25707 102.66908
23.450542 40.39407 72.65309
24.905542 41.197067 73.39309
2.37854 42.02107 68.69409
2.258541 42.273067 67.00109
2.6445427 0.5880661 1.7270889
3.4675407 2.8320694 2.4920883
25.089542 2.7760696 0.7570877
24.652542 3.8670654 107.57108
29.313543 25.904068 4.623085
29.971542 28.120071 4.4020844
6.0705414 25.274063 4.9480896
6.4735413 24.746063 6.3790894
-2.2074575 25.063065 48.64209
-2.4824572 23.131073 49.13309
13.780542 18.286072 47.41309
13.1605425 16.841064 47.18609
27.149544 14.961075 4.1480865
26.575542 16.157074 5.8320847
8.688542 14.919067 7.899086
8.813542 16.324066 6.4240875
7.4405427 17.186066 1.3480835
8.257543 16.265076 3.333084
6.5265427 18.19107 106.71309
6.923543 19.689072 105.66908
28.501543 70.60407 71.32009
29.980543 69.04907 70.49109
6.119541 66.213066 74.55109
7.7045403 65.70707 74.04809
-2.090457 0.81806946 82.93108
-1.3624573 112.87207 81.55909
15.532543 113.01407 78.73009
15.677543 111.48507 78.25309
8.212543 14.562073 24.953089
10.361543 14.724075 23.658089
27.773542 14.298065 23.995089
28.697542 14.566071 25.60409
2.068543 34.977066 56.48909
2.3315427 36.674065 56.86509
18.426542 30.26007 53.73509
19.782543 30.425064 52.95409
19.019543 73.672066 11.053085
19.480543 72.33307 12.909088
35.498543 72.63907 12.963089
36.55854 72.71707 11.660088
14.977543 17.212067 51.29609
13.533543 16.500076 50.08009
35.22554 16.256073 52.63209
35.283543 17.032074 54.24009
18.162542 102.992065 89.66808
19.577543 101.577065 90.24009
36.033543 102.03107 83.482086
36.393543 100.62307 84.514084
21.112543 14.311066 75.525085
22.211542 16.067062 76.55109
36.262543 12.199066 71.289085
36.531544 12.188065 69.57109
16.199543 109.57107 60.60509
16.056541 107.73507 62.31109
32.048542 104.95907 59.80709
33.319542 105.16206 58.77109
19.031542 85.72907 12.356087
18.786543 84.26207 13.620087
3.545543 88.02107 18.307085
2.5845428 89.102066 19.358088
1.7905431 14.999069 85.694084
2.970543 15.309067 83.90508
16.522543 13.703064 78.859085
17.796543 13.306068 77.94709
37.56354 94.491066 96.90709
36.98854 94.31607 94.733086
19.273542 97.228065 96.205086
19.636543 97.80607 97.57709
32.117542 82.54007 69.33409
31.947542 84.35607 70.32609
9.17754 87.13607 66.84709
9.577541 86.72207 65.21209
12.673543 9.331062 36.07409
12.455543 9.420067 33.78809
29.299543 10.134064 29.943089
28.570543 11.806068 29.665089
25.579542 98.574066 29.588089
26.880543 99.54907 31.56309
3.2375412 100.06807 25.912088
4.71154 99.868065 26.67809
4.3015404 40.22107 73.25509
3.5605392 40.836067 71.095085
27.171543 47.06307 73.45409
26.597544 46.92907 71.858086
12.730541 58.58107 96.62708
12.970543 59.75007 94.34309
36.25254 61.898067 97.636086
35.886543 62.96407 99.221085
29.670544 50.47307 93.179085
30.151543 50.79107 91.10509
14.508543 48.74907 93.66908
15.364543 49.982067 94.90408
15.418543 113.34607 63.84209
17.222542 0.8360672 64.01809
33.79954 109.324066 62.58109
34.74354 110.478065 63.34509
15.847543 34.412064 34.743088
17.278542 32.49507 34.67709
33.303543 34.171066 31.710089
34.57854 34.852066 30.426088
12.21154 45.54007 20.29609
10.036541 44.40107 20.02109
34.437542 45.08307 21.002089
33.66854 46.433067 21.92109
31.485542 96.07807 62.409092
30.484543 96.77607 60.14409
6.696541 93.34307 53.50109
7.499542 91.98707 54.29209
31.737543 45.795067 98.10209
32.31454 44.17207 96.90508
8.158543 36.738068 95.01909
8.54554 37.42907 96.72809
4.4625397 8.587067 105.97909
4.8585396 9.945068 107.83709
27.749542 12.377068 107.91908
26.809544 12.225067 1.576088
12.236542 105.911064 61.77409
11.258541 107.47307 60.70509
35.643543 104.534065 67.28609
34.25054 103.44307 67.17409
38.057545 0.97506714 91.857086
37.22254 2.1570663 90.38309
23.677544 10.588066 93.857086
22.832542 12.038063 92.81509
16.900543 102.33207 85.52009
17.664543 101.58607 84.111084
34.101543 99.57007 79.179085
35.784542 99.76107 79.749084
21.593542 33.36107 61.27409
23.176542 35.121063 59.46909
38.426544 38.18007 54.16309
0.7995415 37.100067 54.60209
2.3885422 41.43707 58.25709
1.0285416 40.300068 59.75709
22.467543 38.418068 57.40809
21.736542 38.732067 56.09109
20.587542 55.28307 41.048088
20.849543 53.330067 40.40509
35.798542 46.74407 36.58209
37.166542 45.70907 36.924088
-0.60345703 85.36307 4.6430893
0.7655429 87.12007 5.4850845
14.703543 76.53107 1.8200836
16.326542 76.45907 0.61408997
19.618542 24.551071 61.82209
19.842543 25.552063 60.13909
35.02854 20.905075 50.71609
35.441544 22.455063 51.38409
30.526543 107.89107 45.868088
32.55054 107.81907 44.94809
6.4435425 96.93807 42.54709
6.703541 95.90307 43.96909
33.491543 76.37307 82.51809
34.88554 77.63607 83.623085
11.609543 80.15507 79.56309
13.20454 79.23007 79.77109
24.140543 105.76607 1.5090866
22.921543 107.424065 3.1120834
6.745543 110.381065 1.826088
5.884543 111.856064 1.2670898
1.5825424 22.826065 69.441086
38.85554 21.44307 68.69609
23.927544 26.916077 69.71509
24.682543 26.903076 71.24209
37.36254 73.37207 33.60609
37.96754 75.28407 34.65409
22.812542 81.43207 37.60709
21.432543 81.31607 36.81109
3.0635428 78.38907 37.31109
3.522543 80.65707 36.29109
21.371542 79.978065 39.81109
22.371542 79.34107 40.99509
3.470543 85.77407 36.14009
5.219543 87.10907 35.389088
20.992542 85.770065 34.60709
22.458544 85.17307 34.43509
22.758543 87.52907 36.19609
23.984543 89.11207 36.03409
2.062542 89.00907 34.305088
2.9655418 89.05907 36.048088
9.549541 39.97207 1.224083
9.300541 38.86007 107.57509
31.943542 41.621067 4.125084
31.967543 41.50107 5.708084
22.014544 85.16107 27.512089
21.284542 86.10807 29.13609
5.090543 83.80507 34.11709
4.2105427 83.01407 35.28809
27.561543 58.20807 76.54909
28.603542 59.83307 76.60209
6.359543 55.70007 76.98609
6.2215424 56.857067 75.789085
29.407543 29.214066 11.686089
28.315542 30.726074 10.30809
12.810543 31.293076 15.122086
14.166543 32.395065 15.047089
2.9715428 59.71607 49.26309
3.078543 57.70807 48.45409
20.022543 57.91707 41.60609
20.322542 58.997066 42.68509
2.7225418 79.18907 44.88509
1.9685402 77.73907 43.084087
24.389544 81.22007 47.563087
24.553543 79.66407 48.04509
3.420543 90.70907 4.3560867
3.2125428 92.79807 3.6040878
17.579542 86.99007 0.30908966
18.759542 86.02707 0.99508667
26.783543 33.910065 88.57509
24.918543 33.817062 90.20209
9.200542 36.588066 89.77908
9.211543 35.340073 90.87009
15.370543 66.56007 1.0020905
13.990542 67.78007 107.58508
-1.1854572 71.89907 5.3770905
-2.1274576 72.44107 3.734085
11.286541 101.84807 62.71709
9.195541 101.35907 62.74109
31.986544 102.12807 63.12509
30.942543 100.979065 63.39609
20.806541 73.70607 24.82309
20.747541 73.29407 22.654089
37.019543 76.33207 20.367088
36.721542 74.645065 20.94109
28.860542 23.019073 15.884089
28.742542 21.813065 17.812088
12.032542 22.979065 21.17309
11.397543 21.812073 22.342089
-0.23245722 90.01007 98.64509
0.27854294 88.73007 99.972084
15.626543 88.464066 96.57108
16.262543 88.82807 98.232086
34.48654 13.083069 62.29809
34.13454 11.203064 61.56509
18.670542 15.028076 62.24109
18.693542 15.858063 63.55009
25.816544 57.725067 80.067085
24.530542 55.94307 80.18309
11.804543 63.85207 83.858086
10.106543 63.53407 83.166084
27.587543 35.72007 99.04408
26.964542 36.35807 101.04308
10.826543 37.39407 105.930084
10.266542 36.27707 107.10409
19.334543 37.27707 51.38009
21.120543 37.75607 52.85609
37.665543 37.75007 48.965088
38.427544 36.773067 50.29409
18.870543 84.96207 106.372086
19.893543 86.52807 105.054085
36.86354 84.19607 105.151085
37.52954 85.08307 106.49209
36.64654 61.406067 25.777088
36.09054 59.828068 27.075089
18.306541 61.253067 27.992088
17.416542 60.83307 29.183088
17.243542 49.85307 45.99709
17.316542 48.52607 47.54409
1.7775431 52.517067 50.21809
1.2825427 53.615067 48.83709
16.802542 76.39307 102.524086
16.198542 74.87907 101.17209
32.698544 75.85407 99.57208
33.893543 75.60707 100.69909
23.036543 94.47207 5.78109
23.816544 95.05707 3.7450867
38.86954 95.79107 3.324089
0.82353973 96.922066 2.5320892
0.22854275 98.52407 95.166084
1.764543 100.85707 95.14709
17.266542 97.95207 94.609085
18.065542 96.81307 93.63209
33.60654 17.032074 50.32309
32.86954 15.369064 50.86909
17.681541 22.99707 51.69709
17.303543 24.850067 51.11209
21.944542 38.911068 68.469086
21.297543 40.578068 69.87709
5.8635426 44.11907 74.74209
6.787543 45.794067 75.443085
8.169542 105.87607 30.180088
8.281543 105.69307 27.964088
23.533543 102.242065 26.083088
24.847544 103.53807 26.610088
14.696543 58.56107 23.85409
14.712543 60.141068 22.19809
-0.08545738 62.83807 15.749089
-1.1714573 61.467068 15.304089
23.312542 68.18307 47.87209
22.789543 68.43507 46.201088
36.54954 63.18607 37.201088
36.262543 62.63707 35.55009
10.7735405 65.896065 85.50409
9.9365425 67.89907 85.22809
33.14654 71.03707 85.46609
32.60654 71.94607 84.14809
7.6845427 10.256065 5.7680893
8.487543 8.183067 6.2710876
25.507544 4.347069 5.6500854
25.491543 2.5980682 6.0730896
29.225542 111.80507 29.755089
29.071543 111.54607 27.505089
5.78154 105.855064 22.270088
6.305542 107.48707 22.55909
6.92754 55.84107 81.665085
6.6765404 57.04207 83.17209
29.746542 58.70207 83.499084
29.086542 60.47007 82.96109
-1.695457 53.19907 33.72509
0.6635427 52.21607 35.20309
15.756543 51.60307 29.206089
15.350543 50.27007 27.79209
27.054543 112.25906 26.159088
25.721542 110.59907 25.33409
9.1605425 0.82006836 21.41009
7.936543 2.1350632 21.520088
4.4925423 14.990067 2.8080902
4.057541 16.865067 2.6840897
28.381542 17.551071 3.0040894
28.464542 19.265076 2.760086
16.072542 95.87807 82.18809
14.770543 97.394066 82.17009
-1.2584572 98.44507 85.27908
-1.8784571 96.936066 86.10309
14.069543 17.649063 32.820087
14.4105425 18.250076 35.327087
29.058542 18.091064 31.79609
30.734543 18.111069 33.04609
34.10454 1.3070679 75.013084
32.86154 113.52507 75.85509
17.260542 1.1810684 79.72509
16.898542 1.5810623 78.00109
24.609543 100.73807 15.254089
24.957542 100.50307 17.071083
2.3495407 96.04507 16.802086
4.074539 96.03707 15.885086
12.53054 24.390076 29.728088
10.758541 24.85707 28.106089
37.060543 27.233063 36.701088
36.498543 27.267075 34.92909
16.631542 92.54907 93.43409
16.333542 91.79907 95.49509
1.9085426 95.450066 98.42509
1.1965427 95.283066 96.64209
18.926542 27.936066 56.28209
18.709543 30.01007 57.16509
34.86254 25.074066 53.020092
36.05054 25.069077 51.84709
35.66154 51.155067 24.152088
36.055542 50.12407 22.127089
13.60754 53.11007 15.517089
14.277542 51.886066 14.6270895
8.758543 77.75107 56.13609
8.873543 76.14607 54.64409
23.993544 70.62207 57.70109
25.116543 70.77807 56.45909
2.990543 32.891068 61.41109
3.6225429 34.974075 61.75709
17.666542 36.489067 55.47909
19.006542 36.51407 54.28109
14.001543 6.8350677 45.445087
13.617542 5.9420624 43.90209
30.573544 0.33106232 42.26309
31.920544 0.033065796 41.25409
33.97554 104.646065 75.499084
33.742542 104.160065 77.678085
17.328543 99.95707 79.40909
16.476542 101.52807 79.03509
19.124542 81.11307 21.842089
19.109543 82.98107 22.485088
1.416543 86.35507 25.680088
0.9935426 84.49807 24.92709
5.228543 82.34207 39.00409
5.363543 83.65607 40.86509
23.841543 84.91307 41.48909
25.081543 83.64907 40.87909
0.8655428 82.67907 13.735085
1.2695427 81.02507 15.204086
17.813543 80.60807 12.065086
18.626543 81.55307 13.315086
22.134542 8.082069 98.42009
20.744543 6.6430664 97.416084
5.179543 5.640068 98.899086
4.8345428 6.4140625 97.42409
13.914542 50.40907 102.97909
15.783543 51.34607 101.89609
29.975542 48.84707 99.73808
30.568542 47.175068 99.98808
15.9435425 29.898071 45.58209
14.231543 28.726074 46.375088
-1.491457 29.673065 42.51109
-2.3224573 29.694077 40.85809
9.824539 67.96207 93.135086
9.675541 66.688065 90.90809
31.560543 62.74107 92.235085
30.155542 63.064068 91.124084
5.097543 95.98307 34.834087
6.0515428 97.43107 33.583088
22.358543 94.63807 30.010088
23.696543 95.83207 30.788088
24.693542 108.90107 10.638084
25.037542 108.41607 8.296089
1.9065399 103.09907 7.7400894
2.8105392 104.34607 7.262085
35.749542 33.442062 32.173088
36.86154 34.22107 33.73809
13.724541 36.229065 29.47309
15.133541 37.046066 30.033089
36.788544 57.858067 10.338089
37.180542 59.559067 11.78109
13.7545395 60.31207 8.909088
13.700542 59.04807 7.484085
23.126543 1.4490662 11.54509
23.657543 1.3070679 9.286087
7.064543 4.7850647 4.092087
6.068543 3.8390656 3.2490845
32.47354 56.758068 1.1090851
32.110542 56.073067 3.2050858
16.106543 56.022068 5.9380875
15.744543 57.843067 6.2490845
27.092543 69.42707 64.85009
28.752542 68.18007 64.595085
5.7875404 66.66607 63.27309
6.333542 68.172066 62.08909
6.905543 41.107067 74.483086
7.629543 40.24707 76.08809
22.102543 32.74607 69.109085
22.748543 32.72707 67.59709
5.995543 76.94007 50.33309
6.853543 75.43807 48.92009
21.300543 70.80807 46.51709
20.503542 71.10807 45.10609
30.120543 20.148071 29.947088
30.716543 22.157074 31.043089
16.346542 25.095078 36.15509
15.847543 25.873077 37.44709
31.141542 11.499069 25.92709
31.215544 13.561066 25.831089
7.53154 17.098068 25.22609
7.855541 16.944077 26.94209
24.876543 68.25107 63.24509
23.640543 69.81307 64.317085
7.5385427 72.55607 66.08809
6.720543 73.69107 66.99409
17.926542 54.55507 27.673088
18.212542 56.559067 28.416088
34.31554 53.26307 26.02509
35.35054 52.24307 26.839088
33.52954 20.923065 41.59509
32.805542 19.647064 43.58609
16.111542 20.267075 45.125088
15.906543 21.695068 43.75409
2.4525414 90.71707 15.310089
1.6975403 89.01107 16.507088
22.118544 89.94707 17.360085
21.177542 88.68207 18.125086
32.484543 43.91507 23.291088
33.122543 43.86107 25.32609
18.132542 46.92807 28.919088
18.805542 48.725067 29.392088
19.976542 56.197067 35.05809
19.960543 54.350067 36.348087
35.17554 57.178066 30.822088
36.151543 56.467068 29.63609
4.2075424 36.68807 73.984085
4.01754 36.71307 75.77309
27.149544 42.08307 81.43009
26.190542 43.10107 80.664085
15.038543 63.02807 97.85609
16.230543 64.58407 98.05909
30.900543 58.47307 90.971085
30.731543 57.122066 92.360085
31.801542 112.17707 49.05209
29.906544 113.229065 49.61909
14.506543 109.93407 54.03809
13.267543 109.619064 52.90309
21.346542 67.84507 39.146088
20.589542 69.381065 36.97809
38.81354 67.354065 36.50909
1.2015419 66.73607 35.806087
10.029541 27.533066 20.103088
8.053539 25.91507 19.464088
32.36454 30.541077 18.98609
30.948544 30.55307 18.21609
9.967541 60.24207 86.40909
8.689541 60.858067 85.040085
32.080544 60.87407 90.15809
31.616543 60.579067 88.37708
16.639542 53.504066 20.029089
14.767543 52.44307 21.17109
0.49254268 61.27107 25.463089
0.34054273 62.18007 26.97609
22.986544 22.090073 75.19709
24.238543 23.48407 73.75709
1.6335411 23.66507 75.77309
1.2485428 22.704071 74.026085
36.84954 13.231064 73.77109
37.20854 15.161072 75.60109
22.389544 19.84607 73.914085
20.862543 19.130066 73.86909
5.528543 41.696068 69.44009
5.774543 39.717068 69.874084
21.033543 35.22007 65.07909
22.164543 34.58907 64.04709
7.4765396 85.47407 56.23709
5.0005417 85.199066 56.85709
30.715544 89.84107 47.85309
29.651543 90.825066 48.92709
22.911543 40.85207 67.012085
23.574543 39.42807 65.513084
0.31653976 35.96607 62.82309
1.3955421 36.26107 64.330086
26.825542 51.411068 83.819084
25.755543 52.571068 82.36609
11.994543 58.779068 87.58909
12.4035425 60.36707 87.46008
30.691544 11.992065 34.180088
30.501543 14.062065 34.19809
13.634542 15.020065 33.646088
11.888542 14.177063 33.958088
20.049541 65.52407 35.26309
21.455542 67.077065 35.47609
36.797543 65.80607 29.44209
36.852543 64.90207 27.963089
-0.6524573 37.30607 46.17909
0.9805426 38.38807 47.41909
18.325542 38.47807 46.264088
19.198542 38.995068 47.924088
34.25754 112.730064 51.06209
34.57654 110.76207 52.31009
13.2925415 0.10406494 52.02509
14.179543 112.31506 51.93509
6.477543 13.131065 9.285088
4.0705414 13.588066 9.338089
30.538544 19.830063 18.566088
29.596542 19.544067 17.236084
16.940542 5.348068 66.580086
18.443542 4.1760635 68.164085
34.221542 113.54207 63.49809
34.91954 112.645065 64.85309
32.77854 107.477066 49.26609
33.545544 108.05207 51.63509
11.040543 110.44207 48.65009
11.42054 111.95807 47.62809
2.217543 113.43307 88.62909
1.9115429 0.6920624 86.29709
13.617542 111.58407 86.664085
15.492543 111.31007 86.92309
27.693542 100.38507 47.61509
28.310543 102.383064 47.45409
15.227543 112.74907 48.71809
14.330543 113.119064 47.06009
34.220543 1.7240677 68.68609
32.20954 0.98106384 69.234085
17.294542 7.201065 68.50609
16.427542 8.184067 67.40509
25.142544 80.95407 54.41409
23.635542 82.88907 52.97809
8.298543 87.00907 53.19509
7.936543 88.33707 52.33609
15.955543 113.005066 76.02109
17.712542 0.47706604 75.513084
31.703543 110.256065 66.871086
32.944542 109.85007 65.62609
4.4885406 40.04707 78.80809
4.55954 40.46907 76.49109
27.434544 44.82607 77.261086
26.160543 46.03307 77.89109
34.769543 68.29507 104.05909
34.650543 68.61207 106.40709
17.332542 71.31807 106.92109
17.680542 72.48007 105.36308
31.823544 23.268066 16.69109
32.49354 24.730072 17.756088
8.832542 18.237076 22.235088
9.625542 17.239075 23.25009
30.810543 84.11107 56.60709
30.512543 83.31007 54.55209
4.8795395 81.05607 58.159092
5.56654 80.853065 56.72109
24.484543 34.591064 79.485085
23.169542 33.407074 78.040085
9.064543 38.419067 84.262085
7.8815427 37.368065 85.149086
22.853542 107.02306 8.215088
21.769543 106.964066 10.1010895
5.5125427 111.118065 12.713089
5.523543 110.27807 14.372086
17.605543 56.022068 36.60309
16.661543 57.70907 35.35809
0.95854276 60.21407 37.75409
0.6315426 61.307068 38.94009
4.4075394 50.44307 75.55609
3.5045395 50.99007 74.02809
28.268543 56.77607 80.415085
28.328543 58.275066 79.41209
17.738543 70.950066 5.9710846
18.607542 69.55307 5.179085
35.44554 70.14207 3.0170898
35.57154 68.28907 2.590088
25.278543 9.096069 10.689087
25.341543 7.7400665 8.28009
8.768542 10.890068 10.032089
8.532543 11.507065 8.525085
35.05154 52.747066 18.15809
36.094543 53.364067 16.251083
12.119541 52.336067 8.993088
12.929543 51.51807 7.72509
25.098543 77.80607 50.40409
24.133543 76.80007 48.88409
7.4615426 79.53207 54.63909
5.844543 80.20107 54.11009
1.8025398 83.38307 34.028088
1.1725426 83.48607 32.01809
23.695543 86.630066 30.69209
22.703543 86.28807 31.84409
17.484543 59.52007 25.01409
18.601542 62.01907 24.718088
35.07254 59.011066 21.43709
35.65554 57.78307 22.398088
8.754542 6.685066 14.014084
9.132543 8.322067 12.909088
26.212543 5.769066 13.671089
26.164543 7.392067 12.970085
4.397543 34.16107 76.40409
5.778543 32.907074 76.98009
20.738543 27.175064 75.304085
21.554543 27.034073 76.872086
5.4085426 98.69307 36.82409
4.60054 96.59807 37.65509
29.214542 103.86007 40.11509
27.828543 103.67707 38.562088
17.943542 12.466064 80.721085
19.024542 12.576065 82.51508
34.735542 5.731064 74.48009
33.955544 6.7060623 73.48609
21.077543 42.81207 66.79809
20.763542 43.62207 68.81009
6.0345426 43.73407 64.50709
4.7105427 42.98707 65.25609
19.952543 46.77707 52.55709
20.874542 46.35807 50.35009
36.91854 46.286068 45.64509
37.34854 45.433067 44.33609
-0.67445713 65.04007 38.32909
0.7985429 63.393066 37.47609
17.589542 67.256065 36.35209
17.194542 66.867065 34.71809
38.164543 56.89407 39.70509
36.763542 57.961067 38.29009
24.383543 62.115067 48.674088
23.407543 60.67207 48.65609
4.9485397 105.56007 14.220085
5.152542 106.26407 15.972084
26.904543 109.12107 20.420092
27.685543 110.60107 20.428087
24.137543 16.70607 95.90609
25.633543 15.889069 95.30608
0.53253937 7.4430695 92.41808
0.44953918 5.8200684 92.02808
26.204542 89.74707 48.327087
24.034542 90.78507 48.46909
9.965543 96.53507 47.33009
8.944543 97.21907 46.09609
30.375544 35.04507 19.45809
30.945543 36.85807 20.01409
15.6535425 37.22307 26.884089
15.1535425 37.48407 24.992088
16.373543 48.00007 21.435091
14.970543 46.34507 20.775087
30.807543 42.786068 13.671089
31.555542 43.071068 15.257088
20.926542 89.37807 37.34409
19.549541 90.75307 35.67509
4.1065426 90.74607 31.738089
4.6135426 91.98807 30.892088
38.835545 70.33707 31.703089
37.422543 70.39907 33.640087
22.023542 72.50307 30.899088
22.416542 70.66607 30.656088
15.438543 77.17507 94.84808
16.896542 77.186066 96.56509
32.73654 77.44807 90.472084
33.825542 77.83007 91.93909
25.080544 94.43907 39.76709
24.724543 96.03007 38.91209
8.641542 98.89207 42.24109
7.7825427 98.76807 40.74409
37.999542 23.514069 58.57409
36.62754 26.164062 59.32709
22.151543 25.972076 65.61209
20.557543 26.390076 65.33509
31.052544 26.069077 29.28909
31.036543 28.02507 28.266088
14.020543 29.98407 31.082088
13.222543 29.103073 29.701088
15.580543 103.770065 77.29909
16.431541 102.37407 76.387085
33.505543 107.44107 73.49509
33.616543 107.37507 75.19009
6.996543 48.523067 70.35109
7.891543 50.460068 69.06109
22.936543 49.52607 69.19409
23.372543 47.90707 69.47909
29.221542 35.476074 94.595085
31.189543 37.426064 94.01809
6.01754 29.882065 90.413086
7.354542 29.493073 92.541084
15.172543 53.829067 103.026085
15.582542 54.24807 101.07309
29.941544 54.425068 94.84009
29.398542 53.09807 94.06109
25.950542 107.01507 27.15309
25.002542 108.93507 27.728088
9.472543 111.867065 32.47109
8.188542 110.95807 33.577087
36.53054 77.52707 2.798088
36.84154 78.79007 0.6790848
21.383543 84.90507 6.217087
20.293543 85.24807 7.4430847
18.921543 88.70807 86.75709
19.063543 90.60607 85.08408
33.33554 83.18307 87.21409
34.64854 82.51807 88.484085
33.76454 101.675064 69.137085
34.46754 100.43107 71.27109
10.146542 96.16007 69.43209
11.04554 96.01607 67.89309
-2.4434576 102.52306 80.82209
-1.452457 100.69006 81.66709
14.714542 103.22507 82.68208
14.840543 102.70507 80.96809
24.519543 93.26107 46.04409
25.175543 92.75207 44.30309
6.917543 92.89707 43.15109
5.833543 91.66507 43.72409
29.106543 15.120071 20.22309
27.024544 15.20607 21.516088
11.571543 18.742065 18.666088
10.753543 20.323074 18.398088
21.732542 52.18607 53.28909
19.892542 50.42407 52.83809
2.9025428 53.52007 55.57709
1.436543 52.807068 56.04709
26.099543 53.06907 66.26509
26.958544 54.601067 64.636086
4.5735397 52.773067 62.90709
4.918541 51.09007 62.53909
36.819542 76.65407 10.330086
36.73754 74.40507 9.810089
19.674541 74.62607 6.9540863
20.877542 74.992065 5.8060837
29.534542 99.66807 41.64809
28.671543 97.96607 42.709087
4.949539 93.89807 45.313087
5.194542 95.40507 46.160088
28.373543 54.91707 90.12909
28.909542 55.217068 92.137085
15.359543 58.53507 99.19809
14.087543 57.029068 98.25509
5.6975427 31.444077 82.347084
5.439543 29.606064 81.080086
4.4595428 23.679077 82.083084
4.107543 24.676071 83.45409
24.444542 112.18307 13.902084
25.484543 110.713066 15.286087
2.444542 112.715065 15.955086
4.0845413 111.88707 15.867088
34.845543 69.088066 95.90809
33.36154 69.17507 97.62608
17.575542 67.33507 98.14008
16.612543 66.89307 96.79609
16.814543 14.37307 66.221085
15.879543 13.921066 63.39009
3.095543 17.159073 74.24109
3.322543 17.244064 75.88209
11.609543 105.118065 48.50209
9.9365425 105.97207 49.37209
34.963543 104.382065 56.60109
33.45254 103.728065 56.35109
18.458542 69.64707 30.551088
17.268543 71.35407 30.682089
3.2025428 77.59007 34.04109
1.8665428 77.20307 35.04709
32.450542 45.15807 11.596085
30.916542 44.14507 10.868088
14.360543 47.308067 15.86409
14.4035425 46.41407 14.381088
0.9985428 57.22907 53.31109
1.4905396 54.94307 53.85709
24.768543 54.23007 61.43609
24.195543 54.539066 59.78109
10.868543 79.520065 68.46309
12.267543 80.270065 69.60409
26.302544 74.71207 66.46609
27.009542 73.85807 67.76909
10.473542 95.27807 64.859085
11.338543 97.07007 65.20209
27.912542 95.23907 63.33909
28.340544 93.64807 63.20409
0.1335411 32.781067 70.970085
1.4785423 32.580063 72.011086
24.896544 30.881073 80.399086
23.831543 29.59407 80.35309
36.10754 4.3980637 65.887085
36.532543 4.7160645 67.81209
14.376541 2.2800674 64.03609
14.500542 3.7460632 63.35409
25.636543 104.784065 34.79109
26.306543 102.47107 34.01909
4.2425423 99.61207 34.37109
6.078541 99.96807 34.480087
18.377542 67.270065 16.861084
18.935543 69.65907 16.913086
36.478542 65.26707 17.987083
37.00154 63.83407 18.638086
20.562542 74.68307 36.535088
21.636543 75.54407 38.15509
38.631542 71.62907 37.97009
38.800545 69.64007 37.99009
-0.9764572 104.67707 91.456085
-0.5014573 105.15507 89.513084
15.797543 106.481064 89.33909
16.559542 106.285065 87.95109
23.270542 99.31607 106.82208
24.242542 101.061066 106.135086
1.5915413 98.47407 0.42308807
1.168541 97.02907 107.583084
34.562542 53.97707 12.935089
32.86854 52.77107 12.701088
19.975542 56.164066 17.495087
18.329542 56.592068 17.43309
7.7335396 17.776077 11.944084
5.9595413 16.80307 11.977089
29.546543 21.329071 13.899086
29.038544 19.899063 12.977089
25.503542 63.432068 55.52909
24.190542 63.191067 54.02109
6.287543 67.15307 57.01809
5.839543 67.88707 58.395092
27.529543 28.220078 9.454086
26.469543 26.578064 9.388084
11.507543 30.614075 11.093086
9.895543 30.236069 10.719086
32.638542 58.696068 3.3940887
33.123543 61.10407 4.00309
17.534542 61.51907 5.2940903
17.705542 62.58807 6.7540894
3.6395416 81.54407 52.47409
3.00354 79.62207 51.53609
29.007544 83.58607 59.58309
28.178543 82.71807 60.770092
33.781544 27.804077 38.75309
32.582542 25.957077 37.437088
17.592543 25.973068 42.820087
16.570543 24.632065 43.306087
14.013543 41.76307 25.352089
15.431542 40.231068 24.64209
31.394543 41.447067 22.47609
31.931543 40.370068 21.27809
4.3435426 1.2660675 101.527084
5.0125427 112.84807 100.40408
22.283543 112.589066 101.74309
23.173542 112.75906 103.30708
7.847542 38.58007 87.68108
7.937542 38.905067 89.872086
29.820543 43.890068 87.57909
28.368544 43.64607 88.52908
28.896544 97.55407 62.53709
28.391542 98.69507 64.35009
13.074543 99.853065 65.65409
11.995543 99.67307 64.249084
23.723543 30.383072 67.42609
24.362543 29.923065 69.92309
0.9975395 25.229065 62.25909
2.0095406 26.194077 61.54909
-0.23345715 65.28907 31.554089
1.2445431 64.088066 29.72609
16.333542 64.28207 23.93509
16.399542 62.628067 23.318089
12.632543 78.18807 89.02309
14.172543 76.228065 88.498085
31.983543 72.727066 89.135086
33.262543 73.86107 89.027084
36.812542 43.738068 28.704088
36.38454 43.404068 26.746088
12.99654 44.225067 22.31709
14.445541 43.40107 22.74409
6.128543 38.530067 81.05709
6.715543 40.56207 80.263084
22.561543 35.25107 74.789085
23.648542 33.66007 74.98609
18.497541 113.32307 85.749084
19.391542 0.3250656 83.971085
36.97454 3.441063 86.02309
38.131542 2.0930634 86.60409
0.06454086 93.699066 105.64509
38.158543 95.67807 105.20409
37.512543 88.21107 102.249084
0.038539886 87.59007 102.567085
3.5585403 14.108063 99.14108
2.28154 13.237068 97.568085
27.223543 17.986069 96.92409
26.993544 19.378067 97.77209
15.859543 55.52707 17.04909
15.698543 57.280067 18.370089
-0.90845734 60.12507 18.985088
-1.9174571 60.91007 20.231089
28.060543 33.21907 2.8200836
29.850542 34.088074 3.8050842
6.451542 29.815063 4.1440887
6.8935394 30.85907 2.798088
