12.778452 52.527863 16.538177
13.950452 53.366863 15.571175
-0.69854826 24.96286 98.71518
-0.47354832 25.509872 96.63718
15.493452 22.939865 90.21318
16.035452 21.12387 90.33718
0.3734518 75.955864 53.95018
0.07245167 76.92087 51.98618
17.091452 76.22386 46.59718
17.893452 75.76687 48.067177
15.574451 10.866867 95.29818
14.971452 10.315872 97.32618
-3.9155483 11.831871 97.33718
-4.155548 12.885872 95.80418
16.801453 89.61286 10.559174
17.225452 91.897865 9.564178
32.293453 93.980865 3.3311768
33.06845 94.953865 2.2031784
18.950453 22.66687 100.14418
18.990452 23.715866 98.14018
34.760452 19.588867 97.64018
34.33245 18.053864 97.39418
37.370453 31.479858 86.05318
35.617455 30.614868 86.99018
20.681452 38.76387 88.28018
20.638453 40.167862 87.53018
-2.2035484 6.2738724 109.02618
-0.9995484 7.1398697 110.294174
14.489451 2.6348724 106.60918
15.756452 2.4488678 105.34418
12.3434515 29.480865 49.36218
14.213451 30.032867 48.407177
29.40545 33.33687 44.865177
30.032452 34.80487 43.77718
22.858452 6.628868 37.87518
23.137451 8.865868 38.77718
8.7514515 8.968872 47.566177
7.625452 8.765869 48.93118
32.503452 11.272865 103.17118
32.42845 12.9928665 102.27018
19.120453 22.726868 105.33918
18.592453 21.196869 104.97818
36.59445 3.6468658 8.550179
35.399452 2.7758713 7.1791763
19.492453 10.066872 6.2101746
20.026453 11.973869 6.509178
23.794453 74.85986 65.84018
24.615452 75.33286 67.71218
37.264454 62.552864 66.45318
37.605453 61.012863 66.056175
23.235453 104.730865 55.54218
23.157452 103.63087 53.385178
5.035452 107.55587 50.56818
3.9834518 106.119865 50.323177
27.917452 22.663864 32.266182
27.632452 20.86586 32.968178
4.545452 18.392868 28.815178
6.1114483 18.095871 29.192177
34.645454 41.606865 73.822174
35.066452 40.352863 76.13518
19.763453 48.619865 72.69118
18.932453 48.298866 71.39818
12.085452 38.45186 22.56118
12.584452 39.40587 24.749184
26.496452 34.73886 19.399178
28.08945 35.262863 19.905174
26.122452 41.456863 3.21418
26.238451 43.255863 4.577179
4.7344513 40.486866 2.973175
4.8334503 38.802864 2.723175
31.930452 84.40286 104.56518
31.987452 86.271866 103.21518
8.83045 87.79487 98.09918
8.986448 88.27986 96.43318
2.7394524 42.539864 96.985176
2.0984535 44.405865 97.05118
23.865452 43.490864 99.80418
22.212452 43.056866 99.81618
1.6764518 76.60287 41.734184
2.1424518 74.47787 41.03118
17.034452 67.202866 40.68519
17.138453 68.830864 39.735176
8.528452 54.572865 6.162178
7.5324497 53.300865 8.234177
31.291452 55.214863 13.855179
30.073452 54.154865 14.584175
33.71345 57.846863 20.590187
34.202454 58.214863 22.609184
17.801453 62.197865 29.866188
17.560452 60.982864 31.174187
26.187452 27.54486 26.075188
25.315453 26.133865 23.907173
12.232452 36.95987 20.27018
11.028452 36.741867 18.987175
20.414452 104.87887 38.26818
20.410452 106.176865 40.353188
3.9174519 105.481865 46.073174
2.6124518 106.14387 47.06018
22.07545 36.84587 105.00418
20.346453 34.90886 104.78818
4.219452 33.021866 110.03518
4.120452 34.22986 108.515175
32.439453 108.24786 93.72718
33.398453 0.19586945 92.91418
11.454451 107.93287 90.29318
10.923449 106.64187 88.87118
8.688452 92.84686 93.722176
9.549452 94.162865 95.34518
31.102451 98.24287 95.78618
31.283451 98.564865 93.93318
14.330452 33.05287 65.21118
15.232451 31.374863 66.65718
30.645452 27.483871 65.32318
31.676453 26.13086 65.655174
16.355452 49.843864 31.04618
15.769452 48.960865 33.370186
29.841452 43.152863 29.993187
30.72145 43.133865 31.524178
13.171452 96.217865 0.044174194
14.108452 96.604866 108.82618
30.837452 95.69486 109.611176
31.984451 95.967865 110.78618
23.816452 37.52887 108.86818
24.569452 36.519867 110.348175
1.2854538 33.43686 103.97818
2.368454 33.09886 102.749176
32.028454 71.523865 8.486176
31.14845 71.856865 10.433174
16.063452 69.120865 14.148178
14.943452 68.314865 15.13018
2.4194517 29.896866 101.19018
3.8034518 30.868866 99.41218
19.213451 32.94986 100.334175
19.910452 31.486862 101.12318
3.5634518 74.677864 66.49518
3.0984519 76.25387 65.17718
20.286451 74.29687 60.27218
21.126451 75.58186 59.394176
36.724453 93.34986 11.36618
34.780453 94.26486 10.717178
19.442451 95.677864 14.795174
18.550451 97.25687 14.243179
8.051452 31.747864 24.434181
9.091452 33.15686 22.778175
8.891452 33.428864 29.394188
8.513452 35.101868 29.69918
34.639454 41.295864 69.98318
34.252453 43.420864 70.20118
21.406452 43.709866 78.25318
20.121452 45.275864 78.49218
2.5624504 29.185867 106.819176
1.2264519 28.30986 108.624176
24.449451 31.899872 0.37017822
24.534452 31.101868 2.1701736
17.055452 9.080872 108.97818
15.624452 7.72287 109.35318
0.14345177 12.685867 107.20618
-1.378548 12.218872 106.43618
5.1974506 98.39187 64.93718
4.745453 100.50387 64.80118
28.210451 104.57187 70.695175
27.111452 103.426865 70.04518
23.802452 101.04186 53.913177
24.801453 99.27786 54.22918
2.8434525 95.97486 54.379177
3.309452 96.39187 55.887177
28.47145 56.169865 14.601173
28.257452 58.497864 15.0381775
13.390451 56.366863 15.396179
11.834452 57.359863 16.45118
33.041454 36.400864 54.94518
32.835453 34.41487 56.461178
9.890451 29.164871 53.074177
10.453451 28.461868 51.691177
10.33045 6.1488724 76.10618
9.278452 5.392868 74.515175
31.558453 4.6868668 77.46618
30.283451 4.3028717 76.472176
28.643452 32.94687 34.763176
28.696451 34.69287 33.112175
13.314452 39.234863 35.86918
12.905452 40.11487 37.223183
1.474453 53.193863 89.84918
1.243454 51.785866 91.78118
23.750452 51.132866 95.334175
22.270452 49.692863 95.37618
28.03045 11.940872 53.36718
28.517452 10.22187 53.95218
5.9234486 6.885872 56.54318
6.0864506 8.674866 55.39718
14.628451 71.774864 20.370186
13.980452 73.26486 19.460182
-0.8245482 75.04487 25.644188
-2.3825483 74.40987 25.65818
25.079453 49.602863 102.30818
25.41245 49.617863 104.53218
3.9724503 52.214863 99.89218
4.5104523 51.250866 98.40818
9.243452 13.189865 44.248177
11.049452 11.113869 44.293175
25.671452 15.581871 42.323174
25.01645 14.729866 41.27218
26.518452 55.239864 103.223175
27.08945 56.786865 101.29718
3.4094505 58.592865 97.44818
3.4984512 57.332863 96.40718
23.883451 22.577866 26.43618
23.403452 23.982864 27.519188
9.768452 30.01387 29.217186
8.183452 30.797867 28.889183
26.855452 85.69887 77.389175
26.034452 84.160866 75.77518
2.4644508 79.12286 73.50418
2.9734535 77.54687 73.585175
16.502453 81.40086 26.836174
15.385451 83.01286 25.578178
-1.5785483 80.15386 26.013176
-1.6055483 78.41886 25.825188
29.606451 109.788864 89.37618
28.542452 109.940865 87.67718
13.803452 3.6268692 91.53218
12.818452 2.2728653 91.89218
20.247452 62.569862 74.54018
19.101452 61.055862 74.40818
3.4804518 60.782864 75.99318
2.9544518 59.632862 77.21918
28.235453 76.81986 0.64017487
26.986452 78.11787 110.69218
10.388452 76.439865 106.29618
10.133452 77.90386 107.81018
-2.537548 58.194862 50.18018
-1.1935481 57.495865 48.15318
14.905452 56.614864 47.39018
15.974452 56.673862 45.954178
0.35145187 104.260864 23.539177
0.1664505 102.508865 24.620186
21.995451 107.76587 25.081184
21.406452 109.28187 24.506187
28.925451 21.200867 45.75518
30.187452 22.26387 44.81818
3.2224503 13.294868 49.04118
1.6264534 12.623871 49.07118
18.323452 81.82487 20.716179
20.414452 82.424866 19.29618
34.243454 77.66786 19.552177
34.20645 76.40286 18.340187
4.771454 25.761871 18.43618
4.276451 26.349869 16.231178
28.616451 32.063858 16.677177
28.470451 32.93387 18.209175
13.316452 25.114868 51.198177
13.071452 22.53386 52.05518
25.920452 13.54187 45.65418
25.132452 13.468872 44.04118
12.260452 41.811863 52.60318
12.475452 40.197865 51.253178
-2.9985485 44.007866 52.02918
-2.6765485 45.445866 52.755177
21.833452 8.047867 24.15818
22.161451 6.44487 24.79818
38.657455 2.807869 23.586174
1.2544518 3.307869 23.087181
16.532452 9.412872 3.888176
15.105452 7.718872 4.2921753
-0.42854825 10.962868 109.43718
-1.575548 9.840866 110.766174
29.067451 22.910858 35.422188
28.708452 21.689865 36.93818
6.8924503 18.964859 37.552177
7.6614513 17.425865 37.988182
30.066452 37.33586 43.170174
30.757452 38.939865 42.17318
13.771452 42.013866 42.377174
12.200452 42.06386 41.945183
33.653454 2.206871 109.75518
32.030453 1.9518661 108.58218
15.758451 0.21086884 106.42218
15.253451 108.424866 105.92018
4.224452 75.33386 72.85118
5.798452 76.49886 74.666176
21.729452 71.40586 73.30318
20.887453 70.049866 72.21318
15.911451 30.641861 76.92218
17.281452 32.578857 77.30118
34.620453 28.230865 76.32418
35.565453 27.336868 77.55018
24.19345 95.31786 50.747177
24.321451 95.93186 48.43618
0.73345184 94.89587 43.913177
1.434452 95.29787 42.25218
2.3544517 95.594864 46.24818
2.9224517 93.44686 46.116177
18.235453 88.89086 42.00218
18.597452 90.43787 42.734177
8.045452 88.61286 89.27418
10.235452 89.73786 89.95018
25.919453 84.30786 88.08018
26.626451 83.205864 86.85918
4.733452 96.65987 62.48718
4.382454 95.86487 64.80118
27.782452 100.67387 62.21518
26.59645 101.83787 61.671177
37.381454 48.320866 50.36018
35.93645 46.558865 50.385178
19.146452 49.673866 54.795177
18.490452 50.177864 56.18718
33.292454 80.61286 8.968178
32.465454 81.92187 8.271179
17.202452 80.18286 10.786179
16.860453 78.67387 10.623177
13.382452 2.7688675 101.903175
12.315451 1.4958725 100.08518
34.142452 4.0568695 99.85318
34.537453 5.1388702 101.430176
31.588451 25.310867 41.027184
30.805452 23.356873 42.17118
8.4564495 17.80587 44.442177
9.222448 16.370872 44.135185
4.791452 54.891865 95.67218
4.9134517 56.188866 94.26618
21.874453 58.941864 90.55218
22.169453 59.887863 89.01118
16.985453 43.411865 70.03918
15.991451 44.201866 67.93718
-0.425548 45.096863 73.95718
0.0054517603 44.066864 75.53418
15.927452 87.02786 11.885178
15.336452 87.146866 10.03318
-1.9325479 90.93286 10.315178
-2.260548 90.08987 11.822174
24.812452 45.784863 96.459175
25.555452 45.660866 98.75718
1.9754524 51.314865 94.51918
3.323452 51.158863 95.41218
37.607452 2.682869 14.854179
36.13745 0.979866 13.961174
21.080452 3.783867 14.539177
20.214453 4.795868 12.982178
31.388453 35.87587 41.46618
31.353453 33.97087 41.577187
10.26145 30.119858 42.67118
10.541449 30.76387 41.21618
31.20045 25.578857 61.586178
32.965454 25.35286 59.86818
9.986448 26.065872 61.624176
11.291449 25.899872 62.787178
19.555452 13.020866 9.0121765
19.558453 15.802872 9.666176
5.372452 19.099869 9.002174
4.6434517 20.23787 7.789177
3.1154518 5.9788666 26.534187
3.1354518 5.130867 24.220177
2.3104517 6.210869 20.445183
3.0054517 5.271866 21.661186
33.695454 98.16586 110.41018
33.967453 97.758865 1.1701736
10.675451 95.96086 109.49518
11.618452 96.71387 108.20018
33.070454 97.576866 107.39918
33.85245 99.816864 107.65118
10.700449 96.97887 105.20518
11.423449 95.536865 105.471176
10.562452 19.961868 45.89618
11.308452 17.899872 45.170177
27.255451 17.83387 47.829178
28.28745 16.697868 49.059177
-2.294548 25.15686 75.54518
-1.6345481 24.230865 77.23418
15.094452 24.008865 78.46218
14.844452 22.856873 77.35218
19.106453 68.92387 53.84218
20.388453 66.53186 53.54918
38.100452 67.83186 51.982178
38.827454 68.397865 53.59718
14.357451 13.41687 90.51718
12.835452 11.970871 91.69118
-2.7335482 18.00187 93.138176
-3.796548 19.12587 92.57918
21.924452 99.12887 34.357185
21.764452 96.911865 33.621178
36.654453 96.828865 24.955177
36.771454 97.11286 26.676186
21.069452 13.862869 1.9351807
20.808453 12.413872 3.6011734
34.33945 5.0988693 3.6341782
34.802452 3.939865 2.3571777
15.473452 20.25586 74.10018
15.030452 22.019867 74.890175
32.959454 18.851868 77.24618
33.981453 17.77987 76.42718
16.758451 92.74287 29.246178
16.985453 90.70686 29.863182
1.2934519 96.15386 32.905174
0.34545192 96.43687 31.653175
0.9814516 11.728867 9.209175
1.1234518 13.442871 7.9631805
16.562452 9.566872 6.980179
17.063452 9.010872 8.458176
35.565453 105.329865 15.916176
34.58945 106.954865 17.107185
20.693453 2.2658691 20.748177
20.760452 1.9958725 19.179176
31.243452 87.55686 109.69218
32.538452 85.45686 109.711174
7.6094494 83.382866 104.098175
7.23345 82.56087 105.48318
8.121452 10.093872 54.051178
8.890451 8.509872 54.545177
24.176453 3.1518707 52.330177
24.327452 2.0898666 51.046177
23.855452 100.12686 47.803177
24.226452 101.78287 49.55718
38.448452 93.662865 48.794178
0.26745224 94.27886 47.34118
4.757454 54.702866 103.70618
4.2864532 54.802864 106.00918
26.410452 53.510864 106.15118
25.76645 52.545864 107.612175
13.031452 59.946865 21.628181
13.952452 61.595863 23.274178
-2.827548 60.494865 24.594185
-3.775548 60.789864 23.14518
24.386452 39.155865 0.6201782
22.865452 40.496864 1.1261749
8.217452 42.232864 8.791176
7.3604517 42.861866 10.119179
12.143452 11.498871 76.667175
12.306452 13.613869 76.49118
29.460451 6.5148697 78.473175
30.285452 7.7028656 79.64418
17.007452 55.960865 68.53918
18.598452 57.164864 68.67118
34.62945 52.221863 68.35218
35.33245 50.623863 68.42518
15.721452 64.74187 31.707176
14.459452 62.321865 31.540184
-1.8815483 61.252865 37.162178
-3.440548 61.108864 36.564186
31.814451 108.74987 87.96918
32.266453 0.8698654 87.92218
10.575449 106.87487 84.60618
9.42045 107.16987 83.69218
34.337452 54.214863 25.67318
35.32545 52.703865 24.597176
9.977449 52.983864 17.763176
10.21245 51.454865 18.088188
33.62945 106.982864 10.365173
33.110455 107.94487 12.426178
19.589453 108.05386 19.704185
19.578453 109.591866 19.485176
12.36545 5.0498657 85.95018
11.24045 3.8418655 87.31018
33.927452 4.2668686 86.99018
32.884453 5.5008698 86.46118
38.193455 6.6398697 13.036179
37.19245 5.8248672 11.449181
21.020452 8.905869 13.303177
20.595451 9.092865 14.828178
17.036451 102.87987 15.496178
18.403452 102.774864 17.070183
34.402454 100.86787 13.011177
35.252453 99.538864 12.213181
22.277452 30.863861 94.17718
22.607452 31.652863 96.41518
38.602455 33.36786 97.83518
0.42845154 34.30487 96.695175
3.5494537 50.066864 102.82418
3.2424507 48.442863 104.32518
27.21445 50.307865 110.99618
25.311451 50.218864 0.3871765
21.370451 47.888863 78.70018
21.171452 50.531864 78.82118
37.419453 50.466866 80.16318
36.155453 49.014866 79.32618
-1.9865483 84.38886 36.266182
0.078451715 84.29787 34.939186
14.607451 83.62486 29.750175
15.391452 83.924866 28.209175
17.739452 45.986866 67.85418
18.669453 46.187862 69.66418
34.948452 45.241863 68.43518
36.38645 46.081863 67.61618
29.310452 7.951866 63.01618
28.772451 5.4718704 61.873177
7.3764515 4.845871 61.49418
7.9024487 6.1748657 60.55518
30.313452 100.16486 101.38618
31.920452 99.29286 100.098175
9.617449 93.982864 101.584175
10.868452 95.29687 101.39518
20.972452 108.30787 45.087177
19.779451 0.13986969 45.900177
4.654452 1.5868683 49.86918
4.343452 3.465866 49.552177
37.258453 24.259872 80.19718
36.167454 26.450867 80.04618
20.514452 28.747864 86.152176
20.103453 29.711868 87.514175
7.2564487 84.54887 66.473175
5.5904484 84.21187 65.155174
28.129452 90.63686 67.19918
28.066452 90.65086 65.34018
6.811452 102.676865 65.96818
8.852452 101.06187 65.51018
23.295452 102.54887 59.38318
24.622452 102.80987 60.357178
7.358452 107.84887 61.27818
7.355452 106.68787 63.07618
23.995451 105.00587 63.44518
23.870451 103.97787 64.835175
27.975452 97.26586 61.322178
28.941452 97.62787 63.003178
4.7184525 93.84986 69.05018
6.0394497 94.95886 68.67218
7.7844486 55.471863 2.6791763
6.332449 54.446865 1.5961761
30.095451 59.880863 8.17218
29.97145 58.989864 6.6751785
20.249453 82.95886 53.79118
19.678452 84.65987 54.449177
3.4064517 85.79787 55.09918
2.7614517 84.425865 56.30418
26.716452 62.515865 106.02918
28.809452 62.447865 106.92618
6.382452 61.582863 106.62818
6.988451 59.880863 106.82718
29.944452 33.234863 39.493187
29.319452 35.47586 39.654182
12.202452 36.454865 40.89718
11.851452 37.800858 41.71618
4.870452 66.356865 85.90618
4.921452 66.43186 83.62818
21.534452 70.73586 82.96018
21.565453 70.04486 81.180176
5.306452 91.36587 70.43918
4.5554504 90.16886 68.611176
26.761452 90.75086 69.70618
27.06845 92.454865 69.94918
2.7314517 80.65086 40.623177
3.0474517 78.99986 42.698174
18.225452 76.47687 41.210182
18.321453 76.064865 42.903175
24.187452 34.562866 5.058174
24.000452 33.831863 3.126175
7.5244517 35.21086 7.051178
6.074452 35.73787 6.001175
10.176451 63.071865 14.968178
10.051451 64.86687 13.662178
34.417454 68.28986 21.609184
32.847454 68.98586 21.144188
8.959452 102.23586 81.94718
8.41345 104.314865 83.78818
32.183453 102.953865 83.94618
32.84545 102.065865 82.26618
21.064453 71.55686 59.434177
22.397451 72.871864 58.56118
37.410454 74.19787 57.50218
0.04645157 73.73586 58.43218
28.323452 14.951866 52.11318
27.615452 14.700867 53.774178
11.790452 21.18686 54.54718
10.507452 20.07286 54.58918
1.7044519 95.37286 23.012184
1.9784518 93.287865 21.991188
15.318452 89.15286 18.083183
16.951452 89.32086 17.323174
32.530453 15.171867 85.44018
31.597452 17.09687 83.61318
19.678452 23.339859 95.41518
19.942451 24.964859 95.917175
26.578451 66.25286 104.31318
26.836452 65.21086 106.71018
11.556452 65.69386 1.0761795
11.101452 64.733864 110.45718
28.004452 39.99086 15.745178
27.59645 38.004868 15.341179
12.051452 40.641865 17.509178
12.202452 38.95186 17.628181
23.386452 44.596863 92.06318
25.115452 43.841866 92.91918
0.50245285 39.582863 91.78518
1.125454 40.433865 93.458176
16.073452 72.30887 15.007179
17.128452 72.07086 13.0381775
31.536451 78.25186 12.903175
32.017452 77.191864 14.18718
36.071453 60.377865 46.81918
34.751453 61.068863 45.13818
19.329453 63.310863 45.427177
19.253452 65.23486 45.774178
14.122452 30.508865 79.25818
13.182452 29.937866 76.98318
-1.5715483 34.450867 76.16018
-3.018548 34.494858 75.32418
16.119452 80.49886 14.882179
16.700453 79.62987 16.873177
33.224453 79.52786 14.9771805
34.836452 80.36387 15.641174
22.939451 104.049866 40.320183
23.054451 101.884865 39.013176
37.792454 97.104866 35.50318
37.957455 96.134865 34.236183
0.79845196 97.81786 20.031181
1.5974518 96.469864 20.668175
17.017452 94.86086 15.640175
16.669453 92.732864 15.893173
30.28045 29.779861 63.70218
30.716452 30.60286 65.23318
15.485452 37.00087 63.561176
15.196452 38.672867 63.441177
20.309452 42.887863 90.569176
20.348452 43.723866 92.93218
3.1574516 42.763863 94.236176
2.5804517 42.836864 92.46418
10.558452 19.12587 59.85318
10.721452 19.174866 57.747177
26.495451 10.570869 57.685177
27.521452 10.199867 56.47218
16.872452 61.414864 46.77118
16.150452 63.084866 45.420177
-1.1395482 63.268864 47.858177
-1.1575483 63.830864 49.36218
23.570452 77.40587 72.319176
25.235453 78.702866 72.98018
36.104454 69.343864 64.250175
35.911453 67.58987 64.45718
8.780451 69.41986 108.33118
8.49745 69.88087 105.97818
30.742453 69.357864 0.4131775
30.041452 69.45886 1.961174
4.395452 103.38187 43.787178
5.1624517 102.135864 45.64818
21.321451 104.939865 44.47918
21.364452 106.37987 43.166176
24.376451 107.90487 51.260178
25.506453 109.58587 51.29818
3.257454 102.04687 48.74218
2.797451 101.53287 46.87418
8.821451 65.007866 104.33018
6.8474483 63.277863 104.33618
29.706451 66.92086 104.16818
28.859451 68.40386 104.10718
-1.7705482 56.800865 66.96618
-0.65254825 55.869865 65.25418
14.472452 55.181866 65.18618
14.048451 55.743866 67.00618
27.108452 4.2618713 63.846176
24.939451 4.7928696 62.795177
12.710452 8.218872 61.360176
11.275452 9.676872 61.739178
38.98345 10.20887 30.056175
38.127453 8.534866 29.011177
26.729452 14.961868 28.376183
25.748451 15.206871 29.914177
9.73945 90.98987 99.23918
7.912451 90.482864 98.03118
31.425451 96.58386 99.098175
31.340452 96.27087 100.96618
14.642451 41.660862 55.372177
14.609451 42.949863 53.635178
31.607452 38.47986 51.89518
31.380451 37.232864 50.77118
32.147453 108.46187 108.46718
30.37745 109.11287 107.32518
15.078452 106.869865 3.9451752
13.728452 106.24087 3.1871796
21.068453 87.60087 33.71218
19.758451 85.78387 33.756187
35.592453 82.76987 34.511177
35.33945 82.23887 36.18618
12.866449 34.260864 53.637177
10.953451 36.05287 53.47918
37.373455 38.10286 58.91818
35.676453 38.72487 59.032177
17.354452 99.56986 19.846184
16.985453 100.827866 17.764183
1.8524519 104.579865 20.963188
-0.16054814 104.17986 20.925179
16.035452 37.637863 77.30018
17.442451 36.340866 76.01718
33.84445 38.76587 74.12218
34.551453 37.43486 73.34518
-3.0225487 51.213863 46.92218
-1.6125482 52.601864 46.75018
14.649452 53.335865 43.42518
15.741451 54.398865 42.52718
7.0854516 64.42187 99.99018
7.600452 65.40586 97.57618
23.132452 65.578865 94.10318
24.609451 66.522865 94.11518
3.2704518 53.994865 87.49518
2.6354518 52.481865 86.139175
18.416452 48.262863 81.92918
19.709452 47.690865 82.73818
9.602452 13.585869 61.823177
11.530452 12.271866 62.781178
27.28745 7.8418655 61.249176
28.059452 9.450867 61.060177
32.01845 0.04486847 104.584175
31.881453 0.9378662 106.08618
16.704453 7.239868 105.21618
16.733452 8.438866 106.38018
19.522451 85.54086 49.84218
19.058453 87.910866 49.67518
1.6384519 87.691864 47.00818
0.28345165 86.79386 47.52618
8.157452 104.68687 74.21718
7.789452 103.065865 74.24518
24.847452 104.286865 73.79718
25.585451 104.52087 72.20218
-0.9665484 76.134865 19.780174
-1.1525482 73.43086 18.593178
14.265451 72.73887 13.050179
14.793451 72.77087 11.39518
20.027452 9.196869 10.92218
18.336452 9.308868 12.588181
5.553452 17.11287 18.310188
4.6904516 17.923866 16.89618
13.634452 49.548866 28.139183
14.148452 50.830864 26.114174
29.673452 45.910866 25.56118
30.553452 44.422863 25.135185
18.740452 38.141865 86.500175
17.333452 36.925865 85.22018
4.120452 43.148865 89.736176
4.935452 41.897865 90.40718
13.218451 60.771866 17.529182
13.072451 61.810863 19.499184
35.301453 61.552864 20.081184
34.328453 62.415863 21.116188
6.2044516 92.590866 61.254177
6.389452 94.23486 62.928177
23.991451 89.37586 61.42418
23.969452 87.840866 61.763176
26.293451 12.852867 34.738182
26.526451 10.941872 34.57218
2.4584503 14.565872 28.106178
3.3064537 13.128868 27.450188
-3.4375486 53.308865 33.881187
-2.8985481 51.649864 34.782173
13.309452 51.002865 32.46618
13.4424515 50.051865 31.03518
-0.5915484 73.424866 39.001183
-0.688548 72.966866 37.047188
16.315453 73.16686 35.696175
17.570452 72.246864 36.552177
21.587452 2.9578705 29.269188
22.041452 4.7498703 29.642174
6.5324516 3.3008652 37.585182
5.0524516 3.6158676 37.036186
30.849451 48.773865 26.184181
31.296452 50.056866 27.855186
15.038452 54.957863 30.453178
14.540452 54.870865 32.305183
26.625452 66.093864 99.83118
28.797451 67.40486 99.60518
4.4734535 59.399864 94.91218
5.514452 59.105865 93.62218
-0.32354823 29.325867 85.66218
0.5194517 27.77887 84.41818
16.243452 27.539871 81.81518
16.075453 28.812866 80.55918
4.3484516 67.25086 71.35718
4.4934516 69.245865 70.28918
20.488453 68.219864 76.31318
21.525452 67.93687 75.00418
33.260452 42.666862 59.865177
32.945454 45.266865 60.839176
16.365452 45.895863 62.82718
16.639452 45.872864 61.206177
31.574451 28.992859 53.24918
32.642452 30.82486 52.407177
11.040449 24.715866 53.400177
11.790449 26.117859 52.93718
22.570452 71.691864 90.21618
21.672451 69.871864 91.23218
9.917452 76.189865 99.00318
10.155452 77.93186 99.09118
22.647451 63.955864 75.33018
23.743452 65.97887 74.807175
38.985455 62.540863 70.27118
37.916454 60.925865 68.97718
29.462452 27.73587 51.73518
28.909452 27.530869 53.49418
13.225451 29.149872 56.331177
12.146452 30.256866 56.852177
38.212452 94.05686 31.03518
37.289455 95.31786 29.013176
23.153452 95.840866 39.358177
21.733452 96.40286 38.665184
36.396454 54.225864 73.50918
35.66445 52.915863 72.04518
20.338451 58.283863 74.057175
19.234451 58.645863 72.81218
26.657452 92.50487 76.07818
27.900452 90.854866 74.92018
3.9104538 88.60287 75.35518
5.2864513 89.40286 74.69818
3.3084526 49.201866 97.15518
1.3924522 49.096863 98.57718
23.745451 45.920864 103.431175
23.870451 47.526863 104.22418
15.999452 75.50387 10.871178
14.6194515 75.75487 8.485176
31.328451 77.30386 5.4181747
32.336452 77.80987 6.8511734
33.563454 23.030869 85.99518
31.875452 22.339859 87.16918
16.788452 27.690872 90.069176
17.072453 28.246872 91.62618
25.012451 84.65687 71.56718
25.544453 83.729866 73.00618
3.3174515 77.47887 67.918175
4.432453 77.63986 69.37018
8.23945 22.464859 59.84718
8.572451 21.075867 58.46718
30.740452 24.97287 55.63318
30.025452 25.007858 53.879177
11.549452 70.64487 0.23917389
9.965448 70.75386 1.8921738
33.42245 69.316864 4.4441757
31.952452 70.12886 4.3941803
18.869452 72.53287 42.432182
17.153452 73.786865 43.782173
1.9004518 76.869865 44.639175
0.3404518 76.85287 45.601173
22.057451 36.814865 91.88218
23.973452 36.12686 93.39718
38.720455 33.75087 93.16818
38.984455 32.68686 91.75818
30.929451 1.6408691 91.90518
30.900452 109.632866 92.01218
14.452452 3.7878723 97.666176
14.209452 4.4718704 96.06118
6.258452 24.42987 4.6351776
7.100452 26.621872 5.5711746
20.011452 29.590866 110.03718
21.098452 30.540863 108.99518
4.932453 104.63187 65.169174
4.2424507 105.83987 63.505177
26.826452 103.77686 65.710175
26.764452 102.43787 64.418175
25.887451 30.275864 6.8021774
27.199451 28.80986 5.8401794
1.0864525 25.230865 106.71018
0.7594528 23.58487 105.72518
21.135452 48.363865 107.38618
19.297453 47.765865 108.37018
9.398452 53.547863 3.650177
9.826452 52.587864 5.2061768
27.021452 8.435867 49.52718
27.385452 10.356873 50.829178
11.232452 16.54087 55.17518
9.9024515 16.060867 54.18818
19.993452 63.112865 50.58518
20.930452 64.40686 51.905178
36.99045 63.694862 53.68618
36.79745 62.596863 54.93118
-1.4435481 41.264866 78.53218
0.71945196 41.167866 79.34318
16.204453 39.487865 72.597176
16.586452 38.797863 74.07418
32.210453 9.270866 78.76818
33.133453 10.088867 80.64118
11.294451 9.239868 80.264175
11.94845 10.463867 79.14118
6.37245 23.450867 36.99018
4.3784523 22.55687 37.426186
29.00945 28.93187 39.71218
27.538452 29.323868 40.663185
16.834452 5.4818726 0.36117554
17.800451 7.3538666 110.861176
34.173454 5.9278717 107.41118
35.174454 4.3748703 107.249176
34.613453 25.838867 68.86418
33.34645 24.97586 67.39818
8.13645 15.678871 64.487175
8.99045 14.209869 64.710175
0.3564516 15.102867 108.95518
0.88045174 15.848869 106.98418
18.190453 14.869865 108.76218
19.635452 13.8068695 108.83118
31.299452 14.075867 80.69118
30.217451 15.575867 81.88518
14.791451 19.002869 82.95218
13.815452 18.53186 84.27418
29.03745 2.7988663 78.54818
28.482452 2.0498657 80.18418
14.342452 1.4588699 86.94218
14.906452 1.7908707 88.98118
30.865452 109.663864 85.53618
28.888453 109.33687 84.94718
14.437451 107.063866 85.92318
12.931452 106.980865 86.52518
12.234452 101.90587 108.27318
12.953452 102.40086 106.63118
29.028452 96.007866 102.38618
28.778452 95.93387 104.19118
6.096449 45.002865 8.49118
6.2274494 45.668865 6.4961777
27.830452 47.812862 7.8591766
27.820452 49.462864 8.804176
34.384453 64.48586 26.599174
34.316452 66.51286 27.547188
17.211452 66.091866 30.036186
17.284452 66.522865 28.447182
30.425451 26.673859 43.29818
31.498451 27.726868 44.95118
7.908449 21.60286 46.323177
8.944448 22.435867 45.21418
27.750452 96.87887 72.56618
28.555452 98.89187 71.988174
6.717451 103.42287 70.361176
7.9594517 103.271866 71.447174
24.438452 31.871872 8.248177
23.708452 29.94487 8.6021805
6.326452 35.04886 12.050179
5.9004517 36.855865 11.777176
20.043451 85.858864 43.692177
20.184452 85.40186 45.41718
1.5774518 83.037865 44.22818
0.29945192 83.08787 43.15118
18.696453 64.28186 67.07318
19.165453 65.04186 68.916176
3.4264517 63.319862 73.31418
1.8414518 64.19486 72.08818
1.4074516 47.361866 102.527176
1.2984505 46.463863 104.40018
24.419453 45.968864 107.667175
23.246452 46.863865 106.62718
16.122452 71.92287 28.190178
17.416452 71.43286 26.575188
32.91545 67.28186 23.441185
33.732452 66.97887 25.072182
29.743452 23.841858 46.98618
28.646452 22.423859 48.30418
12.081452 24.012863 48.90118
10.913452 23.139862 48.24918
-3.0665483 58.627865 44.651176
-2.0165482 60.514862 43.217186
15.638452 57.644863 40.590187
16.054453 59.407864 41.223183
23.610453 81.50086 76.416176
24.056452 82.37386 78.320175
6.8284516 85.231865 81.39518
5.220452 84.732864 81.46118
37.474453 79.75287 36.316185
36.139454 78.176865 37.385185
21.238451 83.99886 37.38018
20.195452 82.81287 37.437187
18.418451 60.627865 60.98618
20.044453 62.016865 59.948177
34.39345 57.701862 54.413177
35.13045 56.251865 53.76518
5.812452 3.1678696 41.15618
7.218452 2.5408707 42.788185
22.064451 0.08087158 35.349174
23.410452 1.5448685 35.120186
-1.3825482 25.78186 103.22018
0.36145172 24.56186 103.25918
15.973452 25.591858 97.66118
16.645452 24.978867 99.16318
1.5964508 93.844864 51.08318
0.618454 91.966866 51.10918
24.774452 94.29487 53.27318
24.087452 95.89487 53.59918
23.44345 23.827866 3.0311737
23.086452 21.124863 2.1681747
35.319454 16.289871 109.12118
36.573452 14.757866 109.46217
16.005453 23.85086 86.52018
14.897451 24.775864 88.41518
0.2694517 27.731873 90.94618
-0.46254817 28.308868 92.33718
21.503452 50.266865 84.71918
22.322453 51.664864 86.45318
37.910454 47.636864 83.83818
38.502453 46.167866 83.76618
3.9774518 71.74986 84.13418
4.831452 71.191864 81.598175
22.393452 72.55386 79.73118
22.914452 71.11587 78.94918
33.49845 54.685863 70.168175
34.744453 55.098866 68.349174
22.538452 66.703865 72.57818
20.970451 67.232864 72.04918
38.065453 87.04787 35.023186
38.665455 88.868866 36.373177
21.856451 88.537865 37.014183
21.485453 86.87987 36.732185
27.859451 36.67186 10.808174
29.03745 35.680862 12.888176
5.0904503 29.813858 5.2031784
5.0914536 28.206863 5.8071747
29.136452 93.245865 92.15118
29.146452 94.95886 94.277176
12.609452 94.48486 96.986176
12.205452 95.731865 97.85018
34.252453 57.063866 27.828178
33.319454 57.702866 29.592186
18.164452 56.734863 35.898186
18.143452 58.826862 36.01818
18.637453 64.342865 38.70318
19.380453 66.58787 39.054176
36.250454 67.65186 32.833183
36.563454 66.83686 34.105186
26.991451 1.019867 71.67918
27.124453 1.9258652 69.83218
10.814452 4.6038666 71.44918
8.877452 4.2338715 72.03718
38.900455 69.65987 62.212177
37.793453 67.85086 60.24218
21.771452 69.93086 64.69218
22.385452 70.78487 65.95418
17.955452 82.56187 14.218178
18.391453 82.258865 16.49318
35.23345 87.343864 13.624176
36.97645 87.479866 13.883179
24.802452 105.23887 67.08218
25.922451 105.88987 68.585175
9.393452 107.87587 74.73918
9.582452 106.81287 73.26018
0.48745346 36.704865 89.67218
38.489452 37.67987 87.81718
22.546452 42.838863 86.97818
20.913452 42.98086 87.39118
30.94345 35.148865 48.753178
30.456451 37.09886 48.10418
14.069451 36.993866 45.61018
12.580452 36.27687 45.42918
12.067452 100.65687 2.2551804
13.300451 102.508865 2.6161804
29.793451 100.53087 0.4171753
31.413452 100.25287 0.32017517
3.2274518 44.220863 105.08118
4.331452 42.937866 106.71618
20.542452 45.976864 102.12118
21.853453 44.954865 101.43718
24.590452 43.363865 109.18518
24.801453 42.034863 110.794174
0.8974533 38.673862 107.94618
2.1764526 39.261864 109.34418
8.866452 47.910866 109.52118
6.910452 48.922863 107.819176
22.952452 48.411865 99.75518
23.041452 46.547863 99.709175
20.938452 2.1778717 47.233177
20.778452 3.632866 49.357178
6.140452 7.6138687 50.878178
7.251452 8.26487 51.788177
32.343452 74.43086 16.554176
31.56845 73.37686 14.683174
18.171452 74.899864 21.115181
19.489452 75.59886 20.655174
14.677452 99.968864 7.7541733
14.275452 98.16886 6.9881744
32.55345 98.385864 6.1391754
32.919453 100.00687 6.407173
29.036451 90.56986 96.82918
30.118452 89.19486 95.96118
6.542452 86.550865 91.319176
7.0364513 86.08386 89.61318
30.820452 94.34786 90.24818
30.553452 95.80887 92.181175
7.936449 92.342865 88.806175
7.8574505 91.161865 89.86918
28.176453 2.5848694 73.44318
26.961452 1.255867 74.85618
11.255452 1.4338684 76.39218
9.988452 2.3878708 75.416176
23.995451 11.74987 35.08918
22.852451 10.684868 36.948174
8.962452 7.7508698 44.28118
8.821452 9.62487 44.585175
19.949451 50.185863 81.00618
18.251451 50.047863 79.95118
1.8824519 55.467865 85.60218
0.62745196 56.428864 84.83918
27.150452 53.449863 110.53318
28.985453 52.260864 0.57518005
5.035454 45.790863 108.42818
6.207449 46.502865 109.56018
0.5284538 73.96387 47.66018
38.50445 76.01687 48.011177
22.644451 81.41886 52.56118
21.164452 80.61687 52.73618
32.50545 14.720871 74.237175
32.70745 13.69487 76.16518
5.5834484 4.6478653 69.60918
5.6714497 3.1468658 68.791176
24.369452 60.769863 106.68518
24.195452 62.203865 108.89618
9.676452 62.489864 104.64918
8.947452 60.993862 104.985176
2.5084534 21.685867 3.5361786
3.8144531 22.096863 1.7701797
0.9334526 20.257858 105.596176
38.941452 18.446869 105.28918
21.574451 107.201866 37.644188
22.486452 105.96187 35.909187
1.0564537 107.621864 34.497185
1.936451 106.424866 33.554176
32.46945 93.23887 6.093178
32.86645 91.99886 7.900177
17.674452 89.105865 12.905174
17.047453 88.25487 14.26918
10.777449 8.649872 85.50818
10.445452 6.7148666 84.18618
33.363453 12.502869 83.528175
32.267452 13.830872 83.19718
9.035452 7.8658676 70.724174
7.151449 6.4098663 70.96218
30.811451 12.12587 70.50618
30.591452 10.196869 70.779175
21.879452 72.88187 64.266174
19.804453 71.73986 65.32618
5.745452 82.21187 68.93518
5.041452 83.451866 68.02418
33.67145 51.765865 35.10218
32.605453 50.801865 33.264183
15.559452 51.839863 34.319176
14.486452 53.098866 34.428185
2.1234512 56.562862 91.73318
1.8264503 57.209866 93.76518
25.81845 57.718864 93.71118
24.236452 57.965862 92.57618
8.510452 84.27986 88.09218
9.503452 84.94486 89.67318
25.533451 82.18587 81.83818
25.734451 83.135864 80.07218
11.549452 96.54887 95.30418
12.132452 95.30887 93.03318
27.225452 92.21287 87.361176
26.87745 93.08286 85.74118
36.746452 27.012863 84.39018
36.809452 27.68686 82.33818
20.428452 31.81987 85.77518
19.744452 32.69786 84.54018
-2.431548 10.632866 104.22718
-2.1085482 12.357872 102.95218
14.806452 13.51487 100.06318
15.743452 14.732872 99.24718
26.807451 0.7968674 67.00918
27.132452 2.9758682 66.92618
4.755451 108.940865 62.22418
5.8054485 0.10987091 61.308178
19.867453 70.326866 44.20318
20.965452 70.83586 42.927177
32.160454 61.634865 35.391182
33.91445 61.934864 34.633186
24.374453 83.15787 67.48118
24.533451 82.466866 65.32318
1.830452 80.399864 64.403175
2.9214516 81.41686 63.64118
-2.926548 105.162865 7.926178
-2.6715484 107.259865 8.9511795
12.620452 108.23987 4.8211746
13.425451 109.16987 6.0021744
20.197453 94.62987 23.599174
19.696453 92.54787 23.57618
35.94945 90.12286 24.66018
36.527454 89.87386 23.106178
32.167454 57.014862 32.754173
29.980452 56.179863 33.093178
17.077452 60.403866 38.648186
15.847452 61.476864 38.933174
9.908449 25.858871 43.233177
8.646452 25.009872 44.98718
32.674454 31.78386 46.20818
31.210451 31.191864 45.566177
20.688452 63.016865 90.79718
21.684452 65.43386 90.35218
5.7544518 67.72887 90.91418
5.930452 69.354866 90.48018
20.884453 15.599869 17.874184
20.686453 18.002869 17.551186
6.3024516 21.827866 21.407173
6.317452 23.336868 22.685188
26.300451 63.320866 0.20717621
24.743452 63.363865 1.5341797
10.694452 66.27986 4.5221786
10.683452 67.51987 3.2381744
3.9184532 75.397865 76.49018
2.7624512 75.47186 79.06418
27.709452 80.634865 83.66518
27.671452 82.44787 83.94718
33.243454 38.79387 60.857178
31.858452 37.46187 60.742176
16.950453 41.806866 66.04018
15.723452 42.900867 65.54018
18.340452 53.759865 63.843178
19.284452 53.262863 61.713177
35.473454 50.031864 59.405178
36.162453 48.438866 59.38218
3.9024518 13.470871 20.792183
4.667452 12.101868 21.485176
19.038452 6.7508698 19.858177
20.167452 7.880867 21.114174
9.968451 58.676865 12.677177
9.321451 59.114864 10.553177
30.70745 62.383865 11.961174
29.747452 61.568863 13.216179
29.978453 103.27686 100.40618
30.88445 101.83687 99.417175
13.723452 104.22286 97.68718
13.010452 105.356865 98.764175
18.910452 19.721863 101.81418
20.243452 21.247864 102.749176
35.412453 15.353867 101.45318
35.037453 13.553871 101.33518
1.1354519 68.70686 56.84918
2.2444518 67.592865 55.33318
14.781452 58.949863 59.991177
15.854452 60.329865 60.206177
13.138452 93.01386 3.636177
15.142451 94.15086 4.503174
29.934452 90.410866 110.39518
30.038452 89.64187 108.834175
-2.0595484 54.779865 69.944176
-1.0025481 56.467865 69.42618
15.704452 51.268864 68.13618
15.8174515 52.796864 67.39918
3.4494517 34.831863 100.86718
3.0094516 33.66487 99.02518
20.040453 34.70186 95.51218
20.400452 34.355865 97.39018
22.783451 13.071869 13.545174
20.617453 13.302872 11.537178
35.81745 9.048866 3.6011734
36.376453 10.973869 3.4721756
37.632454 84.83987 27.954185
38.618454 85.88187 29.372185
1.665451 90.579865 31.634178
0.37145233 91.55987 31.318184
4.6744537 26.328857 3.33918
4.1054535 24.410858 2.9741745
26.231451 28.51587 8.846176
25.296452 28.366867 10.358177
17.715452 59.483864 52.885178
16.162453 58.963863 50.879177
0.9834519 63.395863 52.058178
0.15545185 64.913864 51.67318
33.538452 41.505863 32.827187
34.462452 42.541866 34.320183
9.83745 39.690872 26.445183
10.09445 41.10687 25.625175
7.659452 2.1958694 62.406178
8.115452 1.5278702 60.08418
24.146452 109.14287 55.16518
24.88445 108.33987 53.90918
3.2824516 71.326866 71.55118
1.6124535 71.80886 69.76118
26.50245 76.688866 77.37018
26.441452 75.92087 78.973175
16.473452 0.41986847 13.074181
15.950452 108.702866 14.460175
0.03245171 0.05886841 17.323174
-0.68954843 1.4358673 17.164177
0.26345167 36.41986 92.71318
1.733452 35.25087 91.51018
18.070452 30.33287 90.15618
19.506453 31.301865 90.01918
29.209452 102.09986 87.402176
28.616451 102.77986 89.63618
12.166452 101.60387 90.74118
11.554452 102.368866 89.17618
33.771454 81.719864 3.1471786
32.66445 80.85387 1.6421738
10.43445 79.84986 109.87118
10.813452 80.92886 0.08517456
9.985452 18.23787 64.682175
12.2184515 17.380867 65.30018
27.288452 16.307869 57.30718
27.83945 14.456871 56.54918
31.424452 37.58087 45.942177
32.069454 35.303864 46.03418
9.98345 35.708862 44.30618
10.342451 34.273865 45.15418
33.63045 87.20087 11.444176
33.298454 89.049866 12.259178
19.056452 85.10287 18.075188
17.545452 84.51987 17.503181
33.125454 64.466866 22.263176
33.13745 66.04787 20.437187
15.176452 63.011864 20.677177
15.090452 63.495865 19.196175
34.88645 22.193863 99.04918
35.681454 22.741867 101.00218
21.936451 27.33786 107.15118
20.797453 28.507858 107.334175
14.839452 88.106865 0.4661789
14.736452 90.29787 1.3461761
29.782452 84.939865 106.57118
30.56845 83.37987 106.70418
10.646452 26.010864 40.516182
12.154452 24.807861 39.260185
28.652452 24.164871 38.580177
30.039452 25.312866 38.983177
34.013454 51.272865 42.385178
33.51145 50.196865 44.51918
17.931452 53.184864 48.43018
16.882452 53.494865 50.157177
35.00445 72.50287 42.97718
34.194454 71.76186 41.25718
19.603453 72.93387 45.27218
18.458452 73.61487 46.39818
23.316452 109.57487 44.64418
24.733452 0.36886597 43.65818
1.5264511 104.189865 44.90118
1.9274521 102.702866 44.48618
35.390453 86.32487 22.748177
34.51245 88.326866 22.300179
18.025452 83.44686 23.438179
16.959452 84.54887 24.111183
3.5034523 22.073868 9.473175
2.2414513 23.450867 10.832176
26.356451 29.05687 14.069176
25.937452 28.759872 15.703178
22.995451 17.80687 10.600174
23.223452 18.958862 8.795174
38.455452 15.66687 7.4981766
0.99145126 15.357872 6.1611786
26.010452 25.427872 27.659187
28.036451 25.909866 28.749184
2.7284508 18.59787 26.788185
3.2354507 16.910866 26.97718
34.313454 97.84686 10.136177
32.923454 99.397865 9.327179
17.035452 97.87486 11.884178
15.624452 98.77786 11.763176
16.197453 67.43787 54.54118
16.032452 65.61587 56.01518
1.8244518 73.08787 62.99318
0.6284519 71.79186 63.70218
6.4784517 89.56786 61.31918
7.799452 90.25086 63.10518
22.637451 81.107864 63.525177
23.210451 79.66586 64.17518
28.071451 32.50786 29.984184
28.745451 34.118866 28.875175
15.883451 42.312862 31.669182
15.016452 41.43886 32.63218
6.626452 56.123863 105.10018
7.516452 54.833866 106.44018
23.433453 51.403866 101.11818
24.312452 50.739864 99.81518
20.112452 100.88087 26.68618
19.581451 99.74886 28.53318
3.0594518 102.314865 29.147179
1.6264518 102.382866 30.75718
33.716454 7.6388702 81.195175
33.986454 8.744865 82.78718
11.021452 5.479866 80.00918
12.091452 4.1248703 80.41818
-2.971548 87.52686 20.434181
-1.9215482 89.63986 20.286186
15.432452 83.99986 15.654175
16.495453 84.72286 14.67318
22.889452 38.30786 96.28918
22.897451 36.18286 96.02018
38.870453 40.19786 95.84118
0.40345383 39.163864 97.181175
36.236454 67.035866 23.749184
35.774452 65.84686 21.830177
12.02445 65.74287 15.539177
13.77445 65.73586 15.514175
30.251451 58.575863 13.164177
31.906452 57.393864 12.098175
7.8884487 55.578865 9.973175
9.155451 56.032864 11.401176
2.0894508 2.2528687 48.213177
1.8694534 4.2808685 46.914177
28.282452 12.7308655 47.66618
27.977451 14.441872 47.89618
10.433452 16.935867 82.38118
10.981452 18.63887 84.237175
0.46345195 29.231873 79.66918
-0.69854826 29.355865 78.45318
9.842452 79.660866 105.56118
11.301452 79.43186 104.14118
26.713451 75.64487 105.53918
27.007452 76.133865 103.75918
1.1784517 7.1678696 15.296181
2.6774518 6.378868 16.938179
18.658453 4.1938705 17.222176
19.617453 2.593872 16.698174
38.698452 0.7738724 25.587181
37.690453 109.787865 23.83918
20.683453 109.702866 28.635185
20.528452 108.73887 27.291176
18.232452 105.57487 19.575188
16.921452 106.32087 21.094185
0.13245161 107.65587 21.894188
-0.79754823 108.68387 20.885185
1.9234505 71.09686 80.57818
1.8484535 73.05486 80.34218
25.056452 71.02986 89.18318
25.355452 71.29887 90.84218
-4.3145485 6.225868 98.19718
-2.589548 6.5468674 100.55318
13.932452 5.948868 99.30318
14.688452 6.6748657 100.820175
-2.0755482 68.40286 38.679176
-0.78954834 66.97286 39.081184
15.611452 65.772865 36.613182
16.178452 64.22086 37.00718
30.181452 17.966866 66.19318
29.701452 18.15187 68.60518
12.581452 17.030869 69.44318
11.988452 17.767868 67.89318
22.172451 3.354866 24.991188
23.161451 3.3848724 26.966179
37.077454 106.328865 20.468178
37.249454 105.494865 18.691185
12.117449 87.78087 109.93618
10.63545 87.12686 108.97617
34.377453 84.68687 3.426178
33.947453 86.43587 3.9061737
15.381452 74.77686 17.259178
14.330452 76.551865 18.399178
-1.1045483 80.58486 19.086174
-3.0485487 80.564865 18.704185
34.628452 41.487865 43.366177
35.847454 41.93886 44.990177
11.436449 38.400864 44.46718
11.484449 39.965866 43.52918
5.0114517 30.091858 2.1751785
4.424452 28.816864 0.54317474
20.021452 31.15387 105.69818
20.875452 32.14987 104.68318
11.391452 65.38886 11.203178
13.046452 64.52886 12.397179
27.746452 63.991863 7.7101746
28.936451 64.577866 6.634178
16.042452 17.996872 100.097176
16.405453 18.44786 102.35718
-0.68554825 16.886871 102.84018
-0.8575482 18.233871 102.03118
38.60845 67.829865 64.96518
0.8634529 67.189865 66.92318
22.797451 70.45087 70.377174
23.035452 71.233864 68.793175
34.815453 45.218864 30.859184
36.118454 44.893864 32.945183
11.14945 45.863865 22.88218
12.380449 45.502865 24.319176
35.827454 52.100864 54.84818
34.944454 50.202866 54.01618
18.852451 51.164864 60.143177
18.524452 50.495865 61.71718
33.57545 11.6058655 91.82918
34.598454 13.233871 91.06218
12.87945 6.8248672 93.19218
14.625452 7.4298706 93.360176
7.1334515 46.352863 14.501175
6.7624493 47.977863 13.168175
29.493452 43.846863 15.324181
28.485453 45.328865 15.203178
14.109451 37.99086 50.70118
14.706451 38.991867 52.704178
30.220451 32.963867 54.73618
31.442451 31.857864 54.57518
22.639452 12.629868 28.751183
21.524452 11.394867 29.50718
6.0914516 16.258865 26.869179
4.970452 15.548866 25.732185
35.030453 65.285866 35.954185
36.294453 65.57386 37.766182
20.542452 67.61687 46.91018
20.305452 66.357864 48.28618
19.371452 98.97887 33.943184
17.560452 99.344864 34.674187
3.0954518 105.690865 35.995186
2.6754518 106.063866 37.54618
11.452452 89.17986 97.67818
11.951452 89.24986 99.78018
27.347452 90.176865 94.30718
27.521452 89.99786 92.65018
9.373449 0.054870605 81.02918
8.020449 107.90186 81.39918
31.312452 3.0638657 79.86918
31.730452 4.7148666 80.39218
20.553452 27.539871 94.847176
19.338451 28.73587 92.792175
33.798454 24.30487 88.569176
35.008453 24.499863 89.44018
2.1584518 69.148865 52.96618
4.0834517 69.257866 54.06418
16.821453 60.342865 57.50818
18.297453 59.892864 56.733177
31.888453 21.427872 52.199177
32.97645 21.326859 50.39018
10.329451 21.958862 52.27818
10.57445 22.849869 51.01618
30.140451 87.93787 102.30018
30.061451 89.79587 102.67518
6.4964504 89.42187 92.09318
7.1944485 88.21487 93.195175
33.09445 15.648872 90.221176
32.14345 14.218872 91.20018
16.760452 16.392868 92.70418
16.415453 15.687866 91.08518
2.4604518 41.02387 85.69118
2.6244516 40.478863 83.61718
15.568452 34.43187 74.891174
16.040453 32.90886 74.75518
6.0394516 51.207863 104.29018
5.357452 52.144863 102.55718
20.797453 54.333866 95.68418
22.481451 53.860863 95.32618
27.129452 91.18387 81.611176
26.844452 91.50287 83.53618
5.37245 87.340866 82.87618
5.99045 88.99287 82.84918
34.535454 70.08186 29.16018
33.716454 71.829865 27.441185
18.326452 74.524864 30.32618
17.468452 74.149864 28.703178
35.092453 60.569862 39.38418
34.86645 59.996864 41.392174
18.686453 65.007866 41.49418
18.031452 65.36286 43.030174
36.057453 34.35086 68.02518
37.036453 35.72287 66.39818
12.3504505 32.11586 63.574177
11.61545 32.16487 62.079178
12.769449 75.90687 6.3401794
10.561449 76.14187 6.00618
35.02645 78.54086 10.292175
34.037453 77.90787 9.218178
15.0674515 55.956863 21.622185
15.336452 54.854866 19.912178
27.314451 48.367863 11.43718
27.130451 46.552864 11.883179
8.8574505 17.97187 55.961178
8.248449 17.786865 57.80418
31.969452 22.710861 56.712177
31.436451 23.443863 58.101177
30.186451 9.678871 95.10918
29.828451 10.661865 93.53318
15.793451 11.281868 92.24218
14.7514515 10.067871 92.596176
4.734452 17.52987 11.361176
5.593452 18.831863 12.859177
20.329453 20.242859 8.808174
21.583452 21.066864 7.99218
18.647451 76.272865 34.064186
18.979452 74.67387 33.404182
34.610455 75.86186 27.994179
34.545452 75.95786 26.370186
26.052452 58.989864 97.16118
26.206451 60.203865 99.75618
4.1814537 61.464863 99.79518
4.228451 61.311863 98.01918
16.884453 85.23887 29.81118
18.109451 83.758865 31.197182
35.45045 83.00687 27.225182
36.55445 82.885864 25.96418
-2.1045485 6.149872 4.6651764
-2.0165482 6.6038666 2.5941772
14.332452 4.5608673 0.96318054
14.745452 3.8018723 110.597176
8.364451 73.064865 86.41318
6.686452 71.20087 86.000175
20.971453 65.258865 85.57318
21.411451 64.121864 86.65818
16.233452 39.646866 49.197178
15.894452 37.603867 47.822178
30.939451 30.030869 49.935177
30.84645 30.578857 48.337177
-3.473548 55.696865 38.89318
-3.530548 57.745865 39.275185
15.063452 55.084866 37.03318
15.194451 55.759865 35.42118
13.995452 78.190865 9.709175
13.290452 76.38187 11.11618
-3.3655481 80.09986 12.553177
-3.188548 81.079865 11.122177
7.6384487 26.195862 39.585182
9.176451 27.606873 38.788185
31.374453 32.997864 36.571175
30.334452 31.935867 37.164177
2.5414517 90.11086 45.84118
2.0184517 88.51987 44.167183
17.918451 86.424866 35.815178
18.967453 85.20886 36.161186
8.624449 1.4478683 72.29718
7.24745 2.418869 71.05318
30.330452 3.7368698 72.07618
28.931452 3.4628677 70.988174
17.153452 60.601864 66.60418
16.689453 58.816864 67.263176
0.41745195 58.860863 70.07718
0.5534516 57.891865 71.639175
12.205452 24.80487 65.42118
11.452452 23.047867 64.23918
28.304451 16.878868 61.933178
29.776451 16.489868 62.749176
4.9804535 102.10287 53.68618
4.231453 104.10287 53.16118
26.355452 108.469864 56.433178
27.178452 109.59787 57.57118
11.413452 75.689865 101.52618
11.641452 75.26887 103.43518
26.031452 68.98686 100.65718
26.477451 70.64186 100.64618
13.167452 76.07186 3.5591736
11.803452 75.40687 1.7421799
28.919453 71.493866 109.52318
30.336452 72.15586 108.98118
8.221449 18.657867 31.480186
7.18445 20.134872 30.32618
4.566452 25.407867 23.04618
5.1614532 25.97786 21.465187
8.967452 13.038872 41.15818
9.863452 11.505867 41.97518
23.665451 11.322868 44.22918
24.066452 9.547867 44.05018
2.8854518 103.12987 23.358177
4.634452 103.73686 22.031181
17.896452 96.58687 26.187187
19.318453 95.76787 25.747185
10.813452 104.358864 87.362175
13.127452 104.48587 87.65118
27.274452 101.03287 82.45718
28.316452 102.32287 82.58718
10.757452 36.10086 36.845177
9.565451 34.72586 35.879173
37.003452 43.978863 44.00518
35.842453 45.200863 43.308174
20.911451 67.06886 78.96718
19.731453 68.412865 79.89518
3.9244518 69.050865 80.07318
2.9304516 68.40086 79.13418
27.382452 13.225868 41.39318
29.363451 14.4808655 41.251183
4.1614532 12.038872 38.484184
5.995451 11.769867 38.851173
6.931452 89.52986 85.40918
5.985449 87.495865 86.52218
29.246452 95.22587 86.14818
29.166452 96.384865 84.87618
23.794453 75.81187 79.10618
23.552452 74.649864 81.19718
7.0384517 75.19386 84.695175
5.987452 76.15186 85.51618
