17.337273 41.966064 65.906975
35.36027 9.890063 1.6379776
33.052273 9.567065 2.0429764
30.94127 9.117068 0.6549759
31.085276 8.791064 80.17598
24.305267 44.746063 7.0999756
22.553268 43.696064 8.219971
20.31427 42.366062 6.6679688
19.544273 43.079063 4.581978
26.32927 38.73506 53.764977
24.669273 40.157063 52.403976
22.179268 40.43006 53.043976
20.998268 39.400063 55.436977
69.27027 37.461063 53.465977
67.82527 39.452065 53.743977
65.56027 39.836063 54.435978
63.779274 38.281063 53.968975
27.896273 45.172062 4.829979
26.907272 45.088062 2.5529785
28.23427 45.491062 0.20297241
30.313272 46.639065 81.97998
54.04927 71.61206 61.122974
56.252274 70.94106 62.030975
56.607273 72.14906 64.59198
55.38927 74.03906 65.40998
68.237274 73.74106 38.491974
70.472275 73.12706 38.319977
72.21927 72.47106 40.277977
71.95727 72.35006 42.580975
30.669275 40.894062 37.661972
31.480272 42.019062 39.425972
33.517277 40.584064 41.59497
33.742275 38.509064 41.754974
36.69527 72.22006 67.54898
35.81827 71.01406 65.18198
34.365276 71.76006 63.379974
33.071278 73.89106 63.064976
50.967274 69.05706 77.37298
52.41927 69.59506 75.794975
55.184273 69.68606 75.93598
56.740273 69.73906 77.545975
9.113274 71.95906 15.406975
8.986275 69.97706 14.809975
9.00927 68.61606 12.213974
9.909271 69.63606 10.701973
42.395275 75.74306 2.9329758
42.648273 73.43106 2.4699783
44.95927 72.33306 1.5189743
45.56827 72.81106 81.20398
66.95627 77.35406 70.91698
66.15527 75.42206 69.63398
64.07827 73.93306 69.487976
62.002274 74.11406 70.53998
39.935276 13.131068 30.826973
38.067272 12.107066 32.029976
35.909275 11.677066 30.738976
34.997272 13.345065 28.561974
8.652275 6.401065 54.075977
9.16227 8.695064 54.037975
7.749275 10.899066 53.623978
5.7302704 11.393069 53.297977
28.227274 5.7890625 61.832977
27.348269 7.545062 62.845974
27.564272 8.275065 65.280975
28.254274 7.101062 67.28698
36.883274 7.1670637 41.30397
36.079273 8.282069 43.00997
36.043278 7.491069 45.687973
35.44427 5.2370605 46.693977
56.710274 7.116069 8.926971
57.56927 8.291064 10.65197
58.300274 8.118068 12.963974
59.476273 5.750061 13.948975
2.0522766 9.013064 1.4359741
0.7662735 10.885066 0.2689743
72.35027 11.817065 0.46997833
70.60527 11.438067 1.5569763
14.951271 46.537064 25.722977
17.020271 45.549065 27.290977
18.793274 43.525063 26.37297
19.060272 42.984062 24.06797
60.382275 11.986064 4.4259796
58.71427 10.483066 3.8569794
55.934273 10.777064 3.8379745
54.68827 12.191066 4.985977
62.904274 42.29806 40.944977
64.09127 42.34706 38.840977
66.87227 42.13906 38.689976
68.013275 41.205063 40.271976
3.0222702 74.44506 62.786976
0.75827026 74.25106 61.235977
72.05027 74.05206 62.462975
71.37327 74.00006 64.63398
7.612274 74.61206 46.603977
5.8672714 73.53006 44.857975
3.279274 73.76006 44.760975
1.9482727 75.46106 45.275974
16.489273 11.731067 20.981972
16.221275 10.276065 23.02597
16.197273 10.954066 25.46997
15.173271 12.960063 26.710976
25.282272 13.783069 48.761974
24.862274 11.456065 48.996975
22.651268 10.094066 49.445976
20.719269 10.782069 51.229977
5.4482727 14.710063 18.365974
3.6632767 12.667064 19.33197
2.3252716 12.733066 21.41597
2.3712769 14.308063 22.989975
49.147274 69.54106 8.100975
51.08527 71.08906 8.672974
52.593273 70.71806 11.152969
52.02827 69.06606 12.65197
41.752277 73.77006 37.871975
40.146275 72.46206 37.082977
37.844273 71.35706 38.006977
37.108273 71.68506 40.297977
65.95227 41.286064 24.159973
67.96027 39.963062 23.061974
68.72427 40.218063 20.84797
69.91227 41.442062 19.755974
62.27627 47.257065 74.93798
60.473274 46.570065 76.13298
60.414272 44.981064 78.12498
62.367275 44.600063 79.61898
54.607273 68.80906 57.789974
54.63227 70.26406 55.931976
56.087273 71.79306 54.606976
58.81927 71.51606 54.224976
24.430267 39.154064 36.436974
22.365273 39.581062 34.70397
21.100273 38.408062 33.484978
21.13227 36.636063 32.23297
32.085278 70.90406 82.13898
32.299274 71.31906 79.82598
30.184275 71.92906 78.06898
27.866274 71.80206 78.27498
13.587273 67.14706 35.903976
13.945274 69.05906 37.435974
16.45227 70.02506 38.08097
18.500267 68.69106 38.346977
18.00727 39.147064 62.554977
16.323273 40.59006 63.065975
14.148277 40.27806 64.682976
12.784271 38.23606 65.19198
3.7372742 34.17306 20.253975
3.2882767 36.20906 20.669975
4.3082733 38.828064 20.090973
5.2142715 39.420063 18.385971
72.52027 16.091068 1.8549728
70.68527 14.0490675 1.7029724
69.92327 13.339068 81.29098
69.57127 14.277064 79.51998
70.96927 13.915065 57.914974
69.23527 12.304065 58.109974
67.40027 11.812068 59.843975
66.12027 13.405063 61.329975
39.754276 35.82506 53.578976
39.632275 38.234062 53.670975
39.340275 39.872063 56.006977
38.641277 39.231064 58.160976
38.687275 9.8980665 78.058975
39.90227 11.287066 79.571976
40.357273 11.222064 82.01398
40.68027 9.2730665 1.0289764
53.170273 5.4590607 55.058975
52.935272 7.449069 54.358974
51.241272 8.341067 52.204975
50.184273 7.4160643 50.818977
11.564278 15.973063 76.45098
12.817276 14.301066 77.62998
13.825272 14.073062 80.002975
13.198273 15.981067 81.92798
57.723274 41.647064 2.3279724
60.244274 41.72106 2.5339737
61.271275 42.837063 0.05797577
59.924274 43.24906 80.38498
50.89027 71.92706 13.132973
49.298275 70.38306 13.814972
46.981274 70.15206 13.689972
45.03227 72.03706 13.879974
72.76227 71.83306 80.46398
0.41127014 70.40906 79.35298
2.916275 69.60706 80.14498
4.4972763 70.73806 81.67198
66.570274 70.42606 12.645973
66.292274 70.45506 14.767975
68.16927 70.49106 16.615974
70.64227 70.86506 15.771973
36.373272 66.27606 19.08397
37.90127 67.85006 18.002975
40.237278 68.80406 19.131973
41.700275 67.92606 20.558975
2.0842743 16.947063 71.919975
1.2922745 15.575068 70.142975
72.95227 14.024066 70.185974
71.501274 13.6970625 72.29898
22.456268 69.25306 58.022976
20.447273 70.37206 57.903976
19.88427 72.06506 59.804977
20.386269 72.11006 62.019978
44.720272 70.04906 6.1259766
42.353275 70.67906 5.685974
41.557278 70.62506 2.9449768
43.78227 70.14006 1.2529755
40.939274 38.42306 42.370975
39.253277 40.307064 43.022976
39.16527 41.567062 45.447975
40.52827 40.802063 47.702976
71.69127 45.845062 62.404976
70.08227 44.45106 62.566975
69.68627 42.697063 60.504974
70.22927 42.93606 58.529976
13.153275 74.08306 59.621975
12.173271 72.39606 60.912975
13.089272 71.82106 63.611977
13.237274 73.38706 65.28998
42.293278 10.411067 78.876976
43.219273 12.409068 79.61598
45.72427 13.232066 80.27098
47.54127 12.426066 80.19998
46.187275 12.967067 30.771973
44.45727 12.505069 28.96997
42.365276 10.612063 29.489975
40.897274 10.746066 31.284973
46.357273 5.228058 61.576977
46.685276 7.467067 60.256977
48.14027 9.473063 61.572975
50.288273 9.286067 62.755974
39.064274 46.120064 27.16397
40.61127 45.63806 29.480972
40.33227 43.440063 30.838974
38.15327 41.95006 31.062973
49.594273 39.737064 14.871971
49.246273 41.66006 13.2619705
49.18327 42.026062 10.847969
48.19327 40.539062 9.174973
69.95327 12.931064 25.148972
67.791275 11.185069 25.336975
65.34227 11.776065 24.953972
64.182274 13.720065 24.049973
9.428276 66.61606 10.440971
9.25927 67.314064 8.157974
11.302277 68.04506 6.5829697
13.840271 67.55306 7.083969
52.035275 13.043063 18.043976
50.421276 12.182063 18.979973
49.801273 12.030063 21.655975
50.46027 14.128062 23.306976
24.248268 43.455063 16.107971
24.850273 41.904064 14.475975
24.391273 41.88206 11.881973
22.085274 42.982063 10.90097
9.60527 11.790065 70.13298
9.132271 13.815066 70.92798
9.593277 14.586062 73.65898
9.17527 13.373065 75.585976
24.506271 77.08406 82.23498
23.41127 76.44006 79.91798
22.891273 73.74406 79.27298
22.277267 71.94306 80.54298
17.165276 41.265064 19.851974
14.96627 42.279064 19.419975
14.514275 42.487064 16.778969
15.555275 42.850063 15.077972
18.791267 15.194064 62.772976
20.199272 13.288066 63.946976
22.421272 12.248065 62.840977
24.27227 13.505069 62.088974
56.51427 43.178062 17.53897
54.518272 42.671062 18.74997
53.32727 43.98506 20.848969
54.148273 45.279064 22.389969
15.903275 43.928062 75.77698
17.334267 42.682064 77.24898
19.462273 43.078064 78.37198
20.038269 45.281063 79.93898
71.403275 44.120064 4.5649796
72.23527 43.107063 6.0879745
72.82127 43.48606 8.697975
71.681274 45.121063 10.145973
31.396273 7.7090635 77.04098
32.354275 9.791064 77.38598
34.83327 10.888064 76.65198
36.783276 9.157069 76.26898
2.229271 39.516064 36.085976
3.0422745 41.136063 38.08097
2.9622726 40.705063 40.744972
1.1102753 39.459064 41.739975
65.707275 14.480067 20.556969
63.600273 12.876063 21.435974
62.093273 11.520068 20.04197
61.376274 12.010066 17.77797
68.67027 8.874064 8.406975
69.39827 9.209064 5.8189774
67.60527 9.8860655 4.098976
65.10427 8.555064 3.9259796
46.71227 69.25206 11.41597
46.23527 69.84006 8.965973
44.484272 71.79306 8.181969
42.37427 72.15706 9.393974
3.6552734 44.56906 81.65898
5.31427 43.099064 80.94398
7.42527 42.262062 82.224976
8.785271 43.753063 1.5509796
70.67427 10.069064 20.369972
69.181274 11.439067 19.432976
66.79727 11.753062 20.34497
65.46027 10.662066 22.31897
3.253273 43.981064 33.126976
0.5222702 43.529064 32.132973
72.47927 43.143063 33.97097
72.347275 43.223064 36.201973
16.567276 40.681065 45.484978
18.921272 40.69406 46.912975
20.541267 42.627064 46.515976
20.974274 44.387062 44.363976
46.884274 68.73306 68.237976
45.313274 70.79006 67.977974
44.49927 72.05706 70.34398
43.705273 71.45906 72.27898
27.921274 66.56306 63.477974
27.30227 68.72906 62.220974
25.248268 69.65406 61.806976
22.559273 68.45506 62.051975
21.560272 41.615063 3.416977
20.380272 42.871063 1.3309784
19.651268 42.227062 81.46498
18.348267 39.928062 81.14498
13.601273 44.466064 49.957977
14.549271 43.524063 48.343975
16.819275 43.393063 47.437977
18.997269 43.40906 48.553974
4.973274 37.038063 48.283978
6.0282745 39.099064 47.007977
8.319275 39.931065 46.438976
10.632271 38.86106 47.131977
25.611267 41.84706 50.106976
23.428268 41.922062 48.993977
21.061272 42.783062 50.021976
20.84227 44.27106 52.195976
44.98727 66.22106 18.223969
45.147274 68.467064 19.246971
46.523273 69.34606 21.295975
48.65127 68.34406 22.546974
57.053272 10.172069 65.78998
55.016273 11.106067 65.08198
53.02727 11.695064 67.212975
52.39627 9.995067 69.01198
18.031273 71.63006 23.564972
16.447273 71.63806 22.102974
16.879272 71.37506 19.049973
18.527267 73.16506 18.321976
64.568275 67.16806 30.098976
65.055275 69.75306 29.035973
64.36827 70.62706 26.982971
62.919273 69.77606 24.904976
39.242275 44.980064 23.306976
40.59727 42.892063 22.573975
42.852276 42.612064 22.852974
44.64227 43.182064 21.31797
45.01827 7.8060637 30.760971
45.811275 7.9400663 33.083977
43.283276 8.080066 34.430977
41.353275 6.2830687 33.680977
6.493271 39.216064 70.43698
6.3842697 41.567062 69.241974
5.067276 42.17906 67.08198
3.9712753 41.22906 65.30298
69.94927 38.22406 30.34497
69.73227 40.358063 32.153976
70.71627 41.115063 33.889977
72.49327 39.84006 35.421974
20.05027 70.68306 70.585976
22.00927 71.68506 69.852974
24.387268 70.98306 71.51998
24.38227 69.33606 73.335976
0.29127502 13.065066 26.842972
2.588272 11.224063 27.278976
4.7002716 11.505069 26.91397
6.192276 12.688067 25.028976
51.051273 41.15206 23.690971
52.742275 42.547062 23.05297
55.45228 41.93606 22.08297
56.392273 40.086063 21.558975
66.23827 8.090068 58.368977
65.596275 10.548068 58.441975
63.850273 11.949069 60.061977
63.291275 11.411067 61.960976
12.616272 65.62306 31.585976
14.336273 66.57906 30.700974
14.302277 68.467064 28.452972
12.473274 69.01206 26.880974
62.287273 41.01406 50.414978
63.632275 41.634064 52.235977
66.35327 41.692062 52.394978
68.10627 41.72206 50.906975
33.518276 66.99606 59.715977
33.620274 69.25906 59.983974
35.365276 71.03706 59.104977
37.159275 70.38306 57.145977
36.286274 6.9100676 52.477978
33.838276 7.9540663 51.840977
33.25027 9.047069 49.496975
34.004276 8.842067 47.549976
38.677273 37.66006 78.38898
40.761272 38.913063 77.975975
42.960278 38.349064 78.82798
43.505276 36.22206 80.43898
57.251274 7.764064 69.491974
58.712273 10.019069 68.71698
60.652275 10.908069 69.74398
61.736275 10.508067 71.77398
39.308277 12.025065 67.75898
41.089275 12.045062 66.142975
43.40327 11.116069 66.34098
44.87727 11.112063 67.962975
45.94527 70.55406 56.190975
44.536274 70.77706 58.190975
45.54527 69.50206 60.383976
47.658276 68.81506 60.904976
26.451271 6.960063 18.45897
25.159271 7.8620634 20.49797
22.710274 7.8930693 21.02797
20.631271 6.7090635 19.338974
46.455273 46.189064 26.348976
45.83327 44.064064 25.535973
43.482273 42.835064 25.713974
41.09727 44.276062 25.957977
13.458275 44.46406 8.364975
11.625275 43.551064 8.972969
10.156273 43.948063 11.27697
10.21627 45.84706 12.966972
36.852276 76.19806 78.19098
35.66727 74.24706 78.45398
33.045277 73.71406 78.77598
31.543276 74.60506 79.543976
19.955269 45.602062 41.692978
20.03627 44.037064 40.305977
22.626274 42.897064 39.245975
24.586273 43.718063 39.559975
43.218273 67.35806 53.320976
44.54027 68.48606 51.832977
43.191273 70.29806 49.640976
41.19327 70.62906 49.427975
45.12927 41.38206 60.816975
45.533276 39.63206 62.625977
43.686275 39.294064 64.794975
42.006275 40.25706 65.25798
48.289272 70.59406 36.17697
45.539272 70.66506 35.585976
44.61327 70.21506 33.140976
45.57027 69.47106 31.329971
25.24327 12.935069 64.58998
27.703272 11.553065 63.711975
29.340273 10.474063 65.30598
29.393274 10.581065 67.81598
62.497272 47.830063 51.566975
62.407272 45.70706 50.940975
60.659275 44.102062 49.738976
58.40827 45.30506 49.231976
14.215271 73.04706 81.89398
13.018272 71.74706 80.683975
13.4552765 72.10306 78.224976
13.925278 74.36806 76.95598
2.704277 68.85706 51.483974
2.0122757 70.90506 51.251976
73.22627 72.14406 51.643974
71.194275 71.16406 52.163975
73.515274 41.97806 47.546974
71.52727 41.293064 48.564976
68.99027 41.560062 48.018974
67.82627 42.897064 46.100975
69.46627 71.45606 3.8949738
70.09927 69.73706 5.636978
70.28627 69.58306 8.01297
69.97527 71.41606 9.781975
6.269272 72.43706 35.28997
5.829277 70.10006 34.546974
7.0842743 69.01506 32.447975
8.4292755 69.96606 30.324974
35.228275 42.508064 19.201973
33.97127 41.342064 21.061974
34.926273 41.087063 23.59597
36.491276 42.202065 25.031975
1.4332733 65.94206 9.704971
73.76927 67.69706 9.12397
72.49227 68.07706 7.142975
73.03227 67.68806 5.378975
0.442276 67.03106 1.5599747
1.5732727 67.85506 3.4669724
4.2442703 67.717064 3.836975
5.951271 65.87906 3.4729767
57.032272 8.762065 78.07498
54.866272 9.682063 76.794975
55.129272 10.862063 74.49398
56.682274 9.823062 72.51198
55.38127 74.60506 18.183975
56.84127 72.78306 17.96997
59.353275 72.30406 19.129974
60.793274 74.01006 19.934975
30.070269 11.857066 47.485977
32.279278 11.882068 48.739975
34.773273 11.271068 47.689976
35.552273 11.534068 45.593975
36.76327 36.753063 61.661976
38.48627 37.46606 63.170975
40.961277 38.02706 62.385975
41.866276 37.22906 59.814976
39.34627 8.090068 68.919975
36.607273 8.186069 68.35698
35.517277 7.953067 65.98598
36.336277 7.3720655 63.978977
29.69327 44.88806 31.491974
28.56727 43.62406 29.280975
25.906273 42.956062 29.234978
24.198273 43.502064 31.016975
23.416267 37.68106 50.438976
25.033272 38.85306 49.819977
25.569267 40.213062 47.662975
24.170273 40.557064 45.691975
15.468277 71.78706 40.210976
13.503273 72.04006 41.281975
13.864273 71.41506 44.16297
15.782272 71.54906 45.309975
11.198273 69.75506 16.660973
13.195274 70.703064 15.615974
13.332275 70.14406 13.076973
12.553276 68.21606 11.893974
70.69327 8.923068 44.785976
70.68427 11.111064 46.393974
72.86427 12.756068 45.397976
0.93827057 11.802066 44.185974
7.533272 69.89706 74.724976
6.9642715 70.13906 76.77898
4.39727 69.54906 78.21798
2.5362701 68.71006 77.58798
36.150272 11.962062 73.03498
38.071278 11.436069 72.28498
37.87527 10.403064 69.70598
35.97227 10.729068 68.09298
20.82727 8.441066 78.71298
20.700272 10.219066 80.433975
19.262268 10.953067 81.76498
16.297272 10.6970625 81.74598
57.710274 36.76306 39.796974
59.467274 37.665062 41.662975
58.483273 39.96406 42.958977
56.323273 40.248062 43.407974
23.16127 3.9230576 42.935974
22.270271 5.441063 41.647976
22.89927 7.7370634 40.801975
24.47927 9.5110655 41.577976
9.382271 14.514064 56.779976
8.908272 12.123065 56.383976
11.168274 10.361064 55.959976
12.782272 10.630069 54.437977
52.838272 42.796062 71.225975
54.51327 42.587063 72.75098
57.41027 41.54806 71.91098
58.439274 41.65306 70.17698
30.668276 68.27106 20.294975
31.420275 69.98706 22.259972
30.903269 70.07706 24.630974
28.357271 69.24306 25.729973
54.246277 76.73906 48.417976
53.95228 74.54006 47.101974
51.339275 72.68806 47.433975
49.382275 73.51106 48.607975
16.865273 13.917064 48.486977
15.073273 13.903064 47.030975
13.606277 15.747066 45.708977
12.850273 17.717068 46.562977
18.965271 43.300064 53.874977
20.056267 41.678062 55.570976
21.081268 42.170063 57.939976
20.59227 43.959064 59.646976
16.89627 37.88806 18.73597
18.706268 39.88806 17.95697
21.254272 40.22806 18.423973
22.602272 39.269062 19.72197
70.52327 16.028065 68.531975
72.21727 14.884067 67.92898
72.37827 13.316066 65.572975
70.99627 13.310069 64.14998
44.62427 12.234065 13.107971
45.76827 11.6480665 14.7499695
45.69727 12.017062 17.572975
43.841274 12.4240675 18.83397
54.90227 37.41906 28.907974
54.231274 39.220062 30.534973
55.983273 40.189064 28.426971
55.613274 40.633064 26.327972
49.61527 70.14906 79.98698
48.130276 71.47506 81.65998
47.400272 70.93606 1.6119766
47.720272 69.01406 2.9479752
51.772274 73.37906 54.258976
50.218273 72.17106 55.363976
50.34627 70.96306 57.868977
52.219273 70.67906 59.429977
1.4922714 43.48506 40.06697
1.4802704 43.226063 42.780975
3.9142761 43.44406 44.249977
5.8912735 44.966064 43.457977
0.12327576 8.933063 21.520973
2.003273 9.663066 23.41497
4.0652695 10.951068 22.273972
5.49527 10.237063 20.34497
54.38827 12.203067 82.09198
54.59027 10.450068 1.5729752
56.178272 8.164065 1.2529755
58.04227 7.732066 81.83398
42.393276 64.71906 27.800972
41.551273 66.20206 25.876976
42.86127 66.19906 23.445976
44.467274 64.60506 22.576973
37.465275 37.713062 9.312973
39.376278 39.433064 9.277969
42.037273 39.016064 10.296974
43.07227 36.30806 10.41597
64.62127 73.439064 27.130974
65.10527 72.45406 29.185974
67.50327 72.14906 30.578972
69.86027 72.85206 29.902977
36.54227 38.10506 76.78598
36.774273 40.558064 76.932976
36.113277 42.266064 79.09798
34.97127 41.925064 80.89598
24.557274 72.89006 27.237976
23.902267 72.22806 25.492973
21.373268 70.93006 25.341972
19.599274 71.45106 26.057976
66.82127 45.02706 47.596977
65.04427 44.862064 49.229977
63.263275 43.178062 48.648975
62.574272 42.335064 46.678974
9.808273 37.984062 13.01297
8.99527 40.584064 13.573975
8.014275 42.359062 11.95697
7.12027 42.151062 9.5379715
26.766273 64.64606 15.014969
24.75827 65.41306 15.441971
23.957268 67.39206 17.157974
24.933273 67.94006 19.306969
25.375267 44.948063 76.461975
23.222267 44.782063 77.31398
21.10527 44.39606 75.81998
20.616272 44.906063 73.31598
0.20427704 39.553062 45.961975
1.5972748 41.192062 45.102978
3.6492767 41.037064 43.496975
5.043274 39.070065 42.810978
60.491272 14.591067 50.678978
60.440273 12.533069 51.813976
62.298275 10.695064 52.365974
64.56127 10.726062 51.666977
4.590271 13.811069 79.724976
6.246277 13.857066 77.93998
8.638275 13.357066 78.88598
9.418274 13.817065 81.156975
12.755272 14.313067 38.542976
10.644272 15.6360655 37.700974
9.423271 15.679065 35.254974
9.461273 14.172069 33.51197
45.37527 77.00306 73.503975
46.324276 74.51406 74.197975
46.90227 72.69606 72.09698
47.62427 73.02006 70.015976
39.37427 7.920062 60.301975
40.156277 8.998065 58.489975
42.773273 9.850062 58.146976
44.539272 8.964068 59.300976
36.976276 8.586062 55.414978
37.92927 10.048068 56.619976
37.581272 10.651065 59.354977
35.685276 9.901065 60.761974
26.685272 72.76306 15.913971
25.739273 70.67706 16.072975
24.128273 69.24906 14.622971
22.111267 70.39306 13.344971
48.10027 11.728068 68.92498
48.79327 10.611064 70.52498
51.27627 11.228068 71.30398
52.344273 13.126063 71.684975
38.161274 45.169064 46.498978
39.59827 44.411064 48.335976
42.051273 43.289062 48.090977
43.563274 43.13106 46.306976
12.848274 39.508064 21.621971
15.258278 38.504063 20.895973
17.017273 40.218063 22.38897
15.972275 41.817062 24.158974
29.837275 12.510066 62.030975
30.238276 11.757068 59.888977
28.619272 11.134067 58.018974
26.462273 12.257068 57.231976
33.551273 67.68606 66.324974
34.628277 69.76706 67.448975
36.738277 69.86206 68.697975
38.608273 68.00406 69.295975
27.92727 9.433063 39.013977
25.737274 10.515063 38.326973
24.988274 11.425067 36.137978
25.92427 10.752063 33.58197
17.98227 13.884067 44.353977
18.913269 12.480067 42.290977
20.950272 10.901065 42.446976
22.48227 10.316066 44.330975
28.967272 40.894062 22.731972
30.780275 41.651062 24.034973
32.807278 40.22806 25.212975
33.36027 37.956062 25.063972
26.198273 13.830066 38.84497
25.066269 12.888064 41.151978
22.669273 11.560069 40.660973
21.208267 11.844066 39.309975
0.2132721 15.864062 50.419975
1.4582748 14.317065 49.094975
3.7242737 12.938067 49.433975
4.8492737 12.651065 51.045975
9.319275 13.357066 60.040977
7.4362717 13.243068 60.687977
6.309273 12.821063 62.555977
5.46727 14.544063 64.171974
68.83027 45.54106 80.51898
70.16127 43.900063 81.25798
70.46727 43.234062 1.6089783
68.86727 43.72906 3.5499725
60.567272 9.601062 16.87297
58.162273 10.550067 17.807976
57.08327 10.342067 19.91397
56.84727 8.875064 21.52697
69.08527 74.11106 48.531975
70.83027 72.59306 49.101974
72.99327 72.05406 48.822975
0.70326996 72.59006 46.613976
16.441277 65.81606 13.033974
17.456268 68.02906 13.259972
17.696274 70.01706 11.125969
17.487274 69.50906 8.681969
30.05427 68.75906 31.868973
29.462275 69.94206 29.654976
30.612276 69.80806 27.301971
32.324276 68.65806 26.327972
60.049274 37.56406 20.44497
59.420273 40.087063 20.05597
58.115273 41.331062 18.062973
55.800274 40.20106 16.947975
27.323275 69.52606 46.499977
27.142275 71.64206 47.947975
26.900269 71.87506 50.382977
26.808273 69.77906 52.243977
24.130272 8.675067 12.410973
24.159271 9.382068 9.95697
25.501274 8.387065 7.99897
25.921272 6.0910645 7.6069717
68.653275 45.251064 49.695976
68.46627 44.21506 52.050976
65.81327 44.461063 53.256977
64.431274 46.560062 53.236977
61.382275 42.484062 38.865974
60.129272 40.189064 39.012978
57.60427 39.56806 38.923973
55.70127 40.81206 39.758972
23.822273 73.52306 3.8139725
25.23127 71.97606 5.4439774
25.131271 72.11706 8.15197
25.198273 74.51106 9.504974
48.300274 41.280064 16.867973
49.980274 42.594063 17.265968
51.046276 43.855064 19.48597
50.185276 43.50006 21.933975
48.700275 43.899063 37.37297
48.991276 42.052063 38.19197
51.091274 40.762062 39.605972
53.092278 41.142063 39.947975
36.438274 66.19406 30.402977
34.87527 68.14106 29.51197
33.884274 70.02306 30.992973
32.661274 69.73006 33.255974
62.292274 76.77906 24.501976
62.315273 75.70106 22.283974
63.789272 73.40006 22.024971
65.99627 72.68706 23.545975
51.00227 37.158062 70.07798
52.205273 39.251064 70.29998
54.666275 39.769062 69.366974
56.329277 38.50006 68.59498
16.557274 14.181064 80.89898
16.885277 13.088069 0.55797577
16.081276 13.958064 3.1369781
15.058273 15.537066 3.6579742
68.499275 10.532069 27.740974
67.28627 11.989062 28.06697
67.17627 13.168063 30.479973
67.390274 12.200068 32.699974
29.91327 76.63606 78.13998
28.698275 74.74006 79.05598
26.027267 74.17306 78.46598
24.57927 75.01806 76.85398
54.968273 11.616069 10.739975
57.12427 12.996066 11.392975
59.563274 12.442065 10.004974
59.951275 11.640063 7.6819687
71.000275 14.979068 50.647976
68.735275 13.713069 50.997974
66.74127 13.805064 49.134975
65.95027 16.173069 48.115974
38.229275 38.404064 24.377975
38.909275 40.158062 23.905975
40.760273 41.72806 25.408974
42.184277 41.072063 27.238976
23.490273 10.416064 4.5479736
24.156273 10.758067 2.5079727
26.963272 10.599063 1.9159775
28.785273 11.321063 3.501976
31.892275 12.437068 74.07398
31.473269 12.069064 76.69298
28.822275 12.587062 78.029976
27.10827 14.073062 77.30398
8.652275 67.44706 54.338978
7.0942764 66.95406 52.733974
7.305275 66.67806 50.028976
9.329277 66.64906 48.649975
48.89127 70.61106 70.21798
51.23527 70.47106 70.80298
52.33727 71.32006 73.14398
51.52927 71.95106 75.017975
19.292267 14.812068 33.62197
18.532272 12.712062 32.95697
17.478271 12.1480665 30.74797
17.52227 13.083064 28.355972
44.30727 40.474064 3.8719788
42.718273 39.52706 5.6299744
41.48527 40.557064 7.7249756
40.176273 42.60406 7.5569687
14.623276 70.57306 60.694977
16.06327 72.14506 60.976974
17.805267 72.50606 63.025974
17.570267 71.83306 65.16598
68.98527 44.466064 9.888969
68.56727 42.80506 11.502975
67.61827 42.533062 13.772972
66.41927 43.768063 15.033974
11.957275 10.803065 14.754974
14.524277 9.565066 14.590973
15.592278 9.078067 12.000969
15.212273 10.691066 10.016975
40.428272 68.59106 34.798973
42.057278 70.58706 34.694977
42.872272 71.76906 36.673973
43.016277 71.23606 39.130974
69.45127 14.864062 39.240974
67.71427 14.520068 37.818977
65.13727 14.051066 38.95397
64.64627 14.059062 41.210976
17.469269 11.836062 17.644974
19.610268 10.149066 18.306969
21.21727 10.352069 20.17997
21.91027 12.399066 21.486969
7.27227 45.552063 33.724976
7.9292755 43.95106 32.20697
6.6572723 43.17306 29.734978
4.734276 43.407063 28.946976
47.771275 15.720065 24.929977
48.98827 13.496066 26.041977
49.453274 12.891063 28.785973
48.841274 14.133067 30.634972
53.545273 7.498065 25.951973
53.73627 9.6360655 25.264977
52.34727 10.649066 23.101974
51.647274 9.471065 21.036972
30.908274 43.38906 72.84498
29.95727 43.177063 75.15098
27.17927 43.025063 75.54098
25.553268 43.13106 74.098976
41.93127 12.763064 38.16297
39.357273 12.745067 37.39997
38.411274 10.899066 35.499977
39.368275 9.846065 33.71897
59.472275 73.74906 50.019978
61.073273 72.16906 50.249977
62.882275 72.12006 52.335976
64.07927 73.89006 53.116978
7.5842743 68.87206 57.245975
5.600273 70.68306 57.323975
4.18927 71.48206 55.407974
4.1632767 70.82206 53.339977
11.736275 71.56906 11.434975
12.651276 69.98206 9.5989685
14.612274 70.19506 7.8779755
16.381271 71.66206 7.5309753
30.73527 41.105064 51.415977
29.258272 40.268063 51.509975
28.102274 39.258064 48.991978
28.739275 40.671062 46.727978
6.118271 5.429062 23.126976
4.6222763 7.2680693 23.780975
5.4132767 9.628062 24.684975
7.434273 10.292064 25.495972
73.70727 40.974064 72.70298
1.8632736 40.713062 70.92298
4.045273 39.40306 71.280975
5.1432724 38.719063 73.08298
69.19327 42.112064 26.280975
66.76227 41.293064 26.769974
65.53927 41.44306 29.379974
66.44627 41.400063 31.296974
62.494274 9.030063 74.961975
64.35727 9.943065 75.55398
63.483273 11.457065 77.362976
63.166275 11.248065 79.46998
24.823273 40.61106 1.5499725
25.075272 43.258064 2.1969757
25.463272 43.987064 4.9699783
26.824272 42.56806 6.5899734
69.27427 69.13306 40.303974
67.875275 71.11806 40.305977
66.06227 71.536064 38.239975
64.72827 69.53306 36.943977
39.488277 8.010066 31.258972
37.198277 8.673068 30.454971
35.214275 9.216067 32.12297
34.684277 8.037066 34.31797
48.951275 41.58906 63.000977
51.65527 41.025063 63.292976
53.36728 40.820065 61.360977
53.543274 41.58306 59.278976
67.360275 37.24906 30.630974
67.154274 38.780064 32.161972
64.53927 39.704063 32.949974
62.287273 38.07506 32.48397
1.2732697 10.121066 55.966976
0.49526978 11.124064 57.652977
2.3822708 12.031062 59.663975
4.529274 11.502063 59.824974
53.808273 66.56606 74.17898
55.83227 67.70206 74.02898
56.68827 69.83306 71.98598
55.432274 70.09306 69.781975
1.0942764 73.66906 49.700977
3.4752731 75.07106 49.454975
4.892273 74.37306 51.728977
4.2852707 73.54106 53.606976
55.040276 13.1360655 78.51098
55.734276 12.976062 76.34598
54.356277 13.377063 74.39398
52.160275 14.297069 74.09798
31.615274 13.578067 0.9239731
30.229273 11.712062 0.90797424
27.618273 11.412066 81.83398
27.135271 12.429065 80.18498
11.188271 45.441063 19.034973
11.486275 42.91606 20.223969
13.167274 42.286064 21.881973
14.242271 43.566063 23.573975
58.608273 74.93406 8.997971
58.10327 72.68106 9.393974
55.501274 71.60506 10.019974
53.435272 72.52806 9.370972
62.483273 46.553062 72.11198
63.329273 44.822063 73.60498
65.91427 44.931065 74.50598
67.875275 45.982063 73.77398
33.411274 65.28406 19.266975
33.090275 67.53406 17.807976
31.446276 68.08206 15.982971
29.464273 66.78806 15.044975
24.197273 15.862063 30.029976
26.089272 14.327067 29.492973
27.31627 14.025065 26.577972
27.060274 15.080066 24.888977
34.573277 36.21506 60.043976
35.843273 37.92506 59.184975
34.974277 40.024063 57.420975
32.803272 39.702065 55.905975
20.969269 5.9180603 52.012978
19.895271 7.0330687 49.964977
17.539268 8.068065 50.957977
16.512276 7.5670652 52.575977
56.747272 44.536064 53.258976
55.433273 42.801064 54.153976
54.15327 42.753063 56.583977
54.13927 44.178062 58.388977
13.499275 39.188065 60.308975
13.810272 38.984062 58.252975
12.1032715 40.477062 56.866974
9.788277 40.966064 57.139977
47.71027 44.217064 40.009975
46.477276 42.140064 41.246975
47.69427 40.468063 43.014977
49.48827 40.789062 44.431976
61.142273 8.8980665 22.062973
60.015274 8.910068 24.571976
61.180275 9.668063 26.617973
63.393272 8.551066 27.204971
6.192276 75.72606 73.557976
7.1622696 73.50006 74.348976
8.444275 71.95406 72.64998
10.197273 72.45906 71.169975
51.89227 36.89706 39.890976
52.35027 38.656063 41.670975
51.634274 38.991062 44.116978
50.20927 37.546062 45.633976
72.36427 72.19506 17.424973
72.96527 71.58806 19.147972
0.6772766 69.86306 20.073975
2.918274 70.10506 20.384972
44.060276 73.29906 25.710976
46.201275 72.50306 27.014977
45.367275 71.29206 29.186974
44.039272 72.06006 30.644974
48.41727 38.799065 47.264977
46.87927 40.328064 47.378975
44.97427 40.94306 45.466976
43.900272 39.803062 43.878975
56.643272 73.25106 70.390976
58.600273 73.04906 68.37498
60.27627 71.078064 68.15298
60.852272 69.73506 70.80698
58.97227 12.8600645 28.646973
56.94527 11.889064 29.099976
55.906273 11.371066 31.496971
56.504272 12.044063 33.848976
24.598267 78.84906 76.14998
26.597267 79.27606 77.73098
26.306267 79.62506 80.60198
24.39727 80.18206 81.72898
4.2472763 15.141063 10.731972
3.9852753 13.607066 12.454971
5.055275 12.993068 14.643974
6.449272 14.167064 15.939972
63.745274 12.449069 5.8479767
65.820274 11.7350645 6.4669724
67.09127 11.292064 8.578972
65.95127 10.403064 10.111969
37.885273 43.630062 16.06897
36.567272 42.13906 14.4129715
33.950275 41.358063 14.625969
32.168278 42.358063 15.921974
18.624268 39.82506 24.681976
19.936272 39.984062 22.44197
22.88227 39.842064 22.47097
24.152267 39.108063 24.672974
19.35627 74.00106 66.251976
20.473267 72.231064 67.585976
22.348267 70.52606 66.55298
24.098267 70.85006 64.45598
18.64927 10.227069 28.140976
17.770271 9.246066 30.405975
15.048271 9.4850645 30.598976
13.673271 8.725062 29.350975
73.21227 66.05406 13.278969
71.77427 67.800064 14.644974
69.96727 68.89306 12.897972
67.86527 67.65606 11.839973
21.88427 42.06906 79.90998
24.005272 42.33906 77.94598
26.560272 43.508064 78.66298
27.59627 43.519062 80.53698
0.2472763 42.741062 62.588974
72.430275 43.592064 64.02698
70.40527 42.49906 65.238976
69.47027 40.509064 65.38198
11.833275 40.418064 5.095978
10.511276 40.482063 7.24897
11.9292755 40.90906 9.800972
14.067276 40.591064 10.449974
63.993275 71.34606 62.776978
62.17227 72.47306 61.610977
59.917274 71.80906 60.641975
58.892273 69.66606 60.412975
64.01127 9.502063 70.84198
65.28927 11.434062 71.19398
67.346275 11.919063 72.90998
68.82827 10.733066 74.03798
52.118275 43.878063 54.817978
49.394276 43.227062 53.590977
48.03227 41.783062 54.572975
47.576275 40.606064 56.723976
7.3252716 70.00206 36.874977
8.695274 70.21406 37.988976
8.885277 71.28206 40.389977
7.0962753 71.856064 41.836975
7.1532745 67.60406 25.416977
5.2332764 69.03406 24.604973
5.031273 69.62806 21.556969
5.8912735 68.25806 19.820969
9.700272 10.854068 80.11998
10.21627 11.221065 77.390976
12.508278 11.605067 76.545975
14.848274 11.076068 77.34798
47.35127 50.209064 19.939972
48.175274 49.51306 22.091972
47.660275 47.363064 23.681976
45.922276 45.254063 22.808975
30.647272 35.39006 50.898975
31.73527 37.68806 51.295975
31.370272 39.273064 53.047977
29.973269 39.34706 54.981976
1.9192734 10.597064 48.836975
0.28227234 12.248065 48.016975
71.80427 12.877063 48.779976
70.36627 11.552066 49.217976
58.54027 13.226062 75.06698
60.851273 11.408069 74.92998
63.112274 11.726062 73.97898
63.441273 13.210063 72.268974
25.92427 12.556064 69.434975
24.19027 13.387065 71.34298
23.988274 12.755069 73.78998
25.860268 11.764064 75.45198
0.054275513 39.58906 54.067978
1.9452744 41.483063 53.382977
3.7612762 41.55406 51.646976
4.3372726 39.591064 49.546978
57.22127 41.415062 9.524971
55.772274 40.003063 9.782974
52.995274 39.995064 10.264969
51.33227 41.62506 9.397972
7.3162766 38.68606 14.960976
6.656273 41.11706 14.795975
4.253273 42.13106 14.573975
2.1852722 41.281063 13.281975
70.60127 71.29206 60.540977
71.73827 71.25406 62.180977
70.91227 71.16006 64.558975
68.99927 70.90306 65.66498
29.42827 43.886063 62.417976
28.241274 42.338062 60.585976
25.679268 42.523064 59.536976
23.851273 43.77806 60.077976
46.664272 6.6660643 35.408974
47.886272 8.552066 34.712975
50.14027 9.597064 35.268974
51.97527 8.498065 36.750977
12.406273 69.36106 45.394978
12.869278 70.06506 47.773975
15.09127 69.49006 49.318977
16.852272 68.28706 48.777977
0.942276 43.672062 72.975975
73.21327 43.244064 74.64398
70.500275 43.588062 74.00598
69.51827 44.705063 72.197975
32.183277 42.526062 47.682976
31.362276 40.578064 46.336975
30.807276 40.211063 44.097977
30.20827 41.481064 42.284977
24.250267 40.63806 9.30397
21.85727 41.223064 8.829971
19.750267 39.973064 9.481972
19.449272 37.449062 10.094971
36.190273 11.210063 16.44397
34.436275 9.637065 15.683975
32.113277 9.602069 15.396973
30.29027 11.230067 15.62397
61.010273 39.66706 44.204975
62.789272 40.234062 42.785976
65.73027 40.49906 43.751976
66.47827 40.553062 45.602978
61.449272 8.963069 39.015976
59.912273 10.462062 37.753975
58.593273 10.383067 35.296974
59.100273 8.916064 33.498978
49.248272 36.324062 57.177975
49.57027 36.218063 59.927975
48.977276 38.16206 61.465977
47.62627 40.105064 61.101974
45.844273 45.45806 45.954975
46.983273 43.48506 45.627975
48.80627 42.172062 46.784977
49.66727 41.900063 48.921978
32.422276 34.184063 49.308975
34.140278 35.69506 48.570976
36.088276 37.17306 50.039978
37.182278 36.282063 51.992977
63.421272 75.88406 58.332977
65.31127 74.36306 57.993977
67.41027 74.44206 56.334976
68.721275 76.411064 56.020977
34.654278 71.11906 10.432976
32.372272 71.27206 10.564972
30.453272 69.69506 11.33297
30.292269 67.50006 12.205971
34.25027 6.8700666 13.15097
35.72127 8.943065 13.0379715
36.84727 9.688067 10.83197
38.44327 8.659068 9.391975
61.688274 67.80906 77.239975
60.719273 69.661064 78.14598
59.931274 71.77806 76.36998
59.18627 71.71106 74.20798
61.087273 36.143063 2.8499756
60.166275 38.495064 2.2859726
60.145275 39.928062 0.6139755
61.755272 40.61006 80.98198
1.7092743 14.933063 57.255974
1.0942764 12.979068 55.989975
72.66327 12.645068 54.273975
70.96927 14.294063 53.488976
8.181274 39.29106 79.002975
6.1432724 40.144062 80.11998
3.826271 41.223064 78.794975
3.2212753 40.06906 76.55698
17.324272 36.441063 47.258976
17.28727 38.684063 48.227978
15.586273 40.70106 48.711975
13.270271 40.941063 48.176975
56.81827 68.55606 14.427971
58.480274 70.25306 13.766975
60.01227 70.57106 11.483971
59.231274 70.19006 9.159973
66.068275 74.31006 50.873978
67.057274 73.40006 53.242977
69.47727 73.981064 54.103977
71.25427 73.85306 53.066975
35.773273 74.57706 47.987976
35.751278 72.19506 48.173977
35.593273 70.46806 46.063976
36.089275 71.06306 43.573975
27.870272 43.36106 20.640968
29.966272 42.171062 20.632973
32.010273 42.887062 22.091972
32.878277 44.94306 22.690971
46.955273 67.65906 51.175976
48.409275 69.04106 52.613976
48.28227 69.04606 55.245975
47.275272 67.37406 56.818977
1.215271 68.51106 69.94598
2.2822723 70.71006 71.10798
4.8462753 71.27306 71.09298
6.6952744 69.74806 70.935974
60.33927 38.273064 30.435974
58.787273 39.70806 31.69197
56.59027 39.22806 32.962975
55.030273 37.25906 32.170975
9.434273 43.053062 35.654976
11.877274 42.81206 36.013977
13.279274 43.010063 33.980972
12.546272 44.355064 31.88697
1.7902756 70.58106 61.265976
3.319275 72.45406 61.064976
6.227272 72.30206 61.189976
7.6132736 70.79506 60.991974
14.138275 68.161064 54.453976
11.819275 69.04406 54.495975
10.559273 70.37906 52.291977
11.237274 70.68106 49.989975
27.514269 6.7630644 70.16298
27.739275 9.130069 70.765976
29.382273 10.690066 72.13998
31.44427 10.156062 73.05698
11.936272 44.00606 80.99198
10.3912735 41.94406 80.12998
8.781273 41.897064 78.696976
7.60627 43.65906 76.93598
18.28727 6.807063 57.221977
18.394272 8.982066 56.387978
19.043274 11.374064 57.266975
20.052269 11.833064 59.329975
9.144272 68.83506 59.533978
10.736275 70.51606 59.077976
13.364273 70.55406 58.039974
14.530273 68.73206 57.210976
34.127277 42.25006 2.9279785
32.024273 43.878063 3.529976
30.257273 43.158062 5.4319763
29.281275 41.260063 6.053978
44.98527 15.391063 50.616978
43.883274 13.590068 49.660976
43.44427 11.123065 50.602978
43.32027 10.330066 52.976974
1.727272 9.711062 73.09798
1.227272 12.071063 74.11098
2.9152756 14.279063 74.140976
5.06427 14.467067 73.22698
38.79227 38.386063 81.05198
38.55427 40.174065 0.5529785
39.52627 40.335064 2.8479767
40.300274 38.858063 4.5409775
23.779274 74.28506 41.611977
23.158272 72.21006 42.883976
20.803268 71.24106 43.583977
18.961273 71.03806 41.871975
57.52727 66.35406 22.399971
58.406273 68.82206 23.09497
60.551273 69.89006 22.491974
62.892273 68.675064 22.30297
67.515274 73.73906 71.27198
66.69127 73.59906 73.84798
67.01027 71.58506 75.24398
68.832275 69.75806 75.34698
8.588272 10.973063 64.475975
9.100273 12.563067 66.39998
7.6492767 12.959064 68.571976
5.385277 11.897067 69.27798
0.20627594 69.52606 44.179977
0.34627533 71.70406 44.106976
1.329277 73.54806 42.603977
1.930275 73.27606 40.314976
3.5162735 9.003062 81.46698
2.8622742 10.952067 80.02798
4.0582733 11.884067 77.78598
6.1292725 11.0720625 76.76998
45.286274 8.544063 52.398975
46.522274 9.960063 51.720978
47.68027 10.396068 49.354977
47.841274 9.444064 47.420975
59.250275 38.02806 15.246971
61.211273 38.63206 15.919975
62.54027 39.690063 14.24897
62.180275 38.976063 11.367973
11.654274 45.670063 51.648975
10.381271 43.505062 50.650974
8.49427 42.678062 50.215977
6.0162735 43.53406 50.267975
34.434277 65.24106 53.517975
35.673275 65.87006 51.491978
38.01427 67.35406 51.418976
39.495274 68.00206 53.350975
32.798275 43.23506 70.05598
30.454271 42.213062 70.532974
30.266275 40.023064 68.70998
31.160273 39.758064 66.40898
5.864273 69.62606 8.642975
7.4852753 69.05506 7.2109756
8.934273 70.60006 5.185974
9.421272 72.70506 5.0129776
62.323273 13.241069 39.66297
61.292274 13.451068 42.262978
58.627274 13.476062 42.536972
56.92427 13.496066 40.63597
20.695267 37.98706 50.531975
20.20327 40.273064 50.824978
17.831268 41.356064 51.371975
15.562271 40.54206 51.683975
21.344269 44.36706 30.99797
20.32827 43.390064 29.542976
21.623268 42.720062 27.16397
23.927269 43.43006 26.44297
73.46827 67.39606 18.94397
71.666275 68.80506 19.946976
69.09027 68.95506 19.310974
67.92727 67.70006 17.697975
11.617271 7.324069 31.014977
10.7022705 9.250064 29.430977
8.951271 9.613063 28.22097
6.5042725 9.045062 28.377975
48.73627 37.276062 54.749977
49.49927 39.426064 54.053978
48.91927 40.808064 51.696976
48.04027 39.952065 49.951977
43.14127 70.12506 21.494972
44.53027 69.27006 23.283974
43.978275 68.31006 25.715973
42.270275 68.39906 26.926971
45.90227 13.584064 38.215973
45.76327 11.497066 38.907974
43.994274 10.284068 40.749977
42.731274 11.063067 42.66497
72.56627 11.962062 8.8869705
71.42027 13.229068 10.369972
69.33527 12.679065 12.047974
68.01027 10.596065 12.177971
49.76427 73.39506 81.57898
51.51627 71.43506 81.50498
54.050278 71.60806 81.154976
55.212273 73.00906 80.37298
11.722275 12.083064 64.281975
12.906273 13.502063 63.003975
13.316277 13.264064 60.232975
12.854271 11.377063 58.748974
73.79827 43.431065 14.677971
0.8652725 41.850063 15.699974
0.35427094 40.205063 17.917969
72.57427 40.441063 19.228973
28.881273 38.425064 15.798973
27.83027 38.487064 18.190971
25.235268 39.433064 18.80597
23.191269 38.699062 16.63897
10.402275 47.322063 69.199974
8.796272 45.258064 69.20398
8.677277 43.599064 67.19198
8.552277 44.349064 64.419975
11.346275 8.287066 16.87497
12.171272 10.160068 18.017975
14.692276 10.348063 19.031975
16.57727 9.542064 18.884972
2.0702744 15.684062 39.895973
2.916275 14.164065 42.235977
2.213272 14.2350645 44.500977
1.2622757 16.078068 45.752975
71.78627 68.38806 47.106976
70.39427 70.06806 47.156975
68.34227 70.76206 48.524975
67.27227 69.34506 50.310978
9.882271 14.571063 30.949974
10.154274 12.058063 30.732971
12.601273 10.751063 31.98397
14.849274 11.849063 31.857971
21.608269 45.523064 34.01197
21.042267 43.273064 34.96797
22.562271 41.656063 36.617973
24.582268 41.699062 37.378975
67.02227 41.324062 75.78798
66.721275 42.372063 73.405975
68.07927 42.329063 71.42898
69.681274 40.876064 70.52098
69.86027 76.42206 32.105972
69.861275 74.01506 32.42697
68.140274 72.34706 33.929977
67.33627 73.20106 36.100975
0.90727234 37.887062 20.014969
0.8722763 37.63806 22.543976
72.53927 38.282063 24.102974
70.583275 39.27106 23.139977
59.742275 44.49906 74.54198
59.215275 42.85406 73.65998
60.485275 41.29806 71.740974
62.388275 41.752064 70.42398
53.572273 13.577067 68.977974
55.744274 12.652064 68.934975
56.64427 12.352069 71.366974
56.63827 14.012065 73.25598
35.405277 69.57206 75.57598
37.487278 70.286064 76.75098
37.821278 71.77006 79.11598
36.509274 72.29606 80.72298
51.588272 8.061069 48.522976
50.399273 10.146068 47.657974
50.265274 11.042064 45.179977
50.991272 9.998065 42.840977
38.519276 71.49506 49.603977
37.66727 70.09906 50.938976
35.188274 70.29006 52.407974
34.56827 72.52706 53.399975
47.23927 11.812068 3.7839737
45.715275 12.587062 5.5479736
43.107273 12.757068 5.1449738
41.479275 11.382068 4.1059723
3.079277 76.45906 42.530975
0.44127655 76.11906 42.010975
73.60327 75.78306 39.208977
0.20527649 77.41606 37.430977
56.71627 9.044063 36.833977
56.84727 11.061069 38.521973
54.531273 11.736064 40.111977
52.741272 11.483066 39.373978
15.150276 44.294064 35.790977
16.806274 43.827065 37.643974
19.61927 44.244064 37.154976
20.071274 47.051064 35.82897
46.979275 7.899066 14.816971
46.21227 9.097064 12.903969
47.75127 10.019069 11.035973
50.080273 9.053065 10.176971
29.600275 8.373065 32.00997
31.88827 9.711062 33.132973
32.067272 10.406062 35.307976
31.13727 9.328067 37.433975
32.190273 73.62106 12.936974
32.558277 73.82706 10.633972
30.139269 72.87606 9.231972
28.160273 73.29806 9.812973
36.622272 36.49906 26.102974
36.101276 38.501064 26.029976
35.729275 40.674065 27.925972
35.54127 40.779064 30.006973
9.91227 65.69006 32.226974
9.672272 68.13806 32.95497
9.720276 69.14906 35.211975
10.738274 68.35906 37.32897
52.498272 67.925064 27.056976
51.678272 69.11406 28.939972
49.15327 69.925064 29.326973
47.93127 69.96906 27.862976
43.37627 12.548068 58.281975
40.965275 12.739062 59.744976
38.575275 13.203067 58.767975
37.98527 13.878062 56.621975
37.900272 11.747066 47.518974
36.408276 11.357066 49.798977
37.158276 11.618068 52.086975
39.52627 12.415065 52.995975
47.90127 67.17106 16.044975
49.232273 66.56106 17.986969
52.354275 66.96306 17.634972
53.059273 68.45906 16.439972
65.92527 39.657063 5.4349747
67.736275 41.31806 4.3879776
68.24327 43.359062 6.2859726
67.125275 43.036064 8.6369705
66.445274 72.04506 18.549973
65.08927 70.22606 17.351974
62.504272 69.41806 18.215973
61.183273 70.36406 19.639969
20.195267 68.62906 76.418976
18.338272 68.10806 78.34198
19.02327 66.66506 80.35598
21.179268 65.11206 80.77798
67.62127 16.997066 78.69298
66.77327 14.893069 78.517975
64.79727 14.0230665 76.91298
62.51227 15.646068 76.848976
54.523273 8.983066 49.106976
53.601273 9.218066 51.466976
54.849274 9.778064 53.591976
57.045273 9.615062 54.282974
27.63827 74.53206 49.106976
28.78827 73.21606 46.729977
31.410273 73.45406 46.055977
33.144276 75.06706 47.340977
15.864273 71.54406 77.24198
16.774277 73.72106 77.08398
19.407272 74.37306 76.82798
21.483269 73.15106 76.63898
71.07227 38.851063 55.072975
69.35727 40.178062 55.887978
68.459274 40.962063 58.377975
69.09327 39.880062 60.724976
38.349277 4.4120636 12.728973
39.062275 6.446063 13.90097
38.211277 7.1930647 16.422974
39.529278 5.5750656 18.376968
72.74927 44.671062 42.847977
71.99727 42.102062 43.071976
72.166275 40.355064 41.216976
71.432274 40.88806 38.769974
59.600273 14.354068 46.781975
61.298275 13.442065 47.898975
63.639275 12.1740675 47.198975
64.986275 12.704066 45.507977
9.519272 68.75506 42.186977
11.043274 69.40906 40.598976
13.539276 69.05506 40.021976
14.937271 67.28006 41.211975
5.357277 43.45006 21.628975
3.0892715 41.941063 21.560974
2.5392761 40.87406 19.350975
3.2712708 41.315063 16.966972
5.5722733 44.213062 78.48298
4.7682724 43.281063 76.91098
2.3932724 42.820065 76.57998
0.46927643 43.975063 77.86898
54.727272 39.468063 52.387978
52.233273 39.89506 53.628975
51.69527 40.177063 55.909977
52.523273 39.24306 58.065975
22.701271 10.907069 78.17598
24.602272 11.018069 79.38398
24.413269 11.791064 82.00898
22.88527 13.191066 0.9089737
57.89627 70.12706 51.674976
60.018272 69.56306 50.764977
60.719273 69.49406 47.928974
59.448273 68.93106 46.181976
37.950275 74.93506 36.089973
36.913273 72.64806 35.63697
35.18027 71.81706 34.234978
33.558277 72.49906 32.807976
2.6342697 15.537066 76.52198
2.1222763 12.915065 76.80098
0.6012726 11.629062 78.33098
72.81827 12.450068 80.16698
73.77227 68.80606 76.69298
1.1372757 69.68206 75.267975
0.32227325 71.41206 72.96398
71.93427 71.36706 71.93198
58.656273 67.80306 37.248978
58.906273 69.98706 35.833977
60.437275 72.15906 37.14897
62.777275 71.64506 38.46897
29.197275 14.581065 23.588974
28.33027 12.2350645 24.805977
29.49827 10.238063 25.320976
31.742273 9.661067 25.721977
68.67727 15.989062 16.42997
68.21727 13.842067 18.037971
68.26727 11.777064 16.417969
66.999275 11.353068 14.4999695
72.13227 66.82306 71.35798
70.76027 68.77006 71.169975
69.20327 69.65606 69.352974
68.293274 68.75406 67.141975
62.881275 8.354068 46.298977
61.713272 10.217067 46.849976
60.055275 10.896068 48.958977
60.063274 9.4850645 51.131977
10.872276 38.547062 24.314972
10.810272 40.07606 26.682976
8.389275 40.377064 27.960976
6.55027 39.401062 27.772972
16.462273 39.69406 69.13298
17.881271 41.529064 69.726974
20.505272 41.94306 69.407974
22.109268 40.86106 68.25698
63.873272 39.46406 70.20898
64.25527 39.668064 67.741974
65.83127 41.172062 66.23098
67.58727 42.366062 66.69198
20.38327 13.828067 57.136974
22.615273 12.540065 58.788975
24.227272 11.402064 56.773975
24.029274 12.052066 54.314976
26.68927 67.92606 59.271976
28.620272 68.57106 59.562977
30.09627 69.39306 57.192974
29.725275 68.27506 55.044975
48.14027 12.899066 59.727974
48.09627 10.476062 59.107975
46.45927 9.0490675 57.423977
44.88727 9.599063 55.690975
31.077272 68.19306 60.912975
30.01127 69.67206 62.460976
30.161272 69.71106 65.22298
30.397272 67.84706 66.64598
43.299274 68.73906 45.505978
45.32327 69.87706 47.137978
46.64227 68.96006 48.823975
47.686275 69.04306 46.497974
12.398277 35.69506 13.23497
13.768272 37.83506 13.112968
15.449272 38.657063 11.258972
16.745277 37.46606 9.45697
45.96227 73.71506 23.343971
46.09927 71.28406 24.666977
47.97627 70.04606 25.153976
50.435276 70.22706 25.014977
44.464275 5.923065 36.500977
45.033276 7.354068 37.724976
44.02627 9.446063 38.091972
41.920277 9.763064 39.187973
5.3372726 10.305064 10.463974
3.5562744 10.855067 9.49897
0.8802719 10.916064 10.399971
73.58227 10.388064 12.398972
73.12927 14.027064 4.8139725
72.09227 12.600062 6.1399765
69.08627 12.226062 6.4849777
67.49527 13.963069 5.494972
15.958275 43.34606 8.208969
15.061272 43.424065 10.55397
16.548271 41.772064 12.264969
18.963272 41.320065 12.023972
31.630274 39.384064 12.658974
31.987276 39.212063 10.395973
30.198275 40.316063 8.490974
28.158274 41.10306 8.850975
14.184273 45.941063 30.389977
15.817276 44.02706 29.512978
17.825272 43.025063 30.827972
19.293274 44.199062 32.728973
64.77527 42.559063 36.143974
63.949272 40.252064 35.577972
61.696274 39.177063 35.019974
59.51927 40.377064 34.425972
33.88927 43.878063 41.257977
34.578274 43.64606 43.859978
37.053272 43.155064 44.737976
