12.376568 39.502693 88.84831
35.14657 44.245705 90.58331
34.392567 45.3357 91.99131
27.202566 58.2447 47.719307
27.585567 56.5587 47.039307
11.306567 57.2717 49.220306
10.159567 58.297703 49.846306
16.877567 11.7267 21.948307
15.175568 11.634705 20.279306
0.4005661 16.7117 27.988308
1.3145676 16.737701 29.703308
28.105568 87.426704 11.331307
29.283567 84.7277 10.748307
6.3805656 84.354706 14.515307
6.4835663 85.274704 15.890307
15.970566 83.0887 63.100304
14.206566 82.857704 64.34331
0.98656845 91.4787 61.751305
38.919567 90.7207 62.740307
6.350567 106.898705 76.72531
6.117567 105.0547 76.46831
21.365568 99.260704 78.693306
21.568567 98.0887 79.97331
16.251568 36.3767 8.001305
15.964569 38.448692 8.816305
38.197567 37.9367 6.5483093
38.748566 39.581703 6.3243103
38.436565 78.7087 85.03931
36.024567 78.8257 85.19031
35.825565 70.7407 76.36831
36.098568 71.800705 75.00331
5.1725655 17.7257 83.46731
6.5895653 18.8937 84.01831
30.809568 27.507698 90.57831
30.152567 28.359703 91.93331
34.140568 109.661705 33.449306
33.773567 1.0447006 35.853306
17.575567 107.0847 39.191307
17.558567 105.6277 38.311306
13.845566 51.7047 89.99631
14.601566 51.597702 92.20031
37.371567 54.4067 92.67731
37.279568 52.962704 93.52531
27.462566 30.466698 77.04931
25.477568 30.648705 76.95531
12.905567 35.398705 82.28431
12.370567 35.086693 80.68531
0.7695656 64.065704 98.42131
2.7615662 62.7867 99.291306
16.14457 56.985703 93.52131
17.657566 57.2177 94.35731
30.655567 25.385704 95.22231
32.178566 26.086693 96.818306
6.7595673 25.095695 88.85831
8.193569 23.330696 89.50931
38.328568 93.2107 54.250305
0.18156815 91.4717 54.474304
17.541569 93.232704 51.404305
18.475567 92.3037 50.364307
6.263565 57.448704 38.017307
4.678566 58.312702 39.304306
27.983566 62.0807 40.535305
26.766567 63.1147 40.305305
23.706568 62.6627 14.217307
23.310568 62.1207 15.971307
6.240567 63.9537 15.145308
5.5655675 63.7097 13.424307
30.283567 37.624702 56.190304
29.313566 35.767693 55.434307
3.421566 26.525703 50.355305
3.0885658 24.941704 50.707306
13.389568 37.263695 99.59431
12.251568 35.5897 98.19631
34.950565 40.1997 101.68331
35.222565 41.1027 102.99431
15.117567 95.1787 30.050308
16.174566 93.7777 31.193308
29.743567 88.4457 29.545307
30.929567 87.4487 29.737307
28.882566 38.257698 58.698307
26.946568 38.489693 60.146305
11.699567 36.453697 61.248306
10.544567 37.720695 61.491306
26.991568 26.6567 55.746307
27.053568 27.105705 57.730305
4.2435684 22.498695 60.934307
5.355568 22.3247 62.257305
19.820568 57.0157 1.1373062
21.084568 57.727703 109.72731
38.260567 56.907703 0.4093094
0.26956558 58.3277 110.10931
18.319569 26.950706 25.149307
17.746567 28.325706 24.043306
1.9455681 26.372704 27.208307
1.6105652 24.629692 27.732307
31.891567 32.343697 83.14831
33.627567 33.8677 83.52931
10.336567 27.638695 80.17831
10.792568 26.379692 81.06631
14.2625675 67.5707 64.891304
15.169567 69.078705 65.9473
32.440567 68.9587 63.893307
34.04257 68.8327 65.264305
11.805567 54.1797 63.339306
13.847568 54.5967 62.509304
30.119568 50.633705 64.07431
30.392567 48.817696 63.686306
10.775567 7.520706 107.44831
12.797567 8.650703 107.93531
28.931566 11.7127 100.02931
29.366568 12.0877 101.64631
37.534565 58.8987 92.67031
35.718567 57.3007 92.04931
18.982567 58.4187 91.35231
18.556568 60.247704 90.63331
10.530567 36.8487 55.684307
11.477567 36.415703 57.358307
28.114567 33.1867 53.776306
28.185568 32.578697 55.261307
11.246567 96.8487 14.522307
13.064568 95.8217 13.822308
30.790567 98.2967 11.678308
30.872568 99.7777 10.741307
26.470568 24.722694 60.603306
25.533567 26.565697 59.934307
9.595568 25.392693 65.49431
8.140567 24.6137 65.39531
24.203568 106.2077 82.193306
24.213568 104.369705 80.62231
1.8195648 100.4167 78.13031
1.0745659 98.9227 78.01431
26.827566 29.133705 60.910305
28.595568 30.034706 61.387306
0.6275673 24.536705 53.556305
0.43556595 23.549706 52.120304
6.8445663 41.527702 46.334305
7.1655693 43.644707 47.557304
29.888567 47.0857 51.066307
28.574568 46.025703 51.295307
7.100567 22.139702 67.77231
7.142567 20.025703 67.374306
24.003567 15.716705 65.29531
25.248568 15.896706 66.39531
19.812567 46.429695 15.657308
20.662567 44.666695 15.174307
37.179565 39.802696 13.697308
36.254566 38.2667 13.537307
32.052567 17.512703 6.8323073
30.997568 15.935707 6.8853073
16.557568 22.287697 12.957307
16.332567 20.886696 12.097307
4.645565 22.814705 65.14531
5.4225655 25.216698 65.76031
29.093567 27.0467 71.51831
27.790567 26.785698 72.44431
4.051567 20.210701 75.03631
3.1895676 18.175697 75.14331
27.709566 26.146706 78.21431
27.078568 24.334694 77.74731
30.583567 88.0427 25.823307
31.362568 86.2627 27.439308
9.072567 86.731705 21.356306
10.034569 88.202705 22.156307
34.36857 9.846703 10.620307
33.965565 9.391701 12.722307
19.192568 12.1437 20.314306
18.887568 13.677704 21.249308
36.636566 41.0297 108.87831
35.878567 40.2817 107.59031
11.992569 31.583702 105.81331
13.040569 32.3357 107.05931
5.6425667 60.6967 32.054306
3.4395676 60.5017 30.776308
27.722567 65.2817 35.971306
26.799566 65.0147 34.455307
17.633568 50.504692 98.19031
18.848568 49.873695 100.040306
35.474567 45.0707 96.32531
35.638565 45.025703 94.71931
32.718567 50.857704 70.83731
34.379566 51.4907 72.50131
9.868568 41.963707 76.77131
11.462566 41.823692 76.06531
3.4245682 100.7147 70.61731
4.277565 100.453705 68.54731
17.654568 90.2117 65.69931
17.945568 88.8637 64.94031
9.835567 51.234703 62.381306
8.801567 51.0157 60.666306
31.703568 53.5717 64.58031
30.740568 53.434704 63.423306
10.829567 91.771706 8.000305
12.6775675 92.2617 8.22731
27.437567 90.910706 3.8873062
27.784567 90.4437 2.153305
16.423569 61.637703 83.12031
16.414566 62.491703 85.17331
0.46156693 62.708702 84.86931
38.63257 61.4277 86.165306
1.3575668 69.2087 98.18031
0.5235672 70.8627 99.17031
23.894567 76.0917 104.55031
22.462566 75.4387 104.89531
31.433567 39.1457 94.62631
31.207567 41.231697 96.14331
17.876568 47.375694 100.02931
16.375566 46.483696 100.14031
29.286568 2.260704 1.6813049
27.470568 2.6697006 110.25631
12.804567 6.4957047 5.637306
11.948567 5.137703 6.821312
29.666567 44.343697 70.61831
28.732567 42.239693 70.389305
12.928567 48.5017 71.10331
12.456567 48.388695 73.02331
0.35456848 8.720703 57.466305
2.1935654 9.040703 56.327305
19.017567 5.5906982 52.565304
19.301567 4.482704 51.623306
16.792568 103.854706 59.422306
16.587566 105.7547 59.571304
0.66056824 109.4197 58.768307
38.553566 108.1297 58.568306
24.860567 46.4177 34.347305
26.821568 45.301704 34.880306
2.666565 43.064705 30.196308
3.5435677 44.5207 30.721308
22.914568 67.6517 104.19531
22.850567 65.4197 104.52131
37.606567 58.493702 101.58731
37.372566 58.8847 99.82231
22.317568 2.5766983 72.87831
23.704567 3.3287048 74.27031
0.39556503 105.4777 71.19031
1.6815681 106.9327 71.12831
31.620567 45.983696 69.45131
32.473568 47.625694 70.52031
9.823566 46.358696 67.21731
10.701569 47.1417 65.889305
0.071567535 81.2247 86.16331
0.18756485 79.7657 87.62931
23.310568 76.829704 90.18631
22.117567 75.9307 90.75531
14.096567 45.8487 67.88531
14.058567 45.302696 65.35631
28.290567 42.2987 62.628307
29.288567 41.502693 63.788307
14.711567 89.6117 27.893307
14.610567 90.0267 25.641308
31.336567 95.188705 25.722307
32.515568 95.9367 24.777308
2.4115677 100.6027 85.90831
0.5545654 100.1227 86.43231
26.740566 0.57369995 90.05331
25.348568 0.9157028 89.32931
16.404568 39.909706 102.05331
17.037567 39.805702 99.95531
18.449568 41.528694 106.166306
17.634567 41.679695 107.96531
4.660568 54.256702 32.737305
4.9465675 55.5007 34.098305
25.888567 55.922703 36.348305
26.316566 56.512703 38.004307
8.318569 41.663704 67.72831
7.846569 39.106697 68.48931
31.047567 40.903694 70.30931
30.071568 39.927696 71.3503
26.335567 21.6437 67.14831
25.390568 22.432701 65.25631
8.599567 26.278694 68.195305
7.322567 27.120705 68.66031
16.423569 0.8847046 30.598307
16.117569 2.0727005 29.054308
37.376568 3.2276993 32.620308
37.468567 1.5657043 33.121307
36.136566 109.759705 21.212307
34.905567 108.3077 20.518307
11.441566 0.2846985 17.771307
11.034569 108.882706 19.109306
1.1655655 66.6027 97.07431
38.66057 67.022705 98.30631
22.701567 70.3617 94.51931
21.219566 69.8257 95.21231
4.633568 49.054695 24.175306
5.3255653 47.2967 24.286306
19.286568 40.635704 20.597307
19.578568 39.3807 21.774307
19.288567 15.349701 36.879307
18.098568 15.592705 38.131306
1.4385681 15.001701 40.702305
1.8975677 16.775703 40.238308
38.519566 46.476692 1.804306
37.066566 45.744698 0.14930725
21.914568 53.5637 2.2893066
20.924568 54.3337 1.278305
12.107567 62.361702 57.754307
11.6235695 63.5147 59.349304
34.03557 64.009705 60.207306
32.699566 63.7387 59.130306
37.080566 15.191704 23.252308
37.781567 13.583702 21.534307
14.698566 17.658707 17.498306
15.566566 16.217705 17.697308
22.445568 79.2407 98.02231
20.203568 78.5767 97.85931
6.4675674 86.6977 99.60531
5.395565 85.8597 98.50531
33.336567 57.337704 64.73031
34.047565 59.540703 64.61431
11.973568 61.1637 62.030304
12.918568 61.9667 60.881306
15.256567 28.7127 7.72731
14.895567 27.093697 7.549309
30.981567 20.835701 2.896309
32.476566 20.308693 3.571312
33.829567 70.9007 59.985306
34.744568 68.9477 59.753307
12.539566 67.2407 57.910305
12.256569 68.0297 56.536304
33.726566 38.096703 100.07731
33.069565 39.994698 99.582306
18.440567 38.859703 105.17531
19.679567 39.7257 104.36831
36.062565 96.689705 34.723305
38.273567 96.340706 35.289307
13.906567 96.1227 33.546307
13.352566 94.551704 32.400307
26.064568 88.814705 101.19531
25.339567 89.9437 102.85231
8.620567 95.091705 107.00031
8.093567 95.8747 105.57031
0.8905678 8.7677 54.037304
38.064568 9.0457 55.158306
23.183567 16.007706 51.093304
23.257566 16.8917 52.651306
30.506567 75.7617 37.142307
29.489567 73.912704 35.901306
12.789567 77.3137 40.906307
13.044567 78.9467 40.466305
38.982567 84.537704 82.54731
38.951565 86.1377 83.83531
22.219566 90.0667 81.84231
21.508568 91.4777 81.06631
8.272567 72.8747 15.695307
8.441567 74.6317 16.490307
25.216566 71.6247 15.234307
25.062567 71.3677 13.453307
4.9535675 3.021698 103.50531
2.567566 3.1817017 103.94131
28.254566 2.9717026 104.44631
27.971567 3.2966995 102.62931
37.962566 31.705696 14.713307
38.446568 29.651695 14.749308
15.772568 27.098701 10.727307
16.947567 27.450706 11.947308
25.173567 98.2377 91.39531
24.620567 97.7407 93.48931
2.7195663 96.8167 93.98431
2.6685677 98.592705 94.06131
10.588566 36.9177 80.77231
8.932568 35.230705 80.76231
34.671566 40.3267 88.09731
35.117565 41.9087 87.65431
18.957567 29.473701 14.919307
19.955566 28.7277 16.725307
32.770565 21.940697 7.7373075
33.597565 23.332695 7.0563073
22.674568 55.895702 13.647307
20.703568 54.1417 14.522307
4.3465652 54.9887 16.963306
4.8635674 56.338703 15.966308
30.782568 16.8797 94.26931
31.461567 15.873703 95.92631
8.984566 15.144707 96.30631
8.338566 16.1417 95.23031
23.290567 13.314705 72.17031
23.274567 15.496704 71.235306
8.154568 22.430702 73.20331
6.493567 22.289696 73.94031
36.359566 30.657692 4.691307
36.758568 29.9347 2.3933105
12.585567 28.086693 1.2843094
13.880569 28.162697 0.14930725
1.9845657 51.513695 1.092308
1.3635674 50.956703 3.1093063
23.483566 49.930702 6.0393066
21.918568 50.094704 6.094307
2.8675652 9.384705 74.07931
1.4105682 10.632706 74.30831
24.194567 10.472702 71.62331
23.327566 8.971703 70.668304
13.2625675 83.0117 40.369305
14.784567 84.1697 41.252304
30.385567 84.0207 37.297306
31.220568 84.0177 38.788307
26.103567 38.481697 41.371307
27.964567 38.984703 42.749306
4.3655663 32.2407 37.988308
4.751568 31.155693 36.499306
32.761566 108.8457 5.9903107
33.886566 0.33270264 4.344307
8.071568 104.4307 3.7623062
8.369568 105.6577 2.6133118
12.463567 106.5447 11.673307
14.176567 107.6117 10.709303
28.422567 103.1377 4.7893066
28.476566 103.536705 3.2443085
19.178568 98.024704 63.140305
19.519567 97.951706 61.262306
36.419567 93.634705 56.386307
37.883568 94.2697 56.953304
14.174568 0.2657013 28.576307
12.196568 2.0177002 27.199306
37.096565 2.6316986 27.338308
36.450565 0.8427048 27.548307
3.8055649 61.4457 13.708307
3.218567 62.922703 12.120307
24.767567 63.2047 10.476307
24.282568 63.811703 8.687307
0.66856766 95.9457 81.10631
38.522568 94.4577 80.78431
24.080566 91.495705 86.39631
23.973568 93.021706 86.93031
23.27657 9.694702 58.480305
22.338566 11.8657 58.576305
5.636566 14.030701 59.330307
4.713566 14.6287 58.247307
36.751568 32.644707 9.435308
38.628567 34.084694 9.594305
14.789566 31.670692 7.1623077
16.189568 32.1027 8.079308
14.254567 72.3187 60.623306
15.717567 70.857704 61.685307
32.048565 67.9577 60.299305
32.968567 66.663704 59.728306
23.915567 59.2117 31.484308
25.864567 60.359703 32.444305
11.151567 63.256702 39.575306
11.023567 63.458702 41.440304
20.987568 97.1287 85.304306
19.984566 98.190704 86.98431
5.688568 100.1287 92.318306
5.049568 100.0617 93.83731
31.450567 59.0087 61.402306
32.663567 57.032703 62.180305
11.206566 56.1477 60.921307
12.001568 57.275703 59.791306
8.269569 17.403702 87.61331
7.081566 16.5587 86.04831
30.142567 17.660706 89.99731
28.955566 17.367706 90.985306
1.0005684 46.517693 8.18531
1.3775673 45.588707 9.9473095
15.799568 39.470695 4.4493103
15.841568 39.640694 2.8333054
1.5905685 35.0427 23.419308
2.074566 34.200706 25.537308
18.585567 34.780693 26.264307
18.223568 33.2927 26.695307
29.859568 31.385704 89.00331
28.279568 30.271706 90.71231
12.145567 31.527702 92.07931
11.273567 31.098701 93.47731
10.006569 17.188705 98.22431
10.876568 15.402702 98.44131
6.9585686 19.987694 92.53331
7.339569 19.759697 94.110306
4.777565 3.2797012 73.24831
5.7145653 2.0397034 74.874306
20.462566 104.980705 73.93731
21.70757 103.913704 73.33631
3.1635666 0.7617035 68.33131
3.421566 0.44670105 70.17331
19.013569 107.6257 69.071304
20.109566 108.9157 69.486305
19.020567 34.555702 7.4923096
18.990568 32.377693 6.759308
33.002567 26.173698 6.9373093
33.566566 25.616707 8.515303
5.973567 37.267693 40.898304
7.914567 37.0877 41.797306
23.772568 35.5187 38.120308
23.644567 35.823692 39.699306
29.550568 84.9487 17.770308
30.311567 83.1227 18.048307
6.8685684 80.4247 18.754307
7.7405663 81.2907 19.906307
23.460567 22.5467 57.405304
23.787567 23.191704 55.266304
6.573567 26.645699 54.606304
5.6575675 26.013695 53.386307
27.908567 0.9857025 92.582306
29.255568 2.373703 91.026306
3.0305672 106.2537 92.91831
4.2675667 107.1997 92.24631
26.246567 22.200706 76.11831
28.091566 20.958702 76.18731
3.5025673 19.954704 72.277306
4.2295685 21.618706 72.832306
24.980568 30.946693 44.271305
26.027567 32.532692 42.642307
1.7545662 24.3937 42.367306
2.6235657 25.3507 43.556305
24.556566 104.1267 96.096306
24.684566 102.9497 97.69731
7.108567 109.6527 97.74231
6.635567 108.135704 98.21931
10.350567 26.976692 89.09331
12.024567 27.215706 90.28531
27.739567 24.674706 83.20531
29.293568 24.597694 83.58831
8.026569 10.974701 93.46031
7.0385666 9.290703 93.24531
29.452566 12.228706 94.79931
30.416567 13.481705 95.25231
1.5405655 97.7947 74.09531
1.6725655 96.077705 75.32531
18.140568 93.7707 68.73331
18.426567 95.245705 67.44931
21.397568 25.480705 26.399307
21.936567 23.974693 24.696308
36.665565 18.498695 22.020308
36.713566 17.477707 20.787308
32.982567 1.3727036 14.350307
33.726566 1.9157028 12.3763075
11.187569 1.998703 8.948307
11.507568 1.3917007 10.370307
12.141567 59.658703 66.276306
11.054569 62.2467 67.418304
34.459568 66.5717 63.757305
33.719566 66.0307 62.289307
20.175568 68.8037 99.68631
18.595566 68.8077 98.23931
3.0895653 76.9287 98.57031
3.0625648 77.1547 96.89131
30.985567 52.365704 72.35431
31.488567 54.602703 72.64531
16.545567 57.505703 78.33331
17.748568 56.3777 79.60231
24.433567 23.195702 42.871307
23.300568 21.039696 43.092304
1.4925652 16.979706 45.323307
0.7135658 15.3367 45.597305
28.093567 68.385704 26.709307
28.985567 68.7677 29.115307
6.004566 65.0477 26.106308
6.6255684 63.741703 25.152308
20.14457 74.5067 1.792305
20.15857 73.2057 110.08731
2.6215668 76.1967 110.263306
1.6485672 77.593704 109.35531
1.3265648 7.576706 51.371307
1.8905678 6.5617065 53.027306
16.830566 3.7146988 48.635307
17.41557 2.033699 48.556305
0.6955681 63.401703 94.14031
2.3375664 63.1607 92.38531
19.227566 61.805702 95.42331
18.911568 60.1137 96.290306
4.8925667 11.083702 86.55131
5.343567 9.676704 88.45131
27.327566 14.390701 88.79431
27.055567 16.035706 89.33931
18.604568 5.7537003 49.479305
16.808567 6.4647064 48.372307
1.9205666 10.159706 49.726307
1.7085686 11.831703 49.008305
3.3715668 13.869705 79.02231
2.7265663 15.969704 79.24631
29.928568 23.548698 86.38731
29.379566 22.922707 88.12031
24.824568 7.6677017 85.20831
26.596567 8.3517 86.84231
5.3145676 8.080704 86.06731
6.535568 6.939705 85.14531
31.953568 50.943703 59.693306
31.858568 48.871696 59.644306
7.7985687 42.912697 56.391304
9.130569 42.832695 57.578304
10.904568 59.6567 70.59031
10.069569 59.964703 68.95431
34.16057 66.2677 69.23131
34.684566 67.4227 67.97931
28.650566 65.9777 42.309307
29.410566 67.7387 42.231304
6.197567 59.6397 41.221306
7.3025665 59.416702 42.297306
8.207567 92.189705 3.5123062
9.146567 91.4757 1.6863098
25.456568 92.868706 106.30631
26.431566 93.4857 105.09731
26.967567 61.776703 29.549307
26.971567 59.2187 29.963308
4.622566 57.067703 29.423307
4.265568 55.7857 27.915308
0.4115677 20.282692 30.948307
1.7735672 20.111702 29.092308
17.239567 17.547707 25.884308
17.463566 19.555702 26.034307
0.014568329 106.3347 63.244305
1.1045685 105.0887 64.655304
17.687569 102.1257 62.143307
18.420567 100.5207 62.112305
29.805567 13.855705 1.6423111
29.200567 12.209702 2.1693115
15.534567 13.030701 11.72431
15.3875675 13.590706 13.4443035
6.2485657 35.299706 46.392307
6.150566 37.411705 46.748306
29.780567 43.801704 49.439304
28.175568 43.705696 48.085304
14.284569 103.341705 30.117308
13.208569 103.7337 27.907307
38.668568 108.2957 31.139307
37.052567 108.9747 31.161308
18.291567 1.158699 28.092308
19.072567 0.7947006 30.614307
34.464565 5.3727036 25.274307
34.943565 5.738701 23.717306
20.724567 15.2257 34.015305
20.116568 13.894707 33.157307
34.760567 9.387703 27.187307
35.098568 11.151703 27.718307
36.462566 5.4526978 21.449306
36.110565 3.4307022 21.472307
14.263569 108.1387 23.706306
14.4535675 108.549706 22.001307
14.576569 63.0447 81.68231
13.293568 61.6217 80.58531
0.1845665 63.9537 80.68331
38.513565 63.402702 82.03931
29.805567 97.6537 18.820307
29.610567 97.729706 21.056307
16.908567 99.7267 27.871307
15.419567 99.800705 27.229307
36.647568 77.1887 74.665306
37.726566 78.0597 76.03431
15.830566 71.8447 74.14731
16.264568 71.6397 72.457306
38.677567 48.069695 6.5233073
37.536568 47.528694 8.329308
21.424568 52.297703 10.022307
21.080566 51.748695 8.462307
14.264567 82.1707 46.029305
15.951567 81.8407 47.315304
31.253567 80.578705 46.269306
31.616568 82.329704 46.204304
15.094566 107.341705 38.226307
13.160568 108.2487 37.64731
36.406567 106.4847 34.889305
36.333565 107.7657 33.521305
8.424567 97.565704 3.4393082
10.209567 98.4847 4.2133102
25.845568 92.1987 0.64331055
25.561567 91.995705 108.98931
31.752567 44.7407 76.28431
30.170567 44.985695 74.86431
15.885567 50.422707 81.33831
14.727567 50.624702 79.83731
21.54057 74.4657 97.499306
21.585567 76.3657 96.63031
5.3465652 82.0707 98.73131
4.367565 83.2077 98.16231
16.335567 7.4247055 45.224304
14.682568 8.394707 46.368305
1.3075676 2.0987015 51.576305
0.6375656 2.3017044 53.222305
29.279568 85.2487 22.447308
29.774567 85.038704 20.514307
7.501568 86.9837 17.762306
6.5805664 88.385704 17.307306
35.844566 27.866707 15.845307
35.851566 30.448692 15.939307
21.642567 38.172707 20.270308
22.536568 38.909706 18.856306
5.2335668 108.590706 90.52231
5.932567 109.6227 92.02131
22.346567 104.2107 93.25831
23.179567 106.0807 93.57731
7.258568 34.304695 54.582306
5.7625656 33.075706 53.558304
29.608566 35.8487 52.632305
28.433567 36.028694 51.386307
36.782566 85.774704 72.26231
36.742565 86.4147 74.42631
20.851566 78.8827 79.12131
20.301567 77.4997 80.06631
33.677567 49.4737 91.75731
32.999565 47.665703 91.42831
17.586567 50.124702 95.040306
17.063566 50.073692 93.42731
32.606567 60.479702 55.776306
33.649567 61.8987 54.200306
10.918568 59.5587 55.735306
11.658569 58.518703 54.676304
24.888567 86.369705 97.47231
25.433567 84.9307 95.98631
0.30156708 87.1927 87.54231
38.405567 87.9777 86.36931
6.6165657 76.0867 9.140307
5.2365685 76.9287 10.473308
27.611567 75.1977 9.790307
26.540567 76.5057 10.029307
24.381567 42.152702 36.422306
24.335567 44.224693 35.808308
8.254567 47.660698 39.181305
6.712567 47.842705 39.984306
25.256567 88.9317 92.10231
24.275566 88.9027 90.07431
1.546566 91.897705 83.12331
2.666565 90.9047 84.58331
30.857567 5.0206985 1.9913101
30.563568 3.9557037 109.82831
7.1475677 107.4837 105.86131
7.364567 105.9837 106.60631
10.652567 9.623703 93.78231
9.297567 9.214706 91.89231
22.414568 107.1547 89.582306
22.835567 105.661705 90.19031
0.777565 35.140694 27.796307
1.2565651 37.392693 27.371307
23.108566 41.7017 27.764307
21.780567 42.843697 28.234308
28.288567 50.371696 52.553307
28.241568 50.4087 54.455307
11.452567 52.0817 59.213306
10.319567 51.239693 58.289307
19.260567 30.599693 25.531307
20.323566 28.591698 25.600307
34.714565 23.929695 22.115307
34.229565 24.470695 23.693308
25.338568 74.0987 11.556307
23.606567 73.0437 10.170307
7.247567 74.8377 13.3103075
5.922567 75.2837 12.5013075
32.142567 85.677704 31.374308
33.595566 84.7697 29.469307
9.941566 89.022705 28.240307
10.605568 89.090706 30.138308
16.242569 77.092705 70.50331
16.416569 77.9507 72.65331
38.99357 85.4447 70.59531
38.159565 84.0467 70.52431
14.277567 7.3627014 10.413307
16.068567 8.595703 10.227307
32.465565 2.2057037 8.440308
33.158566 2.9977036 10.005307
37.554565 17.856705 17.003307
37.967567 16.265701 18.763308
11.569569 10.2357025 11.211308
14.001568 10.568703 10.962307
16.09657 75.6737 65.39831
14.451569 77.4477 64.32931
37.793568 79.9607 70.36531
38.002567 79.537704 68.69931
7.028567 71.4637 30.683308
7.543567 71.8597 28.379307
24.365566 69.0817 24.074306
25.830566 68.8967 24.927307
35.825565 13.7677 18.449306
35.961567 15.081703 20.097307
19.457567 15.969704 24.403307
18.698566 15.1987 25.749308
8.908569 29.231697 97.46731
9.113567 28.5597 99.88431
31.799568 31.158699 100.62931
30.035568 30.889702 100.70531
17.716568 96.9377 65.07631
18.696568 99.120705 65.624306
3.1045685 103.079704 69.03431
1.8305664 104.1307 68.749306
24.821568 54.310703 13.856307
25.537567 56.2807 15.290307
1.2945671 49.090702 16.035307
0.85756683 47.234703 15.767307
2.6245651 6.131706 73.87331
1.185566 7.446701 72.67031
22.920567 6.977707 72.54531
22.655567 6.090706 74.25531
29.652567 99.8727 109.63031
29.364567 97.6557 0.108306885
7.480568 93.9067 109.624306
9.156567 94.2337 109.89931
17.553566 46.3227 17.906307
18.028568 45.129692 19.869307
6.299568 53.9107 29.781307
5.7125664 52.3017 30.335308
26.099567 2.6627045 91.36331
26.286568 3.5766983 92.70231
9.672567 6.866707 97.71631
9.416567 6.8207016 99.36631
28.442568 57.7867 38.988308
28.504566 56.060703 39.888306
5.8735657 53.5287 38.141308
5.938568 54.902702 37.322308
6.402567 65.5707 11.357307
6.797567 67.4597 10.052307
24.458567 65.8657 10.546308
25.201567 66.940704 11.479307
16.920567 76.9977 56.818306
16.724567 79.4727 56.503307
32.25057 74.4337 51.417305
32.098568 74.0167 49.635307
13.060567 59.1137 57.959305
14.049567 58.393703 55.874306
27.991568 56.1197 49.614307
29.020567 55.3827 50.619305
20.211567 22.718697 28.219307
21.802567 21.192696 28.914307
36.859566 17.2267 25.305307
37.790565 18.217705 26.480307
1.810566 13.076706 72.77431
0.0015678406 11.868706 72.44731
24.747566 11.857704 66.35131
24.811567 13.029701 64.9473
28.394567 100.7647 5.9483075
28.443567 101.5137 7.433307
12.805567 103.7397 11.055307
11.456567 103.7277 12.289308
17.146566 6.1107025 35.780308
18.654568 4.738701 34.552307
36.164566 4.760704 35.290306
35.864567 6.3467026 34.317307
6.002567 94.565704 101.49631
6.362567 96.274704 100.60531
22.738567 92.0977 97.60231
23.924566 92.2557 99.80531
29.251568 27.357704 87.72631
29.072567 25.552696 88.40631
11.184567 27.228706 95.46531
10.805567 27.084694 97.04531
19.328568 66.2387 96.39131
21.261568 67.731705 96.96831
36.478565 62.129704 97.33931
36.946568 60.379704 97.568306
27.040567 50.074703 44.059307
27.133568 52.219704 44.479305
13.800567 56.416702 53.760307
11.929567 56.1057 53.881306
19.170567 74.8587 89.80031
19.410568 76.2087 91.28831
3.435566 80.4907 92.55731
2.570568 81.3107 93.99631
17.305567 96.1537 32.174305
17.236567 97.9857 30.422308
31.363567 100.8357 23.011307
32.614567 101.4427 23.968307
33.608566 25.396706 106.32331
34.857567 27.024696 104.59831
10.753567 21.935707 105.58531
11.641567 22.491707 103.88231
5.270565 69.2217 1.2893066
5.2765656 66.9457 1.3903046
20.661568 65.6517 107.24231
20.670567 64.9237 105.95631
6.322567 82.2367 6.3593063
6.861567 84.021706 5.9073105
23.971567 84.7337 2.5863113
24.715567 85.329704 1.1953049
28.343567 20.460701 104.57031
29.150566 19.957695 106.61831
12.696568 17.385704 108.97331
11.785567 16.152702 108.07431
0.54356766 67.9077 100.902306
0.79556656 66.9157 102.70231
22.825567 69.8057 102.84331
21.659567 70.5837 101.90931
38.705566 78.0047 66.571304
37.781567 75.593704 65.738304
12.749569 67.911705 62.623306
13.225567 66.4457 62.800304
7.569567 44.106697 44.796307
8.237567 41.330696 43.823307
24.596567 36.277702 42.212307
24.009567 34.633705 42.790306
11.740567 80.3927 37.615307
12.123567 81.0047 35.820305
26.834566 73.9807 33.798306
28.225567 74.5007 33.090305
3.9755669 53.284702 24.332308
2.9085655 51.9137 23.483307
24.143566 55.3557 25.620308
23.189568 55.928703 26.884308
2.4365654 40.525703 22.358307
3.0055656 38.771706 23.309307
18.187569 35.552696 18.137306
18.515568 37.262703 18.635307
34.04257 75.940704 53.017307
31.967567 77.3387 52.850304
17.076567 83.0977 58.879307
17.026567 84.3347 60.009304
33.479565 84.618706 40.410305
33.745567 82.5497 40.790306
8.999569 74.7817 35.971306
8.868568 73.1597 36.023308
38.027565 41.497704 18.137306
38.247566 41.991707 19.805307
20.869568 44.726692 20.260307
20.665567 46.3487 20.800306
3.574566 108.452705 96.82331
3.827568 108.9467 99.03731
26.477568 107.2427 97.60631
25.503567 108.4377 96.65331
4.6475677 62.714703 29.707308
5.3665657 64.480705 30.224308
28.068567 71.5307 32.820305
26.983566 70.259705 32.576305
36.05657 104.4497 38.933308
36.879566 102.5467 39.714306
15.361568 102.4617 39.798306
16.470566 103.340706 38.973305
10.829567 56.9207 66.58931
10.192566 54.538704 65.5863
34.946568 59.629704 72.45831
33.730568 58.679703 71.96831
23.987568 81.6827 93.84831
23.065567 82.8737 92.13031
37.425568 83.0637 84.58331
36.881565 81.5227 85.06031
4.803566 31.849693 48.970306
2.5885658 32.218697 48.680305
28.516567 39.6307 46.304306
27.472567 40.325706 47.134304
35.17457 95.3217 36.740307
34.42457 93.4167 35.956306
10.580566 86.1647 33.095306
10.674568 84.649704 31.931307
17.078568 31.769707 15.040307
17.307568 34.002693 16.303307
1.8745651 38.1157 20.260307
0.18056488 37.4647 20.273308
17.052567 72.4207 80.00631
16.148567 73.8607 80.915306
0.9305649 74.3387 79.85131
38.448566 74.6687 79.90631
25.478567 86.3447 9.572308
24.885567 86.9297 11.697308
10.348567 93.3947 10.109307
9.632567 94.8077 10.187307
31.928568 50.289696 56.953304
31.317568 50.9797 55.357304
8.867569 46.244698 51.564304
9.399567 46.246696 53.183304
1.6545677 10.841705 59.755306
1.2185669 12.646706 60.962307
25.545567 17.5037 57.366306
23.970568 16.946701 57.089306
10.620567 47.1027 75.19031
11.863567 46.177696 76.71831
25.983566 38.685707 71.87031
27.400566 39.607704 71.139305
16.43657 4.3816986 25.878307
14.775566 4.258705 27.216307
37.251568 5.8747025 28.861307
36.100567 6.227707 27.561308
32.141567 39.750694 80.03931
32.229565 41.5877 79.12031
7.945568 35.009697 72.89231
9.141567 34.7517 74.04631
32.256565 46.4517 80.57531
32.023567 48.0767 79.49331
15.903567 52.9437 80.28331
17.019567 54.434696 81.23031
33.79257 24.552696 10.904307
33.747566 24.936699 13.038307
21.111567 32.0427 20.702307
19.947567 30.691704 20.821306
29.174566 78.9357 19.280308
29.053568 76.3797 18.933308
5.5175667 72.9467 14.391307
5.914566 71.2987 15.485307
9.662567 55.2367 39.165306
10.919567 52.9027 40.716305
21.837566 49.747704 37.093307
22.618567 48.362694 37.016308
4.091568 18.213707 45.077305
3.9045677 18.605705 42.899307
22.187569 17.380707 43.601307
22.765568 19.040703 44.719307
18.135567 45.709694 8.408307
16.433567 44.6177 6.9743075
2.048565 39.642693 7.821307
2.2665672 40.506706 6.2723074
25.897568 14.7817 69.51731
27.405567 15.276703 68.11831
2.737568 17.6007 72.499306
3.2625656 17.039703 71.17831
5.2835655 33.278694 31.998308
5.511566 32.271706 34.177307
19.611568 25.957695 30.554308
20.310566 27.3247 31.070307
9.440567 26.176704 73.00131
9.935567 23.914696 71.35231
25.474567 17.1437 71.07631
26.154568 18.077705 72.59131
4.2595673 31.173698 44.673306
2.822567 30.402702 46.507305
26.623568 32.933693 48.008305
26.408567 34.607704 48.134304
0.5365677 9.403702 47.595306
38.124565 9.617706 45.683304
24.378567 17.410706 48.134304
23.204567 17.946701 47.073307
38.337566 6.578705 49.373306
38.030567 6.778702 51.446304
21.069567 11.715706 49.144306
19.973568 10.590706 49.990307
21.455566 2.6247025 68.1003
23.020567 0.63970184 66.94231
0.08256531 106.6877 68.833305
38.675568 106.371704 67.09231
10.868568 54.845703 71.181305
9.605568 53.2457 69.67731
34.192566 56.2027 78.22931
32.482567 56.3917 78.277306
0.33456802 74.2557 96.401306
0.64956665 76.3267 97.69931
24.029568 75.7977 98.60631
23.638567 77.4427 99.76431
0.27856827 41.185707 13.154307
1.5575676 39.7407 14.356307
17.067566 34.507698 11.359307
16.624569 34.429695 9.5013075
38.533566 4.022705 42.294304
0.03856659 2.7406998 40.804306
15.505569 1.2947006 36.745308
16.411568 109.7697 37.031307
32.879566 42.300697 86.03031
31.660568 40.454704 84.89631
15.594567 45.959694 83.277306
14.525567 47.2837 82.74331
25.708567 96.938705 1.1633072
26.474567 97.966705 3.2133102
10.685567 100.8097 6.3313065
9.936567 101.118706 7.759308
26.292566 75.3487 28.279308
26.905567 77.412704 28.527308
9.514567 78.0137 32.210308
9.560567 76.8727 33.612305
13.026569 59.0497 76.06731
12.178566 60.7947 75.15931
36.29957 60.5297 79.66131
36.222565 62.4057 79.041306
24.045567 79.2907 105.14831
24.922567 81.274704 106.16731
1.0885658 76.1647 101.12931
1.6315651 77.3517 102.09131
36.051567 34.405693 5.212311
35.429565 36.361702 5.0953064
21.781567 38.308693 11.136305
20.434566 37.022697 11.620306
7.257567 73.4247 8.9703045
8.392568 72.4047 7.356308
24.519567 70.5187 9.660307
25.669567 69.5137 10.251303
34.288567 91.9177 39.842308
32.908566 92.3817 38.123306
16.569567 95.439705 43.898304
16.640568 95.3127 45.483307
5.315567 89.6107 0.705307
6.1535683 91.3897 1.2863083
27.560568 95.0997 2.717308
27.954567 93.5277 2.7403107
26.729567 76.2697 13.912307
28.250566 77.9027 13.857307
4.820568 72.8677 10.799307
5.8005676 71.5627 9.882307
13.353567 18.402702 4.3743057
15.223567 19.319695 4.011307
29.269567 11.745705 109.56531
30.133568 11.6427 107.94031
10.888567 42.966698 67.22731
10.844567 41.349693 65.88731
27.989567 39.327705 62.556305
28.544567 37.7257 62.477306
12.339569 5.052704 14.220307
10.698566 3.4597015 14.037307
34.899567 6.4527054 14.375307
34.159565 6.585701 12.970307
30.067568 30.249702 72.54731
31.995567 29.663704 72.28931
7.1825676 24.773705 72.03731
7.982567 25.348701 70.669304
27.989567 38.241707 48.735306
25.840567 37.374702 48.327305
9.985567 39.884697 52.324306
8.639567 39.170692 52.993305
33.120567 67.9037 51.389305
33.184566 65.8447 52.541306
8.346569 63.9207 43.103306
9.675568 63.8587 44.519306
16.522568 85.2757 51.286304
16.522568 84.118706 48.963306
32.79957 84.343704 47.905304
34.276566 84.5027 48.984306
6.3585663 68.2217 25.997307
5.883568 69.2487 27.539307
30.960567 75.246704 32.132305
29.789568 75.356705 30.975307
8.561569 99.4717 0.33831024
7.5215683 98.3957 109.52131
31.127567 103.9617 0.22930908
29.618567 103.3887 109.82531
35.54257 47.698692 90.75831
35.700565 46.7427 88.88431
13.371567 44.5467 87.07431
14.693569 44.038704 86.25631
36.950565 99.1457 57.966305
36.90357 100.1807 59.771305
20.505568 101.411705 65.99831
19.163567 101.6807 64.92731
2.5815659 68.8727 107.72431
1.6775665 70.4487 106.52531
23.185568 66.606705 1.0843048
22.400566 66.5017 109.58031
28.232567 83.2247 3.870308
26.638567 81.4117 3.5513077
0.38456726 78.190704 105.11231
1.6115685 79.0057 104.01831
0.3855667 14.756706 35.187305
38.317566 13.055702 35.080307
21.207567 17.8507 33.929306
21.100567 17.689705 35.603306
9.206566 79.8487 24.470308
8.635567 81.6437 23.040306
31.586567 82.0827 27.858307
31.480568 83.690704 28.144308
24.999567 95.938705 89.76531
25.578568 94.785706 87.95931
2.8995667 88.5457 90.874306
2.4225655 87.8187 89.18231
35.511566 5.9347 31.615307
34.517567 8.063705 31.062307
17.727568 7.8377 33.476307
16.628567 8.796707 34.484306
8.075569 46.903694 48.058304
7.8565674 48.592705 46.505306
29.967567 50.918694 49.819305
28.857567 49.634697 50.144306
1.3045654 45.8547 12.500307
38.579567 47.067696 11.187307
22.496567 51.6007 14.151307
20.866568 51.541695 13.602307
22.087566 6.4547043 65.15831
24.543568 6.599701 66.00631
0.18156815 2.6937027 70.415306
0.75756836 0.9187012 69.64231
11.631567 54.220703 68.182304
12.198567 56.0497 69.18731
28.273567 55.205704 62.169304
28.660566 55.0227 60.503307
33.887566 47.583702 74.51731
33.263565 45.507698 74.193306
10.887569 43.4497 70.266304
11.500568 44.5487 69.152306
12.808567 59.304703 72.60031
14.813567 60.804703 72.53131
30.969568 59.7607 69.94031
31.708567 58.712704 68.59231
31.656567 6.2117004 9.142307
30.467567 8.443703 9.323307
16.185568 12.528702 17.311306
15.026567 13.516701 17.295307
2.9395676 91.1977 97.03831
3.442566 90.9047 95.16031
25.713568 91.8957 94.68631
25.928568 93.5857 94.13231
25.142567 1.0797043 81.72631
26.805567 0.34069824 80.74731
3.1275673 104.743706 76.34731
3.8665657 103.2917 76.75631
0.06756592 102.0877 60.859306
0.26356506 100.7067 59.121307
15.764568 93.760704 59.353306
14.754566 92.6127 60.496307
0.5505676 102.910706 57.254307
0.73256683 105.0057 56.965305
17.194569 97.6587 58.367306
17.279568 96.9477 59.910305
38.459568 14.4617 43.060307
38.194565 13.769707 41.021305
21.546568 15.3647 40.097305
19.878567 15.492706 39.950306
30.246567 15.627701 109.28131
30.149567 16.588707 0.82730865
15.182567 19.736702 8.318304
13.956567 20.974693 7.985306
27.104567 63.3297 42.957306
25.903566 65.037704 43.242306
10.807568 62.5087 49.404305
11.540567 63.9067 49.759304
35.050568 69.0407 70.52531
36.781567 68.7217 68.71431
11.859566 62.2307 71.74631
13.023567 62.965702 72.70331
9.558567 95.9777 12.647307
8.206566 97.926704 13.756308
32.254566 94.385704 19.829308
31.167568 93.5997 21.261307
1.1025658 17.756706 35.871307
2.1095657 16.484703 37.271305
19.013569 19.7127 37.604305
19.330566 18.020706 38.026306
34.531567 71.0227 72.457306
35.267567 73.0747 72.77431
18.970568 76.6027 74.89831
18.904568 76.3777 72.84731
11.211567 30.522697 79.95331
11.475567 29.744698 77.95131
9.487568 32.135704 69.13531
9.463566 33.108696 70.64631
30.571568 9.028702 108.88531
32.652565 8.680702 109.01931
8.367569 7.131706 103.92031
8.349567 5.4487 104.277306
4.223568 104.619705 81.84231
2.7695656 105.3737 80.35631
24.746567 105.0447 86.40931
23.604567 104.6287 87.68431
21.939568 22.9477 44.428307
20.92957 24.552696 45.393307
5.2885666 27.4217 47.946304
4.261566 28.706703 48.276306
19.522568 16.335701 31.854307
19.337566 18.513695 32.123306
2.2055664 23.702705 34.999306
2.5895653 24.504692 33.623306
30.974567 83.1127 32.05731
30.038567 84.1957 30.485308
13.702567 87.6457 29.344307
12.437567 87.3217 30.589308
3.013565 65.5457 107.72631
1.5255661 66.7017 106.21031
25.390568 63.4247 3.196312
26.113567 61.9257 3.6273117
11.350567 70.0567 51.396305
11.046566 68.9027 53.457306
38.699566 76.592705 62.852306
36.971565 76.2377 63.200306
19.719566 96.354706 53.917305
22.105568 96.216705 53.586304
34.637566 92.340706 44.838306
34.533566 90.7897 44.178307
18.741568 101.939705 58.568306
19.452568 103.2417 59.759304
35.591568 100.258705 54.043304
35.166565 100.340706 52.171307
6.9015694 37.1437 49.387306
6.9205666 38.5317 50.731304
28.901567 41.619698 51.540306
28.580566 41.558693 53.346306
7.217567 21.407692 64.90931
6.9175673 19.992699 62.770306
23.733566 20.210701 60.261307
23.562567 19.685707 58.443306
36.926567 12.438705 28.788307
37.649567 11.3377 26.614307
14.228569 7.772705 22.556307
13.881569 8.120705 20.998306
24.546568 75.8537 5.3933105
25.157568 76.6417 7.51931
1.9265671 75.745705 4.2113113
2.9185677 75.4027 2.6953049
34.826565 92.951706 30.832308
35.267567 95.1547 31.376307
11.911568 93.0977 29.217308
12.595566 91.1257 29.606308
5.3345666 11.755707 80.402306
5.998567 13.8097 79.81431
24.174566 12.8367 76.55231
24.991568 14.310707 76.80731
28.215567 2.6026993 99.61131
29.675568 5.158699 99.51031
4.8185654 1.5756989 97.81631
6.352566 2.0727005 97.93631
1.2345657 74.4577 106.99531
1.4895668 74.0287 108.89531
23.474567 73.9987 1.4603119
22.616568 75.3457 1.9243088
20.195568 40.756706 11.094307
19.037567 39.2557 12.029307
3.105568 46.181694 14.512307
2.702568 45.060707 15.975307
31.232567 71.5287 49.030304
30.102568 71.3807 47.193306
14.584567 73.788704 52.332306
13.570567 75.023705 51.198307
28.254566 25.6567 96.20231
29.230568 26.788704 97.56431
16.609568 36.983696 100.16431
15.758567 35.624702 99.58831
35.955566 75.6647 79.87631
37.018566 75.8377 77.85031
20.278566 73.1957 82.44731
18.511568 72.3097 82.43431
13.695568 87.9307 41.074306
12.891567 90.0147 40.110306
36.522568 91.2847 47.042305
36.90357 89.7687 48.385307
3.4945679 53.518703 29.651308
2.466568 52.0587 30.737307
25.161568 56.9537 30.068308
23.689568 56.604702 30.834307
26.751568 65.4797 26.318308
29.117567 65.4787 26.849308
3.6265678 56.990704 21.444307
5.0835686 56.2257 22.013308
11.764567 21.071693 101.71731
12.268567 19.088707 102.47731
26.186567 16.979706 92.81931
27.989567 16.904701 93.54331
17.586567 68.802704 87.15331
18.224567 69.0877 89.30731
1.7785683 76.023705 88.50231
2.0525665 78.0487 89.25431
38.78557 1.4457016 56.147305
37.552567 0.81069946 57.836304
23.383568 109.6037 59.882305
22.492567 108.7387 58.720306
29.382566 27.654701 68.779305
30.287567 29.0317 69.627304
7.3565674 30.979698 67.93531
8.448566 31.620705 66.68731
11.051567 75.9707 26.491308
11.067567 76.7197 24.671307
25.694567 72.8117 19.305307
25.546568 71.0577 18.258307
22.908567 106.6277 77.64631
24.156567 106.8347 79.11331
0.6745682 101.0817 72.50531
1.9185677 100.4567 73.42031
9.520567 70.6547 33.097305
10.934567 72.1867 34.150307
24.999567 66.3917 28.632307
26.473568 67.1177 28.319307
9.709567 43.836693 62.289307
10.641567 43.224693 60.134304
27.365566 41.817696 59.817307
28.366568 43.313698 59.374306
30.581568 29.650703 83.03431
32.16057 29.954704 81.73031
6.8095665 21.484703 78.00531
6.5265656 20.390694 76.60331
7.5855675 100.3617 103.402306
8.135567 99.6427 105.42331
7.1095657 105.4317 98.68331
6.1445656 105.843704 100.13731
11.057568 39.285698 77.08731
9.826569 38.999702 78.72731
32.13957 36.535698 80.64531
31.650568 35.050697 81.58731
25.672567 79.927704 12.883307
24.828568 78.2867 13.837307
7.608567 79.0137 15.567307
6.502567 78.3547 16.798307
1.4895668 46.862694 4.2983093
1.2745667 48.022697 2.9443054
16.430569 44.958702 108.999306
17.581566 44.466698 0.048309326
16.947567 10.317703 19.006308
18.572567 9.551704 20.460306
32.558567 5.220703 17.756308
33.754566 5.4627 18.914307
12.443569 88.939705 33.955307
11.349567 89.5177 35.960308
35.115566 90.0567 41.635307
34.487568 89.203705 40.314304
26.950567 10.982704 85.81331
25.095568 11.116707 84.15831
8.417567 13.0867 85.96131
8.691567 14.3647 87.25431
9.340568 50.206703 49.448307
10.297567 48.967705 47.651306
25.997566 43.765694 51.446304
26.285566 44.122704 49.882305
35.897568 102.632706 51.030304
33.741566 102.5627 51.108307
18.435568 106.590706 52.327305
17.763567 105.092705 51.384304
0.834568 91.8777 80.05331
1.9715652 93.3927 80.56031
18.191566 90.3127 82.943306
18.767567 89.4317 81.51931
21.513567 34.183693 30.502308
23.563566 34.987694 31.616308
36.469566 27.638695 26.220308
35.89657 26.555702 24.954308
3.5145683 50.474693 15.254307
3.211567 48.984703 13.701307
19.41557 47.950706 12.233307
20.634567 47.243706 13.030307
1.8855667 99.6317 82.80231
0.6575661 98.8097 80.96131
23.902567 99.035706 86.89931
24.258568 97.161705 86.43031
2.7275658 77.0887 94.02131
2.0245667 78.2377 92.02431
25.970568 81.9847 99.10531
25.617567 83.2757 98.09731
8.468567 31.239693 62.682304
8.514568 33.062706 63.856304
31.895567 36.786705 64.75931
31.242567 36.711693 66.31031
21.807568 96.924706 74.06431
23.455566 98.3907 73.888306
39.14657 92.2797 68.83031
1.2205658 91.229706 68.764305
20.718567 35.424706 14.884307
22.271566 36.1867 13.709307
37.130566 39.034706 10.167307
38.284565 39.2407 8.977307
4.1095657 61.7387 6.31131
4.063568 63.5297 7.528305
26.750566 65.188705 4.90831
25.870567 65.857704 6.2603073
5.6235657 82.1177 10.306307
6.4115677 83.0877 8.917307
29.061567 87.493706 8.383307
27.986567 86.0297 8.705307
33.030567 10.002701 6.3833084
34.719566 10.621704 5.636307
10.062569 9.9757 3.7163086
10.671566 10.964706 4.8903046
5.055565 103.2527 94.66131
2.5905685 102.7517 94.62031
26.654568 102.9757 101.63031
26.408567 101.9997 99.499306
11.026569 34.355705 91.24531
10.124569 31.592705 90.43731
33.839565 35.1587 96.21831
33.23657 36.4647 97.04931
30.834568 26.621696 85.27431
32.05657 28.597694 85.59131
8.685566 23.604698 82.82231
9.965569 25.119698 83.33831
33.633568 36.318703 106.39531
33.088566 34.573692 104.89031
10.692566 32.413704 100.57631
10.861568 30.945702 99.44731
2.558567 105.4837 88.42631
1.6215668 105.7947 90.71231
25.421568 107.661705 84.41031
24.463568 108.7987 85.83031
26.159567 79.2017 20.331306
27.022568 81.0767 19.604307
10.086567 83.2587 21.453306
9.528567 83.8887 20.130306
14.178567 97.2647 25.942307
14.198567 95.5997 24.406307
28.808567 92.0577 16.754307
29.056566 90.3377 16.772306
35.956566 55.2377 101.15331
35.580566 57.124702 98.901306
20.720568 60.8487 104.84931
20.177567 59.5287 105.95631
15.149567 64.5567 71.932304
16.261568 65.3127 73.37131
31.665567 61.6897 67.29731
32.272568 61.963703 65.766304
25.548567 1.696701 100.64031
24.351566 0.90270233 102.651306
11.641567 4.8307037 107.35031
10.758567 5.3246994 106.03631
4.053566 14.738701 48.236305
5.5285683 13.774704 47.524307
19.726566 15.080704 42.853306
20.009567 13.677704 43.790306
3.4625664 105.3207 85.88331
5.5475655 104.0717 86.51531
20.411568 106.576706 85.46831
21.84657 107.328705 85.09331
31.490568 55.0367 60.110306
31.789568 54.085697 58.192307
8.945568 50.504692 56.125305
9.467567 49.164696 56.869305
4.9365654 79.8357 101.06431
5.706566 81.871704 101.76631
20.117569 73.3097 101.77231
21.159569 73.1977 100.16731
1.0365677 65.1587 87.92431
1.3725662 67.0577 88.38031
17.524567 66.3507 84.02131
17.641567 64.649704 84.17731
17.133568 22.330696 18.132307
15.973568 20.560707 18.936306
38.066566 25.008705 22.231306
37.840565 23.349693 22.522306
23.541567 29.529701 40.121307
24.030567 30.784706 41.389305
9.501567 35.680702 43.755306
8.112567 36.338707 44.604305
20.851566 87.0167 70.68531
20.857567 84.7087 70.66031
36.75057 85.2097 64.38531
38.367565 84.121704 64.58931
9.077567 24.944695 87.30031
10.846567 25.721703 86.52831
24.671568 15.7257 85.84131
26.133568 16.442703 86.57331
10.359566 13.8657 100.87031
9.310566 15.7547 100.60831
31.628567 16.9887 101.66131
30.936567 18.122704 100.57331
26.036568 11.0177 90.62631
24.240566 11.263702 92.36431
8.426567 15.0037 89.74831
7.447567 16.0727 90.54931
14.8475685 79.6467 48.275307
13.926567 78.079704 49.675304
35.720566 78.3177 51.778305
35.38957 79.6867 50.777306
4.174568 19.509697 57.900307
5.0405655 19.201698 60.118305
21.772568 15.411705 56.113304
22.603569 14.368706 57.664307
5.290567 79.6457 9.505307
7.424567 78.7637 10.239307
21.297567 77.8477 9.342307
22.479567 77.5847 8.004308
0.19756699 25.619698 29.732307
0.4895668 26.870705 31.293308
26.243567 31.243706 39.492306
25.299566 30.831703 37.727306
30.068567 11.801704 97.73931
31.472567 12.533707 99.47931
6.372566 7.099701 95.12931
7.2175674 6.1727066 93.72631
18.657566 88.2377 75.38131
17.263569 88.6947 73.92231
1.7345657 93.1417 75.50631
0.03956604 92.5667 74.39231
22.816566 90.8647 89.21431
23.090569 92.0817 90.92831
5.0575676 90.0687 92.49731
4.313568 88.800705 93.19931
5.508568 57.610703 8.048307
4.117565 55.707703 7.3453074
18.281567 51.736702 12.299307
19.287567 51.2327 11.088307
11.324567 33.693703 73.19731
10.767567 35.580696 71.571304
27.386566 37.474693 69.252304
28.864567 36.907692 68.639305
21.554567 75.677704 83.15331
21.828568 75.939705 85.35231
35.402565 66.2997 81.35231
35.15357 65.1367 80.23031
27.171568 25.508705 70.15931
26.536568 23.2387 69.91031
11.310567 31.207695 74.929306
9.517568 30.804695 75.54831
10.317566 82.940704 34.146305
9.273567 82.2707 36.572308
35.621567 76.6177 37.162308
33.812565 76.565704 36.597305
38.932568 56.437702 106.61431
0.13356781 54.359703 106.08731
15.609566 49.5217 100.31731
16.080566 51.0997 100.88031
3.5225677 62.208702 18.261307
3.2215652 64.3267 19.052307
27.282568 68.815704 18.331306
27.770567 69.4647 19.879307
4.763565 25.008705 58.810307
6.681568 23.958702 60.035305
20.63757 17.841705 55.405304
22.317566 17.815704 55.020306
13.062569 51.680702 82.54531
13.9985695 52.805702 84.22931
37.296566 56.9037 89.83931
36.184566 55.5707 90.16431
24.370567 54.187702 22.956306
24.763567 52.5357 24.325308
0.7295685 43.6177 22.825308
1.1335678 42.689705 21.410307
31.952568 27.451698 105.65431
30.964567 29.493706 105.96331
14.965567 28.585701 104.96231
16.212566 29.164696 105.86131
6.499565 79.4047 12.795307
5.329567 80.7697 14.208307
27.898567 79.1147 11.506308
27.027567 79.3267 9.766308
27.622566 106.203705 107.651306
25.921568 106.2477 106.77331
12.370567 1.2917023 109.66431
12.344567 1.896698 1.1363068
18.816566 92.607704 66.346306
19.547567 91.301704 67.832306
36.473568 92.481705 60.280304
37.598568 93.2207 61.669304
17.978569 8.881706 43.256306
16.654568 9.843704 44.068306
1.5575676 11.076706 45.635307
1.5565681 12.660706 44.882305
29.526567 43.1287 56.881306
29.948566 40.687706 57.195305
7.8515663 37.965706 55.899307
7.933567 36.765694 54.857304
8.995567 77.635704 22.954308
8.384567 79.3077 21.323307
26.070566 76.0197 17.734306
26.946568 77.4747 17.833307
39.019566 35.291695 11.857307
0.8025665 36.513695 10.521307
16.352566 30.0727 11.9683075
16.883568 31.714699 12.443307
1.6865654 101.4337 67.375305
2.3385658 99.7537 65.430305
16.87357 93.5267 62.229305
18.34657 93.2407 63.128307
3.8005676 20.429695 47.459305
3.202568 21.006706 49.292305
26.002567 23.571693 51.774307
24.569567 22.455696 51.886307
9.853567 54.6207 45.555305
9.826568 53.3017 43.827305
24.434566 51.0577 40.769306
25.121567 49.5077 40.340305
14.026567 64.0587 64.77431
13.728567 63.5597 62.814304
30.019567 64.2277 63.471306
31.969568 64.357704 64.03131
37.485565 100.023705 49.135307
0.31556702 100.5617 48.538307
13.624569 92.550705 47.714306
13.766567 93.6807 46.466305
3.834568 83.3267 100.957306
3.3355675 83.4877 102.84031
25.486567 85.2127 104.28231
24.595568 84.0577 105.04931
4.018566 83.524704 5.747307
4.1155663 81.3587 4.8903046
28.538567 83.8627 7.070305
27.296568 83.5547 8.18531
6.065567 42.062706 34.16831
6.9585686 40.4457 34.649307
19.421566 39.0597 27.101307
20.636566 39.142693 26.090307
19.046566 87.0867 82.98831
19.497566 85.1577 82.64231
3.1585655 84.6937 85.88731
2.0925674 84.9717 84.68531
20.033567 67.216705 87.58131
20.049568 65.9717 85.76731
35.900566 59.0317 87.57831
37.68157 59.199703 87.82331
16.456566 26.853706 18.733307
15.678566 27.853706 20.416307
38.679565 30.9497 19.791307
38.699566 32.345695 20.791307
3.199566 26.236702 54.587307
2.8775673 26.071693 56.893307
30.079567 31.864693 63.976307
29.775566 30.438698 63.768307
14.634567 37.489693 89.64231
15.396567 37.357704 87.48431
29.403566 29.537697 85.58031
30.175568 29.900703 87.00431
25.482567 88.2417 104.81531
27.085567 87.493706 103.44431
2.7325668 89.3897 104.50731
2.6235657 87.8597 104.91931
35.958565 71.2927 64.83731
36.985565 69.5677 65.764305
13.899567 67.399704 67.63031
14.344566 66.6137 69.252304
29.424566 89.1507 109.18531
29.207567 91.397705 110.22531
4.680565 91.425705 105.22431
3.9725685 91.6737 103.91231
5.737568 17.663704 71.77131
6.183567 16.2537 73.78931
