12.126549 30.947906 33.195618
12.562546 33.00691 33.73362
62.225548 34.974907 29.662619
62.199547 36.857906 30.720617
58.669548 29.894907 37.83062
57.885548 28.648907 39.626617
80.61555 5.993908 62.20862
78.69155 6.955906 61.59062
85.93055 14.631905 53.77562
86.98455 16.432907 53.85162
7.8195496 52.861908 21.902618
6.525551 51.210907 22.514618
4.9345474 44.740906 31.642618
4.8385468 43.00591 30.628618
34.45955 46.626907 16.480618
32.214546 46.93791 16.341618
26.922546 46.967907 27.774618
25.053543 45.205906 27.463617
78.82055 35.188908 51.59662
79.20955 33.408905 50.155617
84.884544 35.850906 40.71762
86.00055 33.894905 40.37362
1.7435455 30.659904 10.3226185
2.6745453 28.513905 11.042619
90.83555 25.052902 20.607618
89.09855 24.377907 20.990618
29.480545 29.649906 26.981619
27.452545 29.778908 27.642618
24.852547 27.744907 39.48862
22.734543 26.801907 40.14862
49.042545 34.892906 56.33162
47.716545 36.494907 57.404617
48.812546 29.897907 67.01562
47.207546 30.594908 68.00662
68.42055 32.116905 48.29162
66.46155 32.635906 47.850616
61.558548 26.948908 58.493618
60.924545 24.371906 58.926617
25.176544 41.609905 61.05262
26.441544 41.973907 63.01962
19.290543 38.07591 2.8276215
19.913544 36.51991 4.8256226
24.873543 20.419907 54.33862
25.996544 18.829903 53.274616
31.566544 18.361908 43.88762
31.600548 20.605904 42.99262
14.446548 54.178905 42.385616
14.296547 55.802906 43.398617
3.9765472 53.584908 51.382618
4.409546 51.323906 52.51962
21.747543 36.178905 23.479618
22.524544 37.841908 25.242619
15.564545 36.18691 35.23562
15.251549 33.864906 34.89862
22.058548 7.404907 66.22662
22.326546 7.7399063 68.22562
20.22255 2.3489037 9.711624
17.800545 1.6319046 9.972626
28.29255 4.080906 17.65462
29.15355 4.967907 19.545618
25.501549 6.712906 30.121618
25.480545 4.821907 31.644619
86.33055 52.834908 66.51362
86.495544 50.766907 66.24162
78.23755 51.82691 5.4986267
79.36055 52.037907 7.3216248
79.201546 6.097908 45.049618
80.245544 5.238907 46.514618
71.35155 0.55090714 53.68662
72.71954 56.876907 55.042618
10.202545 55.802906 4.340622
10.728546 54.047905 2.6786194
15.281548 5.010906 64.32062
16.302551 3.519905 64.23862
42.253548 43.072906 51.53162
43.914547 41.983906 51.02662
52.047546 44.899906 43.681618
54.09955 44.824905 44.33162
3.270546 37.15891 62.44362
4.051552 39.41691 62.82562
10.8715515 43.273907 54.521618
12.097549 42.558907 52.60862
88.18255 37.821907 25.879618
88.176544 39.934906 24.745619
2.4045486 39.310905 14.977618
3.2465515 37.620907 13.908619
58.466545 40.195908 26.251617
59.26655 42.412907 26.896618
60.593548 49.158905 15.838618
59.770546 47.351906 14.3486185
74.300545 46.595905 39.66962
73.15755 48.243908 40.21262
76.29055 41.356907 39.792618
78.34555 42.233906 39.48462
57.771545 27.541906 36.785618
56.004547 27.898907 35.33762
55.638546 32.955906 23.771618
57.796547 33.157906 23.903618
40.68155 34.037907 33.139618
41.15355 33.79191 35.424618
38.333557 30.006907 44.26962
37.766556 28.931908 46.515617
70.23755 14.317902 60.613617
72.12555 13.516907 60.522617
79.631546 22.012901 53.44962
81.89155 21.100906 53.93762
91.87555 49.906906 0.2186203
89.37355 50.093906 69.24462
81.24055 44.546906 4.947624
82.22355 43.577908 6.746628
25.381546 49.028908 46.917618
23.655548 49.473907 45.19362
31.883545 54.824905 35.81262
32.11155 53.27091 34.12762
13.65255 14.503906 27.559618
15.622551 13.630905 27.745619
18.329544 16.796906 15.486618
20.033546 17.976906 16.062618
44.04355 41.761906 37.36062
45.408554 41.314907 39.13662
34.562546 36.15291 45.114616
36.020554 35.619907 46.74262
35.380554 33.946907 62.22262
36.216553 31.910908 61.190617
41.344543 34.185905 50.481617
43.199554 35.533905 50.556618
56.876545 0.03490448 13.790623
55.119545 1.566906 13.562618
59.978546 5.821907 2.6576233
60.544548 4.0539055 1.4986191
40.908554 21.678902 45.42262
42.073547 20.1389 45.029617
46.897545 21.572906 33.42362
48.86355 22.409904 33.96062
59.434547 11.145905 35.70562
57.628548 11.436905 36.83662
54.161545 5.4979057 47.26162
56.158546 3.908905 48.160618
31.613548 50.975906 15.882618
29.512543 50.018906 15.658618
27.002548 49.398907 28.242619
25.05555 50.073906 29.895618
61.322548 28.910908 23.739618
61.934547 27.802902 25.45962
54.711548 25.324905 35.06562
55.783546 25.5139 36.98962
56.251545 9.742905 16.568619
54.992546 7.8909073 18.122618
52.28655 7.4499054 29.597618
50.632545 5.8419075 30.254618
8.206551 1.9689064 56.37262
9.40155 0.22590637 56.139618
19.938545 4.1009064 48.786617
19.132545 4.168907 47.06862
57.182545 50.290905 45.892616
56.326546 50.033905 48.03162
45.362545 45.948906 53.49262
46.169548 47.276905 54.96562
46.129547 6.6419067 43.51262
46.763546 8.604904 43.49962
50.860546 6.7349052 32.78162
51.123547 9.253906 31.216618
59.070545 5.1079063 34.396618
59.50955 6.448906 36.37262
59.055546 56.532906 45.903618
60.188545 0.44590378 47.586617
50.48155 35.40991 53.993618
50.970547 37.358906 54.314617
58.319546 36.447906 45.751617
60.330547 35.174908 45.42762
78.40255 19.299904 14.409618
77.80855 21.459908 13.842617
82.42155 26.064903 4.106621
82.536545 26.380905 2.1216202
56.580547 23.789902 20.93562
55.707546 21.208908 21.170618
49.62055 18.934906 31.097618
49.775547 20.839905 32.11562
59.486546 13.793907 2.2576218
58.977547 15.816902 1.0916214
62.979546 19.122902 58.56662
61.997547 20.429901 57.04762
51.657547 2.7169037 30.972618
49.59955 3.1429062 31.06462
43.657547 4.048908 41.54062
41.82155 5.302906 40.95062
23.751549 31.480907 57.861618
24.579544 33.04891 59.973618
13.08255 31.727907 65.80162
13.237549 31.607906 67.96262
66.43655 55.240906 52.69962
66.46255 52.72891 52.74762
59.776546 55.317905 63.549618
58.878548 54.44491 65.23762
41.835556 29.626907 48.84662
42.077545 27.929907 47.343616
44.624557 35.45791 36.785618
43.993546 34.137905 35.03062
29.62455 36.613907 45.572617
27.004547 36.594906 44.79662
23.156548 33.544907 55.91662
23.866547 34.613907 57.780617
23.981544 15.344902 1.4386215
25.294548 13.998901 1.9286194
18.552544 15.648903 12.85062
18.367546 13.517906 14.224621
52.244545 8.060905 15.249619
50.23155 6.5849075 15.318619
49.16155 3.382904 26.193619
47.281548 3.1089058 26.424618
5.7815475 47.934906 15.894618
5.0525513 49.373905 15.338618
10.865547 55.942905 6.9886184
12.98555 55.06991 6.7946186
45.169556 55.643906 40.68562
45.858543 56.230907 43.04062
38.711548 50.19491 51.66662
36.936554 51.521908 51.28362
41.044556 30.601908 29.918617
43.033554 28.997908 29.679619
49.08355 35.632908 21.096619
48.047546 36.372906 19.385618
37.495544 31.863907 13.342619
35.635544 31.432907 14.380618
30.910545 24.431908 22.954618
31.258545 25.278908 24.738619
89.910545 40.900906 41.33762
88.92255 38.643906 41.10962
0.631546 40.670906 29.170618
91.80655 41.751907 28.620619
44.785553 7.9929047 10.563619
44.450546 5.8469048 10.155619
42.01155 1.5519066 20.138618
40.712555 1.5229073 22.103619
55.740547 36.160908 22.159618
57.542545 35.72891 23.770618
61.715546 43.12391 14.360619
61.610546 45.186905 15.060618
1.9165497 46.646908 48.868618
1.0305481 45.841908 47.09662
3.6855469 47.494907 34.688618
5.6165466 49.231907 35.243618
14.931549 3.6889076 8.242622
15.633545 5.976906 8.979622
19.234543 11.188904 68.21362
19.88955 11.485901 65.92462
19.65255 9.306908 30.822618
19.412544 7.813904 32.63562
18.883545 5.312908 44.528618
17.195549 5.330906 45.54762
3.3405457 16.011902 6.572624
3.2405472 17.163902 4.9296265
5.5785446 12.274902 4.8856277
5.780548 13.674904 6.741623
35.297546 0.66090393 38.19362
37.085556 56.775906 39.91362
29.18055 55.511906 49.028618
27.561546 53.998905 50.37362
37.805557 39.99191 48.725616
38.87355 42.07591 49.336617
46.732544 44.468906 40.11362
45.927544 43.941906 38.31162
14.091545 49.736908 41.29462
16.149551 49.716908 41.855618
11.55455 45.195908 51.90862
9.412552 45.012905 52.940617
76.31055 38.412907 37.24962
76.25555 40.483906 35.95162
86.548546 41.974907 28.313618
84.90255 42.295906 27.131618
43.339554 1.6869049 25.299618
42.301544 56.744907 23.589619
35.652557 51.912907 34.31462
34.68155 54.130905 34.48962
30.914543 0.9819069 49.97062
33.104546 1.0169067 50.57562
41.448547 1.9909058 44.051617
42.97255 0.28290558 43.09662
2.872551 8.042908 21.503618
1.2135468 6.342907 21.982618
89.287544 1.1709061 31.868618
89.86555 1.8999062 33.70462
57.257545 49.700905 65.58462
55.299545 50.531906 64.76562
49.440548 46.222908 5.4296265
48.038548 48.074905 5.197624
77.704544 21.611908 30.990618
76.79655 23.384903 30.384619
81.75455 22.898903 18.563618
83.09855 24.183907 18.613619
20.301544 36.963905 41.54462
20.034546 39.336906 42.577618
11.524551 34.351906 48.66362
11.6445465 35.776905 50.695618
82.35755 51.518906 43.33362
81.51455 53.669907 43.29162
86.71355 54.12491 32.32562
86.13555 52.920906 30.444618
2.7085495 44.018906 48.25562
4.3905487 43.355907 48.72762
9.788551 49.590908 39.11462
8.890549 50.65291 37.60262
88.18355 3.3879051 49.542618
87.98255 5.6099052 49.23362
4.7485504 11.292908 43.861618
5.9535446 9.131905 43.035618
17.44355 52.257908 43.725616
16.66455 54.429905 44.20162
8.468552 52.177906 53.92062
8.006546 54.139908 54.57562
5.0715485 38.268906 47.22762
4.2275467 39.157906 45.47162
5.853546 45.963905 34.61462
6.879547 44.079906 33.69162
13.112549 20.943901 31.224619
13.538551 21.427902 33.55962
7.938545 19.176903 42.04162
7.8425446 19.613907 44.092617
70.634544 49.921906 0.97161865
71.91755 52.222908 0.8776245
79.68055 53.957905 61.36562
80.13755 56.45191 61.169617
46.254547 37.73591 17.457619
47.501545 39.14491 18.642618
55.378548 40.250908 9.530619
58.090546 39.439907 10.273619
13.335548 35.724907 2.3306198
14.486549 33.55491 0.81062317
12.204552 29.001907 12.092617
13.11055 30.896908 13.172619
28.454544 5.642906 50.40162
28.302544 4.2969055 48.363617
37.741547 4.8749046 41.24162
39.62155 3.7619057 40.85962
16.201546 50.122906 57.967617
14.65255 48.736908 57.72262
8.497551 46.834908 67.69662
8.65255 45.052906 68.84662
91.22555 13.598907 18.392618
90.800545 11.596901 17.693619
0.63954926 16.061905 5.4476185
91.618546 15.504906 4.2826185
68.867546 44.24991 35.01762
67.55455 45.225906 36.51362
60.726547 39.47891 43.716618
60.920547 37.336906 43.584618
52.64155 55.852905 61.36762
54.143547 54.850906 61.85862
59.010548 3.1719055 51.02762
58.964546 0.9069061 50.036617
88.30755 34.733906 61.482616
90.368546 34.587906 62.31162
85.14355 30.291906 5.0636215
84.91655 32.272907 6.178627
73.79555 36.574905 67.41462
72.215546 36.18691 65.89662
78.65055 38.689907 55.599617
78.23255 38.072906 53.24262
68.18655 36.42991 64.59862
67.15355 38.295906 64.59062
71.577545 43.39491 54.382618
72.95855 42.736908 52.397617
1.0015488 9.879906 38.55362
92.20555 8.773903 37.88862
86.25255 9.657906 50.618618
84.87655 7.5939026 50.84662
70.47655 38.837906 33.48262
71.258545 38.185905 35.45362
66.79255 36.27091 45.59462
68.759544 35.372906 46.46362
39.654556 19.742905 9.771619
37.335556 20.707901 10.343618
32.033546 16.923904 19.60262
31.168549 18.649902 20.64762
20.245544 42.556908 23.486618
19.607544 40.482906 23.394619
12.446548 38.365906 32.22062
11.765549 36.213905 31.014618
44.384552 7.4969025 28.054619
43.471558 9.790901 28.934618
39.604553 8.521904 40.43062
37.453552 8.872902 40.95862
28.412544 43.893906 12.305618
27.157547 42.323906 12.000618
20.65255 41.56991 20.74462
19.358543 39.074905 20.99862
14.064545 54.160908 23.18262
12.611549 55.093906 22.436619
18.754547 1.9649048 12.785619
20.552544 2.804905 12.358619
21.623543 43.236908 41.667618
19.99955 42.10391 42.52662
16.840546 38.795906 53.16662
16.171547 40.695908 54.410618
77.18255 8.028908 26.511618
76.00555 9.482903 25.103619
83.912544 10.896904 16.19962
83.49155 10.619904 14.235619
39.333557 24.645905 44.80362
41.641556 24.602905 45.61062
45.489548 29.030907 33.65062
44.439545 27.582901 32.40762
71.62955 10.368904 9.422619
71.89255 11.681908 11.166618
63.792545 10.122902 19.635618
64.59454 11.925903 20.406618
0.8715515 23.275902 61.12362
0.10454559 24.781906 62.544617
83.24955 25.008904 69.12462
83.65055 23.967903 1.3516235
65.09955 53.717907 16.841618
63.55055 54.817905 17.585619
60.643547 52.237907 28.909618
60.21755 50.229908 29.749619
91.507545 36.67391 27.964619
0.122550964 35.301907 27.987617
87.87955 31.992907 39.98462
86.45055 30.603907 39.34562
64.81055 0.19690704 34.78162
65.62355 2.6079063 34.47062
72.40855 6.092907 26.904617
73.843544 5.1999054 28.597618
0.6615448 54.573906 33.85062
0.52754974 56.016907 32.64462
5.6545486 4.337906 22.696619
6.308548 3.2379036 21.02962
43.406548 38.543907 33.605618
43.839546 36.432907 33.32662
50.917545 42.23591 23.695618
48.32855 43.01391 23.092619
67.90054 26.813908 45.750618
67.04755 27.386908 43.271618
72.744545 35.657906 35.60762
74.12455 37.111908 36.493618
92.04255 13.677902 39.08862
0.42855072 12.7209015 41.181618
88.14255 11.161903 51.514618
88.55655 11.996902 53.46562
91.618546 51.278908 34.40162
89.71855 50.760906 33.60862
84.21955 47.047905 42.426617
85.048546 48.061905 44.66662
30.690544 49.748905 66.86262
28.962547 50.282906 68.06062
25.626549 42.536907 8.972626
27.045547 41.16691 7.7976227
46.601547 6.3209076 28.453619
47.386543 7.1459045 30.18962
43.68155 1.0489044 40.67362
42.292557 56.480907 40.668617
60.493546 20.112907 41.98862
60.320545 22.312904 41.60262
55.932545 21.419907 53.58262
55.339546 23.445908 53.95862
81.46355 44.602905 40.18962
81.03355 42.67391 39.38762
81.06655 36.382908 37.945618
79.57955 37.662907 38.04762
10.81855 21.788902 12.288618
10.869545 21.707901 14.477618
6.518547 17.272903 23.714619
5.009552 18.603905 24.301619
2.9255447 52.341908 17.017618
2.83255 50.897907 14.837619
9.3715515 2.5749054 7.7276187
8.369545 1.1249046 5.8806186
70.58655 46.546906 19.02262
72.57355 45.825905 17.421618
75.55254 47.965908 7.0426183
73.80655 47.308907 5.3366184
55.539547 39.835907 59.481617
57.542545 41.406906 58.862617
60.311546 42.525906 47.44262
60.817547 40.725906 46.392616
52.256546 17.612907 31.805618
53.031548 15.683907 32.43762
57.436546 16.481903 19.264618
56.135548 18.428902 18.747618
49.62655 17.950905 66.65462
48.52755 15.703903 66.73762
42.932556 11.6599045 7.7146225
41.230545 10.856903 8.532623
76.409546 51.126907 39.64262
75.97155 53.634907 39.37262
83.19655 0.6939049 30.008617
82.27655 55.953907 28.435617
18.492546 22.980904 36.35262
16.44255 23.549904 36.43562
14.783546 20.473907 48.257618
12.91655 20.454903 48.85362
29.589546 33.32691 10.221619
28.144547 35.162907 9.727618
21.710548 36.93091 19.065619
22.648544 37.363907 21.12362
2.6425476 19.223907 22.722618
4.185547 20.947906 23.129618
6.87455 24.105904 11.401618
5.3925476 25.727905 10.270618
75.13855 44.310905 38.11762
76.94955 42.851906 37.19762
81.938545 47.454906 26.205618
80.55255 46.98591 24.568619
55.371548 28.459908 38.271618
54.652546 28.709908 40.14462
48.412548 22.890907 48.000618
47.452545 24.487907 49.17262
54.934547 16.9719 35.264618
55.693546 18.855904 34.59362
61.431545 19.051903 23.846619
60.143547 20.193901 21.61962
22.893547 22.926903 3.140625
23.56855 24.232903 4.723625
17.973549 18.458908 12.549618
16.76355 18.786903 14.713619
59.861546 38.063908 47.141617
61.944546 37.476906 47.96962
54.643547 32.00691 53.586617
52.827545 32.190907 52.08362
45.531548 45.792908 3.6326218
46.652546 43.827908 2.8256226
50.88455 47.130905 61.126617
52.756546 46.248905 61.396618
79.009544 9.048904 29.676619
79.38855 11.789902 30.571619
71.96255 9.538902 40.91662
73.284546 9.521904 42.953617
53.361546 53.438908 27.472618
54.130547 51.405907 26.525618
59.527546 0.35190582 17.137619
58.011547 1.4919052 15.658618
50.301548 18.082901 15.1056185
50.832546 16.162903 15.182618
44.320545 12.726906 26.920618
44.841545 10.307907 26.179619
75.703545 7.283905 42.535618
77.745544 5.861908 42.81662
86.76555 7.408905 34.91662
85.97755 8.706902 33.05962
34.842545 11.195908 40.216618
33.867546 9.000908 40.97862
27.216545 9.289902 50.649616
25.474548 9.915901 51.45662
73.287544 24.558907 15.102618
74.15655 22.266907 15.668618
64.08955 19.489906 23.514618
63.347546 21.194908 24.66862
84.39055 13.116905 32.140617
82.841545 13.658905 30.128618
87.09655 22.131905 22.288618
87.10855 22.225906 20.16162
46.465546 35.330906 53.86762
46.762543 33.458908 55.36762
42.971558 31.873907 67.03662
41.11055 33.20091 67.60762
35.161545 43.515907 50.59462
35.251556 41.567905 49.83762
31.02755 37.80591 61.043617
31.83255 36.331905 62.94362
42.08055 43.357906 38.09662
40.564545 41.97891 37.41262
32.663544 42.44391 46.42362
30.742546 41.150906 45.92062
66.940544 53.76391 50.11762
64.89055 55.052906 49.021618
71.29455 6.882908 41.01762
68.97055 7.457901 40.91262
52.48855 19.682907 67.60762
52.572548 21.800903 67.97562
54.062546 29.724907 58.577618
52.360546 30.562908 57.28462
79.31055 34.41691 20.899618
77.76755 35.965908 20.34562
71.08455 33.592907 29.432617
69.79755 31.262907 28.989618
39.44655 37.419907 32.99262
41.378555 36.68091 32.46962
47.258545 40.484905 22.033619
45.919548 40.808907 20.17562
18.52855 36.420906 18.93962
18.213547 34.30591 18.094618
26.22155 40.41591 10.395618
27.984543 39.364906 10.952619
7.6635513 47.954906 34.33262
8.099548 46.553905 32.61562
13.43055 50.995907 24.094618
15.4815445 50.598907 25.174618
52.779545 45.820908 26.07462
52.09955 46.040905 28.341618
48.55055 39.356907 37.438618
48.413548 39.781906 39.56462
39.11255 18.738907 60.65962
39.94255 20.720901 61.279617
39.83255 26.271904 50.12962
40.60855 25.371902 48.168617
21.87555 16.240906 51.01962
23.936546 17.309906 50.99262
30.488548 17.106903 41.57262
28.734543 17.539902 40.04662
41.49855 36.696907 17.520618
41.715546 37.695908 19.10262
37.12755 33.518906 28.896618
38.12555 33.890907 30.537619
49.465546 11.963905 65.20462
49.572548 13.002907 67.32762
43.635548 6.1889076 6.447624
44.395546 4.601906 7.769623
50.019547 42.188908 41.54462
48.109543 42.22191 40.93362
39.407547 37.58991 48.668617
40.23555 38.744907 49.841618
91.76255 23.705902 39.05262
92.86155 21.893906 38.626617
7.7155457 27.197906 30.335619
8.683548 28.949905 30.162619
86.13055 16.693901 14.3486185
85.242546 18.751907 14.522618
84.07155 27.081902 6.0236187
83.076546 29.370907 6.4106183
55.373547 20.553902 36.591618
55.569546 18.150902 37.78062
50.131546 12.564903 48.14462
48.00855 12.486908 48.20762
44.808548 51.057907 40.09762
44.98755 48.965908 39.50662
37.908554 44.682907 48.744617
35.747543 45.551907 49.07662
29.55555 49.342907 30.219618
31.279549 51.424908 29.737617
33.80755 55.839905 19.006618
32.799545 54.81991 17.295618
61.621548 24.897903 7.0616183
62.382545 24.871902 9.074618
54.695545 22.326904 17.74862
51.986546 22.780907 17.125618
41.105545 23.927902 64.54162
42.064545 23.930908 66.30462
35.26355 18.478905 5.826622
35.949554 18.876907 7.5946274
56.243546 44.998905 27.129618
55.23155 46.677906 26.696619
60.793545 51.644905 17.315619
58.912548 51.516907 15.883618
34.257545 9.516907 23.283619
33.295547 8.150902 22.995619
24.103546 10.426903 31.923618
23.825546 12.277901 32.522617
42.202545 14.153908 47.432617
43.236557 12.024902 47.307617
31.821548 5.2829056 51.95562
32.650543 3.1739044 52.43562
46.895546 47.393906 59.44862
47.352547 45.224907 58.19462
40.077545 43.412907 67.89462
40.924545 41.924908 66.81562
92.77755 50.420906 66.63962
1.1505508 52.161907 66.44662
5.6905518 52.356907 54.52562
4.3595505 54.16691 53.982616
76.426544 33.698906 50.26962
74.395546 32.855907 49.78962
79.05755 37.851906 41.18662
77.93355 39.146908 39.646618
49.699547 48.998905 24.62362
50.575546 48.155907 26.438618
47.943546 43.085907 36.69462
47.059547 41.170906 36.403618
68.72655 11.044907 40.34562
68.65455 10.051903 42.660618
62.72455 7.950905 53.376617
62.13455 9.818901 54.01862
73.398544 50.206905 5.0976257
75.85255 50.43091 5.277626
84.06155 55.327908 67.34662
83.69255 54.843906 65.06262
49.552547 31.824907 36.32962
50.547546 31.669907 38.17162
45.771545 29.061907 49.236618
44.310547 27.552908 48.68662
11.719551 25.872908 30.565619
13.81855 25.218906 30.280619
17.384544 29.544907 19.812618
16.496552 31.178907 19.198618
36.495544 10.558907 24.242619
36.219543 11.023903 22.153618
42.003555 13.854904 11.941618
42.628555 12.917908 10.120619
20.248543 34.100906 56.231617
19.09755 33.391907 58.203617
10.240547 29.355907 64.41362
8.40155 30.023907 62.94262
24.070549 14.771904 36.62162
21.699547 15.628906 36.758617
19.923546 13.184906 47.69462
19.399544 11.980904 49.010616
85.37455 29.972906 22.625618
86.951546 32.016907 22.392618
92.05255 38.254906 13.055618
90.04355 38.698906 12.063619
81.13555 47.16691 38.89362
80.69355 49.02091 39.99862
80.09755 51.754906 27.371618
81.65255 53.339905 28.473618
53.285545 10.558907 31.062618
54.796547 8.698906 29.860619
59.324547 11.923904 19.444618
61.310547 11.308907 19.40762
44.198547 21.248901 46.529617
46.091545 22.295906 46.93462
50.670547 26.290901 35.99862
49.056545 26.9999 35.04662
11.176552 39.286907 69.03662
10.2955475 41.445908 68.05162
15.010551 42.963905 55.612617
16.675545 42.600906 56.77062
7.6665497 24.928902 65.35262
7.3495483 23.380905 63.877617
15.377548 29.146908 54.46962
14.3335495 29.478905 52.842617
8.977547 9.620903 40.08262
10.157547 10.993904 41.24762
14.452545 16.375908 31.821619
14.955551 15.298904 29.990618
6.483551 7.038906 6.6216183
5.66555 4.7239075 6.3996186
3.1735458 1.6679039 17.948618
3.306549 56.637905 18.431618
77.050545 15.607903 43.579617
74.826546 14.527901 43.739616
80.40855 14.565903 31.280619
81.32455 16.756905 30.999619
40.75055 19.7779 47.41362
41.769547 17.928902 46.92262
32.673546 16.133904 55.042618
32.220543 13.752907 54.96962
7.836548 32.615906 12.450619
8.059547 30.685905 13.904618
0.60554504 25.621902 22.676619
0.2125473 23.436905 22.450619
73.270546 6.325905 10.178618
75.117546 7.083908 11.108619
68.28854 5.7779045 20.759619
67.54755 7.898903 21.87362
49.86055 56.74291 44.558617
48.14055 1.5979042 45.65062
42.128555 52.037907 54.710617
40.018555 52.656906 55.52762
76.82555 3.446907 61.329617
75.079544 2.4579048 60.83362
69.87755 54.147907 0.30062103
68.756546 55.165905 1.4416199
20.43155 45.678905 56.79062
22.038544 44.046906 57.036617
28.259544 45.905907 47.57562
26.822548 44.48591 46.57662
77.841545 8.551903 9.350624
76.51154 7.236908 8.621628
84.15155 11.323906 68.68862
83.20955 9.886902 67.52962
50.700546 26.460907 68.51262
52.586548 26.056908 67.60062
57.144547 26.868904 1.8056259
55.676548 28.531906 2.0396194
33.143547 16.531906 22.01862
33.90455 15.308907 23.18562
26.498543 13.011902 32.61762
25.161545 14.699905 33.736618
37.936554 33.38191 47.808617
38.60855 34.24291 45.65862
47.494545 35.705906 38.89262
46.826546 37.417908 37.293617
67.24754 49.456905 34.22562
66.79255 51.314907 34.63462
74.57255 51.934906 24.070618
73.30555 52.323906 22.486618
33.284546 16.2639 42.04062
35.173553 14.713905 43.107616
29.706543 14.5469055 54.25462
28.678543 16.257904 55.028618
53.216545 29.645906 2.489624
53.132545 27.824907 4.6016235
46.068546 31.637907 14.534618
46.887547 29.839907 15.427624
64.132545 45.413906 66.00062
63.556545 47.087906 65.68662
72.11655 47.410908 57.44862
71.53055 49.295906 56.31162
16.632545 14.842903 65.77862
16.01355 12.410904 66.26862
9.367546 9.440903 6.1376266
10.087547 9.967903 8.352623
88.69555 0.960907 68.50262
88.076546 3.1009064 0.55261993
83.39255 54.609905 10.134617
82.29155 56.482906 10.215618
62.64155 5.5159073 3.1136246
63.591545 4.1999054 4.9436264
57.595547 4.3649063 14.963619
59.28055 3.833908 15.900623
36.953552 41.86791 13.942623
38.22255 40.604908 12.701618
41.790543 39.38891 0.5196228
40.27655 40.611908 68.88962
12.695549 24.483908 10.71262
13.4585495 26.451906 11.805622
18.08255 34.403908 4.8356247
17.271545 35.850906 2.9336243
81.69755 22.436905 0.23062134
82.59855 21.207901 2.128624
77.90155 15.248901 11.583622
75.93455 16.225906 12.001621
60.952545 26.258904 23.514618
60.076546 24.389908 22.576618
61.806545 27.443901 10.379619
63.327545 27.670906 8.628618
35.408554 55.022907 36.82462
33.506546 55.214905 37.95462
28.553543 49.182907 47.786617
30.229546 49.114906 49.45762
22.233543 55.524906 8.361626
22.104546 53.97891 6.576622
25.962547 2.1749039 65.94362
24.144547 3.1939049 65.94362
45.236557 14.726906 28.587618
43.435547 16.324905 28.757618
37.451553 11.118904 38.404617
37.368546 12.992905 39.88762
1.8245468 54.723907 36.688618
1.3455505 52.741905 35.99662
90.38055 51.511906 47.813618
89.39955 53.686905 47.70862
29.364548 24.837908 58.529617
28.628548 25.949907 56.946617
34.997543 32.664906 47.65662
36.191544 31.203907 47.475616
49.130547 38.253906 22.28262
50.283546 36.282906 23.188618
42.30755 32.33291 31.326618
43.514545 30.848907 32.12462
13.52755 39.025906 36.90862
13.311546 36.640907 36.661617
6.0925446 29.921907 43.861618
6.025551 27.737907 44.223618
83.87855 2.8849068 27.569618
84.01155 0.6029053 27.209618
88.75455 3.3729057 15.958618
87.605545 3.186905 14.218618
61.944546 15.652901 22.068619
62.983547 17.017906 24.118618
55.527546 12.379906 32.257618
55.64155 10.631905 32.931618
41.72255 28.157907 50.95162
41.863556 30.838907 52.16462
37.91255 31.505907 63.39462
38.27855 29.904907 64.91262
1.8995514 41.574905 50.31662
3.3925476 40.766907 51.134617
86.97655 40.580906 59.42862
86.952545 38.792908 58.932617
40.47255 54.590908 57.780617
38.331543 55.808907 57.84662
32.740547 51.215908 66.75362
33.521545 49.090908 67.03862
19.029549 3.6809082 26.985619
17.580544 2.125904 26.471619
18.336548 8.398903 14.983619
20.515549 7.4619064 16.232618
30.245544 47.82691 64.58862
31.427544 45.794907 64.32162
37.45955 50.823906 55.160618
38.84955 49.082905 54.09762
6.650551 34.601906 14.099618
5.211548 35.661907 14.966619
91.451546 32.820908 24.85962
91.83655 34.729908 25.73062
67.301544 27.503906 8.820625
69.29555 26.725906 9.342621
74.03255 28.093903 65.76862
72.968544 25.889908 66.39662
14.328545 29.573908 32.66662
16.354546 28.543907 32.411617
21.95855 33.587906 24.749619
23.620544 32.204906 24.405619
62.964546 2.901905 53.855618
63.992546 3.6839066 55.55362
57.39155 56.135906 63.14562
56.34955 56.893906 65.23162
54.820545 18.336906 51.47762
55.549545 16.320908 52.27062
66.08355 19.082901 43.62462
64.41655 20.071907 42.183617
70.18055 16.756905 7.6986237
72.16955 16.650902 8.840622
78.37155 18.354904 66.87462
77.90655 19.007904 64.79362
65.827545 5.370907 54.606617
66.260544 7.2669067 54.55362
70.772545 10.6979065 44.078617
71.30655 12.740906 44.141617
73.02855 16.516907 44.29862
71.46155 17.734901 43.322617
81.229546 19.4169 35.34662
79.73655 19.506905 33.14862
60.886547 18.487907 37.743618
60.785545 20.635902 36.95762
67.62555 22.415901 28.869617
68.29455 24.119904 27.764618
76.770546 12.151901 11.206618
74.97255 13.783905 11.497619
68.01555 11.884903 22.97062
69.43055 12.809906 24.646618
26.452545 55.349907 30.333618
26.130547 55.433907 28.273619
30.848549 0.27090454 18.637619
31.112549 2.3209038 17.920618
61.321545 45.797905 30.594618
60.112545 47.425907 29.356619
64.37755 47.954906 17.596619
64.44755 50.165905 17.855618
65.51555 31.494907 45.33762
64.57355 32.97891 43.772617
70.565544 34.022907 33.02062
68.812546 34.246906 31.165619
35.449554 5.3299065 38.02362
34.660545 5.618908 40.53162
27.519547 0.73890686 48.870617
25.651543 1.5089035 49.209618
68.91354 44.281906 17.525618
68.08855 45.681908 17.722618
64.12655 40.654907 28.459618
63.55755 42.75591 28.733618
70.83955 1.9289055 37.97062
72.728546 0.1999054 36.931618
77.746544 5.3539047 28.761618
76.300545 4.495907 27.261618
2.1075516 54.872906 67.60862
3.3175507 56.294907 68.88762
6.0955505 0.7889061 57.88762
6.1845474 55.709908 56.689617
83.46055 44.129906 60.099617
84.10055 44.653908 62.47162
76.08455 37.81191 68.28262
76.898544 37.065907 0.791626
86.65555 37.058907 57.00562
86.37755 35.022907 55.127617
89.15055 42.320908 45.001617
88.397545 41.717907 43.13762
82.203545 25.326904 34.28462
81.36455 23.2639 35.77762
75.14055 22.447906 47.238617
73.08455 21.463905 46.454617
16.03955 45.886906 19.504618
16.789543 47.758907 20.260618
19.945549 51.776905 10.008618
21.454544 52.908905 9.408618
67.73855 14.440903 61.15862
68.76455 15.987907 62.63762
63.254547 16.160904 4.1766205
63.202545 18.067902 3.9926224
70.57155 32.486908 65.96462
68.772545 31.227905 65.63062
63.969547 26.104904 6.779625
65.758545 25.875908 7.6556244
42.864548 48.155907 54.877617
43.138546 47.090908 52.37262
51.802547 51.70191 43.88762
50.12055 52.429905 42.460617
27.683548 32.918907 27.716618
27.731544 33.584908 29.892618
17.881546 32.656906 35.91662
17.339546 34.384907 37.44962
52.338547 23.886902 35.28362
52.912548 24.822906 37.11462
49.359547 20.676903 46.81962
48.560547 18.710907 48.08062
54.156548 45.063908 9.066618
54.426548 42.771908 9.645618
48.881546 41.17291 19.88062
50.480545 39.711906 20.309618
36.534546 8.083908 58.197617
36.50255 5.644905 58.08362
30.467545 6.168907 67.50062
29.511543 5.1099052 0.055625916
78.66555 29.496906 51.905617
78.75555 27.789907 50.10262
81.63955 33.16591 40.675617
79.76255 34.942905 40.60262
40.348557 45.150906 35.63862
42.65355 44.979908 36.26762
43.137543 48.443905 22.98462
45.47055 48.296906 22.929619
62.37055 27.168907 41.28062
63.875546 28.014908 41.500618
65.79755 29.981907 30.219618
67.85155 28.865906 30.070618
52.235546 3.2939072 65.24362
52.999546 5.0089073 64.51662
60.065548 7.0209045 54.642616
61.908546 5.441906 54.27562
88.99655 7.646904 16.221619
90.731544 6.5159073 16.636618
2.6185455 10.465904 5.8996186
2.7395477 12.389908 6.6656184
21.909546 55.126907 29.556618
23.761543 54.095905 29.843618
19.251549 47.910908 38.87762
19.09655 50.123905 39.09962
82.03355 50.439907 25.777618
83.729546 51.213905 24.55762
87.051544 55.921906 14.320619
88.632545 54.823906 12.987618
69.69455 15.536903 44.475616
67.51455 15.445908 42.79162
61.39855 14.683907 54.37462
59.444546 14.243904 53.44362
57.706547 13.028908 17.775618
59.256546 15.0349045 17.159618
63.60655 19.585907 7.4436183
63.804546 17.520905 6.7006183
22.844543 40.18691 6.755623
21.635544 40.629906 4.6786194
31.178543 40.40191 65.77562
31.391548 38.994907 64.46062
47.87555 28.631905 18.878618
48.358543 27.433907 20.95662
43.59555 26.548904 30.183619
43.195557 24.613907 31.37362
49.01555 51.904907 24.90062
47.136543 50.37491 24.879618
41.365555 52.224907 35.01662
42.538544 50.927906 36.63762
55.399548 30.743908 20.641619
55.035545 32.787907 19.49462
58.973545 36.907906 10.183619
56.926548 37.074905 9.252619
15.237549 23.547905 50.94462
14.573547 25.343903 52.19962
10.745552 18.7919 63.689617
9.017548 17.941902 62.86762
27.990547 14.438904 37.161617
28.757545 12.665901 38.85362
22.477547 12.347908 49.077618
21.798546 10.245903 49.516617
65.56955 19.670906 58.035618
64.535545 20.089905 56.446617
68.579544 25.974907 48.077618
69.84454 24.773903 48.45162
38.83055 41.76391 31.855618
39.759552 44.231907 32.355618
38.283554 47.823906 19.183619
40.433548 48.829906 18.981619
47.176544 8.975906 46.28262
46.868546 6.6999054 47.556618
37.30455 6.0939064 55.111618
36.26555 4.177906 54.218616
24.412544 19.125908 37.14462
24.227547 18.023903 35.306618
30.351547 21.044907 24.898619
30.357544 19.788902 23.31462
39.087555 7.668907 59.15262
40.81755 6.403908 59.794617
35.234543 2.8909073 68.39762
34.061546 4.1669044 0.1976242
38.788544 16.798904 9.692618
40.182556 16.941902 12.060618
33.631546 8.680908 20.374619
34.954544 6.6009064 19.406618
18.773544 49.814907 59.786617
17.378548 51.332905 60.39562
8.785545 49.500908 68.50662
10.042549 49.41691 1.1176224
91.76955 1.1219063 14.821621
91.32055 3.837906 15.036617
3.0905457 5.771908 3.5736237
3.8035507 3.606907 3.7686234
77.187546 37.316906 18.138618
78.89055 37.717907 18.663618
83.104546 44.114906 9.812618
85.259544 44.153908 10.619618
32.61055 42.018906 49.044617
30.211548 42.091908 48.33362
23.593544 39.858906 58.23562
25.121544 38.517906 58.960617
18.157547 46.11791 21.816618
18.820549 44.20791 20.811619
24.364548 45.866905 9.863619
25.962547 44.375908 11.160619
22.131546 4.1909065 31.657618
19.802544 3.3229065 31.317617
21.126549 53.079906 39.56762
22.102547 52.313908 41.47862
20.302544 26.461906 3.387619
18.356544 27.034904 3.0656204
13.574547 21.570908 10.986622
14.111549 22.913902 12.459621
20.357544 56.946907 46.03362
20.878548 55.759907 47.945618
18.691544 53.872906 59.92762
16.84655 55.108906 59.93662
3.7895508 2.731907 55.510616
3.5545502 0.67290497 56.57362
0.25054932 3.9579048 0.0956192
91.49155 2.8299065 68.91362
60.73155 15.144905 39.71462
62.275547 14.933907 41.057617
58.114548 12.0089035 52.410618
55.998547 12.489906 52.76362
42.461548 54.893906 4.6846237
43.164547 56.745907 4.0136185
48.879547 6.3799057 65.52462
48.48155 6.5679054 62.843616
63.406548 33.94491 60.669617
64.15855 35.70091 61.49062
71.36355 40.500908 50.924618
70.19655 42.108906 51.62362
21.547546 0.889904 29.444618
21.770546 0.2779045 27.185617
22.934547 6.332905 16.139618
23.131546 7.860901 17.422619
36.115555 26.980904 48.08162
37.769547 27.775902 49.10362
38.439545 26.986908 61.479618
39.614548 25.0279 62.58262
13.20755 0.37590408 39.57562
11.212547 0.8229065 39.00462
14.938545 2.5309067 27.889618
15.206551 0.58890533 27.276619
41.102554 1.4359055 3.887619
39.680557 2.698906 3.501625
46.449547 9.138901 63.250618
44.41655 9.458908 62.49962
17.898544 20.341904 68.26762
18.131546 18.563904 0.09661865
11.941551 12.655907 8.628624
9.612549 13.128906 8.495621
32.880547 5.9999046 20.85962
31.426544 5.726906 22.019619
29.18155 1.7969055 33.29062
30.43155 0.25190353 33.93462
68.51855 26.333908 29.328619
67.19555 24.582901 30.419619
62.468548 20.058907 39.81662
62.790546 21.988907 40.48262
12.878548 51.79191 39.63862
14.553551 50.709908 38.72862
18.794548 50.356907 27.596619
20.83255 51.459908 27.749619
41.703552 10.553902 62.54162
42.48555 11.166901 64.52162
32.47255 9.778908 2.7666245
33.422546 8.080902 3.916626
50.129547 27.632908 51.114616
50.17555 30.028908 50.19362
56.194546 34.11091 40.92762
54.971546 35.349907 41.618618
89.451546 27.604906 4.8986206
88.54455 29.410908 4.856621
0.39855194 32.167908 62.17162
2.2995453 32.023907 61.68062
21.130547 45.059906 24.809618
22.83255 43.877907 24.038618
27.323547 46.052906 13.502619
29.461548 46.797905 13.561619
41.068558 14.906906 45.064617
43.171555 16.224907 45.112617
46.98655 18.404907 33.21762
47.44655 17.691902 31.115618
16.01255 35.663906 19.61662
15.264549 38.039906 20.696619
11.5835495 32.266907 30.819618
11.4205475 30.477907 30.220617
70.34655 46.810905 52.141617
70.92955 48.560905 52.01862
74.26455 50.854908 40.92962
72.562546 51.092907 39.931618
89.22555 48.889908 48.13162
88.19755 50.207905 49.72062
86.80355 45.793907 62.80562
87.65155 47.907906 63.57462
5.4515457 36.06191 11.866619
4.6785507 34.840908 9.798622
11.62455 40.691906 1.7606201
11.303551 42.813908 0.85762024
5.4425507 55.509907 1.0546188
5.187546 53.750908 2.6296234
0.3355484 56.42391 13.719624
91.37955 55.868908 12.399624
78.96455 13.110901 28.443619
81.19355 13.813904 28.010618
90.50155 15.334908 20.402618
89.11555 17.016907 19.68262
11.495552 37.154907 34.80562
9.370552 38.02691 33.71862
4.3155518 30.604906 41.51762
4.025551 31.774906 43.69162
55.970547 42.68791 60.779617
56.260548 44.154907 62.32462
51.123547 41.358906 3.9506226
48.990547 40.948906 5.3696213
70.049545 19.862907 26.429619
69.65755 20.872902 28.614618
63.878548 16.923904 37.85962
64.313545 15.567902 39.889618
82.27955 51.661907 61.739616
80.62955 49.901905 62.46262
75.62455 46.052906 3.8746185
77.41354 47.236908 5.1496277
83.619545 6.3039055 11.450619
82.426544 6.182907 9.630623
87.592545 9.176903 0.23162079
89.39255 10.808907 1.4546204
11.477547 54.439907 56.61062
12.8565445 55.611908 56.68562
13.40255 3.3229065 45.82562
11.83255 3.559906 44.350616
70.37254 29.160908 10.785619
68.03955 28.042908 11.535619
63.430546 29.842907 22.504618
65.35255 29.065907 23.971619
61.91155 45.299908 11.923618
61.100548 43.602905 10.632618
69.76455 46.016907 2.4246216
71.17754 47.193905 1.6066208
12.470551 17.196907 29.962618
11.570549 16.595901 27.771618
14.584549 20.338905 16.376617
15.542549 22.302902 16.215618
89.23255 7.5429077 68.74962
89.72155 8.091904 66.70562
1.4845505 13.762901 58.65962
92.95655 12.636902 57.97262
5.2345505 49.586906 18.136618
5.122551 50.74991 19.74162
0.8715515 42.910908 27.334618
2.2815475 43.050907 29.217619
14.530548 29.119907 14.332619
16.686546 30.212908 14.930618
23.418549 32.49291 6.9326186
24.507545 34.341908 5.8746185
91.59655 51.919907 51.322617
89.63555 52.171906 50.48362
85.078545 51.349907 62.06162
86.03355 51.750908 63.857616
20.904549 22.942902 19.158619
21.560547 21.407906 20.45962
25.827545 21.556908 23.135618
25.035545 23.667908 22.15762
57.366547 26.343903 4.8736186
57.454548 28.306908 6.3456187
47.694546 25.407906 15.041618
47.968548 27.095901 16.832619
0.62055206 41.959908 15.327619
92.46355 40.323906 15.316618
84.354546 41.897907 24.33462
85.42955 39.469906 24.676619
66.12555 12.930908 56.40762
66.18255 10.914902 55.07362
71.883545 17.441902 46.70662
73.32455 19.039902 47.627617
85.53255 24.481903 21.684618
87.28955 26.046906 22.266619
80.75455 24.564903 32.03862
78.96455 24.502907 31.353619
62.845547 54.095905 68.43462
63.680546 52.63191 0.47362518
55.13455 52.237907 10.117619
54.434547 53.679905 9.0026245
2.7065506 14.064903 40.46762
2.1355515 13.585907 38.71462
6.3215485 20.526901 29.972618
4.2695465 20.2919 30.079618
74.70955 45.171906 52.06062
76.41455 44.77791 53.572617
81.58955 47.746906 44.29862
81.21455 47.766907 42.20562
1.433548 22.5969 24.516619
2.697548 21.865906 25.91462
87.72255 17.443901 35.22862
87.21055 15.360901 36.08562
57.697548 45.142906 45.97862
55.626545 45.839905 46.925617
50.572548 40.42291 56.050617
51.992546 38.649906 56.53462
87.603546 48.866905 44.95162
87.44455 46.57691 44.084618
90.10255 47.843906 33.92762
91.937546 49.023907 32.93662
2.0375519 40.113907 45.786617
2.2915497 38.136906 46.814617
90.72355 33.882908 57.55362
88.65155 33.890907 58.75662
23.72255 2.224907 14.368618
24.79255 2.8159065 16.108618
19.412544 56.847908 26.296618
19.607544 54.980907 27.509619
83.19355 35.522907 6.4866185
82.26555 33.484905 6.6866183
82.050545 28.312906 17.353619
82.02455 29.619907 19.00862
83.44155 20.855904 17.906618
85.495544 22.712906 17.815619
90.54555 25.672905 6.7526183
89.14055 24.695908 4.8886185
85.67255 44.53491 43.79662
87.28255 44.216908 42.772617
87.758545 49.566906 31.455618
85.46055 50.364906 30.734617
67.48354 55.22891 16.627619
64.97255 56.226906 15.584619
69.02955 5.561905 6.9556184
70.35155 7.2779007 7.9056187
51.678547 13.333908 33.32562
51.693546 14.754906 35.27562
44.921547 13.848907 44.625618
43.928547 11.6719055 44.856617
58.779545 10.107903 17.691618
58.746548 11.172905 16.019619
61.242546 14.012901 4.3416185
63.304546 12.264908 4.7926188
33.592545 1.2479057 0.58862305
31.955544 0.2889061 68.75562
25.004547 54.439907 8.983627
25.58255 52.829906 10.357624
41.772552 36.31991 36.50962
40.005554 36.655907 35.44062
36.359543 32.71491 45.230618
34.220543 30.867907 45.515617
60.133545 26.4719 5.1086273
60.677547 24.472908 4.0066223
62.914547 29.586906 61.63762
62.153545 31.794907 61.71362
87.340546 50.753906 13.073619
87.04255 48.622906 13.247619
79.28855 41.59691 21.76862
79.83455 43.118908 23.261618
72.97655 26.152906 29.631618
72.25055 27.823908 27.733618
73.15054 30.502907 16.649618
75.05655 31.180906 16.460619
9.300545 7.8879013 23.982618
6.6285477 7.5019073 24.527618
0.3445511 6.000908 33.74162
93.03255 3.769905 34.82262
48.671547 32.008907 0.59661865
49.64855 33.876907 0.30762482
55.046547 33.723907 59.438618
54.393547 32.56991 57.74062
19.686546 29.041904 40.23562
21.31855 28.378906 41.84662
16.257545 27.869904 51.946617
17.271545 27.109901 53.724617
37.39955 1.507904 56.37962
35.243546 1.0909042 56.697617
27.742546 56.755905 64.79262
28.685547 1.4179039 65.82162
26.947548 29.208908 42.14362
28.574547 27.827904 43.11062
21.987549 29.477905 55.08362
21.025543 27.091904 55.696617
47.143547 9.435905 28.222618
45.969543 11.041901 28.853619
43.185547 11.5089035 42.04662
43.83255 9.225906 42.503616
31.130547 17.306908 38.53462
29.17955 16.814903 37.272617
36.183548 18.567902 26.556618
34.883545 19.875908 24.92562
71.44855 34.16591 15.375618
72.92255 33.067905 16.912619
67.30254 32.359905 28.155619
66.729546 33.931908 29.061619
85.578545 45.112907 27.383617
87.44255 44.980907 29.242619
84.395546 41.09691 39.03062
84.99955 38.56191 39.098618
38.08055 19.074905 46.36562
38.995544 16.954903 44.93762
35.72255 9.340904 55.87462
34.685547 7.502907 55.01862
88.89155 55.739906 32.87762
86.96355 56.093906 34.001617
82.021545 1.6479073 44.405617
80.606544 3.0749054 44.91562
40.846558 6.561905 6.4846187
40.450546 4.731907 7.3906183
31.298546 56.170906 13.526619
32.983543 54.668907 14.568619
87.15355 32.390907 8.225618
88.145546 34.205906 8.764619
84.01355 31.091908 20.047619
82.619545 31.521908 21.877619
8.02755 32.612907 64.67562
7.8215485 32.892906 62.383617
15.936546 33.336906 54.60162
16.102547 31.632908 53.23562
1.759552 31.642906 26.871618
92.606544 30.972906 26.548618
89.30455 26.717907 39.20862
88.536545 24.722906 38.431618
71.577545 14.513901 10.491618
70.03055 16.257904 10.4476185
66.120544 13.732903 21.78262
64.506546 14.843903 21.47062
76.758545 23.001907 33.264618
77.953545 25.283905 33.709618
69.31855 23.272903 42.34062
67.703545 24.927902 41.95562
33.537544 1.9239044 16.663618
35.073547 2.1389046 18.033619
38.493546 11.196907 9.3816185
39.35855 12.905907 10.156618
13.452545 45.351906 4.979622
12.185547 43.76991 6.243622
7.353546 37.670906 14.405621
5.9185486 38.56891 14.764622
58.37055 34.08991 6.458626
60.237545 35.323906 6.050621
60.547546 33.545906 63.42862
61.163548 35.215908 62.071617
22.659546 20.626907 55.897617
23.34655 18.646904 56.32362
13.509552 13.613907 62.41462
14.288551 12.234901 63.93762
18.688545 12.957901 30.066618
17.922546 11.562904 28.385618
27.879547 13.576904 19.964619
29.475548 14.560905 21.051619
36.033554 27.254908 27.460619
37.70555 29.093906 27.612617
42.216553 31.159906 17.270618
43.323547 32.439907 15.931619
90.01855 30.514908 41.04662
88.35955 28.743908 40.59462
84.21455 29.489906 53.010616
84.18155 28.394907 55.229618
84.93255 46.477905 25.15762
83.55655 47.010906 23.580618
89.285545 47.255905 14.353619
91.10755 46.752907 13.673618
20.186546 12.635902 16.448618
18.747543 11.079903 15.966619
10.18055 5.394905 22.917618
11.954552 5.420906 24.46662
10.99955 36.191906 16.627619
9.1445465 35.057907 17.681618
7.0005493 31.307907 27.424618
7.766548 33.045906 28.543617
30.418549 36.65991 10.53162
31.61155 34.924908 9.683624
34.40455 38.914906 68.81962
34.914543 40.988907 67.42662
17.84655 40.083908 3.526619
19.213547 41.969906 3.9866257
21.883545 47.801907 62.447617
21.591545 47.262905 60.47062
22.246544 20.073906 35.83762
21.239548 21.593903 34.70562
29.268547 25.449905 27.218618
28.482544 24.766907 25.61962
50.06455 24.905907 33.28162
49.108547 26.031906 31.118618
58.038548 26.230904 22.528618
58.972546 28.804905 21.955618
65.66354 4.8509064 3.6436234
67.301544 4.740906 5.1136246
71.756546 6.358906 63.544617
70.77855 8.183907 61.95162
41.579544 11.425903 60.01162
42.088547 13.529907 61.016617
48.51655 18.738907 51.71562
50.173546 17.655907 50.37462
53.403545 40.76991 23.937618
55.105545 42.493908 24.041618
58.290546 42.683907 12.648619
58.426548 44.45191 11.108619
28.246544 38.836906 43.81062
29.040543 41.00691 43.730618
29.685547 44.355907 31.838617
30.824547 46.200905 31.274618
3.1275482 21.1669 63.65862
1.6025467 20.798904 62.02762
83.61655 17.462906 66.71462
84.13555 17.977905 68.51662
23.367546 12.657906 35.098618
22.898544 12.294907 37.153618
19.186546 7.559906 46.34462
19.537544 6.760906 48.42062
35.134552 17.969902 23.10962
37.28755 17.820908 23.936619
42.67955 24.120903 13.015618
43.920547 22.612907 12.305618
43.933548 45.038906 18.934618
45.14855 43.050907 18.687618
51.966545 42.503906 8.602618
51.417545 41.43791 6.7856183
46.327545 18.788902 46.536617
47.232548 20.561905 45.329617
49.875546 18.9169 34.08562
51.457546 17.373901 34.35662
27.795547 27.775902 58.65062
28.738548 27.2779 60.68462
21.81955 23.903908 0.52661896
21.51455 21.898903 0.85362244
33.059547 55.07691 51.843616
31.165543 55.475906 50.87362
23.011543 49.412907 60.028618
24.243546 49.920906 61.46562
70.19255 30.960907 31.497618
70.494545 29.143906 30.592619
74.229546 24.063904 31.641619
73.35155 23.237907 29.941618
22.154549 31.651907 3.777626
23.071548 33.406906 2.850624
27.08355 37.581905 62.46262
26.290543 36.593906 60.598618
33.716545 26.410904 24.965618
35.532547 24.826904 25.086618
41.02455 28.486908 13.049619
43.413544 27.890907 13.138618
27.867546 18.925903 20.500618
29.081543 17.108902 21.257618
20.752548 14.873901 31.965618
22.080544 16.095901 34.17362
16.031548 28.828907 1.4816208
16.036545 26.525902 0.98062134
9.232552 25.773903 10.72562
7.850548 27.1669 11.14262
78.67855 53.465908 58.71362
80.660545 52.757908 58.994617
86.30755 4.833908 51.197617
87.438545 6.4319077 52.327618
78.786545 12.027901 63.91362
78.17155 12.594902 66.11462
72.29155 8.927902 6.8736267
70.549545 9.512901 6.267624
34.072548 1.4989052 35.62262
34.637543 3.4429054 34.82962
39.247543 3.3339043 23.523619
39.785553 5.4999046 24.379618
36.809555 6.7349052 24.12362
35.65555 7.898903 24.764618
26.483543 10.2849045 33.30262
27.063545 9.207901 34.876617
20.108543 16.565903 68.74162
20.794548 18.870903 68.64262
26.378548 23.930908 57.828617
25.024544 22.925903 56.764618
9.656548 38.525906 17.517618
7.4935455 37.37491 17.156618
4.5275497 33.065907 27.452618
3.020546 34.154907 27.845617
49.046547 36.740906 5.1386185
49.656548 38.393906 6.4916186
41.059555 41.90291 16.448618
42.896545 42.107906 17.503618
65.83755 49.656906 49.45162
67.370544 51.206905 48.95562
71.660545 56.351906 39.05962
73.60055 56.296906 39.58962
3.2755508 52.86791 0.6866226
2.9105453 52.307907 2.7026215
90.18255 51.02791 12.371624
91.35955 49.323906 12.589619
48.40555 47.043907 40.785618
47.531548 48.924908 40.94862
39.060547 46.210907 50.592617
37.772552 48.44491 49.808617
86.18655 52.712906 11.776623
85.855545 51.150906 10.802624
91.24755 53.676907 69.16562
90.19255 54.447906 66.96062
82.07555 17.653908 14.755619
83.228546 15.892906 13.44762
85.10255 22.254906 3.1766205
84.118546 23.949905 3.8936234
4.2745514 35.587906 64.43262
6.133545 34.43691 65.80362
1.4395447 29.684908 6.9406204
92.79655 29.156906 8.017624
38.16855 0.64590454 3.0586243
38.204544 0.5489044 0.78862
44.764557 2.9779053 59.926617
44.883545 5.182907 59.88862
15.52655 0.8039055 60.966618
14.316551 0.70290375 58.931618
20.42955 7.606903 51.49962
22.605545 7.7689056 51.25562
44.37755 0.658905 22.332619
43.58455 56.125908 21.111618
45.87655 55.491905 8.7566185
46.494545 54.215908 7.0826187
31.645546 2.7049065 36.44062
29.719543 1.6369057 36.27662
23.093544 56.620907 46.09562
23.90255 55.056908 47.495617
82.47355 7.238907 65.30762
82.730545 6.877907 67.59362
74.83155 2.4799042 5.588623
75.90755 3.500908 6.984627
71.89455 32.060905 13.876621
70.70755 33.53491 12.736622
72.11655 36.969906 0.6486206
74.12855 36.85391 0.9436188
1.6375504 10.215904 22.799618
0.17554474 11.200905 21.66162
84.77955 10.517906 31.432617
82.30855 11.012901 30.685617
88.11655 43.907906 64.29262
85.868546 43.730907 64.85362
86.077545 35.559906 6.1456223
87.534546 36.897907 7.1196213
89.23755 32.210907 6.711624
91.271545 31.766907 5.477623
92.256546 38.542908 64.65562
0.99555206 37.924908 63.843616
35.454544 9.502907 5.7956185
36.555557 10.341904 7.7886186
29.70855 6.6579056 17.389618
30.896545 7.279907 19.027618
15.241547 6.5779076 26.534618
13.339546 7.5729065 25.070618
24.134544 10.496902 17.848618
26.18155 11.5349045 18.038618
21.47155 35.842907 58.24862
22.994545 36.722908 59.27662
17.100548 34.481907 0.6046219
17.329544 32.710907 2.4416199
19.558548 7.5309067 64.24162
21.406548 8.944908 63.850616
24.803543 16.084908 54.260616
22.978546 17.323906 54.13162
72.69555 29.431908 63.74962
72.062546 31.488907 63.84562
82.96055 33.349907 55.697617
84.00055 34.872906 56.348618
76.83054 28.299908 64.70462
79.286545 29.551907 65.13962
84.50155 35.512905 59.37262
85.82555 34.139908 58.362617
78.828545 53.730907 9.747619
80.27655 54.574905 10.889619
73.08555 56.88891 22.193619
73.90655 54.945908 23.099619
63.96055 32.121906 9.005623
65.80555 33.300907 9.365623
71.647545 34.529907 69.01962
70.11555 35.303905 67.21162
71.675545 4.429905 23.896618
70.785545 5.467907 22.120619
77.55655 0.271904 24.05762
78.90855 0.6979065 26.220617
15.560547 15.795906 13.741619
16.020546 14.793907 11.926617
