39.69788 68.50169 3.9815865
52.10288 74.33269 7.659584
51.207882 76.069695 8.971584
26.49788 91.793686 8.432583
28.77688 91.30369 7.3255835
40.04288 95.585686 13.105583
38.62188 96.58369 14.8515835
11.293884 100.80369 26.827583
9.569885 101.155685 28.270582
75.74888 98.05069 25.359583
76.00788 95.79669 24.998583
66.736885 35.384693 13.580585
66.54688 37.203693 12.383586
57.13188 28.201693 3.3845863
58.19288 29.600693 2.3455849
72.46288 72.25969 13.556583
74.49688 71.305695 14.180583
2.3788834 81.07769 23.908583
1.6588821 80.56869 26.039583
37.84388 80.36269 34.67758
35.75288 81.30169 34.930584
26.35288 74.10169 32.003582
24.00888 73.85369 31.813583
22.65188 133.53569 25.040583
21.17188 134.9247 25.143583
30.95188 1.5116882 31.753582
32.80288 2.492691 31.738583
76.84888 123.89569 0.60058594
78.02988 124.11669 38.060585
9.673882 129.15169 5.652584
10.9758835 129.36569 3.6545868
46.29488 71.51269 22.814583
48.02188 73.083694 23.372583
61.16988 76.80969 27.325583
61.36988 79.54869 27.137583
40.901882 14.88269 5.140587
39.936882 13.745682 7.152584
25.24188 12.745682 2.9195862
26.18688 10.825684 1.6275826
57.65088 21.533693 0.6685829
58.20488 21.663692 37.056583
45.69488 17.538692 32.144585
47.12388 16.559692 30.842583
30.44688 100.557686 35.394585
32.27188 99.10069 34.351585
43.22888 103.43669 2.1545868
45.58088 104.43369 2.232586
68.264885 37.44969 10.026583
68.613884 34.95869 10.324583
4.742882 36.36169 12.437583
5.1498795 35.974693 14.772583
64.19288 20.033693 27.192583
62.35088 21.354692 27.161583
52.33988 22.679693 17.392584
52.35088 20.900692 16.216583
55.03888 5.5126953 25.963583
56.07888 5.343689 23.967583
68.05988 12.113693 29.881582
67.002884 13.895691 30.363583
51.52588 69.71869 18.911583
53.01188 70.14469 17.192583
65.069885 77.61569 19.182583
64.07488 79.79369 18.453583
65.26088 139.08769 5.987583
66.16388 0.7566986 7.679583
74.87988 8.13269 12.0685835
76.34688 9.78569 12.630583
68.21288 47.06769 2.8935852
69.91088 45.26369 3.4195862
2.386879 51.147694 7.3795853
3.3388824 50.25569 5.666584
69.75688 130.4327 9.423583
69.778885 132.29169 8.051583
0.51688385 0.2846985 15.277583
78.74788 1.9236908 16.347584
46.15388 96.95869 5.180584
46.24688 95.10069 3.8405838
34.95988 89.81469 37.485584
35.02988 88.06869 36.009583
63.93088 79.44069 26.303583
65.77188 78.50169 25.867582
77.26488 81.79869 33.418583
76.08988 81.43969 35.339584
17.77788 47.676693 27.184582
17.750881 49.17169 25.692583
30.27688 49.52169 32.815582
31.66188 48.19269 32.466583
40.05188 127.37269 25.169582
38.14088 127.87169 25.728582
31.26588 123.40369 14.363584
29.16588 122.90969 13.370584
47.43388 77.263695 16.357584
47.415882 79.445694 16.695583
56.59188 87.32569 23.095583
57.17188 88.39569 24.930584
72.556885 46.904694 31.177582
71.76988 45.335693 31.183582
60.01188 42.91069 24.768583
58.42488 42.932693 26.539583
42.89188 45.696693 12.556583
41.51088 46.202694 14.611584
29.44688 42.17369 11.353583
27.94488 42.488693 9.335583
48.047882 40.212692 11.947583
49.922882 38.927692 12.181583
59.59088 49.16069 11.606584
61.35188 49.58869 10.432583
44.23788 118.54969 24.830584
45.59688 119.69969 23.143583
33.55988 115.18469 13.390583
34.05188 112.97169 12.792583
17.96888 67.23769 11.799583
18.55088 67.39669 13.8115835
22.937881 69.56169 3.8285835
23.08588 67.27169 3.991583
70.22888 86.67869 3.1045837
68.67888 87.75669 4.4395866
56.98388 81.36469 36.598583
58.14488 79.778694 35.222584
4.5328803 36.127693 21.136583
5.41088 38.163692 22.006582
17.382881 35.223694 29.644583
16.729881 35.573692 31.919582
0.39588165 116.34469 37.240585
1.1678848 116.05669 0.24458313
12.240883 119.74669 7.2315865
13.073883 121.95669 7.374584
32.435883 127.22369 37.994583
33.41188 128.87569 35.832584
21.23888 125.83669 30.478582
21.094881 125.59369 28.027582
73.181885 62.246693 20.980583
72.86788 64.45769 20.201584
7.0928802 69.02269 24.258583
6.955879 71.27169 24.371584
48.19788 74.72569 14.622583
48.21688 76.87669 13.463583
39.115883 69.07169 8.571583
36.823883 70.13269 8.021584
45.00988 15.225693 33.092583
42.88388 14.930695 32.797585
34.87588 6.112686 24.499582
33.157883 7.4046936 25.270582
69.96288 92.73369 0.1815834
71.63688 91.71369 1.140583
2.5018845 94.63969 8.729584
4.4478836 93.86769 9.140587
20.13488 130.84569 28.346582
19.99888 132.4287 30.350582
32.19688 139.0797 30.063583
34.00288 138.13469 29.638582
68.41288 133.6937 5.039585
67.45288 132.1827 6.487587
58.07788 127.97369 34.293583
56.63788 127.39369 35.475582
52.57388 40.045692 37.789585
51.36388 40.419693 35.766582
41.78888 38.34569 29.305582
40.11388 39.004692 28.009583
38.14788 120.87469 33.766582
37.92088 119.48969 32.199585
26.71688 113.60069 28.798582
26.78388 111.75669 27.396582
70.252884 25.750692 17.919582
71.585884 27.156693 16.894583
6.0798798 24.741692 20.003584
6.571884 23.702692 18.360582
1.7908859 101.571686 9.353583
0.9948807 102.12069 7.419586
68.49388 96.60669 2.4985847
67.376884 97.390686 0.7215843
14.472885 57.892693 21.159582
14.42588 55.87369 20.579582
3.214882 57.765694 12.712584
2.1218796 58.218693 15.009583
15.761879 125.90869 36.091583
15.797882 127.23069 33.933582
3.2358856 122.02369 31.289583
4.1578827 119.89669 30.423582
17.928886 42.552692 30.463583
16.92688 40.13069 30.506582
5.679886 40.635693 21.366583
4.307884 41.953693 20.587584
37.98588 108.91469 6.105587
37.61388 109.86669 4.331585
22.757881 106.66169 2.5325851
22.36688 108.654686 3.0875854
40.35788 60.203693 3.7625847
39.75188 61.905693 5.7385864
27.06788 55.926693 0.66158295
26.204882 56.670692 2.548584
35.49488 77.21569 38.826584
37.00888 76.81469 1.1135826
24.75188 70.02369 36.408585
25.12488 69.77969 34.263584
25.38488 3.6066895 3.722583
27.19288 2.741684 4.435583
37.88388 3.815689 13.984583
39.512882 2.3086853 14.616583
1.8278809 129.64769 26.258583
2.563881 131.04869 27.815582
17.864883 134.0907 28.053583
17.388885 133.1207 29.874582
48.94888 133.48169 5.2055855
51.08088 131.8637 4.2405853
63.40188 135.1117 12.213584
63.87788 133.1697 13.255584
48.89788 9.53569 27.852583
48.35088 11.479691 26.885582
36.740883 4.773697 20.223583
37.10588 2.521698 19.929583
37.88588 16.526691 11.507584
39.77088 15.274693 11.909583
49.57688 22.606691 16.326584
49.34188 24.885693 15.135583
40.46888 9.735687 8.313583
40.539883 11.074692 6.518585
25.53088 9.167694 3.8685837
23.48488 8.5316925 4.7745857
32.79288 30.632692 8.784584
30.55388 32.170692 9.188582
17.243881 25.337692 8.567585
15.92588 25.812693 6.822586
59.51288 99.14769 13.2855835
58.71388 97.08869 12.815583
54.832882 98.79069 21.098583
54.09588 101.02169 21.234583
64.54888 4.96669 9.075583
63.02288 6.7246857 9.573584
74.06588 12.683685 17.181583
73.02188 13.548691 18.818583
75.40288 7.098694 21.305584
74.35088 6.9016876 23.354584
9.024879 11.745682 30.180582
7.9548798 11.506683 32.229584
64.62888 114.44169 32.42058
63.58488 112.60469 31.548582
52.15288 109.44769 25.925583
52.49688 107.47969 25.061583
74.207886 51.007694 26.971582
74.83088 51.768692 25.125584
61.79288 45.93669 18.706583
60.90688 44.31869 19.431583
75.90988 75.79669 1.6235847
76.57088 73.70169 2.1535835
66.40688 68.97669 32.636585
64.487885 67.90969 33.808582
44.17188 39.379692 20.449583
45.36288 40.629692 18.724583
53.53288 45.094692 29.711582
55.283882 44.558693 30.406582
51.54888 28.565693 9.737586
49.84388 28.605692 11.560584
40.22288 25.434692 0.9275856
39.297882 23.409693 2.166584
64.638885 22.217691 28.804583
63.95988 23.400692 30.553583
73.92688 31.290693 1.1605835
73.58088 33.278694 38.665585
22.13088 132.50769 21.326584
21.15788 132.19969 18.962584
9.78188 126.863686 12.566584
9.18688 126.18169 15.125584
29.23488 14.700684 19.667583
30.13088 12.4296875 21.234583
19.33288 5.1786957 16.393583
19.395882 6.8776855 14.712584
70.31788 64.23369 21.909582
68.15188 64.68869 22.732582
57.34988 56.05369 19.357582
56.06088 56.027695 17.224583
62.93288 27.680693 31.071583
61.92788 28.525692 32.720585
71.527885 37.231693 37.682583
73.32588 37.61069 36.298584
62.54188 94.71769 18.447582
61.24088 96.27269 18.281584
73.694885 106.68069 17.867582
72.89488 107.92869 19.462584
5.7238803 100.765686 4.850583
4.73888 100.17869 6.6245832
18.54888 99.127686 15.826583
20.094881 100.76169 14.789583
64.94088 106.20369 36.879585
64.25488 107.49969 34.716583
52.94988 98.918686 29.935583
53.14388 100.05869 27.903582
69.15088 64.35869 27.280582
70.41188 65.999695 26.031582
2.3418808 72.360695 33.777584
2.7398834 73.91369 32.91358
64.499886 45.56869 12.838583
65.63088 46.462692 14.653584
78.13188 52.808693 17.344584
77.93288 55.101692 17.840584
38.74688 111.83069 0.37058258
40.34788 110.09769 38.454582
27.42888 105.29169 36.084583
27.33688 107.16169 37.491585
18.608881 32.564693 33.568584
18.04088 32.754692 31.462582
5.73988 31.351692 26.906582
6.4008803 30.994692 24.593582
45.25888 122.18369 24.862583
46.06988 123.30969 26.517582
54.82488 128.19069 33.472584
55.76288 130.34369 32.806583
8.77488 123.47869 18.750584
9.541881 124.835686 17.638582
23.90788 127.141685 19.439583
24.740881 129.6297 19.811583
58.48988 26.224693 38.700584
58.91888 27.479692 0.95858383
70.60488 25.814692 8.756584
70.207886 25.207693 10.988585
25.81088 121.29069 26.927582
24.63688 120.17069 28.148582
12.581881 118.69369 20.668583
11.66288 120.73369 20.520582
12.9378805 103.65769 24.375584
14.26088 102.585686 25.634583
25.15088 107.78569 32.520584
25.719881 107.74869 34.679585
18.94688 13.045685 11.810584
18.24288 11.582687 13.006583
7.3938804 9.069687 2.2935867
6.9068804 11.378693 1.4895859
38.713882 83.95069 25.270582
41.03188 83.58169 24.993584
52.51288 87.63069 32.159584
54.60588 86.49569 32.807583
58.33588 63.052692 5.8255844
56.40788 62.604694 6.782585
46.700882 55.809692 3.1135864
47.33888 53.270695 3.173584
59.96288 76.06069 30.009583
61.16088 73.500694 29.428583
52.42488 68.12969 21.286583
50.42788 67.473694 21.999582
65.042885 82.90369 18.327583
66.835884 82.52569 19.797583
77.42388 92.18769 24.479584
78.33488 92.96469 22.809584
4.1778793 100.55269 13.172584
3.2448807 102.46569 12.722583
15.418884 108.22769 16.531584
15.269882 106.904686 18.106583
54.19888 32.06969 8.434586
54.26888 32.934692 6.4985847
39.26088 29.995693 2.584587
39.41388 28.145693 2.6845856
35.70188 46.726692 26.871582
34.64988 44.93069 27.287582
21.38888 42.39469 27.239582
20.49588 43.732693 25.912582
2.2968826 100.30469 15.314583
0.82987976 101.54669 15.349584
11.889885 107.64569 21.283583
11.619881 106.29569 23.459583
4.1058807 50.750694 9.639584
4.8268814 52.375694 8.488584
16.63588 56.779694 14.289583
17.347885 56.411694 16.771584
13.251881 65.555695 21.560583
14.6878805 67.63269 21.397583
30.01388 70.54969 22.804583
31.07088 68.81369 22.716583
64.932884 47.940693 8.756584
66.15088 47.814693 6.965584
0.37688446 54.878693 8.427586
1.8458862 54.474693 10.555583
28.02788 22.667692 23.031584
26.39188 23.815693 22.172583
15.589881 12.810692 21.285583
13.98188 14.179692 21.996584
43.56988 10.588684 6.631584
42.74988 12.863693 5.8655853
54.59788 16.251694 10.082583
54.94088 18.143692 8.286587
49.36988 99.33769 29.049583
50.38488 99.35669 27.188583
37.57288 95.75469 21.477583
38.04388 94.11669 19.635584
12.62288 91.90169 35.595585
12.62088 91.71269 37.757584
23.968882 98.72869 0.20558548
26.02988 98.82569 38.571583
2.9458847 48.064693 17.080584
3.38488 49.066692 18.421583
15.67588 51.232693 25.458582
15.21788 53.597694 25.949583
66.42088 87.81869 9.143585
66.85788 86.155685 8.0995865
55.82488 79.110695 3.4655838
56.61888 78.41469 1.3965836
42.220882 75.02669 29.185583
40.14888 75.21769 29.100582
37.51488 80.66169 31.895582
38.00288 82.84169 31.691582
53.08888 104.43369 18.540583
51.71488 103.38569 19.734583
47.42188 93.91769 11.543583
46.76488 92.03169 11.369583
43.63488 29.873693 32.414585
43.55088 31.634693 33.685585
40.512882 37.211693 31.788582
38.886883 35.76369 31.271582
72.93888 82.62369 38.169582
73.55888 82.49569 36.243584
61.36788 77.513695 32.29558
59.26488 78.61869 30.602583
36.71188 71.03869 1.9245834
37.34788 69.138695 2.7625847
25.628881 60.411694 2.9115868
25.25688 60.70769 0.58558273
78.13288 10.671692 10.299583
0.31488037 12.755692 11.080584
14.835884 16.893692 13.081583
13.853882 17.83168 14.520583
33.03488 105.10769 23.656584
34.199883 107.252686 23.530582
45.45188 113.126686 28.762583
47.46488 112.40269 27.413582
23.25988 110.501686 38.710583
24.347881 112.86969 0.033584595
34.018883 117.46369 4.4315834
35.73988 116.93769 6.3875847
28.948881 107.52169 26.007582
28.03088 108.51169 27.915583
16.99888 109.24969 18.520582
16.403881 111.10669 18.313583
68.446884 25.508692 20.426582
68.10888 24.248692 18.869583
55.73188 16.691692 17.580584
56.44888 16.096693 15.927584
14.49688 67.10569 18.482582
12.793884 68.70669 19.113583
1.2838821 61.914692 12.241583
1.7988815 60.438694 13.125583
25.417881 127.682686 23.898582
25.135881 128.71669 25.524582
28.146881 119.64369 27.610582
26.32088 118.06469 28.254583
40.82288 93.780685 15.470583
38.65288 93.001686 17.083584
27.101881 89.01969 9.003583
26.67288 87.25569 9.156583
1.7378845 19.242693 1.6145859
3.6148834 18.460691 2.850586
15.804886 23.755692 4.9835854
15.743881 22.470692 7.334587
11.323883 20.400684 18.568583
9.080879 20.708698 17.781584
76.40188 15.309692 13.169583
75.90188 13.254684 13.055583
46.15388 55.04769 36.252583
45.72688 56.775692 35.83058
36.186882 51.808693 25.705582
34.91888 50.955692 27.031582
56.57488 136.6877 29.804583
56.51288 136.8557 32.144585
69.13288 5.638687 36.176582
70.679886 5.3516846 34.689583
10.266884 36.635693 5.5825844
10.418884 35.29869 7.310585
76.52088 31.221693 0.0005836487
76.15188 32.843693 37.686584
45.94888 35.855694 19.147583
45.66788 34.33869 17.356583
29.95988 32.682693 14.873583
28.55988 34.988693 14.172584
5.321884 12.982681 35.891582
4.5438843 11.144684 36.873585
73.97988 3.5276947 26.036583
71.87088 4.7276917 27.158583
6.617882 88.89769 6.6655846
5.3388824 90.515686 7.4675865
73.279884 87.40869 2.8535843
72.665886 87.06369 0.51158524
67.95588 10.148682 32.864582
68.97088 12.212692 32.558582
1.6898804 17.677689 38.372585
3.4068832 15.986694 37.775585
48.48288 23.408691 19.566584
47.41088 24.999693 20.326584
34.88888 23.567692 14.652583
33.02088 24.327692 15.955584
18.23988 9.030685 18.463583
16.97388 10.89769 18.417583
26.16588 19.573689 26.586582
27.50588 18.40369 27.775583
5.382881 16.586685 35.732582
3.6438828 17.15068 34.904583
72.91988 11.395691 27.934582
74.18688 11.642685 25.953583
13.306885 13.769684 17.012583
11.30088 14.228683 16.249584
5.3998795 9.670685 4.1835833
4.0608826 8.052689 3.4885833
23.93588 131.70569 23.467583
25.38088 132.1267 25.195583
35.41188 133.59169 31.025583
34.96188 134.5727 28.769583
38.18088 118.12269 34.95558
35.89088 117.80869 35.973583
24.45388 119.91569 30.886583
22.90888 121.10969 31.295582
13.232881 119.47569 4.6045837
13.95588 119.29669 2.697586
8.763881 112.33169 31.391582
9.29088 110.030685 31.373583
58.36088 118.46769 1.0695839
59.28288 120.20269 0.024585724
68.00888 128.7307 6.6535835
69.39388 128.00269 8.347584
10.340881 125.44069 8.673584
8.755882 127.16269 7.1755867
76.15388 120.05069 3.3425865
76.12288 117.93569 3.4785843
45.79488 30.996693 17.170584
45.27388 30.437693 15.120584
32.11888 29.054693 13.328584
29.89388 30.017693 13.912583
58.72188 29.810692 33.370583
60.57488 30.575693 34.490585
69.44988 40.334694 35.123585
70.13788 41.83269 37.079582
76.74788 0.10668945 24.161583
77.68688 1.7606964 22.350582
10.547882 5.097687 29.881582
11.186882 7.284683 28.723583
12.05088 112.79869 22.196583
11.83388 115.62169 21.833584
25.833881 113.70769 25.524582
26.337881 115.77669 27.055582
18.52288 81.71169 37.108585
19.482882 83.17769 36.200584
30.82988 88.57869 37.956585
32.55588 87.12369 36.519585
22.031881 84.86669 22.056583
22.840881 83.68769 23.730583
28.11688 78.28469 14.181583
29.73788 76.09269 13.299583
39.18788 30.067692 35.452583
38.30588 32.016693 34.285583
25.489882 25.491692 30.202583
25.88488 24.074692 28.156582
47.98088 18.301693 24.518583
46.71988 16.854692 25.196583
33.48088 18.404692 23.369583
33.09188 18.703691 21.133583
66.82788 41.43769 7.475586
66.944885 39.640694 7.0215836
54.43588 34.85469 2.1315842
53.36888 35.76269 0.16658401
47.65688 63.695694 30.032583
49.08488 62.801693 28.751583
60.28988 68.78869 36.023582
62.29988 68.66169 37.356583
19.865881 35.739693 30.028582
20.035881 37.718693 31.765583
33.39288 36.69369 34.775585
34.57088 38.74969 33.260582
50.90688 8.793686 29.425583
51.74388 10.011688 27.927582
63.64688 17.374695 27.623583
62.79688 18.25269 29.030582
41.672882 7.159683 10.138583
43.17788 8.624695 8.554584
56.73988 12.622681 12.277583
56.11588 14.06369 14.2195835
9.09288 14.344681 30.899582
8.02388 14.998688 32.604584
18.715881 20.320698 2.3375854
18.35288 20.229694 4.287586
22.861881 61.372692 1.4805832
21.14488 62.238693 2.4125862
9.04488 58.87369 33.266582
7.2098804 60.191692 33.811584
43.35188 60.900692 2.284584
43.14688 59.669693 4.317585
55.554882 63.858692 9.321586
56.35488 66.03469 8.819584
36.73588 91.32669 33.459583
36.25888 93.16369 34.028584
49.91288 93.89769 38.841583
50.97788 96.13069 38.831585
15.966881 68.96169 9.512583
17.69788 67.73169 9.045583
28.90088 72.91169 12.576583
30.11388 71.90869 10.802584
66.01088 99.80569 6.2145834
66.124886 101.82969 6.595583
77.19188 101.87469 15.739583
77.45288 102.87169 17.493584
29.25288 68.63569 19.072582
28.81888 69.21669 16.899584
16.705881 69.35069 14.274583
14.60188 68.92369 14.793583
3.2808838 102.66169 6.135583
4.115883 102.196686 8.433583
17.387886 105.22669 11.093583
17.41288 103.877686 13.003583
74.08688 70.44669 11.699584
72.97788 68.305695 11.716586
66.15588 64.66569 2.5115852
65.263885 63.36669 1.3045845
51.94988 138.0687 37.138584
51.77388 135.89769 37.497585
37.80088 132.26169 30.021582
36.71788 131.2827 31.332582
34.94088 88.99469 32.910583
35.86988 89.974686 31.078583
23.22488 86.641685 26.400583
22.60388 87.47569 24.518583
62.22888 7.7716827 3.0155869
63.68988 7.164688 1.9295845
54.33988 138.22769 36.238583
54.29388 135.5907 35.901585
47.23688 1.0076904 4.018585
48.99388 138.8667 5.128586
62.76788 2.567688 8.454586
64.693886 1.8296967 9.632583
12.88088 36.400692 4.7435837
12.397881 38.16569 5.2355843
25.34988 44.65869 7.1935844
25.149881 46.08269 8.4485855
67.543884 92.88869 9.458583
67.12388 91.55069 11.418583
76.80788 99.26769 16.677584
78.76288 99.27669 16.213583
2.9298859 21.996693 36.719585
2.9728851 19.595692 36.835583
17.224884 24.547693 0.61258316
16.434883 26.534693 1.3405838
3.9178848 72.35169 38.617584
5.778885 71.67569 37.232582
11.744881 81.68269 4.1415863
10.095886 80.74569 5.2955856
35.26788 113.51269 8.293583
35.30988 116.04069 8.964583
47.62588 116.41269 18.252583
47.16088 118.94769 18.425583
27.92188 4.0076904 37.68458
26.78288 3.021698 0.056583405
13.25288 139.2197 36.377583
13.112881 139.25269 38.438583
31.146881 35.204693 8.148586
31.38788 33.20669 6.8725853
18.92588 27.180693 1.7205849
18.53688 27.714693 38.282585
33.39288 110.890686 14.319583
31.86788 112.45469 14.847583
19.70288 107.05669 9.598583
17.77088 107.97169 10.650583
30.18388 19.924686 21.835583
27.96588 19.800694 22.310583
15.03088 15.701691 15.952583
15.273881 14.089691 13.930583
36.54588 53.174694 13.873583
34.58688 52.767693 15.442583
22.13488 55.354694 8.896584
22.84288 55.188694 6.940583
31.903881 40.282692 2.6155853
31.55288 42.077694 1.4785843
43.77488 46.490692 7.152584
43.50088 46.68869 9.350585
6.2828827 24.888693 23.773582
4.839882 24.675692 25.812582
72.36788 21.531693 17.034584
71.34588 19.123692 16.536583
30.639881 119.41769 12.606584
28.476881 120.376686 12.680583
16.96688 112.44269 11.556583
16.27588 114.24969 11.967583
3.8948822 109.85069 36.767582
2.2038803 111.61969 36.027584
70.04888 103.06269 31.743582
70.348885 101.72569 30.170582
42.816883 51.180695 11.329583
41.539883 53.128693 11.813583
55.66988 59.737694 16.945583
56.63488 59.335693 14.9765835
3.224884 135.09169 17.983583
4.327881 136.8727 18.982582
14.166885 0.51168823 26.893583
15.090881 138.2137 28.364582
25.28688 50.688694 10.250584
25.45388 49.862694 12.237583
36.82888 48.62469 17.359583
38.69488 47.558693 15.9365835
69.15588 98.25469 37.465584
70.61888 97.20969 39.117584
4.2678833 98.88269 3.9345856
5.748886 99.08369 2.5525856
77.35388 13.927689 9.055584
76.08188 12.06369 10.678584
63.51888 6.646698 6.6895866
63.76388 6.616684 4.6235847
51.30888 17.938692 21.163584
49.98188 17.891693 23.080584
58.75188 27.198692 31.428583
58.68288 29.694693 30.605583
13.646881 115.890686 10.597583
11.459885 116.69469 10.319583
2.1688843 112.210686 5.1105843
0.14788055 111.08669 4.296585
20.770882 120.20969 34.877583
21.663881 119.30869 36.782585
35.63188 125.890686 36.863583
34.88888 126.63769 34.976585
6.0068803 38.33169 17.000584
7.32988 37.231693 15.753583
18.88088 40.725693 25.623583
19.923882 39.793694 27.721582
29.764881 119.37569 15.560583
30.351881 118.26969 16.908583
43.33888 125.515686 18.585583
43.34188 127.33069 19.895582
35.40388 129.7537 32.824585
36.00988 128.50069 31.178583
26.35288 127.47869 21.512583
27.94588 125.45669 21.145582
37.78888 134.3767 28.576582
38.539883 136.3337 27.264582
49.25988 2.8756866 32.275585
47.67788 2.5226898 34.008583
20.96488 19.583693 3.6215858
22.68988 18.642693 4.843586
37.34188 23.534693 4.090584
36.199883 24.577692 5.638584
37.66888 126.91369 35.244583
37.91388 128.16469 33.350582
48.55788 134.80469 0.47058487
48.37088 134.2567 2.5235863
60.43388 35.280693 30.437582
59.52288 37.38269 29.756582
67.09188 46.73669 0.5735855
69.35188 45.56369 38.92758
48.93188 2.6106873 38.757584
49.31388 0.5036926 38.298584
36.06288 136.1297 31.217583
36.68188 137.6767 29.435583
33.05988 115.60069 10.556582
33.34788 113.27569 10.401584
23.29388 103.48269 7.657585
21.66888 104.78669 6.2695847
4.242882 27.171692 29.600582
3.8938828 26.668692 31.474583
16.170883 28.027693 36.727585
17.24488 29.848692 35.514584
31.67188 47.066692 37.701584
33.608883 46.279694 38.151585
42.747883 52.12369 7.5025864
41.685883 53.677692 9.252585
50.66188 115.85069 14.755583
48.84588 116.63869 15.683583
41.02488 106.67069 8.054584
38.49988 107.766685 8.783584
2.0058823 126.51269 25.896582
0.011878967 127.58869 25.919582
70.67788 119.18469 20.965584
69.222885 118.20769 21.658583
37.019882 43.990692 28.114582
38.893883 42.57469 27.931583
48.84288 46.301693 34.524582
50.31288 46.55669 36.611584
23.81488 95.15369 8.814583
23.97388 96.71669 10.230583
35.191883 102.19269 13.900583
35.87188 104.30669 13.107583
58.11988 129.09369 31.414583
58.35788 130.33269 33.028584
66.61888 137.6447 38.880585
66.13688 138.84969 1.4585838
25.03788 110.58969 33.294582
22.93188 111.02469 34.257584
11.37788 107.18169 28.435583
11.90888 105.15269 28.409582
73.66088 108.74369 22.058582
74.988884 107.737686 21.122583
7.313881 112.73469 29.120583
8.27388 110.543686 28.745583
53.47088 72.15569 8.933583
55.700882 73.459694 8.862583
63.71288 82.01069 13.869583
64.889885 83.94369 13.334583
20.78388 10.30368 10.956583
22.54788 10.948685 10.149583
35.179882 16.085693 12.957583
34.97288 16.506683 15.238584
30.01988 75.18269 26.980583
30.61188 73.48869 27.111582
42.86288 74.986694 23.176582
41.24288 76.570694 24.149584
73.472885 51.710693 30.729582
75.59488 52.31069 30.148582
8.136879 56.41569 32.276585
9.534882 57.243694 30.908583
63.91688 14.8076935 32.155582
62.48388 13.150681 33.922585
51.98988 3.3596954 32.090584
51.00888 4.565689 30.042583
74.80388 134.3367 30.762583
73.21888 133.0257 30.374582
65.53488 124.25669 25.255583
64.37988 124.45269 22.995583
18.14088 113.72269 7.4645844
17.81388 114.50769 4.958584
5.9938803 105.19369 1.0135841
6.8748803 103.335686 0.77158356
4.85888 128.7477 21.204582
6.1488805 127.22769 21.752583
19.31788 127.89469 28.451582
19.19388 127.79769 30.649582
45.98888 60.292694 30.843582
45.33188 60.107693 32.882584
32.935883 59.535694 24.604584
33.09788 57.167694 24.671583
33.27888 108.81769 21.293583
34.10488 108.751686 19.285583
46.20288 114.88969 21.422583
46.436882 113.66369 23.662582
53.97488 117.02569 7.4245834
53.14488 118.13869 5.4175835
41.81388 116.13369 35.584583
42.54588 114.34469 34.861584
59.86588 137.46469 28.342583
60.97888 134.9457 27.997583
69.42688 1.1266937 36.424583
71.95288 1.218689 36.599583
1.887886 71.12369 35.91358
0.9218826 72.85369 36.563583
70.53088 63.601692 30.118582
70.99488 62.38769 28.326582
25.55188 6.7266846 2.0435867
24.218882 8.133682 1.5025826
13.591881 5.912689 31.146582
11.7208805 5.717697 32.160583
55.88888 7.324692 20.148582
54.39088 6.9806824 22.337584
43.205883 138.93669 15.004583
42.35688 1.1306915 13.878583
47.97788 97.82469 2.980587
49.04888 95.62569 3.444584
60.48788 101.474686 9.742583
62.87688 100.57069 8.5735855
7.9048805 101.47769 36.630585
6.91588 103.10469 37.418583
19.684881 108.74269 3.048584
20.38188 111.35369 2.5475845
55.03488 53.911694 22.146584
56.82288 53.684692 20.788584
68.91988 61.298695 26.565582
70.06088 59.820694 27.219584
53.24588 37.81369 5.213585
50.66488 37.334694 4.4245834
41.40988 31.533693 35.261585
40.25988 31.563692 37.918583
14.208885 27.329693 7.855587
12.180885 25.684692 7.0435867
1.0678864 17.919693 5.723587
79.01788 19.439692 3.824585
12.542885 57.890694 23.197582
13.241882 55.997692 23.235582
0.84088135 52.045692 21.553583
78.14488 51.015694 22.093582
62.30788 110.96469 5.812584
63.52588 109.06969 4.801586
77.46288 110.91069 6.2355843
79.03188 109.71769 7.5095863
42.754883 37.045692 21.665583
42.23888 35.30369 23.260584
27.06788 33.216694 18.588583
26.080881 31.501692 19.728582
35.07988 59.738693 17.082582
36.76088 58.409695 17.215584
48.422882 60.465694 26.971582
46.68388 61.274693 28.220583
47.91988 106.55469 28.640583
48.91888 106.14269 26.481583
38.387882 99.41569 18.241583
36.539883 100.94569 18.343582
48.30388 84.79769 7.0855865
47.51888 82.835686 5.4555855
36.82788 79.55769 2.1765862
35.98088 80.26069 38.800583
8.168884 4.6866913 38.708584
7.639885 3.7126923 36.888584
74.49788 136.9377 31.556583
72.24588 137.51369 32.759583
47.41788 4.6016846 31.710583
48.46688 5.339691 29.697582
36.00088 0.5696869 24.273582
35.51688 139.0327 26.413582
35.678883 55.981693 17.597584
34.01688 55.244694 15.714583
22.51388 51.655693 13.801583
23.04688 50.860695 11.892583
46.35988 29.741693 25.907583
46.10188 31.908693 26.589582
57.71988 39.244694 28.421583
57.21888 39.600693 30.396582
70.500885 53.057693 31.063583
70.45488 50.972694 30.647583
58.06488 49.64469 23.062584
58.38388 47.482693 24.155582
15.628883 20.046696 11.004584
15.00988 22.044697 10.6935835
4.386879 14.923691 4.680584
5.0788803 12.433685 4.815586
77.03588 94.51369 16.663584
78.22588 92.696686 17.985582
65.113884 86.96669 16.629583
65.15088 88.07869 14.846583
1.7048798 136.7437 21.401583
3.0138855 138.69969 20.700583
12.316879 136.18169 33.233585
13.935883 135.9327 31.893583
18.531881 125.68669 35.099583
19.611881 124.293686 33.627583
31.78888 132.81769 0.579586
31.46188 132.93869 2.626587
77.90888 116.46969 1.2965851
76.59688 117.89669 0.060585022
66.60688 110.69169 33.125584
64.71288 110.16469 34.828583
13.847885 3.440689 29.474583
12.334885 5.070694 27.819582
3.2588806 0.9186859 15.500584
3.5528793 138.5817 17.042583
40.76788 62.64469 9.846583
40.351883 64.31569 11.096583
52.45588 68.45669 9.738584
53.50988 69.66069 7.8805833
24.69388 31.202692 28.373583
22.67188 31.054693 27.305582
9.263881 25.570692 24.865583
8.558881 23.630692 23.581583
44.62588 33.780693 23.682583
45.02188 35.04169 22.202583
57.58988 42.68169 22.877583
57.47588 43.70869 20.963583
5.92288 52.244694 3.0835838
5.9348803 51.253693 4.593586
17.417881 59.895695 9.743583
18.79388 58.219692 9.583583
28.64388 19.611692 25.408583
30.48588 19.927692 24.369583
40.74588 26.057692 31.655582
40.199883 28.256693 33.116585
36.775883 29.269693 1.9185829
35.25388 29.997692 0.43658447
26.049881 20.516693 35.594585
26.07188 18.896692 34.21258
47.75088 73.17969 19.372583
48.19488 73.291695 17.283583
59.23288 83.37569 21.815582
60.10888 83.48269 19.798584
56.00688 91.35169 24.719584
56.74388 90.57469 26.679583
68.26788 96.515686 34.055584
68.28988 97.26469 32.358585
1.4898834 62.601692 5.583584
0.81988525 63.95769 3.8005867
68.97888 56.539692 0.62958527
66.89688 55.39469 1.279583
35.087883 38.49269 37.475582
36.64088 36.77869 37.852585
49.30788 41.057693 3.423584
50.929882 39.476692 2.5635834
7.7408805 134.67769 5.0755844
7.6678805 135.46869 7.605587
20.895882 1.4676971 10.694583
22.486881 139.3167 10.553584
15.423881 43.43569 35.798584
16.84388 45.01969 34.282585
29.49688 45.61869 2.7055855
29.51388 47.97169 3.751587
44.05688 8.658691 4.1955833
45.39688 7.0256805 4.834587
58.49288 10.681686 11.755584
58.29688 12.116684 9.826583
8.116882 129.9227 10.569583
7.486885 129.1707 9.010586
74.85388 127.03969 2.8685837
76.69988 126.08269 3.0255852
40.28888 39.12469 25.175583
38.27288 38.94269 25.675583
25.194881 34.900692 20.729584
24.82288 32.90969 21.560583
9.17988 88.91269 6.770584
10.338881 90.80169 7.327587
21.62488 97.24869 11.310584
21.97388 99.03369 10.632583
43.15488 90.38269 14.541583
43.44888 92.72869 14.775583
52.70588 97.99369 22.586582
52.82188 98.61069 24.348583
16.43188 93.65269 19.683582
17.75188 91.960686 19.808582
5.84488 87.11769 15.331583
4.6818805 86.52069 13.645583
21.76988 69.96369 38.725582
21.31888 70.54069 36.403584
9.16888 64.25369 30.487583
8.02488 64.88469 31.988583
48.12088 53.19969 35.865585
48.76488 54.093693 37.741585
60.04388 62.849693 3.737587
60.63788 61.645695 5.242584
6.3598804 2.2546844 5.581585
8.58388 2.4576874 4.5265846
21.97888 4.9256897 7.4085846
22.05888 7.214691 8.163586
16.16188 86.02669 36.892582
17.26288 84.38269 37.792583
31.528881 85.30969 4.6205864
32.033882 85.68669 2.3885841
20.125881 45.865692 27.737583
19.816881 44.02169 28.983583
32.526882 43.99969 35.499584
33.53788 43.56969 37.520584
43.40588 91.154686 11.327586
42.94688 88.835686 12.354583
34.790882 83.66169 3.5335846
33.02388 83.30369 5.060585
63.18288 109.90869 1.0405846
65.49888 109.89969 1.4065857
73.49388 119.54769 2.7905846
71.86588 120.59269 3.9675865
12.724884 62.160694 22.786583
10.422882 63.405693 22.570583
1.8838806 53.270695 19.261583
2.3038864 54.069695 16.862583
35.498882 11.8076935 16.313583
34.40988 9.611694 16.172583
24.69988 5.3546906 8.432583
24.305882 3.7526855 10.225583
49.08788 36.143692 11.514583
49.76188 34.15269 10.147586
38.05788 28.764692 4.8585854
37.58588 26.632692 4.5855865
47.21888 79.50969 13.521584
45.71888 80.43869 14.996583
38.77788 68.77969 11.501583
36.83488 69.33169 11.846583
65.13388 125.90069 17.624582
64.418884 123.85969 18.410583
53.73588 124.02869 7.732583
51.84488 124.89269 7.5785832
66.513885 12.067688 34.142582
65.79588 11.722687 36.244583
78.66188 16.226685 3.831585
1.424881 16.177689 3.197586
61.13388 123.64569 31.264582
60.66088 125.70269 32.349583
72.67688 129.6007 37.454582
73.21788 131.8947 38.605583
35.98888 53.015694 17.833584
34.698883 53.881695 19.457582
24.219881 44.85969 18.380583
22.26888 45.233692 18.464582
22.37988 20.65569 35.855583
23.64088 20.312687 33.834583
14.66388 14.305695 25.630583
13.027881 15.823685 26.057583
1.6208801 80.764694 30.006582
3.2798843 79.527695 29.114582
14.360886 87.92669 31.366583
13.915886 88.91369 33.279583
34.84188 34.74269 38.112583
35.573883 33.68569 36.556583
24.70788 23.657692 32.425583
23.21788 22.876692 33.922585
40.78788 120.640686 33.727585
42.283882 119.62269 32.530582
52.10488 122.97969 3.6635857
52.33688 125.48369 3.001587
4.889885 32.150692 20.718582
5.00988 30.348692 20.367582
70.31488 27.480692 21.211582
69.111885 28.081692 19.365583
70.15788 110.83969 22.834583
71.11888 109.46669 24.038584
1.7218857 117.08869 30.856583
1.8268814 119.28669 29.494583
28.594881 38.18569 9.176586
27.26688 39.97969 9.451583
15.80088 35.61169 0.47258377
14.541881 37.613693 0.7195854
60.67888 127.00369 28.009583
62.75688 126.06369 27.834583
72.77088 134.85469 32.935585
73.319885 133.04869 34.378582
32.98088 96.38969 35.037582
31.15788 95.02069 34.678585
20.274881 91.66169 26.779583
20.53288 89.48469 27.439583
9.071884 16.40068 23.470583
8.588882 17.648682 21.644583
76.89588 9.816681 19.200583
75.48788 11.037689 18.283583
68.113884 67.50269 25.354582
67.31188 65.15869 25.134583
56.07488 58.384693 20.220583
54.74188 60.099693 19.908583
50.03188 112.237686 20.756582
48.29388 112.36169 21.655582
35.65688 109.28169 14.433583
35.55688 109.47569 12.315583
49.47288 1.5746918 35.996582
49.91188 3.8286896 36.569584
60.81288 12.9326935 3.093586
62.59188 12.646683 1.5425835
26.00188 57.937695 37.858585
24.81588 57.94369 0.51558304
11.3458805 54.735695 35.250584
10.52388 54.897694 32.855583
74.65788 83.00669 0.8845825
74.19188 84.73569 1.6175842
9.6388855 85.42669 6.5685844
9.87188 83.55969 5.753586
24.74588 47.64669 5.4955864
24.593882 49.21369 4.333584
11.423881 48.41069 38.724583
11.21588 47.39469 36.849583
9.4378805 85.16169 10.249583
9.40188 87.25469 9.426583
21.22788 91.81369 14.953584
21.43688 93.76369 14.567583
23.17988 11.028687 4.0875854
22.66488 11.570694 2.0025826
9.84688 5.0556946 36.378582
10.46288 3.3056946 35.847584
34.62088 26.694693 8.122583
34.928883 27.409693 10.399583
47.790882 29.738693 14.148583
49.13888 29.869692 16.049583
76.46188 71.13169 9.747583
77.93488 71.820694 8.295583
10.168884 76.695694 16.647583
10.665886 75.63169 18.705584
7.8548803 79.54969 18.855583
9.506881 79.54569 17.182583
22.66588 81.820694 18.804583
22.191881 84.13269 18.085583
3.151886 34.108692 26.496582
2.7428818 35.037693 24.747583
70.88188 33.405693 17.605583
70.78388 31.595692 16.901583
44.06388 54.760693 1.3825836
42.43288 53.33169 2.4625854
31.14988 50.13269 38.349583
29.68088 50.586693 0.85258484
13.713881 100.13269 27.869583
13.54988 102.46269 28.244583
21.114882 107.76969 0.74458313
22.25188 105.529686 38.806583
49.31788 125.12069 7.0145836
47.03988 124.95469 6.9055862
39.95188 117.40269 36.857582
40.23588 115.79269 38.370583
61.68388 89.09569 21.350582
60.98488 87.16969 22.552584
71.79888 95.62869 26.892582
73.168884 95.37169 25.481583
59.64888 111.31869 4.8515854
60.92788 113.41369 4.230587
70.23188 116.960686 10.164584
71.28288 118.75069 10.433585
0.12988281 25.753693 35.522583
1.6578827 26.853693 35.774582
10.860886 32.11769 4.3115845
12.2868805 31.635693 2.9655838
24.319881 112.36669 36.639584
25.04388 109.96769 36.563583
36.56288 115.19069 1.0775833
36.80688 115.56669 37.855583
45.67388 46.98469 3.9265862
45.97288 48.05569 1.8955841
35.025883 43.300694 31.722582
33.24688 42.948692 33.210583
58.13988 60.312695 7.1945834
60.50488 59.291695 7.022583
73.06388 61.052692 14.146584
73.95488 59.246693 15.258583
5.0438805 79.05069 23.975582
4.44288 80.03469 25.758583
16.774881 80.87969 32.349583
18.58988 81.44069 31.210583
34.66788 98.40269 28.125582
34.955883 97.266685 30.374582
46.19188 103.58969 35.414585
45.19088 105.66969 35.388584
37.93888 67.54069 13.814583
38.02088 65.777695 15.533584
49.13788 69.24669 20.383583
48.957882 70.69669 18.907583
66.20588 106.56369 0.10258484
66.56288 107.70069 2.2225838
75.75888 115.16069 6.0635834
73.207886 115.17069 6.5305862
12.166881 129.74669 7.161583
10.709881 130.82669 7.7675834
21.26988 134.74269 17.207582
20.20788 136.72269 17.621584
50.20888 90.77469 1.6305847
50.92588 91.32069 38.519585
38.338882 86.21569 31.809582
36.97388 87.38569 33.056583
63.84588 66.624695 37.546585
64.82288 66.38269 0.22358322
76.45788 69.62669 7.1795845
77.57088 69.90169 4.833584
20.028881 104.515686 12.376583
21.56788 104.002686 10.375584
32.62888 107.12169 17.453583
34.45188 105.641685 17.380583
13.220886 72.236694 11.603583
14.555885 70.69769 11.658584
2.061882 66.67969 3.8925858
3.2328796 65.28969 3.088585
39.35588 138.7347 18.084583
41.581882 138.16469 18.647583
52.60588 5.9606934 25.434582
52.23288 6.5356903 27.524582
21.56488 117.88769 33.181583
21.493881 118.90169 31.198582
9.338881 120.58269 23.375584
10.02888 119.36469 21.906584
14.247879 96.26469 27.271582
12.151886 94.849686 27.616583
0.36188507 90.12269 24.314583
0.37088013 89.35569 26.211582
24.805882 70.37669 27.622583
24.80388 68.22769 27.711582
16.51888 61.274693 19.654583
15.65688 62.703693 18.209583
27.601881 80.02169 12.088584
26.989882 77.958694 11.479583
16.323881 76.64969 3.0585861
14.75488 78.67569 2.6985855
0.63687897 78.306694 36.601585
78.36788 79.49269 37.804585
11.0138855 83.36469 2.2285843
11.519882 85.03669 3.5875854
25.159882 123.55469 22.848583
23.69388 125.22269 22.471582
9.3128805 123.31669 23.742582
8.36188 124.39469 22.319584
69.81188 67.417694 22.721582
70.16388 69.319695 22.778584
4.368881 73.80369 27.366583
5.8698807 71.87669 28.367582
73.05888 4.5626984 23.647583
71.86588 6.0536957 24.969584
58.42488 1.5776978 23.190582
57.26388 0.88468933 21.554583
64.03288 26.756693 24.113583
63.89988 26.238693 21.796583
51.16288 24.613693 19.473583
50.46488 24.808693 17.854584
78.63388 85.002686 25.325583
0.8138809 86.77869 26.418583
13.944885 93.41169 29.484583
15.67688 91.80669 28.577583
14.187881 112.42669 14.834583
13.742882 112.30569 12.566584
2.8958817 108.04669 3.4545834
1.0668793 108.29869 4.699583
36.08988 63.89469 14.531583
34.77788 61.809692 15.313583
21.58188 60.122692 8.657583
20.357882 60.309692 10.349584
69.127884 113.45269 21.389584
67.71588 111.75569 22.039583
58.75788 108.60669 11.546583
58.00788 110.50669 10.130583
21.573881 32.294693 23.634583
19.739882 32.362694 22.316584
9.607881 24.852692 19.349583
9.539881 23.424692 17.288584
37.12788 92.73669 28.095583
38.10588 93.47069 29.566582
51.03688 95.807686 35.944584
51.75588 94.293686 37.046585
56.51488 24.458693 4.736583
56.38288 25.164692 6.566583
67.87188 33.219692 12.227583
68.90088 33.197693 14.122583
11.95388 90.20969 0.87958527
13.447881 88.80069 0.7155838
25.84188 88.793686 6.6555862
27.48188 89.25769 5.208584
4.60688 3.6126862 10.352583
6.7258835 3.416687 11.159583
16.56488 6.292694 17.826584
17.943886 6.192688 19.456583
10.608879 14.46669 24.879583
9.724884 15.340683 26.690582
76.36588 11.014694 21.733583
74.84388 12.20668 22.493584
55.67788 105.59869 17.435583
55.76688 104.36769 18.906584
70.33888 104.41369 21.518583
70.529884 103.30269 23.786583
55.90588 69.69369 9.931583
57.10088 71.31369 9.0355835
68.04488 73.23369 18.050583
70.33788 73.53869 17.009583
13.14288 74.99869 17.929583
13.270881 74.333694 19.897583
25.47088 79.09069 25.964582
24.20288 80.18569 27.581583
53.88188 93.79569 28.568583
53.93288 94.141685 30.332582
67.54988 102.61469 29.416582
67.33688 104.02869 31.727583
20.61088 85.77169 25.729582
19.402882 85.04569 23.829582
6.98888 82.39369 18.232582
7.6878805 81.37969 16.386583
24.27588 20.541693 28.265583
24.11988 22.005692 26.692583
12.03388 19.000692 21.196583
10.037881 19.969692 21.805584
33.33588 7.346695 27.752583
33.50688 8.818695 29.835583
44.81388 8.830688 36.373585
46.53688 10.111694 35.436584
30.448881 115.98469 15.676583
30.56188 116.05569 12.998583
21.778881 109.83669 6.4855833
20.13088 111.668686 7.1495833
73.88388 95.40169 29.183582
74.390884 93.932686 30.379583
6.41288 102.92569 33.780582
7.783882 102.44169 32.450584
9.21888 24.969692 15.289583
8.527885 26.838692 14.293583
71.793884 25.823692 14.238584
71.54788 27.229692 12.036583
34.92788 96.97169 25.868582
36.81288 97.36969 26.561583
47.66388 104.34069 30.110582
48.18488 102.83369 32.344585
42.386883 130.1957 20.593582
44.26488 129.4157 21.881582
56.44288 137.3447 26.655582
58.13788 135.7667 26.801582
60.88688 17.263687 3.8825836
61.73688 15.396683 3.1565857
74.32488 17.223694 11.357585
75.81588 16.017685 9.787585
4.401886 116.99469 29.943583
4.375885 117.58669 31.511583
15.095886 123.49069 0.66558456
16.504883 122.04169 0.99458313
62.98688 43.56969 17.607582
65.19888 44.834694 16.829584
78.50188 50.559692 19.307583
0.5728836 49.466694 17.630583
13.165886 33.633694 1.0005836
13.282883 35.018692 38.734585
0.55287933 31.717693 34.748585
1.1648788 29.821693 33.543583
43.61188 42.399693 16.948584
43.43288 42.536694 19.270582
55.20288 47.620693 24.893583
56.23188 45.90369 24.472584
76.43488 92.51969 27.312582
76.65988 94.24069 28.806583
7.216881 99.73269 32.738583
9.50988 98.724686 33.165585
53.290882 116.877686 10.0495825
51.59488 117.83769 8.824585
40.450882 110.41769 3.9275856
41.11388 109.141685 2.2865868
8.132881 21.808693 25.911583
6.330879 21.736692 27.357582
74.96488 14.087692 20.261583
73.94988 16.433693 20.877583
56.929882 38.62369 33.380585
56.42488 37.747692 35.748585
67.09188 41.814693 5.0265846
68.153885 43.739693 5.097584
39.73088 43.914692 20.624582
37.67488 42.37369 20.966583
26.260881 38.357693 14.2265835
26.72888 39.247692 11.895583
69.28588 55.799694 34.03858
71.27288 55.48469 32.266582
4.9078827 59.607693 35.013584
6.198883 57.58869 33.609585
21.76188 81.68669 27.250582
21.02688 83.08769 25.621582
11.190881 74.16869 21.486584
8.45588 73.62969 21.213583
78.724884 77.00769 34.523582
77.45488 76.73969 36.421585
66.096886 70.500694 30.606583
66.95688 69.59669 28.282583
4.6248856 136.1597 14.488584
4.7298813 138.2047 14.590583
15.569885 2.9786987 23.546583
14.393883 4.9326935 22.900583
5.6478806 5.2746887 3.6325836
3.7408829 4.972687 3.940586
72.56588 135.93869 38.866585
73.43688 134.64969 37.508583
71.24688 29.686693 6.8395834
72.17288 31.489693 6.829583
1.785881 32.674694 19.199583
3.464882 34.379692 19.572582
75.54288 62.716694 14.541583
76.16788 64.53169 14.569583
4.0988846 74.305695 22.778584
5.528885 74.68269 21.392584
9.841881 35.12369 14.329583
11.31688 35.266693 12.237583
21.09188 40.461693 22.926582
20.569881 41.719692 20.939583
55.20488 100.75369 14.530583
53.07188 100.99769 14.8445835
43.192883 100.95069 9.598583
41.45888 101.88869 10.196583
61.74688 9.23468 10.130583
60.78188 9.218689 12.473583
71.779884 8.451691 21.826584
73.459885 9.384689 23.403584
71.85288 44.24869 38.294582
71.08788 42.64569 0.6435852
2.997879 44.163692 11.054584
5.2358856 45.51469 11.404586
13.89888 98.57869 25.549583
13.46788 98.83469 23.231583
3.5698853 94.738686 17.494583
1.8218842 94.49469 15.412583
3.7518845 55.29069 8.297584
3.997879 56.356693 10.202583
13.823883 61.131695 17.069584
15.409882 59.424694 17.540583
22.04488 0.46069336 13.177583
20.975882 137.98569 14.374583
7.88388 132.5887 11.805583
6.2278805 134.4327 10.916583
15.872881 103.42169 20.030582
16.25388 105.81269 20.813583
31.21788 106.654686 22.194584
30.70088 108.63069 22.406584
73.58188 99.28869 23.924583
72.57288 98.03269 25.459583
59.69588 97.82469 21.610582
59.75888 98.06969 19.669582
52.38888 45.538692 34.274582
53.186882 45.38869 32.404583
65.91388 50.689693 35.414585
66.97088 49.427692 37.863583
51.66488 112.10369 15.841583
51.93388 114.01869 17.216583
65.819885 115.79869 24.106583
66.97788 117.25069 22.793583
9.94088 96.42169 37.872585
7.943886 97.49969 37.842583
76.85088 88.738686 33.231583
74.66088 90.34169 32.811584
8.820885 17.390686 30.088583
7.609886 17.266693 27.822582
71.960884 15.921692 25.201582
72.28388 13.517685 24.726583
73.710884 117.821686 7.4665833
75.66188 117.83969 6.3415833
9.039879 119.12469 13.508583
10.205879 121.35769 13.577583
16.12288 2.0516968 26.101583
16.26688 1.6946869 28.380583
27.52088 6.2366943 36.289585
29.67988 7.194687 34.613583
71.84388 19.503693 21.552584
72.57388 20.179693 24.051582
1.6578827 28.231693 28.862583
2.9928818 29.784693 27.298582
77.17988 113.39469 7.594583
78.38388 112.25569 8.700583
10.768883 116.47769 13.092583
12.49688 114.84369 13.172584
12.41788 59.286694 25.476583
13.61088 57.42269 26.080582
24.73188 66.01869 31.044582
25.951881 64.87969 32.164585
30.94688 25.879692 15.168583
29.44588 27.636692 14.555583
17.98988 20.942692 9.985583
17.91688 20.267693 7.759583
68.88488 50.974693 34.655582
70.94288 51.99869 33.78858
5.016884 54.191692 37.589584
7.091881 53.659695 36.740585
59.14888 95.53369 16.544582
58.07188 94.39569 17.705584
49.22688 85.89769 12.840583
48.28088 85.61769 10.997583
45.04388 82.61469 16.980583
44.96588 80.86669 19.380583
54.25288 91.76469 26.875582
54.35088 90.55069 28.948582
32.560883 71.92769 12.112586
32.34788 70.10569 11.347583
22.62788 72.60569 2.0165863
22.86988 72.27669 38.918583
23.13888 48.606693 14.072585
23.80888 47.37469 12.358584
13.22288 41.608692 4.242584
12.874881 43.225693 2.1635857
69.877884 48.136692 37.987583
70.07688 48.22269 0.9335861
1.9858856 53.474693 6.305584
2.7298813 55.461693 5.7455864
65.071884 90.67169 9.764583
64.51988 90.28369 11.631583
52.54988 88.82069 1.4525833
53.15388 86.84169 0.48558426
16.686882 87.057686 30.366583
16.612885 88.59069 28.617582
4.493881 81.916695 20.926582
3.0468826 82.90669 22.167583
24.41988 49.440693 7.4415855
23.69588 48.216694 9.130585
16.10788 42.54069 38.291584
15.82588 40.96469 37.459583
57.24288 60.278694 11.394584
56.39888 58.577694 10.255584
44.83988 53.267693 6.2815857
44.74188 54.500694 4.6135864
75.00888 74.278694 4.543583
75.43688 76.60869 5.067583
7.289879 80.28569 13.427584
9.404884 79.79069 14.064583
60.42388 115.20369 36.600582
58.99988 113.49469 35.755585
48.57388 106.16669 31.987583
47.61688 104.99769 33.524582
35.47988 68.59969 14.041583
36.00388 67.333694 16.640583
45.63088 69.35969 25.944582
45.207882 71.44769 25.201582
45.02088 30.445692 22.731583
44.46288 32.306694 21.064583
31.71588 27.693693 17.031584
29.43288 28.284693 17.061583
5.0058823 76.15169 28.593582
3.7798843 75.74669 30.822582
16.631882 82.23369 34.933582
16.25888 84.62069 34.699585
55.98588 35.13869 6.4845834
56.26388 37.08869 7.6085835
64.999886 36.57569 19.307583
66.56388 37.182693 18.422583
43.672882 66.03269 36.461582
42.68088 68.25269 35.251583
31.00988 63.249695 27.344584
32.24288 64.63769 25.538582
63.17788 123.01969 27.086582
63.09788 123.82369 28.995583
73.890884 130.4807 33.44858
74.957886 128.1767 33.751583
57.811882 17.474686 10.699583
57.94788 15.184692 11.583583
68.58888 21.667698 19.121584
69.72888 22.453693 17.398582
65.09288 127.08769 19.912582
64.987885 129.19069 18.818583
75.52588 136.9247 24.626583
75.31588 136.03769 26.562582
27.00688 102.613686 36.491585
26.01188 101.543686 38.022583
15.23688 95.75469 32.887585
15.803881 93.738686 32.564583
7.5908804 100.80069 0.09158325
7.8548803 98.79769 1.0925827
17.625881 108.20669 7.9815865
18.19088 109.88769 6.9325867
43.192883 95.86669 13.959583
41.94088 97.15769 14.803583
51.19688 103.09569 24.202583
50.60388 105.38069 23.981583
45.22388 78.47969 18.280582
44.84988 77.46269 15.713583
49.95188 72.94369 14.082583
50.49388 73.41269 11.9695835
58.36688 49.56169 15.829583
56.55888 48.586693 16.340584
46.11488 42.31269 15.781583
45.75788 44.113693 15.237583
20.23088 105.92069 3.9435844
20.88088 104.44069 2.213585
9.975881 101.38969 31.139582
9.761881 103.23169 30.375582
27.96188 43.182693 5.817585
28.77588 41.141693 4.787586
19.45788 40.372692 32.109585
17.017881 39.580692 33.065582
59.26488 84.17469 26.335583
59.47988 82.04069 26.888582
46.42188 76.38469 21.043583
46.52188 75.48769 23.582582
76.07088 36.38769 36.366585
77.67388 36.129692 35.299583
8.493881 43.23469 3.0125847
10.520882 43.95769 2.9765854
44.07388 114.61069 26.897583
42.303883 113.37869 26.610582
29.68288 116.84169 22.970583
28.72488 118.55869 24.215584
66.71488 22.811695 23.077583
64.85988 23.175694 22.679583
53.74588 13.57869 20.650583
53.46088 15.920685 21.459583
32.21788 27.973692 10.944583
31.78888 26.863693 8.172585
19.15788 23.287693 1.8925858
18.000881 22.834692 3.6815834
4.52888 47.50769 13.057583
5.3808804 48.822693 11.358583
18.43688 52.129692 18.678583
17.98188 52.910694 20.545584
30.15288 106.67269 28.261583
31.62788 105.61969 29.909582
42.66288 111.70069 34.306583
43.87488 112.59769 33.109585
54.80688 93.90069 34.286583
54.12288 95.37869 36.054585
62.34788 102.585686 6.574585
63.39788 100.73469 6.0025864
48.43088 43.608692 2.5125847
50.37888 44.086693 2.803585
58.29488 50.723694 9.530585
60.27888 51.782692 9.574584
2.4198837 19.939692 34.199585
0.4438858 19.788692 35.21258
65.10088 16.563692 29.986582
66.235886 15.989693 28.419582
42.39688 110.97069 0.7285843
43.90588 109.641685 0.53858566
56.79288 114.60969 3.5835838
58.46188 115.96969 2.3885841
23.618881 37.752693 17.200583
25.257881 36.113693 18.205584
38.97588 40.76969 19.156584
40.55688 39.39669 20.458584
59.26888 134.2477 30.063583
58.00188 133.31569 27.983583
44.20188 128.8577 24.659582
42.84188 126.55669 24.648582
2.0668793 31.220692 29.359583
0.66487885 29.803692 30.630583
68.60088 27.275692 23.435583
67.12388 29.418692 23.062584
36.650883 84.88169 34.19858
34.699883 83.612686 32.907585
24.71388 84.94369 25.115583
26.83988 84.73969 23.645582
