10.113859 27.628828 61.228893
40.202858 22.061829 39.943893
38.445858 20.966827 41.174892
33.08086 20.568832 52.427895
34.05286 22.005829 53.669895
86.55785 42.09583 54.914894
85.529854 40.17183 54.520893
76.92386 34.51183 62.103893
75.33286 35.08883 61.489895
91.417854 10.300827 45.190895
89.54686 11.585831 45.046894
91.70586 13.10083 34.869896
92.37886 14.734833 34.502895
68.45186 50.06083 31.835894
66.23686 50.382828 30.912893
63.468857 46.75583 42.230896
64.84286 45.51183 42.768894
83.067856 34.52283 14.800895
80.72486 34.91483 15.581895
78.74086 33.79183 28.069895
76.66086 34.53883 28.149895
87.972855 3.923832 60.062893
86.02186 5.00383 61.639893
80.00386 4.860832 3.567902
81.28486 3.7668304 4.9648976
0.12685394 5.633831 16.159895
1.6258545 3.9488297 16.237894
87.848854 55.66383 24.347895
86.359856 54.340828 24.099894
52.072857 45.418827 53.849895
50.676857 44.812828 52.663895
45.615856 42.161827 63.975895
43.772858 42.071827 63.739895
49.61086 3.8488312 41.910892
48.723858 2.2438316 40.308895
44.030857 54.70083 48.732895
44.517857 54.78483 50.829895
65.49186 53.459827 64.4629
65.23086 53.99183 62.219894
73.46086 55.146828 53.448895
71.90186 54.19183 52.113895
12.975859 41.14483 48.128895
11.703859 42.42083 47.128895
15.752859 46.44083 36.362896
14.499859 45.12783 35.478893
63.220856 28.82483 52.536896
64.32686 29.048828 54.536896
69.62186 35.160828 44.217896
71.02086 36.65183 45.236893
53.272858 32.04483 15.036895
53.836857 31.305828 12.649895
60.391857 33.819828 4.548895
60.05586 32.56483 2.8058949
25.47486 40.29883 18.728895
25.625858 39.38483 16.586895
36.35286 41.265827 9.984895
37.55286 42.75583 11.553895
46.79286 46.444828 35.326893
46.794857 44.216827 34.513897
46.773857 34.75683 29.990894
47.113857 36.139828 28.789894
18.560858 22.673828 28.338894
19.815859 24.44183 29.621895
25.45686 27.387829 18.322895
24.90086 26.22683 16.482895
14.25686 29.60183 29.078894
14.641854 27.70283 29.036894
5.7838593 25.307829 36.790894
6.9988556 26.794828 37.627895
48.63186 14.208832 57.218895
46.849857 14.365829 56.326893
51.105858 15.315826 43.311893
49.931858 13.593826 42.764893
54.28386 45.84983 55.369896
55.503857 44.13483 55.524895
50.09686 40.24583 66.594894
47.848858 40.38383 66.1689
84.708855 44.411827 34.875896
83.025856 45.82383 34.578896
86.98186 54.26783 27.059895
88.65986 55.68683 27.300894
73.14986 10.598831 21.209894
74.86686 9.257828 20.243895
78.11586 11.61483 9.523895
79.153854 13.8018265 9.586895
10.42186 33.66583 28.131895
8.848854 31.557829 28.690895
5.9848557 30.961828 40.883896
5.5028534 28.957829 40.762894
5.3408585 28.114828 55.934895
3.5338593 27.70983 53.880894
6.273857 29.95283 43.194893
8.381859 29.61983 43.296894
23.46086 56.66183 6.638901
21.636858 0.8458328 6.102898
27.204859 2.435833 61.991894
27.02586 4.84383 61.872894
8.6258545 12.771828 37.845894
7.867859 12.08783 36.116894
13.080856 14.145828 25.009893
13.981858 15.835831 23.728893
19.927858 10.55983 26.463894
19.994858 8.560829 26.831894
14.140859 3.3738327 36.837894
15.4518585 1.9568329 37.425896
94.48986 0.37683105 13.301895
92.761856 55.515827 12.897895
87.46686 50.05383 22.959894
88.52086 48.66383 23.108894
20.353859 22.049828 14.067895
21.552858 23.616829 15.487895
18.969858 18.081833 27.671894
20.18286 18.734833 29.112894
31.01986 8.362831 16.464895
29.114859 6.7338295 15.645895
20.871859 3.1898308 24.384893
19.816858 5.0048294 23.469894
74.93186 55.14283 51.119896
76.63786 54.29483 52.075893
81.31386 0.37483215 40.277893
83.01986 1.37183 41.097893
20.05486 43.07483 36.123894
21.261858 41.56583 37.172894
17.190859 38.63783 47.521893
18.12386 39.67683 49.564896
15.253859 53.313828 37.425896
15.294859 55.32483 36.668896
23.622858 0.37183 28.323895
25.059858 1.3278313 30.097895
37.425858 0.41283035 31.378895
35.22786 0.3758316 32.256897
32.16486 54.71883 42.774895
29.763859 55.34583 43.041893
21.56886 34.56583 51.072895
20.740858 35.44683 49.314896
25.21386 36.01283 37.463894
26.74486 34.257828 37.597893
39.015858 20.92083 4.7758946
40.34586 20.055832 3.656899
48.350857 23.79583 63.397896
48.60386 25.776833 63.806892
27.99586 15.083832 15.798895
25.98186 13.86483 15.101895
19.833858 8.657829 24.131895
17.812859 10.027832 24.170895
28.410858 13.496826 65.2129
30.39186 13.672829 64.900894
29.98486 20.838829 54.430893
31.82386 22.108826 55.046894
16.809858 1.9678307 21.800894
15.622859 0.6308327 23.270895
11.617859 0.5468292 34.397896
9.684858 1.1828308 33.903896
90.63586 21.785828 51.085896
92.375854 22.178833 52.297894
87.52286 22.125832 63.978893
85.36486 21.598831 64.4509
36.078857 53.466827 47.620895
36.135857 51.04883 46.760895
31.55686 48.60383 57.513893
29.263859 49.605827 57.613895
6.367859 20.709831 38.083893
8.7888565 21.791832 38.125893
17.59086 25.40583 30.670895
16.70286 24.412827 28.741894
1.5648575 28.93583 39.246895
3.0438538 27.74383 39.837894
91.23386 24.63983 51.427895
91.317856 26.432829 52.908894
92.07486 12.647827 65.1129
90.44786 10.98983 65.316895
83.12886 8.47583 5.536896
81.62186 6.7758293 4.9528966
23.62386 1.8778305 10.282895
22.82486 56.40983 9.380895
17.994858 55.38483 20.504894
15.408859 55.62183 20.723894
66.914856 45.681828 9.4199
65.40686 45.65183 7.6418996
72.70986 47.93583 67.2279
71.32386 49.326828 65.2379
12.752853 49.67083 36.620895
11.03186 48.90783 34.984894
1.9628601 42.51283 40.565895
0.7558594 44.96183 40.447895
10.775859 25.770828 25.932894
13.052858 26.579828 25.071894
15.358859 30.790829 14.090895
15.917859 32.72483 12.969895
5.779854 26.846832 6.8758945
5.4638596 24.59983 7.7638946
94.32386 21.866829 17.402895
92.69886 21.180832 17.005894
61.081856 26.85583 35.199894
62.11086 29.00083 34.510895
68.09986 29.16083 23.675894
69.66286 28.28283 23.992893
14.604859 3.8868294 3.0328948
13.130859 5.20483 3.2398946
9.231857 0.13383102 14.544895
7.1568604 1.5048294 15.121895
24.84286 35.61783 18.336895
23.99586 37.38583 16.576895
28.747858 41.15983 8.332895
30.72486 41.779827 8.127895
61.246857 33.46883 37.603893
60.605858 33.89183 35.755894
66.70786 41.195827 26.868895
67.55586 43.208828 27.819895
72.81486 1.0928307 1.0228958
71.27786 0.9368324 67.73689
76.75986 4.0448303 57.372894
75.67186 5.928833 57.448895
82.78286 2.1658325 23.996895
80.902855 3.4708328 24.607895
74.81886 54.46183 32.638897
74.20986 55.69083 34.499897
64.75686 13.209831 0.5658951
67.15386 12.736832 1.1239014
64.07486 4.4458313 67.216896
66.03886 5.4008293 66.94589
1.999855 52.062828 28.785894
0.74086 50.22183 29.060894
88.16286 45.62183 37.961895
86.209854 45.15883 37.312893
6.381859 35.72683 43.527893
8.6898575 35.66683 43.731895
11.666855 38.28983 32.479897
14.21486 38.799828 32.866894
78.92486 52.20783 37.629894
76.52786 52.417828 37.248894
71.15286 47.758827 46.399895
71.87586 46.43483 47.923893
44.71486 43.56683 32.408894
45.809856 44.83283 30.651894
55.531857 47.02083 23.889894
57.31286 45.52583 23.423895
11.55986 54.69983 19.098894
11.873856 56.17883 20.563894
4.8408585 51.90183 28.907894
6.1328583 53.313828 30.340895
91.91386 54.50383 42.206894
93.24086 55.778828 42.813892
6.890854 2.0648308 33.116894
7.896858 2.9998322 34.935894
65.65986 5.567833 15.754895
63.59086 5.8288307 15.155895
58.61086 3.9418297 25.992893
59.25686 3.1678314 28.314894
22.31486 50.21983 57.420895
22.346859 48.722828 58.757893
16.77686 46.202827 67.455894
17.10986 44.05483 0.11489868
43.91086 18.959831 21.351894
41.74886 20.359833 21.097895
48.261856 23.333832 11.545896
49.800858 22.037827 12.630895
78.88186 29.617828 33.048897
79.473854 30.96983 34.863895
75.942856 31.631828 45.980896
76.13986 29.850828 47.425896
49.435856 43.84483 33.763897
51.501858 44.44783 34.447895
55.87486 53.52383 24.768894
54.682858 52.45683 23.230894
67.96686 36.562828 40.731895
68.79686 38.18483 41.064896
71.61486 41.487827 30.370893
70.37786 43.73883 30.009893
66.48386 55.862827 47.207893
68.22786 54.73883 47.370895
74.97686 0.7148323 37.739895
74.00586 55.15983 37.102894
82.38286 47.764828 36.803894
80.79586 48.80283 37.674892
76.02886 45.348827 47.859894
77.49586 43.58183 48.270893
65.109856 35.62083 40.027893
67.00686 34.32183 39.740894
68.00686 36.65583 26.857895
67.92986 38.90283 26.978893
76.81586 14.58683 22.948895
78.07186 14.9158325 24.952894
70.72186 10.568832 34.525894
71.497856 11.374832 36.484894
39.45586 53.307827 66.3359
40.78286 51.25283 65.9889
49.04786 1.5698318 59.208893
47.51286 1.0438309 57.433895
20.178858 29.621828 11.753895
17.99886 30.720829 11.271895
25.405859 34.99283 2.6338947
25.507858 32.97083 1.1358947
75.71686 31.880829 61.633896
76.498856 30.63383 63.540894
68.82086 26.652828 3.6058965
66.94386 25.793829 4.7998967
2.2578583 53.215828 44.692894
4.7348557 52.89883 43.548893
11.902855 2.7548294 38.296894
11.553856 2.744831 36.459892
74.48586 46.868828 49.840893
74.22886 44.99683 50.594894
71.88586 41.015827 60.063892
71.20086 42.55583 61.729893
60.579857 13.055832 15.180895
59.967857 14.909828 14.103895
62.419857 17.255829 1.2998948
63.49386 15.523827 1.0758947
34.350857 33.04883 23.753895
32.45186 33.30183 24.618895
29.010859 32.92283 36.483894
30.63386 34.403828 37.614895
27.558859 52.522827 59.648895
26.434858 51.341827 58.346893
33.60186 56.80183 49.946896
35.78886 55.40883 49.701893
60.315857 32.79083 54.148895
57.938858 32.924828 54.557896
50.57586 29.849829 64.800896
52.281857 29.676828 66.70989
34.488857 32.133827 54.581894
34.38186 30.388828 52.926895
40.80386 33.33683 43.171894
39.989857 35.45783 42.426895
39.03886 34.709827 58.897896
38.21586 33.209827 57.474895
41.746857 37.71783 46.576893
41.459858 39.65083 45.393894
63.031857 6.7148323 32.349895
63.956856 8.066826 33.636894
56.26386 3.4668312 41.931892
56.740856 0.9718323 42.026894
40.12986 34.576828 27.832893
38.258858 33.87883 26.189894
31.13986 28.002829 35.347893
32.293858 28.67883 37.273895
1.0328598 15.79583 2.3428948
2.4808578 16.371826 4.2418947
90.95586 12.368828 13.534895
91.999855 10.916832 14.686895
81.69086 39.77283 17.305895
81.66086 37.81483 17.069895
72.44386 34.46483 22.483894
73.58286 33.021828 24.004894
7.6638565 11.333832 21.275894
5.614853 10.983826 20.704895
1.2508545 7.765831 30.694895
0.048858643 9.050827 31.507895
93.24186 41.45083 6.6518946
90.91186 40.674828 6.2678947
87.678856 40.08283 19.282894
87.62786 42.31883 20.105894
75.28286 54.118828 17.185894
75.41386 53.92183 14.890895
81.707855 55.40883 6.0208945
79.374855 54.46283 5.7508945
85.500854 32.66283 36.167892
83.17486 32.452827 35.237896
78.414856 31.64983 47.004894
79.79986 31.54283 48.380894
48.53386 10.149826 22.128895
50.81986 10.5518265 22.299894
54.601856 11.41983 10.583895
56.470856 12.0288315 10.552895
9.301857 16.471832 40.269894
8.881859 15.602829 38.550896
16.332857 18.443832 27.368895
16.88386 20.366829 28.012894
45.823856 4.51083 3.8928947
45.746857 6.3778305 5.115895
42.86686 3.666832 16.464895
44.37486 4.0048294 18.276896
60.358856 17.11583 48.922894
58.890858 18.882828 49.574894
52.11786 16.845833 59.490894
53.584858 17.664825 61.518894
22.254858 49.210827 5.9018946
24.30486 47.951828 5.7808948
23.05086 46.56183 18.890894
21.92886 47.21283 20.350895
64.44086 32.42683 22.875895
62.252857 32.37883 23.645895
53.02186 31.16083 30.616894
54.038857 33.58883 31.283894
38.29586 53.53283 30.059895
37.48386 55.28783 29.278894
42.142857 2.8228302 19.649895
41.502857 1.2168312 17.920895
62.370857 46.97883 25.402895
62.723858 46.35783 23.445894
69.25586 47.81183 13.574895
68.373856 48.210827 11.797895
12.372859 36.53983 29.402895
11.339859 36.26683 26.915894
17.597858 37.48383 19.023895
19.40186 38.229828 19.478893
32.30586 20.80783 35.307896
33.335857 19.606827 34.024895
41.404858 22.90683 25.768894
41.696857 25.417831 25.711895
71.63286 2.9708328 35.539894
69.748856 4.2038307 34.561893
61.996857 2.3968315 45.785892
63.163857 1.0488319 46.749893
58.365856 47.95583 25.090895
59.772858 46.38183 25.832893
55.807858 46.320827 37.346893
54.161858 48.41683 37.863895
85.71886 51.959827 57.112896
84.319855 53.181828 58.641895
77.08386 49.319828 66.594894
78.45086 47.800827 67.163895
13.614854 1.1508293 19.282894
14.210855 1.5198326 21.126894
6.8068542 2.3798294 30.333895
6.5058594 0.5858307 29.652895
29.888859 17.911827 33.478893
30.419859 18.90583 35.188892
22.247858 15.96183 43.503895
23.517859 14.548828 44.641895
50.032856 39.87483 34.466896
50.934856 41.444828 33.209896
51.49286 33.83783 30.515894
50.491856 32.729828 28.903894
70.83886 11.179832 3.6608946
71.46986 11.973831 5.950895
64.91986 10.549828 15.251895
65.01786 8.5028305 15.984895
70.42486 50.41583 13.259895
72.01286 51.972828 13.497895
71.872856 55.34283 1.5718948
73.79386 55.383827 0.96189487
32.10886 50.85983 7.838895
34.406857 50.26083 7.9598947
42.37986 49.05483 0.88789475
43.30586 48.00683 -1.0261053
26.72786 36.37783 53.634895
25.02286 36.60283 51.727894
29.91486 39.792828 41.592896
28.50886 39.88583 39.799892
23.964859 8.164825 27.531895
22.747858 10.000832 26.993895
29.73686 13.805832 17.617895
31.739859 13.724831 16.822895
17.458858 16.694832 61.215893
17.89186 14.846832 61.357895
13.690859 12.465828 3.3088994
11.829859 12.520828 4.597901
46.15886 53.466827 30.966894
48.079857 51.79783 31.832893
49.578857 0.20383072 23.363894
49.975857 2.0828323 24.950893
82.17586 17.929832 29.050894
83.84386 16.606827 30.344894
77.66286 15.672829 39.315895
77.597855 13.710831 39.988895
92.264854 33.66883 4.102895
90.47586 32.250828 4.983895
84.85186 32.42283 14.784895
83.14786 31.279829 13.603895
66.58886 19.137833 18.731895
68.64486 19.007828 17.272894
73.442856 16.120827 6.692895
72.46886 14.755829 5.8418946
37.92386 41.45783 27.734894
39.57586 43.27783 28.196894
45.40786 40.562828 17.627895
43.74086 41.91583 16.911894
22.035858 21.638832 31.123894
19.89186 21.103828 30.100895
14.101859 17.440826 41.194893
14.168859 15.470833 41.792892
26.971859 5.56583 29.511894
26.58586 7.1968307 27.653894
35.197857 9.55983 18.685894
36.142857 10.838829 19.846893
87.29586 14.606827 64.828896
86.35386 16.400826 64.86189
83.86386 11.9648285 8.3499
81.750854 13.067833 8.590898
20.039858 29.687828 35.930893
21.73086 28.57383 37.085896
17.05486 27.418829 47.481895
14.810859 27.60883 46.883896
10.423859 45.38483 64.2819
10.548859 42.786827 63.592896
16.42986 45.70683 53.416893
18.209858 47.23483 52.989895
50.932858 9.663826 25.493895
48.905857 9.55983 24.659895
48.946857 7.800827 36.569893
47.016857 8.043831 37.319893
17.958858 52.522827 20.276894
19.773859 52.890827 20.102894
24.47486 51.92783 8.595895
23.31486 53.688828 9.308895
19.51586 14.264832 9.584895
19.761858 12.40583 10.601895
9.813859 10.338829 18.798895
9.650859 12.770828 19.572895
50.740856 1.4988327 38.262894
50.01286 3.1678314 37.859894
56.476856 8.283829 27.563894
58.02686 6.609833 26.888895
1.4988556 4.7298317 31.202894
2.9418564 4.626831 32.748894
87.14286 54.918827 37.856895
88.82986 53.30983 38.399895
37.69486 25.66183 5.8958945
35.33886 25.423832 6.291895
31.11686 20.580826 16.596895
29.117859 19.838829 16.300894
45.85386 20.118828 22.974894
46.02786 18.033829 23.249895
54.734856 18.691826 14.063895
53.406857 19.023827 12.058895
13.828858 29.838829 48.211895
15.206857 31.172829 48.118893
8.085854 30.38583 58.635895
6.5248566 31.69283 58.775894
2.690857 33.02983 41.858894
3.464859 34.31783 43.117893
94.74386 30.04283 53.563892
94.444855 28.27283 55.273895
9.514854 42.78083 30.280893
7.6398544 40.98883 30.370893
4.7868576 33.104828 39.488895
3.3078537 31.536829 39.592896
36.524857 0.8478317 47.849895
36.83186 56.125828 46.775894
40.91686 0.4608307 35.867893
42.58086 56.382828 35.505894
16.962858 23.57683 62.431892
18.038858 21.98683 60.739895
22.771858 30.404829 53.056892
23.624859 28.947828 51.905895
45.934856 32.85883 11.951895
43.70686 33.04583 12.372895
39.710857 30.470829 22.562895
39.16486 32.715828 23.769894
7.1168594 33.26383 24.975895
8.87986 32.72183 25.660894
15.446855 38.32183 17.707895
15.01986 40.306828 16.132895
76.24486 33.98583 10.411895
76.46186 31.675829 9.325895
82.52186 34.46283 -1.2011055
81.27386 33.03383 -1.9811052
70.11986 42.18083 27.862894
71.94786 41.090828 27.663895
76.01286 43.25983 16.652895
77.345856 44.92783 15.770895
26.938858 37.04083 21.817894
27.764858 38.84583 22.486895
21.13086 38.35383 33.402897
20.47086 36.437828 32.693893
7.82386 12.449829 54.261894
6.3578568 14.5288315 53.685894
15.915856 18.370827 45.438892
15.18786 17.215828 43.618893
86.40886 6.4158325 43.630894
87.74086 4.9658318 43.276894
91.89186 7.2648315 33.115894
90.85186 7.154831 31.395895
11.147858 32.51383 10.536895
12.54686 33.09683 12.457895
9.066856 28.822828 24.451895
7.041855 30.27283 25.399895
21.659859 3.0328293 56.915894
19.687859 3.4808311 58.116894
14.368859 3.0338326 0.0068969727
12.861858 4.9628296 0.43689728
18.442858 38.236828 33.176895
17.209858 36.514828 34.204895
13.929859 36.70683 46.112896
12.105859 37.78383 46.463894
65.00086 19.829826 34.441895
63.071857 20.402832 33.115894
72.65886 22.943832 24.749895
74.220856 21.76883 24.928894
42.244858 18.416832 5.2188954
42.230858 18.122826 3.3749013
47.991856 16.620827 62.025894
49.803856 17.831833 60.407894
24.56886 11.8138275 29.926893
23.170858 9.692833 29.684895
17.560858 6.9578323 39.513893
16.986858 4.9678307 39.706894
10.292854 47.091827 32.904896
10.315857 45.45483 34.454895
5.0568542 37.44383 42.073895
4.058853 35.70583 40.781895
0.74785614 38.778828 25.028894
1.6828537 40.71883 24.770895
6.279854 41.47183 12.104896
7.5888596 39.88383 11.731895
30.214859 14.852829 -0.79510534
27.753859 14.916832 -0.18210521
21.40186 12.579826 8.225895
22.339859 10.94783 9.646894
11.978859 17.759827 59.616894
11.021858 18.98983 61.160892
1.8548584 19.690826 0.6868973
3.6218567 20.498833 2.0348969
23.86286 43.98583 18.247894
23.98086 42.021828 17.175894
28.542858 43.43483 6.627895
28.433859 45.46483 6.4058948
93.46186 8.702827 16.725895
92.22486 8.362831 15.213895
83.21686 4.416832 22.885895
82.35086 5.76083 24.827894
14.296861 3.7878304 39.460896
13.207855 5.1918297 40.354893
4.829857 2.4788322 48.288895
4.1678543 0.13083267 47.727894
9.124855 42.43383 46.617893
9.584854 41.52383 48.953896
4.39386 38.15783 58.998894
2.8028564 39.591827 59.172894
67.10786 35.98383 56.992893
65.71086 37.94783 56.777893
67.08686 42.78783 47.177895
65.69586 42.61083 45.410892
45.806858 31.512829 44.329895
47.390858 29.700829 44.443893
52.685856 33.26683 33.607895
54.661858 32.62383 33.638897
18.157858 45.931828 19.798895
18.374859 47.272827 21.801893
12.929859 46.22183 32.994896
12.907859 44.02383 33.387894
34.46386 2.73983 33.329895
32.272858 3.9768295 33.852894
28.736858 4.626831 45.205894
28.187859 2.2668304 45.352894
46.34786 44.41683 67.15489
46.00586 44.71983 65.2009
51.253857 49.99283 55.924892
49.816856 49.60183 53.799892
21.483858 24.301826 31.696894
22.32586 23.82383 33.563896
9.993858 23.968826 39.263893
10.593859 21.890831 40.706894
77.65986 23.57083 25.041895
76.10086 24.415829 23.441895
75.49386 30.11183 11.626895
77.49386 29.946829 11.518895
3.7808533 10.16983 18.218895
4.9088593 11.859833 18.210896
11.427856 15.941826 8.102895
9.640854 16.82483 6.778895
82.167854 33.45083 50.126896
81.374855 31.02883 50.574894
75.16786 27.22383 59.530895
76.40186 25.329828 60.818893
88.29586 16.450829 30.460894
88.78586 15.743828 33.095894
80.87086 12.53083 41.095894
79.137856 11.409828 39.501896
49.452858 35.32283 15.008895
51.359856 34.83583 13.887896
56.37486 38.89883 3.9758947
55.558857 40.750828 3.0168948
41.703857 44.94883 30.968895
41.218857 46.98883 28.808895
48.984856 44.55183 18.866894
48.08986 44.612827 17.021894
16.034859 8.44783 19.741894
17.191858 7.0978317 18.299894
26.66486 8.234833 15.043895
28.23486 9.168831 14.7508955
18.052858 16.80783 43.851894
19.597858 15.254829 43.191895
21.37086 17.218826 31.424894
20.96386 15.139832 30.544893
72.34786 30.370829 59.413895
72.79486 32.05283 58.755894
78.76986 38.01683 50.060894
80.401855 37.736828 51.588894
72.636856 19.800827 56.579895
74.24986 18.429832 56.056892
74.84386 24.019829 45.582893
75.81386 25.98283 45.222893
74.77086 2.7668304 35.695892
76.28286 4.98983 35.418896
79.512856 10.646828 24.980894
81.91885 10.887833 25.676893
61.00586 55.22683 63.331894
62.579857 54.23483 63.577892
58.919857 53.243828 6.1278996
59.864857 54.32383 8.173898
37.62586 11.458832 34.509895
39.37586 12.729828 35.114895
47.865856 13.526833 26.516893
48.959858 12.041832 26.081894
12.4138565 9.486832 40.258896
13.31086 9.334831 41.894894
2.0458603 6.8988304 48.601894
3.152855 8.966827 49.106895
68.20086 21.28083 6.0518947
66.44886 23.234833 5.4268947
62.629856 21.58783 17.420895
61.912857 23.499832 17.957895
52.254856 7.6038284 8.602895
49.984856 6.925831 8.482895
45.307858 6.94783 18.247894
46.016857 5.7508316 20.598894
16.45186 50.59983 38.052895
14.122857 50.931828 38.684895
5.438858 45.36483 42.848896
6.76886 44.54583 45.185894
47.747856 52.80483 52.360893
47.227856 50.67783 52.690895
40.142857 48.87283 61.821896
40.43586 50.14383 63.422894
85.59086 33.09583 52.799892
84.87986 33.23983 50.745895
91.17586 37.87383 39.914894
92.68686 39.33583 41.169895
48.57586 4.3758316 4.3018956
50.23686 4.0948296 3.046898
53.053856 11.174828 62.316895
51.852856 11.126831 60.440895
12.389859 25.002829 60.178894
13.8928585 26.902828 60.485893
19.28386 29.00883 65.345894
19.18986 30.477829 67.19589
89.85086 13.689827 15.641895
90.50986 14.201828 17.545895
87.05186 8.159828 27.709894
86.78086 10.108826 28.723894
11.716858 29.29283 42.177895
10.440857 27.93183 41.093895
14.239854 30.56983 31.580894
15.735856 31.752829 30.630894
32.20586 47.348827 24.959894
34.06086 48.03783 25.240894
39.946857 48.15883 15.530895
38.74786 48.77083 13.667895
94.609856 7.541832 33.711895
93.695854 9.36483 34.688896
91.400856 6.4648323 45.187893
92.68786 7.0058327 46.882893
19.707859 26.270828 -0.90310514
19.350859 28.026829 -0.32310525
17.021858 26.846828 10.676895
16.499859 24.99383 11.887896
29.68286 38.64983 55.512894
31.48786 39.465828 56.140896
36.40186 42.812828 45.773895
38.49986 42.81183 45.419895
74.54686 15.355827 57.359894
74.12986 17.000832 58.468895
70.359856 13.67083 2.4179
72.57086 14.533829 2.919899
55.016857 49.75983 57.693893
55.51486 51.95583 58.805893
49.730858 48.453827 0.8688965
50.54186 46.50383 1.7728958
36.369858 3.4608307 -1.0311054
34.82686 5.44783 -0.4541053
29.364859 5.2828293 10.8568945
28.056858 2.987831 10.272895
6.475853 36.24083 9.426895
7.0128555 38.348827 9.735895
16.253855 41.578827 1.5958948
16.225855 39.52783 0.50189483
73.64186 29.325829 9.484902
75.51986 29.291828 8.464898
81.36586 27.300829 65.8119
80.76786 29.20983 65.4749
49.810856 12.660828 59.549892
50.692856 13.560829 61.012894
44.77886 8.3398285 1.718895
45.42486 6.734833 2.3508987
25.327858 16.047829 12.330895
24.82486 14.75383 10.463895
29.61186 17.65583 1.0198947
30.180859 19.444832 1.3828948
91.52086 48.77683 25.885895
92.81286 48.22183 28.147894
84.45586 41.88583 34.040894
84.96786 40.86783 35.799892
81.46086 48.96383 1.8008957
83.64186 49.439827 3.1068954
90.88386 55.10183 64.3269
90.57986 55.33683 62.297894
11.33786 7.925827 19.329895
12.364853 6.701832 20.941895
4.6948547 4.265831 30.177895
6.0608597 5.5048294 31.654894
61.08386 42.60383 23.594894
63.02786 43.53883 24.814894
62.008858 43.86083 36.810894
63.56186 42.83883 38.445892
93.24486 19.539825 50.306892
93.89186 17.92183 49.213894
4.0028534 24.61583 38.653893
5.346855 23.275826 38.860893
21.10686 34.084827 16.234894
20.919859 31.985828 16.029894
13.6098585 29.39983 25.355894
11.600859 29.48083 26.079895
77.61686 34.24283 32.101894
77.818855 32.41183 33.125896
71.359856 28.359829 40.557896
73.03586 29.64783 42.059895
51.358856 56.15583 21.136894
51.328857 1.1778297 21.649895
60.016857 0.8308296 10.898895
60.23686 55.70083 11.335896
33.71986 6.85783 15.720895
33.68686 6.8798294 17.789894
27.06786 2.791832 28.181894
24.924858 3.1108322 27.382895
11.221855 29.651829 44.767895
10.274857 27.86883 43.933895
7.6948547 26.779829 56.844894
7.0288544 24.27883 56.507893
60.89486 41.71283 39.991894
59.508858 40.11483 39.904896
58.213856 37.813828 51.028893
57.815857 35.63183 52.659893
7.6878586 53.87383 49.657894
6.2528534 55.15883 50.754894
94.31586 51.65283 57.963894
92.85386 52.30583 59.892895
75.48786 1.4108315 19.055895
77.29986 2.0798302 19.746895
82.92486 3.6298294 8.794895
82.49586 1.4568329 8.345895
93.42086 44.49583 58.770893
0.7078552 44.05383 57.737896
5.600853 47.49683 48.348896
7.3598557 46.425827 48.690895
65.01986 29.85483 4.122895
64.59886 27.878828 4.7568946
59.008858 25.80283 16.155895
58.039856 27.43583 17.306894
35.938858 25.377829 3.1539006
35.489857 24.842829 0.7499008
40.20086 26.23083 59.001896
38.190857 25.77183 57.645893
74.85086 26.44883 24.820894
76.21086 27.787828 26.368895
85.265854 32.757828 17.459894
86.68986 31.220829 17.892895
37.88786 7.39283 52.205894
37.293858 5.140831 52.450893
29.44286 4.24683 61.634895
30.944859 3.7238312 62.400894
29.194859 13.354828 46.876896
29.96386 10.92083 47.019894
34.86086 13.470833 36.448895
35.189857 12.703827 34.120895
37.58786 16.284828 1.919899
40.10886 15.788826 2.4188995
43.02186 20.506828 59.445892
45.00686 21.944832 58.828896
39.90086 52.51783 46.553894
41.70186 53.11583 47.622894
44.634857 1.1388321 36.654896
46.030857 3.022831 37.067894
38.57686 15.424828 36.596893
40.67186 14.884827 35.670895
44.79186 17.900826 27.177895
46.038857 16.727829 25.583895
29.09986 13.22683 30.541895
28.12086 15.258827 30.016893
35.56786 16.94783 21.736895
35.223858 15.118828 20.262894
45.27686 16.372826 7.4548945
43.79786 17.413826 8.401895
40.176857 10.597832 18.231895
38.47286 12.241829 19.266893
91.26786 47.62883 23.526894
92.79886 45.944828 22.166895
2.414856 51.42983 13.440895
3.728859 52.92083 12.096895
27.92586 41.85983 21.347895
27.07186 42.710827 19.269894
29.98686 46.49583 8.582895
31.985859 46.814827 8.465895
34.301857 26.551828 37.209892
36.08186 25.10583 36.537895
39.891857 28.71583 25.460894
38.55586 27.99783 23.837894
3.117859 0.12282944 29.849894
0.94886017 56.35283 30.538895
92.181854 50.39383 40.744896
90.00686 49.076828 40.680893
34.898857 36.403828 7.6068945
32.300858 36.466827 7.3238945
27.93686 32.93083 19.006895
26.99586 35.08983 20.026894
42.182858 51.41383 32.236897
43.85886 52.271828 31.643894
44.919857 48.793827 18.767895
44.86786 51.189827 19.204895
60.051857 54.584827 60.816895
61.28586 56.21983 59.497894
68.66086 55.22083 52.051895
67.85586 55.056828 50.013893
55.365856 35.32283 51.628895
55.37486 36.181828 53.694893
49.34786 32.02583 63.159893
48.037857 33.354828 63.612896
53.427856 30.88583 48.884895
52.78486 32.60283 47.850895
58.800858 34.76183 37.820892
58.63186 35.80183 36.024895
55.296856 20.355827 28.970894
53.531857 18.72583 29.168894
46.77786 16.111832 39.215893
44.79186 16.598831 39.935894
74.59486 44.96483 12.781895
74.18386 46.32383 11.221895
79.98986 45.64483 -0.1711053
82.32486 46.59383 0.3898948
39.40886 14.893829 54.771893
37.04686 15.58783 53.978893
36.16586 12.527832 67.453896
33.90086 11.901833 66.8659
33.81086 29.755829 56.142895
35.42386 29.725828 57.653893
32.27586 27.915829 0.756897
30.00286 27.755829 1.1809006
9.584859 45.27783 47.930893
9.944859 47.34483 49.156895
20.823858 49.34383 40.566895
21.20686 51.376827 41.296894
89.74286 32.30883 20.332893
90.916855 31.866829 22.082893
79.067856 30.97283 28.728893
80.15986 30.814829 30.653894
26.79386 16.190826 32.360893
25.233858 17.616829 34.136894
18.664858 12.249832 42.498894
17.37086 10.012833 41.693893
22.246859 37.49583 1.3598948
23.621859 36.972828 2.7548947
19.031858 32.60283 12.869895
21.285858 31.69983 13.4348955
3.8688583 55.10983 49.487896
3.4138565 56.465828 50.592896
89.96286 56.28483 59.474895
91.03286 1.1958313 60.865894
43.481857 25.83383 41.860893
44.342857 24.037828 41.706894
49.829857 27.142828 31.513895
51.164856 29.214828 32.110893
8.478859 45.31683 28.269894
9.234856 43.640827 27.876894
15.17386 46.74083 19.103895
14.418855 46.83783 16.602894
27.44286 24.10183 35.853893
28.243858 25.80683 35.334892
34.252857 26.22283 23.921894
36.725857 25.10883 23.186893
12.871859 54.25383 51.478893
13.909859 53.043827 50.558895
18.374859 52.39283 41.007893
19.916859 53.722828 39.750893
55.767857 7.0288315 9.470895
57.41786 6.015831 9.766895
65.11286 9.3398285 -1.2981051
64.12486 9.382828 -3.0691051
79.19086 50.828827 19.791895
80.47886 50.87383 21.500895
74.24386 47.431828 29.645895
76.46086 47.257828 30.755894
51.122856 43.563828 17.122894
53.365856 44.563828 17.496895
55.080856 49.210827 7.871895
55.84686 50.99583 6.5918946
37.67086 8.789825 34.710896
38.265858 8.307831 37.202892
29.91586 6.744831 46.343895
30.49186 6.2248306 48.571896
27.228859 7.4388275 12.665895
25.52686 7.584831 11.128895
32.635857 11.703827 0.7808949
34.44986 10.246826 1.3058947
84.36786 40.368828 67.80689
83.33086 42.50983 67.07089
91.539856 46.88583 57.061893
90.694855 48.60383 57.404896
12.8758545 27.540829 12.085896
13.796861 28.49383 14.131895
4.2588577 24.72983 20.865894
2.239853 26.28583 19.972895
13.752854 50.188828 16.437895
11.3498535 49.980827 15.123895
7.1168594 47.72883 28.018894
5.329857 46.41583 27.635895
19.232859 24.24383 13.416895
19.185858 24.845829 10.988894
24.441858 27.210829 0.10689483
26.78286 27.90383 -0.23510519
80.31286 19.437828 47.322895
80.110855 17.048828 46.889893
68.67186 15.298828 52.303894
69.470856 13.272827 52.415894
86.18686 6.3278313 29.847895
85.39686 8.175827 30.573895
85.43386 2.2478294 41.297894
85.165855 4.348831 42.017895
30.23786 16.500832 49.369896
30.662859 15.495827 47.578896
35.43486 17.463829 37.284893
34.85386 19.423828 36.397896
8.967857 39.00683 28.865894
9.04686 37.924828 27.143894
9.636856 40.821827 14.795896
10.013855 42.89283 14.852895
11.002853 53.833828 34.067894
11.386856 55.02783 35.835896
6.9328537 47.28083 45.780895
4.5978546 47.54483 45.887894
82.17786 13.695831 25.069895
83.64986 12.779831 26.488894
92.87986 18.038826 18.848894
90.820854 18.791832 17.454895
10.640854 9.738831 55.744896
12.041855 10.138832 57.199894
4.0318604 6.8898315 67.301895
4.867859 5.7288322 0.18489838
3.5098572 14.458832 2.4578948
3.9978561 13.924828 4.0778947
93.73286 4.5688324 12.096895
93.04385 6.63583 13.212895
76.94486 50.362827 50.722893
74.91386 50.97883 51.964893
72.77686 48.08783 63.546894
71.07486 46.88883 63.120895
63.30586 54.40683 11.094894
62.78386 0.04983139 11.252895
66.54686 0.7298317 0.05489478
64.84986 1.5598297 -1.9201053
38.570858 38.82183 9.857895
38.69186 40.08083 8.2578945
47.93686 42.64583 1.2208948
46.48686 41.90083 -0.2021052
94.583855 33.26683 38.426895
92.98086 34.09483 40.038895
90.31286 32.97783 52.699894
92.89486 33.437828 53.490894
78.48186 42.382828 16.523895
80.083855 43.21183 15.328896
83.695854 48.257828 7.1318946
85.428856 48.89483 5.312895
77.29486 54.38783 20.299894
79.01686 53.14483 21.193893
68.18386 49.13483 27.288895
67.31586 50.77383 28.442894
81.44686 22.373833 64.73589
80.247856 20.40783 65.0579
77.45286 16.25383 6.878899
78.67186 16.549828 8.984902
82.069855 54.55483 39.629894
83.29986 52.61783 39.720894
79.01086 48.097828 50.727894
80.012856 49.49583 51.945892
63.100857 55.11583 46.871895
64.55186 53.98483 48.154896
57.560856 49.681828 56.938892
57.63886 50.44083 59.351894
32.404858 6.0968323 32.223896
30.19686 6.90683 31.761894
26.410858 5.569832 42.769894
25.021858 4.730831 41.525894
8.840858 49.34283 63.606895
7.367859 50.93583 64.7259
15.22886 55.83983 57.346893
14.40986 56.63283 55.479893
31.61386 30.04283 52.437893
32.266857 32.112827 51.588894
37.905857 33.50483 41.672894
38.45786 30.838829 41.141895
80.611855 55.203827 21.185894
79.61586 54.897827 18.651896
85.31486 2.6968307 9.863894
86.03186 0.890831 9.210895
14.008859 25.119831 46.337894
15.5128565 23.394829 46.068893
11.388855 17.695831 56.636894
9.803856 18.370827 57.579895
63.246857 51.140827 27.696894
65.09386 50.112827 26.759893
65.178856 52.21783 15.931895
66.46486 53.58983 14.009895
10.8268585 2.1248322 1.2448959
10.39286 0.284832 67.9359
13.820855 1.61483 57.638893
13.8388605 3.751831 57.103893
71.51486 20.876831 59.168896
73.43986 19.427826 59.361893
69.59086 17.666832 2.3759003
69.09486 18.39283 4.3899007
4.239853 0.27783203 14.2248955
5.515854 56.53083 15.858895
92.957855 52.37283 25.774895
90.91086 51.30883 26.111895
33.890858 21.640831 20.349894
32.42786 23.180832 20.734894
32.786858 17.037827 31.276894
31.346859 15.382828 30.410894
72.12986 45.51183 29.105894
72.38286 44.26183 27.110893
74.36286 49.63883 16.230894
74.99286 51.52783 16.847895
4.5168533 9.957832 53.078896
5.4698563 11.268829 54.234894
94.03586 5.2768326 62.782894
94.67286 4.04583 63.976894
18.486858 25.32683 46.662895
17.23486 25.338829 44.542892
24.028858 26.481829 34.993896
24.14786 28.34483 35.531895
54.182858 22.69183 64.314896
52.52686 25.228828 64.106895
61.363857 26.908829 54.087894
59.883858 27.92483 53.396893
85.12986 44.36783 17.502895
83.24286 43.619827 16.348894
91.443855 47.64283 9.082895
90.374855 48.362827 7.4258947
7.067856 9.734833 35.288895
8.307854 8.710831 34.276894
10.7018585 13.980827 23.599894
11.61586 11.93383 23.891893
73.80686 31.911829 10.136895
72.03486 31.356829 10.309895
68.25086 28.73383 21.045895
66.26286 28.894829 20.853893
36.48586 44.63083 43.680893
36.363857 46.78883 43.729893
37.218857 48.97083 32.956894
39.27886 48.60683 31.536894
60.30586 47.53983 43.423893
57.86086 48.12183 43.006893
55.105858 39.17083 50.599895
52.83286 39.26783 51.424892
64.82186 34.97683 3.3098989
65.91386 33.14983 4.1578984
73.65386 36.81683 63.730896
75.40686 35.60783 64.2959
66.86686 50.821827 63.902893
66.96086 52.078827 65.9769
62.17986 50.49883 9.459901
60.629856 49.46983 8.166902
50.552856 14.215828 26.761894
52.959858 13.674828 26.110893
58.878857 16.341827 18.391895
59.525856 14.87883 16.743895
76.82586 29.83383 27.743895
77.54786 28.89383 29.587894
68.05186 21.006828 34.646896
66.30686 22.689829 34.532894
22.982859 45.58083 55.445892
24.121859 43.75483 56.244896
17.05386 39.618828 65.24989
15.349859 40.14083 66.51489
45.294857 14.00383 25.173895
43.74786 15.037827 26.582893
34.14486 14.070831 31.808895
33.077858 12.018829 31.218895
47.060856 47.93083 50.306892
46.495857 45.993828 50.178894
42.04286 46.19183 62.448895
43.891857 45.96483 64.1429
53.933857 1.8528328 5.019898
52.237858 2.3778305 3.7118993
58.04886 6.2838326 63.556892
56.365856 6.456833 61.648895
68.96786 51.25383 48.848896
67.92486 52.091827 46.472893
72.21386 53.21783 34.448895
72.06986 51.08683 34.471893
34.19486 27.637829 5.1828947
34.938858 28.27183 6.7348948
29.42886 24.404829 16.790895
28.08486 26.349829 17.928894
28.607859 38.67983 2.4019012
27.77286 36.480827 1.5738983
32.31286 41.61483 59.171894
32.635857 39.52983 58.775894
73.70586 15.673828 21.473894
72.86786 16.067833 19.448895
79.72686 21.206833 11.757895
81.82486 20.04583 10.859895
63.50586 56.50283 62.452892
62.334858 1.1618309 61.321896
68.24686 3.5728302 52.522896
69.72786 5.11483 52.520893
66.095856 41.612827 8.583895
66.18086 38.966827 8.7648945
59.648857 36.88483 20.125895
58.19486 38.06783 19.994894
76.47786 26.527828 8.529895
78.84086 27.529829 9.103895
83.88286 30.45283 -1.2011055
83.67586 28.582829 -2.9251056
64.22586 49.397827 45.954895
65.59986 47.800827 46.862896
56.245857 44.326828 52.891895
53.731857 43.65583 52.318893
87.388855 19.394829 15.595895
88.64786 20.662827 16.969894
86.45386 26.71283 17.641895
85.262856 28.86383 16.947895
23.107859 23.47583 -2.1561055
23.799858 21.173828 -1.747105
18.711859 19.838829 9.716895
16.69986 20.97483 8.879895
58.58386 43.279827 5.8958945
59.891857 43.88683 7.5798945
55.405857 39.30383 17.422895
53.780857 40.12983 18.626894
36.695858 4.7178307 49.586895
35.54186 5.411831 47.592896
43.621857 3.99683 38.212894
42.300858 2.331833 37.021893
55.751858 26.492832 18.225895
56.156857 24.271828 17.833895
50.20786 24.150826 27.255894
48.642857 25.35783 28.141893
31.47986 54.55883 63.225895
32.94986 54.98883 65.0449
23.65786 49.91283 3.406899
21.795858 48.869827 2.3968964
68.09986 12.064827 34.040894
68.46686 10.330826 32.981895
72.75686 13.098831 22.414894
71.69386 13.623833 20.224894
38.05986 41.09983 43.192894
39.662857 39.75983 43.148895
42.84686 46.272827 33.175896
41.63286 47.71383 32.512894
60.830856 26.09283 20.150894
62.640858 24.597832 20.357895
55.856857 17.138832 27.957893
54.522858 15.784828 26.974894
23.611858 42.39483 38.062893
23.631859 39.73383 38.064896
20.76986 39.23783 49.222893
20.607859 40.39883 50.833893
57.724857 40.23183 37.555893
60.053856 40.03683 37.021893
60.878857 39.93983 24.489895
62.949856 39.78283 24.430895
63.75686 39.14083 42.066895
61.835857 39.37383 41.576893
58.183857 31.141829 48.856895
57.955856 28.90683 49.116894
87.40986 52.26883 6.714895
87.929855 51.41483 8.780895
81.81486 50.19283 17.662895
80.85086 52.01683 18.164894
47.017857 30.71583 63.529896
45.523857 29.17883 63.491894
45.02886 25.812828 7.1838994
44.939857 27.065828 9.061898
49.227856 20.43283 10.560895
49.877857 18.180832 9.818895
55.886856 22.35183 -1.898105
55.321857 20.328827 -3.1191053
53.928856 42.70683 35.311893
53.45086 40.78983 33.851894
55.238857 39.104828 22.956894
57.053856 37.69883 22.438894
31.25486 56.81783 11.610895
32.029858 55.605827 9.819895
36.87986 55.15683 -2.1791053
38.931858 55.654827 -0.9051055
15.162859 10.561829 24.537893
15.044859 12.231827 25.847895
12.719859 8.50383 37.439896
11.834859 6.508831 38.143894
32.06086 7.890831 14.045896
33.149857 6.194832 13.081895
38.737858 7.260826 2.1678948
36.765858 7.213829 1.0688947
88.944855 50.854828 58.648895
90.97986 50.26283 59.383896
85.83086 44.38783 0.53089905
86.86986 44.76083 2.2038956
10.069855 27.864828 27.771894
8.290855 29.183828 27.496895
93.31286 25.616829 34.854897
91.60486 27.430828 34.115894
21.792858 20.081833 65.0319
22.603859 22.12883 63.751896
28.100859 22.909828 53.646893
26.327858 23.520828 52.457893
53.205856 35.78983 -0.7981051
51.64486 36.01683 0.33289465
47.676857 34.92083 12.0668955
46.30586 36.695827 12.394896
38.376858 22.898827 21.927895
36.58786 23.259827 20.760895
43.343857 24.263832 8.9488945
42.010857 24.637833 7.5638947
66.74486 11.680832 17.068895
66.55886 9.273827 17.989895
60.904858 7.217827 28.592894
60.13186 9.18483 28.789894
13.324859 29.426828 62.752895
14.355859 31.707829 63.484894
22.02986 33.653828 53.932896
21.30086 35.882828 53.822895
83.597855 26.60883 34.933895
85.31686 28.464828 34.993896
85.88586 26.718828 46.805893
83.43586 26.447828 47.545895
94.747856 55.68683 45.256893
94.53686 53.682827 45.114895
90.42286 51.81783 56.555893
91.915855 49.689827 55.287895
3.1168594 11.8018265 35.383896
3.9318542 12.648827 37.068893
91.21386 15.567833 46.284893
89.359856 14.376831 44.992893
17.191858 6.67083 21.567894
17.608858 6.4438324 24.256895
8.293854 5.76783 33.262894
8.863853 5.8708305 34.782894
91.290855 15.658829 32.033894
90.736855 17.33683 31.794893
2.364853 17.289825 21.002893
3.6168594 15.325829 20.089893
42.88986 28.248829 10.718895
42.58186 30.27883 10.465895
35.877857 27.85883 21.728893
34.267857 27.767828 20.480894
59.97186 34.62883 21.164894
60.620857 35.465828 23.329895
55.09686 38.67683 34.040894
53.52886 36.75583 33.891895
10.29586 8.929832 36.507893
9.396858 6.7978325 37.140896
2.8778534 2.6638298 45.956894
2.1288528 0.41883087 46.272896
57.577858 1.6738319 29.549894
58.52186 56.320827 29.602894
49.94486 51.65783 35.266895
48.440857 50.321827 34.240894
8.677856 5.553833 1.2278948
8.611855 7.0358315 2.8548946
3.7928543 5.35083 13.382895
4.922859 3.6108322 14.105895
54.64486 30.43183 -0.40210524
53.983856 32.174828 0.95889485
52.731857 28.912828 12.847895
53.934856 27.963829 14.610895
70.50086 23.65683 56.923893
72.14986 22.641829 56.174892
78.77186 30.22283 50.654896
80.10286 28.509829 50.235893
63.74986 29.731829 20.491894
63.143856 27.92183 20.157894
57.748856 23.658829 30.247894
57.712856 21.82783 29.070894
43.67286 9.921829 3.3898947
43.42086 7.6968307 3.9388947
36.81186 4.376831 13.778895
36.78486 6.01783 15.618896
45.04686 20.775826 26.441895
45.970856 22.680832 27.545895
37.190857 21.213829 36.561893
38.766857 20.277832 38.227894
0.22385406 8.4158325 14.685895
2.0008545 7.60083 15.039895
7.239853 11.422829 4.173895
7.0858536 13.848831 4.5648947
77.88286 44.194828 -2.7121053
79.37886 43.21883 -1.1561054
72.17586 39.840828 8.467895
70.07686 39.75683 9.723895
23.014858 35.841827 67.86489
24.44386 34.41883 67.65189
31.36286 36.92583 57.414894
31.673859 34.840828 57.253895
86.71686 12.113831 45.348896
87.985855 11.078827 47.066895
82.60786 9.037827 57.808895
80.56686 10.761826 57.926895
80.124855 8.32283 23.534895
82.40886 8.584831 23.655893
88.372856 11.213829 13.344895
89.33686 9.661827 11.812895
93.36486 25.585829 19.054895
0.40185547 24.697828 18.473894
7.7808533 30.963829 11.847895
8.910858 29.558828 9.747895
56.34786 25.144833 32.319897
55.198856 23.48883 31.295895
50.919857 22.343826 43.434895
49.24386 22.755829 42.391895
46.01286 43.26783 14.256895
46.828857 42.820827 12.242895
49.82586 44.41383 2.9098947
52.168858 44.08283 3.0488946
82.444855 9.490829 7.8748946
81.33086 7.87883 7.7388945
76.248856 5.9418297 18.451895
76.16986 6.708832 20.651894
68.07586 32.19783 6.501895
67.65386 30.113829 6.996895
63.37486 30.00083 18.014894
62.06986 32.09983 18.896894
88.029854 31.43183 68.189896
86.317856 31.894829 66.93089
0.22085571 31.39683 56.227894
94.59286 33.68583 55.354893
77.99186 28.880829 62.352894
76.89786 29.509829 60.291893
82.46186 38.389828 53.606895
84.60686 37.83983 52.622894
86.20486 17.216827 29.033894
84.79686 18.428833 28.271894
90.736855 24.384827 20.249895
91.44686 23.922829 18.001894
17.94386 12.668831 25.188894
19.815859 13.344826 24.936893
23.39786 20.006828 15.499895
25.23486 20.977829 16.057894
38.97686 5.8618317 67.85989
38.995857 3.8098297 66.7959
43.024857 8.959831 55.109894
43.41386 6.98283 54.145893
11.153859 5.244831 54.216896
10.630858 6.62183 52.942894
14.483859 13.050827 42.563892
16.714859 14.0898285 42.906895
18.556858 37.76083 16.507895
18.49186 39.57483 15.118896
23.191858 43.10983 4.8488946
21.84886 42.244827 3.2598948
93.42486 37.25583 38.448895
0.38385773 35.83183 37.430893
5.3268585 36.229828 27.267895
3.5038528 38.05883 26.923895
53.628857 17.241829 46.275894
55.40286 17.430832 47.811893
52.709858 14.004829 59.223896
54.355858 12.372826 60.188892
83.972855 6.713833 28.209894
82.501854 5.3708305 27.666895
82.30086 2.0358315 38.441895
82.32286 3.8338318 40.075893
5.9278564 16.787827 19.581894
8.086853 15.951828 19.742893
13.578858 20.811829 8.962894
12.32486 20.130829 7.2328944
11.221859 35.098827 10.548895
13.323859 35.38083 11.352895
18.059858 34.951828 -1.3531054
17.91586 37.12283 -2.0741053
15.221859 9.945831 39.603893
16.09586 12.234833 39.974895
19.021858 13.592827 28.980894
18.716858 15.633827 29.059895
0.77885437 21.286827 53.729893
2.440857 19.804832 54.424892
91.36786 16.209831 64.577896
89.067856 16.658829 63.612896
0.20185852 43.39283 42.781895
94.250854 42.26783 44.539894
85.97686 43.064827 50.097893
86.57486 42.000828 52.078896
36.362858 20.467827 21.676893
38.03886 20.938828 23.733894
39.147858 16.136826 21.991894
37.76986 14.610832 20.548895
80.73286 31.60183 63.956894
82.847855 31.18483 64.5049
88.95486 35.30983 53.950893
91.03486 35.75183 54.754894
2.4978561 20.436829 21.082893
1.2248535 19.130829 19.462894
8.331856 19.97483 7.8598948
6.3688583 20.76783 6.957895
86.53386 15.722832 13.455895
87.18486 14.40683 14.607895
80.41086 18.36583 25.806894
80.457855 20.24083 25.526894
73.18386 26.547829 61.668896
71.21586 25.54283 61.450893
70.62186 25.130829 4.8909
72.46286 26.05383 5.7219014
46.164856 50.73383 48.826893
47.994858 50.44783 50.077892
53.482857 54.46783 41.072895
54.86086 56.46683 40.299892
49.501858 6.1508293 57.549892
50.038857 6.062832 59.357895
47.719856 3.1688309 1.9208984
45.71586 3.3148308 1.6828995
94.35286 50.04683 26.382895
1.1028595 51.689827 26.061893
6.6878586 53.19983 15.927896
8.549858 54.667828 15.741895
3.7718582 5.060833 17.257895
4.700859 5.432831 19.106895
90.98186 56.60883 27.152895
89.41086 1.0408325 26.374895
82.820854 15.894829 62.085896
84.60886 17.596832 61.894894
89.539856 17.292831 50.151894
89.319855 16.737831 48.128895
65.36586 35.084827 6.1108947
63.577858 35.91883 7.6368947
57.338856 31.232828 15.709895
57.231857 31.742828 18.234894
13.544854 38.37983 -2.7001052
14.401856 37.39483 -1.1331052
5.4158554 32.03683 7.3238945
6.5468597 32.195827 9.576895
33.461857 49.230827 43.673893
34.133858 51.14583 42.786896
38.32686 52.44283 32.296894
39.918858 53.75583 32.755894
70.08686 43.81883 63.749893
68.84486 42.68683 63.142895
59.343857 42.578827 3.359902
58.058857 40.951828 4.2568974
15.81286 43.307827 34.320896
14.310861 41.74283 33.879894
8.902855 38.56583 44.402893
6.9448547 40.12083 44.601894
50.33386 40.93683 0.7438965
51.20786 43.02783 0.76390076
56.984856 47.78483 58.973896
59.54886 46.493828 58.966896
47.79286 13.994827 6.317902
46.796856 15.487831 5.331902
52.04086 15.945831 63.223896
53.43086 13.680832 63.184895
66.900856 25.991829 56.666893
65.08686 25.905828 56.163895
60.093857 22.384829 66.48689
58.232857 21.095829 65.75089
6.497856 1.258831 67.5079
4.6078568 1.6418304 66.26489
8.843857 6.0268326 55.188892
6.83786 5.5308304 54.059895
73.36986 8.245827 53.617893
72.25186 6.78883 52.477894
80.471855 8.966827 44.093895
80.18486 10.131828 42.262894
7.461853 51.320827 13.867895
6.836853 53.06783 13.067895
11.25486 55.230827 1.7838948
12.897858 0.08583069 1.4948947
89.346855 52.93483 27.441895
91.86886 53.47483 27.997894
85.58686 52.722828 37.037895
84.14786 51.37483 37.540894
55.54186 56.48383 59.837894
56.04886 55.70483 61.947895
50.010857 50.76383 2.9878998
49.371857 52.49283 4.5088964
41.23386 31.637829 8.408898
40.501858 31.54683 6.4198995
46.218857 34.42683 65.6879
44.32386 34.95583 64.358894
55.38086 8.951828 11.822895
57.61086 9.827827 12.383895
54.378857 7.888832 23.250895
54.476856 7.902832 25.592894
64.10686 38.79083 58.912895
62.897858 36.98583 57.931892
53.88086 33.40783 65.5079
54.974857 33.576828 67.56989
59.036858 27.87583 0.08089447
60.19486 26.034828 0.11389923
64.79786 30.794828 57.984894
65.26786 33.03483 58.306892
3.398857 9.306831 0.47089466
4.0718536 7.508827 2.1228948
2.5338593 0.62483215 12.005895
2.5648575 2.4648323 13.477895
79.958855 2.3938293 22.340895
78.832855 4.0378304 21.091894
86.886856 6.3068314 11.237895
85.71886 6.359833 9.472895
89.08786 23.661827 52.386894
87.36486 23.175827 51.957893
78.43386 23.722832 60.631893
76.37986 22.805832 60.179893
78.03486 6.07983 56.188892
77.56486 8.393829 55.920895
84.58986 7.449829 45.399895
86.58786 8.651833 46.919895
42.97186 30.720829 58.166893
40.57486 30.485828 57.702892
46.80586 32.38083 46.640896
48.605858 30.509829 46.653893
41.68686 25.75483 56.625893
41.67386 27.864828 56.434895
51.668858 29.152828 49.974895
53.726856 28.86583 50.614895
54.098858 47.49783 4.3288946
52.036858 47.17883 4.2168946
46.501858 46.24183 13.869895
48.452858 44.508827 13.895895
31.864859 31.79983 3.3189015
32.154858 30.168829 1.9849014
39.44886 32.56683 60.983894
38.10286 31.137829 59.501896
40.06286 51.243828 13.298895
41.22186 53.19983 14.075895
45.898857 53.806828 16.584894
45.856857 55.515827 17.625895
79.96486 10.713829 7.786896
79.18386 12.39183 7.0518956
81.58886 14.229828 63.818893
83.111855 13.109833 62.952892
66.75386 43.13783 10.800895
68.02086 41.36683 10.6328945
63.274857 38.61783 22.026894
60.629856 38.38083 22.237894
77.08986 37.96083 47.530895
76.55986 39.19183 45.720894
82.70486 39.12283 36.144894
83.46986 37.81083 34.772896
47.467857 1.0888329 20.648893
49.25586 0.14183044 19.672894
52.220856 1.8488312 9.226895
51.219856 2.2758293 7.6378946
60.86886 9.802826 63.200893
62.675858 11.219826 64.04189
57.344856 18.416832 65.039894
55.303856 17.845833 64.2009
87.11886 51.66983 40.294895
88.83686 50.715828 42.383896
83.986855 44.82583 50.598896
82.681854 43.27083 49.674892
49.692856 19.526833 44.322895
49.99386 20.84983 45.771893
44.246857 18.382828 55.852894
43.190857 16.227829 55.606895
80.095856 15.317833 40.447895
79.791855 17.027832 41.730896
84.71986 24.487831 33.527897
85.82486 23.047829 32.377895
43.99086 1.2868309 1.3178948
44.89386 0.5068321 2.9318948
39.22286 3.199833 14.318895
38.980858 0.4818306 14.345895
44.57386 11.689827 23.240894
46.024857 11.221832 24.972895
42.03286 7.2028275 36.239895
39.690857 6.249832 36.061893
3.5428543 41.35183 42.434895
3.100853 43.61683 43.682896
89.33586 42.97483 52.396893
