32.51866 9.991671 18.890493
34.62566 7.9206715 18.662489
12.406658 6.6256733 20.329489
12.530659 5.032671 20.823492
27.19066 99.092674 18.193487
27.30266 100.41467 19.969488
12.741661 101.59367 26.46549
11.57766 101.26267 25.179487
7.5276604 103.64067 17.584494
7.5876617 105.57267 17.830488
30.50266 107.75067 17.92449
29.85066 106.025665 18.038488
36.276657 73.04167 79.82649
35.039658 73.96967 78.07549
19.64366 75.53267 80.35849
18.683659 74.06767 81.13149
28.70466 6.513674 106.43549
27.695662 4.893671 105.85249
5.649662 0.7486725 101.669495
5.392662 111.69067 100.877495
30.39066 75.45267 38.409492
30.45466 74.77967 40.29049
8.829662 74.40667 38.907494
9.94466 76.00467 38.726494
21.55866 2.9086685 70.46949
20.54666 3.6626759 69.01749
4.0946617 3.6276722 68.93249
2.7086601 4.100672 68.35449
9.47266 90.05567 24.88449
11.149662 90.20167 23.183493
26.918661 86.07967 20.010489
28.29466 87.02867 20.491491
3.7316628 79.27667 103.877495
3.0276642 81.28367 103.89649
25.035662 81.77767 103.84149
25.064661 80.01067 104.014496
6.915661 80.41967 20.875494
6.43766 81.20067 22.665487
30.62266 78.62267 25.684492
29.07366 78.57467 26.088491
27.498663 47.68467 53.247494
29.22666 46.87667 53.727493
6.0516624 46.99067 50.922493
7.350662 47.56767 49.84849
32.76166 21.024683 10.19049
33.41666 22.809671 11.334495
10.415661 17.76967 6.545494
10.434662 16.702677 5.290489
2.4186592 61.39767 106.460495
1.9366608 60.92067 0.274498
17.67366 55.91467 0.23149109
18.13866 56.07967 106.97949
6.170662 0.20066833 105.18549
6.1056633 2.2486725 105.84349
30.23166 9.053675 0.5114975
29.72666 9.685671 2.0054932
35.85466 74.85967 68.67549
33.581657 74.759674 67.07449
18.954659 75.90367 68.67549
17.77066 74.91667 69.38149
25.369661 43.94267 40.7705
23.978662 44.21067 39.364494
0.10866165 39.98467 32.95649
1.0116615 41.47467 32.7875
29.68466 59.48067 59.345493
28.73166 60.43967 57.87049
13.2306595 62.71567 62.01649
11.947662 63.31667 61.021492
28.50466 110.05067 107.239494
28.278662 111.26267 105.5825
2.7046623 107.44867 97.3045
2.9996643 105.79967 97.168495
1.6816635 58.26667 14.382491
0.55566406 57.55267 12.811492
22.750662 56.10767 12.602492
21.986662 57.39767 13.431495
9.10466 47.13667 57.37649
10.154659 46.38267 55.59349
26.19066 42.93767 59.319492
26.31666 41.91067 60.67449
16.863659 24.412683 43.5375
16.56466 24.131678 45.672493
2.0086594 25.69668 46.29049
1.2406616 24.22767 45.927498
32.235657 72.09767 51.179493
30.99066 70.81667 49.997494
15.13266 76.71267 56.312492
14.77066 75.20167 56.886494
7.7496605 4.205675 9.039489
8.129662 4.586672 11.637488
31.38166 1.4616699 16.833494
30.06666 2.3856735 17.274488
4.5446625 79.97767 99.292496
4.87566 79.00267 97.70249
20.08766 71.46167 98.182495
21.347662 72.78667 97.502495
2.1956635 95.86567 79.45649
1.6176643 96.26367 77.58249
22.873663 97.731674 80.71949
22.44166 98.88967 81.75749
15.33466 26.61468 108.21349
15.859657 25.78367 106.81249
31.59466 26.503672 100.1805
31.50466 25.749674 98.51049
33.89366 70.18467 60.32049
34.52666 71.66067 61.69549
11.318661 65.10267 59.02949
12.86166 65.40767 59.033493
22.17866 25.542673 48.50949
24.06566 26.549677 47.03049
1.1576614 24.388681 51.85649
2.920662 24.360682 51.30149
24.374662 79.74367 91.168495
25.35666 79.93467 93.16249
3.800663 81.77867 91.960495
4.623665 82.98667 93.112495
22.931662 4.2306767 90.294495
22.834661 5.7386723 88.91249
6.9216614 10.362673 88.55249
5.6766624 8.989672 87.88049
30.17666 35.06768 79.70449
31.53766 36.36767 78.22149
7.213661 30.48768 77.09249
8.732662 31.14567 77.36849
38.93266 55.56567 103.57649
1.4046593 56.92967 103.876495
17.183659 56.44067 104.226494
18.788658 57.26367 103.848495
21.84566 81.78967 87.281494
23.674662 83.28267 87.35949
0.36166382 78.73967 86.308495
0.5756645 80.29267 86.56049
23.563662 56.58167 27.34149
22.561663 55.71767 25.88349
6.102661 52.98867 30.251501
6.8066597 54.60267 30.4325
27.846663 61.85767 52.538494
26.998663 60.28367 52.159492
11.149662 66.69367 52.178493
10.7306595 68.40667 51.58549
29.444662 18.83668 84.36749
28.075663 18.56167 82.459496
2.9876633 12.026674 76.85849
3.1416626 10.679674 75.987495
3.6866646 75.93667 1.910492
2.4836617 77.79067 3.4154968
27.187662 77.66767 9.595489
27.577662 77.40467 11.415488
6.425659 61.21067 24.60549
7.481659 62.909668 25.984488
22.28066 64.15967 17.903494
22.48966 63.67567 16.461493
4.3746643 19.91868 64.02949
4.3586617 22.013681 63.858494
28.165663 27.728678 68.02649
27.94166 29.288675 67.65849
26.659662 16.385675 93.406494
25.597662 18.49367 93.38049
13.46566 21.787683 99.74849
13.462658 23.07667 100.71749
35.81166 23.297678 15.170493
36.40066 24.654673 16.403494
9.891659 13.929674 11.026488
10.38166 13.295671 9.374488
10.8486595 75.56867 28.629492
11.690662 73.28067 28.973501
24.80166 73.53767 19.211493
25.839663 75.16767 18.044493
21.51166 59.26967 103.64349
23.44066 59.78767 104.28849
34.819656 50.11967 104.67149
35.539658 48.540672 105.05249
13.16766 84.02667 42.3005
13.344658 82.48267 40.6345
29.175661 81.95467 37.9365
30.617659 82.29667 38.74749
28.453661 2.5336685 4.4194946
29.200663 4.1526737 3.3304977
7.064663 0.37467194 1.7094955
6.5916634 1.8706741 0.7634964
0.36265945 64.58167 87.27349
38.44766 64.17067 85.072495
14.12566 56.97267 81.33849
14.987659 57.50767 79.84349
11.38166 48.01467 73.59449
11.981659 45.65967 74.377495
25.158663 43.69667 66.26949
25.526663 44.25767 64.46549
32.93966 72.99767 43.09249
32.87066 70.01467 43.806496
8.509659 64.59967 43.099495
9.068661 66.021675 42.276497
4.628662 71.63667 13.834495
2.517662 71.96267 13.09249
29.03866 75.23467 20.595488
28.742662 76.08767 22.083494
36.88966 28.713678 27.29949
36.39266 29.33468 29.323492
20.979662 36.588676 33.1905
20.54566 37.103676 31.459494
37.45966 110.27767 46.097496
38.29366 108.288666 45.20449
14.05666 104.95667 40.114494
15.372658 105.67067 39.028496
2.6536636 0.50766754 71.16249
2.0586624 1.5566711 69.17149
25.306662 3.4376698 73.376495
25.53866 5.202677 73.24049
9.25766 55.31467 55.34849
8.97266 56.72267 56.957493
32.78566 59.95667 58.267494
31.59866 61.71167 57.81449
9.936661 26.694681 85.76049
9.7496605 24.78068 86.41149
26.216661 18.235674 84.4995
25.80966 16.739672 83.67549
38.33066 2.384674 54.06549
37.548656 1.8406677 52.37749
20.626661 4.301676 53.25949
19.515661 2.8776703 53.285492
5.239662 82.93067 103.65949
6.859661 84.05867 103.03449
22.513662 84.62467 104.48049
22.672663 83.03367 103.364494
6.0486603 88.75467 106.76049
7.703659 89.15467 0.38049316
22.833662 83.83167 107.723495
23.10666 85.34567 107.23349
4.7426605 44.37267 45.637493
3.1696625 45.41567 44.83449
7.168659 50.43567 50.548492
8.085659 51.94867 50.532494
37.18166 21.184671 36.651497
38.60066 22.801676 36.573494
15.427658 20.038675 35.91349
16.45166 18.639673 35.948494
30.03566 106.97767 23.385489
31.22266 105.06167 23.08949
7.8016624 106.59967 20.211493
9.529659 106.63867 20.71449
4.2196617 96.77967 88.099495
4.9596596 95.84067 89.86949
21.605661 92.64367 86.26149
21.769663 93.13867 84.68949
3.2706642 36.78367 47.365494
2.1396637 38.18467 46.26649
27.34366 44.693672 51.291492
26.222662 43.52867 50.802494
16.47866 64.855675 76.91249
15.161659 65.70967 74.95449
37.78566 67.023674 79.60549
37.33866 65.50267 79.01349
21.82366 24.751673 57.895493
23.993662 25.389673 57.421494
38.74766 28.347681 54.95349
0.9886627 27.525675 54.583492
2.036663 95.45267 90.252495
2.555664 93.68767 89.11549
24.56666 92.68367 88.74449
24.380663 91.18567 89.668495
16.530659 66.78367 83.03349
14.990658 64.828674 82.5555
0.10866165 70.55067 81.24249
38.84766 72.72167 80.83149
18.25766 71.32667 82.209496
19.93366 71.593666 81.33149
35.325657 71.36467 77.36049
35.463657 70.82667 75.55449
2.0946617 48.75367 17.206488
3.2926598 49.00967 15.10749
15.932659 42.91667 9.7114935
16.01966 41.02667 10.038489
0.29766083 66.729675 91.81749
1.9716606 68.20167 91.03849
17.39066 61.33667 92.766495
18.649658 60.73767 93.77649
25.047663 67.38667 16.393492
24.60966 65.29667 16.900488
2.3186646 64.090675 14.561492
2.7546616 63.00467 13.365493
2.8066635 16.889673 71.31049
1.4526634 14.883677 70.84149
23.94966 16.897676 75.696495
23.910662 17.890673 74.22049
1.6016617 53.56267 13.970489
2.663662 52.11467 15.74549
16.76366 45.99367 12.750495
17.246658 45.74467 14.337493
16.82066 16.251673 40.154503
18.72366 15.606676 41.475502
35.490658 12.337671 40.90249
36.054657 13.759676 41.083504
10.94466 76.54867 32.901497
11.9996605 75.87467 31.17449
26.91466 67.73467 30.7815
27.828661 69.14967 31.3245
37.67866 61.44367 83.05249
35.79966 59.99167 82.81549
20.23266 63.10567 88.14449
18.82766 63.423668 89.39649
21.23866 78.76467 89.0555
19.26066 78.76667 87.91449
4.489662 82.21967 89.24049
4.0186615 82.22567 87.612495
15.087658 84.50367 54.23049
14.40366 85.94967 53.31349
36.81566 86.64967 59.052494
36.45766 85.21967 59.87049
0.2536621 75.61767 79.78349
0.43265915 77.07067 77.80249
17.448658 75.78567 76.65949
18.56466 76.62567 75.61949
27.958662 109.52967 100.64849
27.73366 111.39167 99.99749
2.1176643 104.68467 91.81449
2.7776642 105.43667 93.083496
12.733658 8.397676 26.283491
11.682659 9.92367 26.803488
36.86366 12.026674 33.87249
37.247658 12.275675 35.823494
26.00966 25.128672 74.98249
26.459661 24.598673 72.95849
2.7256622 24.917673 73.18549
2.8826637 23.312677 72.70549
31.084661 98.72167 38.960503
30.78966 97.48767 36.9815
15.068661 99.74267 43.226494
15.29966 101.551674 43.903496
1.1336594 0.8876724 52.82749
2.1756592 1.9916687 54.436493
18.35366 109.63267 51.89249
19.65566 109.01367 51.17449
19.300661 4.929674 50.64749
17.56466 6.372675 50.110493
0.39165878 6.844675 55.88349
38.36966 6.063677 56.850494
18.38166 72.53667 88.252495
19.980661 71.21567 88.31649
36.284657 74.03067 88.10749
37.144657 73.65967 89.625496
33.68666 49.86867 91.70249
35.57266 49.52967 93.36849
12.234661 42.09867 90.295494
13.022659 41.603672 88.90849
25.750662 55.32467 33.345497
25.45566 54.57467 31.49349
3.2316628 51.79267 29.3785
4.3376617 50.41167 29.076498
21.758661 9.3686695 69.57549
21.075663 10.752672 71.70749
3.9666595 14.199671 72.00449
3.8766594 13.778673 73.627495
28.432661 108.33267 16.143492
26.971663 108.20767 17.912489
11.871662 105.58367 21.97949
10.693661 104.356674 22.693487
33.756657 81.10167 56.83549
33.554657 81.57667 58.767494
18.710659 84.87267 67.57549
17.36766 85.85767 67.19949
24.534662 62.94267 20.880491
25.686663 61.49167 21.233488
1.5666618 61.47667 15.335494
2.6856613 60.57167 16.835493
25.743662 91.06967 3.920494
24.783663 92.88267 4.3974915
9.038662 94.29867 4.592491
7.941662 93.09467 5.1094894
15.115658 59.23167 73.38749
13.302658 58.37567 73.70449
36.622658 58.51167 79.654495
36.40066 57.06967 80.05249
4.7376595 45.634674 42.302498
5.8726616 45.076668 40.478493
19.284662 38.15168 35.028496
19.96866 36.698677 35.6585
30.58766 78.15667 32.774498
30.86166 77.17067 30.913488
8.615662 78.13867 28.637487
8.72266 78.34967 26.969488
8.220661 103.67367 7.9254913
10.328659 102.42867 7.34449
26.15566 104.884674 8.561492
27.18366 105.82467 9.30049
14.155659 26.238672 5.990494
13.967659 25.42167 4.0844955
30.117662 20.723673 107.710495
30.33766 20.335672 1.2534943
29.49166 86.02767 25.859488
30.55266 88.12967 25.949492
5.505665 86.30267 25.301489
6.220661 86.66867 26.698492
31.20666 24.47468 89.67549
31.62366 24.84968 87.26249
31.51766 24.047678 95.88349
29.751661 24.636683 96.27449
14.92366 10.976671 33.524498
13.828659 12.2086735 31.7405
36.98566 8.9586735 38.93049
36.622658 10.224672 37.669502
16.512661 51.74467 106.92349
16.567657 53.87767 106.71549
3.2286606 57.40767 6.531494
3.484661 55.85067 6.785492
5.963661 109.98967 97.32649
6.13266 111.970665 98.39549
24.089663 112.03567 98.11849
23.70666 111.04267 96.76849
19.11266 69.90767 94.75449
18.52866 67.93867 95.74849
2.22966 70.33567 96.37949
0.93666077 71.20667 95.40949
10.426662 77.63867 35.51249
11.43066 76.10467 35.722496
28.94766 74.49967 33.100502
30.200663 75.04467 32.235497
5.152664 60.02667 28.24349
4.6136627 60.61467 26.336493
26.69166 60.10167 27.664488
25.500662 59.03967 27.150488
16.511658 70.50167 84.500496
16.233658 68.23467 85.153496
1.2866592 75.26867 85.91249
2.1476593 76.495674 85.63249
33.66766 71.51867 53.99449
33.97066 73.70867 52.82849
8.40966 72.58067 43.700493
9.233662 73.74167 42.475502
11.908661 63.87567 55.47349
12.15266 61.76267 55.10749
26.92766 56.85267 52.909492
27.069662 55.90867 54.30049
0.4316597 53.28667 105.07649
0.55765915 55.38167 106.09449
16.27966 48.34767 103.0825
17.505661 49.36967 103.50749
22.58066 60.85667 14.166488
23.61566 61.145668 15.959495
1.3296623 60.409668 12.394492
2.6226616 61.30267 11.2724905
16.79866 23.082682 31.852499
15.163658 21.95167 33.3245
0.04365921 24.832682 38.864494
38.240658 26.669672 39.004494
32.754658 34.32067 1.3304977
32.470657 36.575676 1.5314941
15.883659 40.372673 5.809494
16.26966 40.78968 3.9854965
18.442657 86.78667 76.15149
17.95266 87.53867 78.15149
0.66366196 79.10467 75.83149
38.29066 79.88867 75.88849
22.67166 21.276682 52.568493
23.203661 22.445673 53.804493
0.7566643 18.883677 51.332493
0.8916626 17.268671 51.65449
27.638662 17.717676 2.2514954
27.965662 20.085672 2.924492
13.91666 25.347681 10.832488
13.599659 24.062677 11.80049
20.554663 62.93967 100.31349
21.49666 64.78167 99.640495
37.17466 62.66367 102.78849
38.648663 62.388668 103.95249
9.814659 69.85267 40.728493
9.453659 71.86567 40.414497
25.534662 65.842674 37.595497
26.146662 64.67267 38.595497
3.7706642 88.68767 100.44149
3.5306625 90.74267 100.38649
25.653662 94.11267 100.91149
25.112661 95.12267 102.111496
18.78566 65.72567 80.60649
20.521662 64.76867 79.87249
35.39766 60.92967 78.420494
35.990658 61.00867 79.931496
0.4676628 51.35167 13.111495
37.83266 50.61467 12.433494
21.911661 51.59567 13.44049
21.40066 51.52967 15.16149
11.370659 54.86367 63.796494
12.358658 54.21967 65.34149
29.15766 55.56867 65.29549
30.19966 54.45567 64.39649
28.00466 69.78267 35.2445
26.868662 70.079666 36.67649
12.81266 75.94867 41.317497
12.54966 75.47167 38.91349
25.283663 12.387674 69.57649
25.610662 15.035677 70.13149
2.0116615 10.212671 71.93049
3.3776627 11.2436695 72.63349
23.00366 111.149666 85.87149
21.750662 110.010666 84.49549
7.8016624 111.22467 91.3055
6.9686623 110.77267 92.559494
7.7216606 50.81567 60.616493
6.83366 51.54067 62.170494
30.62166 52.04867 65.89949
30.18666 50.50767 66.00249
7.6526604 96.53567 100.237495
7.550659 94.23567 101.07449
24.653662 91.98367 98.780495
24.950663 93.66167 98.25649
13.38866 48.96767 94.9995
11.606659 49.95367 94.2215
37.80466 45.53467 102.5825
37.34666 46.71067 103.76949
23.910662 106.77767 85.52049
24.644663 108.52367 84.22849
38.751663 104.23467 77.028496
0.8286629 105.148674 75.88349
38.27466 76.84967 73.00749
38.39466 75.66067 71.72049
15.154659 75.22867 70.51849
16.287659 75.43667 71.67449
0.6476593 96.02967 70.84749
1.3186607 94.30667 71.86449
18.252659 92.80867 71.59049
19.08366 93.48767 70.08949
11.484661 86.87267 32.583504
12.04866 84.46567 32.116493
28.21066 77.29667 29.81449
29.13466 77.16067 28.410498
31.159658 106.025665 30.602499
30.76266 106.20367 32.737495
15.418659 112.46567 32.366493
13.669659 111.621666 32.4125
22.15766 109.65867 64.08049
22.499662 107.39267 64.25749
38.369663 99.870674 65.80249
0.6366615 100.37967 66.67249
1.8896599 41.924675 29.095495
2.8526611 40.44468 30.2815
18.27866 36.075676 27.941488
19.668661 36.965675 27.504492
19.533663 106.39367 49.17549
20.94066 106.55567 50.62049
34.30866 99.25067 49.837494
34.12066 99.76967 48.311493
8.45166 9.3076725 94.99249
9.200661 7.785677 94.13649
25.855661 9.205675 96.48049
26.533663 7.6616764 95.976494
31.23566 65.92967 43.9645
32.496662 64.14467 45.067497
7.502659 59.02267 40.325493
8.672661 60.21667 40.000496
11.41066 19.744684 103.5545
10.825661 18.143671 104.7775
33.670662 22.399683 0.8884964
34.30466 24.233683 0.23649597
21.285662 71.46667 94.639496
20.848661 73.76967 95.09149
22.931662 81.33367 95.169495
22.94166 81.78067 93.41149
31.695662 39.107674 88.99849
30.403662 40.119682 87.25449
16.129658 42.258675 96.66149
15.353661 40.898674 96.2915
19.56566 65.37267 95.63649
19.20766 65.87667 93.95249
35.87766 61.07267 89.41549
36.99366 62.05467 88.77149
22.701662 96.32967 89.89349
20.17866 97.88567 89.91249
3.5216599 99.61667 91.22849
3.25066 98.33467 90.19049
27.064661 87.09667 26.431494
26.70466 85.440674 26.193487
9.866661 85.47667 26.760489
8.823662 84.60267 25.222494
23.951662 65.523674 21.574492
23.709661 65.92867 19.586493
7.538662 67.53367 17.820494
6.66066 66.24767 17.246489
16.683659 15.120676 35.77549
15.65266 15.930674 37.392494
37.59766 16.897676 34.306496
36.066658 16.191675 34.5355
11.443661 15.832674 106.60849
12.2046585 17.29667 108.24849
30.151663 16.528673 104.61549
31.93566 16.745676 104.99349
37.07166 64.65067 88.4855
36.36966 64.00667 86.89649
21.493662 68.95567 92.09449
20.478662 68.29467 93.23349
21.72466 52.617672 10.55149
22.306662 54.53667 9.960494
39.002663 53.82167 11.802489
1.0536613 54.88367 11.67649
30.55266 49.19567 75.59249
29.13466 47.22567 75.86949
17.038658 51.03767 85.8045
15.95866 51.00667 87.13449
4.4786644 88.38267 103.39849
3.156662 90.08067 103.29049
25.76666 86.68367 105.779495
25.750662 87.49767 104.3045
3.1476593 81.62467 85.17749
3.1836624 79.68667 86.1665
16.56966 75.66867 79.65149
16.156658 77.35467 79.476494
7.741661 31.568674 83.22749
10.002659 31.85467 83.320496
24.26666 24.542673 84.26149
23.94866 23.037683 84.91349
29.73866 64.72267 51.104492
30.48066 62.96167 51.991493
7.1196594 62.57967 46.85549
8.432659 63.39167 45.93949
17.38866 103.44167 53.17549
15.567657 103.162674 54.50849
0.42366028 104.79267 62.82849
1.1006622 103.88567 63.95349
33.35366 27.399683 102.071495
34.41066 25.338678 101.47049
8.429661 25.38267 95.809494
8.783661 25.91868 94.156494
21.38466 81.60267 80.15249
22.007662 80.217674 81.976494
38.33266 76.10167 82.14449
38.99266 75.89067 83.447495
1.1906624 10.07567 55.408493
1.4376602 9.278673 53.171494
17.22366 12.10367 53.76749
17.281658 11.96467 55.422493
8.13866 78.09767 33.504494
7.0226593 76.96067 35.2875
33.13266 81.27467 41.514503
32.02966 80.07767 40.269493
37.387657 10.856676 51.63549
37.075657 11.830675 53.479492
20.03766 12.95067 52.94549
18.67966 12.897676 51.804493
22.027662 87.03667 94.60749
20.20666 86.41767 93.26149
5.2826614 92.40467 99.38349
3.9036598 92.95767 98.11649
32.441658 43.05367 89.67849
32.824657 45.15267 88.93549
15.920658 48.58467 93.56349
14.684658 47.66167 92.738495
28.80666 103.53867 11.547492
30.22966 104.53067 10.3364935
7.1506615 102.83767 11.802489
8.126659 103.28067 13.156493
34.00966 37.49668 98.00949
34.44666 37.385674 95.56349
9.869659 31.917673 89.49149
10.804661 33.644676 88.49049
38.36466 0.61167145 49.44249
39.10266 111.73767 47.792503
14.176659 111.04667 40.047493
14.5606575 110.66567 38.250496
3.8226624 53.07967 23.582487
2.1306648 51.63067 23.018492
22.92766 53.06067 22.435492
22.339663 54.57467 21.163488
21.022661 4.134676 56.914494
21.13566 2.1646729 58.407494
36.887657 110.50067 59.728493
38.168663 111.24967 60.57949
25.223661 89.12967 81.15749
24.763662 91.36867 80.264496
2.958664 92.17367 83.403496
2.7266617 90.55967 83.071495
13.240658 91.88067 38.639503
13.19466 90.63067 40.02549
29.167662 86.06167 38.363503
30.486662 84.93067 38.670494
28.279661 82.85767 35.4215
26.770662 82.29967 33.366493
11.401661 85.73867 37.2555
10.824661 86.79367 38.534492
15.634659 18.896677 40.54949
14.380661 16.821672 41.060493
0.72066116 18.308672 43.6345
38.69966 17.818674 42.368492
32.64666 111.90767 23.414488
32.39466 110.15167 22.303488
9.744659 111.15667 17.98149
10.217659 109.68767 19.12049
31.81666 101.45167 27.059492
31.90666 101.26967 24.504492
10.984661 106.95167 25.889494
10.767662 106.58967 27.482489
18.739658 70.95367 85.96349
19.23066 72.66967 84.37149
36.888657 68.75067 82.46949
38.24266 69.14367 83.61849
23.901663 51.88767 45.052498
22.79466 49.62267 43.978493
10.293659 60.95667 43.0765
9.182659 62.11467 43.694496
26.16466 81.75067 12.252494
28.00366 82.39367 13.894492
5.1936646 79.77567 13.804488
4.640663 81.10867 15.374488
25.18566 79.39467 8.530494
24.26766 78.58167 6.9564896
9.620659 87.425674 8.73249
8.00066 87.44367 7.8644943
5.7006645 107.164665 105.62249
6.456661 108.22367 104.087494
28.33866 1.2176743 107.47849
27.45566 2.4746704 108.00649
1.0986633 5.0476704 66.45749
1.1466637 7.0266743 66.52749
23.987661 9.817675 71.21449
23.13466 9.167673 72.53249
6.231659 6.1846714 108.13549
6.137661 6.3546696 2.6024933
30.29766 11.818674 4.8344955
29.46566 12.692675 6.1054916
15.015659 40.590675 86.02449
15.620659 37.97068 85.25849
29.200663 42.897675 78.209496
29.174662 44.62567 78.46649
18.81166 8.671671 38.739494
19.35266 10.156672 40.457497
33.95466 2.2866745 39.29949
34.290657 1.9486694 37.5875
9.269661 4.13167 14.144492
8.9996605 1.9456711 13.619491
33.94566 6.197672 21.061491
32.46666 5.5086765 21.07749
8.149662 49.78367 54.78049
7.2356606 51.48767 55.55749
31.74766 58.04967 60.727493
31.49066 59.63567 61.559494
2.7006645 78.426674 96.01149
2.1126633 78.99467 97.95449
25.33166 87.398674 98.71849
24.645662 87.58267 97.24649
17.058659 35.05767 18.09049
15.87566 36.461678 16.904493
0.15966034 40.05967 16.269491
38.21166 41.36767 16.72949
35.221657 108.64067 40.919502
33.19766 108.38267 40.167503
16.412659 107.79367 40.67449
16.10466 108.52867 39.1455
20.90566 61.14167 106.81149
20.661661 62.31367 105.46749
3.774662 65.230675 102.7075
4.880661 66.008675 101.459496
7.182659 54.33267 44.769493
9.108662 55.52667 44.888496
22.793661 47.47367 41.862495
23.805662 46.27167 41.0765
26.02566 99.86467 103.3745
27.373663 100.39567 105.210495
4.580662 98.29167 100.38249
5.038662 96.78367 99.35249
16.587658 64.20867 69.45049
17.43166 63.16867 67.72749
29.68366 62.14067 61.553493
31.07966 63.45467 62.080494
16.07666 27.932673 18.07749
17.79866 26.77067 16.375494
32.71766 23.204676 19.371489
32.94066 21.79667 20.571493
16.630661 83.28667 56.07849
18.148659 84.74267 56.332493
32.443657 75.41367 53.82149
33.42066 75.33967 55.103493
36.166656 111.73767 47.946495
36.004658 0.20967102 46.252495
18.52266 3.035675 45.90049
17.782658 4.4516697 46.058495
36.13966 106.95867 49.04949
35.158657 108.83767 47.83149
18.907658 108.37667 47.379494
17.816658 108.30167 45.9385
13.07666 23.731684 6.7014923
12.66766 22.60467 4.5694885
33.63266 26.35467 6.9114914
33.37266 28.057673 6.9654922
26.222662 37.204674 65.89849
25.374662 35.60668 66.66649
11.212662 39.829674 74.85549
9.525661 40.096672 75.22949
8.54266 56.60567 41.58149
9.448662 55.96367 39.919502
22.80366 46.76667 36.7145
21.918661 45.38067 37.582497
34.187656 100.84367 45.804497
33.610657 102.58067 46.5035
17.676659 104.18567 45.6585
17.336658 102.21367 45.52349
20.73466 99.97167 78.33949
20.453661 98.92767 79.88149
3.9036598 97.96567 80.682495
3.7136612 96.58167 81.639496
37.27666 29.846674 25.019491
38.879658 31.797678 25.683493
16.455658 29.057673 23.890493
17.488659 30.402674 23.639494
7.7116623 84.35467 8.418494
9.33466 83.04667 8.737494
23.672663 84.51367 6.295494
24.17066 82.76267 6.049492
3.319664 67.160675 6.823494
3.0566635 67.36567 8.700492
25.882662 69.56267 11.497489
25.083662 68.67467 10.448493
22.03966 108.42967 90.724495
23.328661 107.163666 92.516495
9.35466 4.22867 96.7495
8.83466 2.8166733 98.11749
2.6716614 5.483675 75.37049
1.6546631 6.7746754 76.83049
25.624662 11.9966755 79.52449
24.83766 13.247675 80.44249
24.17666 39.049675 44.9535
25.054663 39.33268 46.736504
38.142662 28.368677 45.0915
38.58066 28.815683 43.3415
10.516659 99.75367 27.081488
8.547661 98.78467 25.95149
30.88366 98.90467 26.74549
29.58566 97.96567 26.552488
11.001659 11.014673 102.64949
9.155659 10.116671 103.16049
32.49366 15.552675 102.45349
31.57266 14.29867 101.696495
36.325657 33.857674 22.02049
35.039658 32.41468 23.088491
19.610662 32.73368 26.246489
18.656658 33.98867 26.49349
14.70166 95.39367 51.30649
13.532661 94.620674 49.375492
36.76466 94.856674 50.52949
35.91066 95.72467 49.624493
2.7856636 99.26567 94.583496
2.2126617 100.85067 93.226494
23.320662 101.41067 95.16049
23.07366 102.75167 96.001495
9.350662 6.3946705 8.847495
9.53566 6.933672 11.026488
26.44066 2.4606705 11.139495
27.915663 2.8976746 10.451491
17.267658 106.12567 47.351494
17.12666 105.18367 49.32049
1.2396622 107.11967 57.35549
0.36166 106.95767 58.643494
12.350658 18.649683 5.2394943
13.745659 20.234674 5.1804886
27.867662 12.792673 3.799492
27.90566 12.366671 2.1274948
37.36766 84.82767 63.88349
38.15366 84.57667 62.018494
14.494659 81.66667 59.187492
15.77166 82.717674 58.469494
33.03466 102.95067 36.6865
34.71266 102.11067 38.345497
9.95166 96.07167 34.098503
10.883659 97.74067 34.057503
18.815659 0.7336731 52.028492
20.04466 111.49467 52.555492
36.50766 107.99167 51.430492
38.38066 108.23667 51.66849
38.14966 68.08467 86.237495
38.69766 70.35667 86.06549
14.557659 63.27367 87.42449
16.155659 63.45267 87.05149
16.24966 97.15167 56.70449
15.732658 95.68467 57.91949
36.65266 98.11967 53.05649
35.73666 97.62867 51.81449
22.51866 29.262674 58.062492
21.12766 29.953684 56.364494
4.460659 32.239677 60.636494
4.0826607 32.93067 59.040493
24.03866 97.16867 94.53249
24.97566 97.29867 92.54849
3.3866615 89.78267 94.69049
3.3646622 87.926674 95.627495
3.5346642 49.26867 35.3005
1.8836632 50.04667 34.080498
27.314661 55.26967 41.7035
27.23966 55.93967 43.4405
7.5586624 89.05467 29.267492
9.0986595 90.16867 30.538488
10.941662 91.58667 36.914497
10.947662 93.31067 37.3715
7.3036613 39.38468 72.73049
5.743664 37.438683 73.154495
31.304659 45.743668 74.83049
30.62766 45.203674 76.38449
16.239658 52.12767 99.60749
15.239658 53.60767 101.28449
37.71666 52.08267 101.07649
36.20366 51.78967 100.417496
5.8836594 93.56767 104.793495
6.6576614 95.42267 103.58849
23.964663 92.75067 102.850494
24.416662 91.29567 103.57849
18.27866 40.95568 22.301489
17.630661 40.22767 24.727491
2.1576614 41.239677 26.447493
1.8866615 42.732674 25.961493
37.69466 40.119682 14.03749
36.05766 39.284676 16.023489
20.89166 39.93067 18.934492
21.37866 39.786674 20.419493
38.17366 98.88367 59.51649
0.44766235 99.05267 57.838493
14.540661 100.14567 52.20349
15.899658 101.21267 52.777493
27.243662 102.33167 2.9674911
28.07266 100.440674 3.797493
5.7856636 95.90767 1.9824905
6.7336617 96.09167 0.48649597
2.113659 44.56767 23.932493
3.9306602 43.30167 23.83949
17.46466 43.29867 17.264494
18.90466 43.38867 18.40949
25.11566 7.193674 82.91349
26.118662 7.990671 80.875496
2.9816628 8.901674 77.961494
3.5326614 7.5476704 78.44349
17.273659 27.24267 43.375496
16.81866 26.786676 41.0315
0.91165924 24.157679 43.263496
38.48466 24.53367 42.243492
23.37266 61.21567 8.274489
23.58066 60.60367 10.159492
1.3916626 58.63767 8.265494
1.2666626 59.55267 6.9634933
29.46066 66.08667 41.8545
31.055658 65.18467 40.603493
6.0656624 63.81667 37.05349
6.967663 62.45267 37.4065
35.970657 87.45767 71.41749
36.89766 89.06167 70.06849
22.306662 95.99267 67.85249
20.638662 96.15767 67.60349
22.07366 75.55967 96.723495
21.334661 76.66567 95.16349
6.9196625 81.43767 100.02449
5.6936607 82.106674 101.00749
26.46366 102.63567 102.26049
27.66366 103.064674 104.614494
3.6646614 102.24467 101.64949
5.3346634 102.50467 102.101494
18.287659 43.32567 3.5924911
18.058659 44.174675 1.908493
32.76666 36.022682 106.962494
34.041656 35.382668 105.79749
33.43666 23.77868 6.2204895
33.42666 21.503672 4.981491
11.714661 20.563684 1.0824966
12.581661 19.927683 107.766495
34.65566 53.65367 91.81049
34.08566 52.20967 90.140495
16.977657 54.46667 90.36949
16.025658 53.19167 90.21349
24.326662 45.71267 47.784492
24.16366 45.86667 45.8265
8.82766 55.27367 48.934494
7.727661 55.36367 47.55349
3.6416626 10.135675 64.33049
3.7856598 9.363672 61.754494
18.893658 4.074671 64.84749
18.470657 4.3966694 66.47349
30.02566 89.89667 33.489494
30.58566 91.50767 32.34449
7.1156616 92.11767 30.59249
8.401661 92.67767 29.778494
29.199661 17.170671 91.946495
29.689661 16.36667 93.78249
6.6016617 13.980677 90.822495
7.031662 13.998674 89.09349
26.696661 6.195673 4.436493
26.286661 3.9616718 4.281494
9.136662 5.197672 0.9134979
8.705662 6.060671 108.043495
29.51666 99.19167 29.291494
29.644663 100.40167 31.040487
12.877659 102.16967 29.440496
12.467659 103.57167 28.731497
19.619661 89.12567 72.94949
17.636658 90.08767 71.71049
2.1606598 87.870674 77.962494
1.9156609 89.550674 77.92549
36.55166 52.23667 88.92349
36.52566 53.47267 87.432495
13.498661 51.77867 81.90949
14.02766 51.03967 80.349495
38.15566 61.81567 78.71849
0.2346611 63.58867 78.28649
16.801659 64.008675 79.82849
17.023659 63.58567 81.475494
13.40366 55.45267 72.01049
15.25766 56.34567 73.626495
31.49566 53.03867 74.21849
31.76066 51.63467 74.91349
4.399662 106.65467 94.74149
5.72966 108.678665 94.53849
20.971663 107.62767 86.460495
19.95466 107.16667 84.891495
31.16366 43.56267 80.099495
32.33866 41.54367 79.12949
9.19566 41.23867 79.01349
10.205662 41.79367 77.31049
7.666664 58.17767 48.75849
6.923664 60.26567 48.97549
28.89866 58.46967 50.393494
27.535662 57.57167 50.41949
0.25666046 34.29667 23.055487
0.5376625 36.275673 21.795492
16.38266 31.535685 18.233488
17.45066 32.13067 19.34149
19.82266 25.945673 59.38449
21.05866 25.301676 61.005493
5.196659 29.733683 66.32149
5.5256615 28.39567 67.71849
33.17666 13.434671 17.874487
34.13566 14.705675 19.260489
12.58366 11.469675 17.888487
13.706661 12.930674 18.221487
10.016659 50.16567 69.476494
9.003662 48.80867 71.26349
34.02666 53.24367 75.92249
34.68466 54.85167 76.66649
14.455658 4.377672 39.39849
13.677658 1.9846725 40.011497
35.48166 0.10066986 39.5875
34.73766 111.14367 39.6285
37.649662 10.142672 55.936493
37.25866 7.9016743 55.080494
21.529661 4.7416706 63.062492
20.485662 3.8636723 62.248493
10.50066 102.57967 35.840492
10.168659 103.55667 34.045494
33.58666 109.18467 32.353493
32.22766 108.164665 32.2835
13.620659 68.34467 67.17149
12.295658 68.24467 65.70349
35.93666 71.86667 68.63749
35.02566 70.27767 68.73849
19.20966 24.07168 28.192495
19.34966 26.079676 28.636496
0.55966187 27.07168 33.116493
0.48566055 25.513681 32.51249
11.012661 82.15567 42.375496
11.199661 80.61367 44.002495
34.42266 85.89167 48.95349
33.70066 85.176674 50.309494
8.463661 38.838676 61.255493
8.654659 36.922676 62.830494
24.47466 35.410683 62.385494
25.67066 36.269676 63.378494
16.93166 58.17667 81.640495
17.356659 56.57367 83.15749
31.89966 50.81867 81.6795
33.034657 52.07967 81.279495
34.95366 55.77767 85.60649
34.039658 55.32267 87.694496
18.27866 57.40767 86.46349
18.00166 56.81267 88.126495
25.860662 53.45867 37.7275
25.123663 51.77467 36.2445
2.1816635 52.71067 32.01249
3.0956612 53.74767 31.166494
14.383659 14.97967 24.415487
15.744659 16.093676 23.41149
31.71966 8.622675 21.13149
31.818659 10.136675 21.331488
6.9406624 26.185678 82.74549
6.8816643 26.275675 80.55049
28.979662 30.828684 81.583496
27.903662 29.430674 81.24049
9.494659 77.75167 22.296492
9.608662 79.49067 21.50649
26.408663 77.94967 18.735487
25.83666 77.24067 20.155493
31.345661 33.771675 82.267494
32.72566 35.270668 81.49649
9.81366 34.124672 78.976494
10.33466 32.387672 79.168495
20.57466 33.734673 46.332497
19.918661 32.700676 44.947502
4.852661 35.303673 52.625496
4.1106606 36.68667 53.381493
11.469662 69.63967 55.031494
13.362659 70.14367 56.492493
28.62966 64.89367 53.539494
29.47666 65.26867 55.00949
4.024662 1.6566696 81.78349
5.98666 0.00566864 82.725494
6.545662 108.32467 87.9295
5.1156616 108.43467 86.559494
1.6476593 74.31167 82.0965
2.5746613 76.05367 80.91249
17.06266 70.75667 75.59549
17.342659 69.83867 74.28749
15.32666 45.84267 103.53949
14.283661 45.47367 101.57849
37.17066 50.75767 106.04649
38.03466 51.70067 107.24649
25.02366 51.15167 32.336494
25.480661 52.06767 30.583502
0.75066376 45.693672 30.96549
2.1836624 46.22567 31.800497
4.562664 104.53667 105.57449
5.2426643 105.453674 107.599495
27.353662 105.050674 2.8444977
25.78266 105.817665 3.7144928
36.94766 74.231674 73.69949
35.72466 73.69567 75.07549
19.14666 73.19367 78.57949
17.685658 72.93467 77.170494
13.81266 26.141672 16.954489
13.627659 25.58468 18.749487
38.89566 31.858683 21.295492
38.51766 30.847681 19.880491
3.2066612 103.01367 89.7775
4.6056595 103.36367 91.38049
21.388662 103.26567 89.23249
22.318663 102.98967 87.76149
3.2216606 103.28167 94.82549
3.3416595 101.30967 95.973495
21.660662 103.42267 93.56449
22.10766 104.41067 92.02649
1.9946632 44.950672 34.0185
1.793663 44.29367 35.9945
25.207663 47.52467 43.59449
25.01766 48.46867 44.8975
29.39966 97.96667 33.3155
31.68766 98.41567 31.556494
8.38266 95.89967 29.320501
8.717659 96.773674 27.706488
27.81066 72.00067 26.944487
25.77566 70.75567 26.183493
9.48666 66.08467 26.017492
8.941662 67.55067 25.151487
20.46766 14.841677 55.11249
18.52966 14.299677 55.484493
3.0706596 13.389673 57.142494
2.5836601 14.9936695 56.242493
11.092659 19.735682 100.92349
10.78466 22.047678 101.43649
34.83766 23.135675 98.80249
34.20766 24.566675 98.864494
36.30466 92.80667 53.14149
37.70466 91.21667 54.70949
14.21666 88.47567 51.858494
15.668659 88.93267 50.58449
36.56466 56.96767 99.94249
36.761658 59.48867 99.861496
19.94766 58.34267 101.49049
18.54866 57.40767 100.655495
36.08866 54.69067 80.98449
36.66766 54.33267 78.99649
11.29866 49.81367 75.56949
12.358658 50.62967 74.63349
9.508659 23.976679 92.529495
8.510662 24.747675 90.626495
31.72266 28.859674 97.97749
30.65366 29.440683 96.4855
18.024658 57.98867 97.33949
17.45866 56.05367 98.36549
39.04466 60.89667 101.04849
37.94766 62.05267 100.14749
2.5546646 102.939674 97.765495
0.3236618 103.80667 97.46849
24.645662 105.71267 98.05249
24.28066 106.58467 96.461494
30.722662 2.209671 24.797491
31.515661 4.471674 24.226492
14.686661 9.816675 28.248495
15.05666 10.75667 29.594488
0.87166214 11.306673 59.393494
38.76866 12.224672 57.61249
20.94866 11.674677 57.907494
19.76066 12.502672 57.297493
9.149662 43.34167 64.67949
8.68066 41.65167 64.08049
30.01866 47.02567 62.901493
30.30666 48.78067 62.79349
23.45666 82.41667 89.89449
21.151663 81.828674 90.111496
5.460659 86.04367 95.042496
4.7076607 86.190674 93.349495
18.616657 8.726671 50.705494
19.44266 7.6636753 48.54449
37.926662 7.9466724 50.923492
38.05466 8.369677 52.46649
6.6746597 50.58467 43.851494
5.8606606 48.94667 42.832497
4.802662 52.32167 38.044502
4.5426598 51.31367 36.583504
22.889662 21.993677 76.738495
23.19066 19.898676 76.02749
7.3176613 18.896677 80.25649
6.255661 18.710672 78.88449
9.16766 17.14467 87.67749
9.121662 15.699671 89.39849
25.722662 9.983675 86.795494
25.54566 9.602671 85.11849
31.925661 0.05267334 28.54949
31.672659 1.2436676 30.380499
15.63266 7.461672 31.8095
14.40366 8.509676 31.136496
19.64266 17.71567 45.876503
20.853662 15.356676 46.446495
37.85866 12.740671 44.390495
37.889664 12.539675 42.67649
25.756662 99.87667 9.221488
25.87266 101.481674 9.918494
8.907661 105.64867 14.431495
8.345661 105.81067 13.012488
23.64966 39.017677 42.319496
22.42866 37.624672 41.320503
37.37666 33.540672 35.330498
37.450657 32.45768 36.539497
34.958656 13.907671 35.948494
34.66966 15.630671 36.935493
17.460659 20.300684 38.30349
17.246658 21.038675 39.889503
35.92466 90.25067 52.292492
36.79166 88.426674 52.881493
12.97266 84.26767 45.01049
13.42466 85.97067 44.25849
38.53166 17.696672 31.810492
0.3446617 18.83468 29.695501
14.366661 17.67167 31.438498
16.059658 18.038675 31.67449
3.5156631 13.197672 65.13849
1.3796616 11.796671 64.49349
25.74166 14.572672 67.07349
24.284662 15.153673 66.47049
9.267662 95.83767 2.3434906
10.608662 97.49767 3.849495
25.305662 94.40767 105.18649
25.78766 96.29667 105.28449
22.244661 12.975672 74.12149
21.457663 14.848673 74.53349
6.184662 14.122675 77.182495
4.6836624 14.873674 77.223495
21.957663 17.43667 72.69349
22.035662 19.53367 71.44549
5.9426613 19.544672 74.86049
4.95866 18.832682 73.697495
30.897661 20.948679 98.54949
29.42166 22.179682 97.724495
13.822659 25.488672 98.932495
12.68766 26.460672 98.21949
16.18166 29.637674 16.101492
18.18666 30.092676 15.646491
32.52966 23.25268 8.78649
31.737661 22.079676 7.7514954
2.6466599 71.47767 98.99449
3.8126602 73.31767 98.014496
20.998663 68.94967 102.40049
21.60166 67.55167 102.93849
4.936661 91.86267 86.34249
5.3846626 91.023674 84.17849
20.76166 84.56667 85.375496
21.37066 82.99267 84.41449
38.740658 106.65767 49.572495
38.60666 107.23967 47.723503
14.873661 106.22867 42.6045
15.129658 107.68367 43.155495
11.971661 32.715675 95.55049
12.90966 31.184671 94.36649
28.94266 30.207682 88.059494
29.972662 28.851679 87.66549
5.472664 85.842674 107.82549
4.1486626 87.29367 1.7914963
26.95466 90.58667 106.13649
26.658663 92.04767 104.864494
23.96366 94.38867 86.43749
25.485662 93.85267 84.891495
1.6036644 96.675674 83.91249
2.4626617 96.856674 85.14649
37.72866 82.53667 74.43949
0.9106598 83.53267 75.86649
16.11966 84.97067 69.39749
16.92966 83.67767 70.49649
1.1906624 39.38367 28.47849
0.06466293 38.27567 26.948492
24.33866 46.76167 33.961494
24.771662 48.21667 33.433495
24.362661 58.48367 29.65949
23.99166 58.21467 31.817495
10.04966 57.25367 37.250496
9.581661 58.08367 38.483498
2.5686607 111.76967 74.70449
4.2476616 0.53466797 73.88049
18.88266 112.45367 69.83849
20.47566 0.7416687 69.90849
5.142662 64.89167 6.085495
5.6906624 66.13567 8.451491
19.362661 55.05167 8.936492
20.51666 55.06467 7.7394943
9.862659 107.07067 18.305487
9.942661 105.02267 16.985487
25.902662 97.26367 15.938491
26.86466 96.56967 14.637488
34.991657 2.7106705 41.834496
33.60666 0.7396698 41.67849
17.75766 111.79767 44.825493
16.155659 0.3056717 44.7705
18.62466 106.18667 57.311493
18.18066 106.64467 55.33449
2.3976593 112.18367 58.019493
1.3966599 0.31767273 56.520493
30.89266 81.926674 34.49949
31.16066 83.27667 36.2165
8.044662 78.77867 37.151497
8.91766 78.97967 38.646492
18.89666 50.04067 96.67149
19.34566 52.04767 95.87349
33.14666 48.00167 87.29649
34.08466 48.94567 86.27449
28.633661 33.00968 0.5344925
28.348661 31.476679 1.9184952
16.109657 37.92768 8.628493
14.63866 38.925682 8.373488
23.34266 61.86367 106.1795
23.137663 61.82667 0.29149628
38.37366 58.409668 104.57849
39.079662 59.61567 103.474495
13.33366 1.7896729 20.971487
13.127659 2.0086746 18.959494
29.055662 112.07467 16.294493
29.61666 110.52167 16.29849
8.043663 69.88267 26.124487
7.467663 69.08167 27.8245
28.693663 68.34267 28.305487
28.471663 69.26267 26.949492
5.4876633 84.11067 97.22849
4.166664 85.50567 97.530495
26.48166 88.05567 101.60349
25.673662 89.58267 100.63749
30.96066 6.148676 14.1854925
30.19566 5.3996754 12.059493
8.13166 6.6756763 6.2804947
8.808662 7.5436726 4.7944946
16.099659 82.72067 62.43849
16.677658 80.04667 62.512493
33.338657 78.17467 57.514492
34.443657 77.07467 57.225494
30.49266 20.472681 91.00949
32.010662 20.775675 92.2075
6.413662 16.85467 87.60849
5.760662 17.08967 86.11749
18.060658 88.84067 66.50249
17.59766 91.26967 67.05749
0.45666122 90.01067 73.195496
38.85666 89.00367 71.83249
23.228662 71.89867 107.02349
23.47666 72.75867 104.919495
0.59366226 72.25367 103.71449
1.413662 72.82567 102.406494
6.0276604 98.88667 8.775489
6.677662 97.30267 10.278495
30.47366 99.34067 17.749487
30.32066 100.45167 19.002493
11.795662 15.206675 7.1264954
13.087658 13.276674 7.2394943
28.84566 13.891672 9.278495
30.292662 13.263674 8.749488
29.49766 67.72067 50.04349
27.756662 66.64467 51.01649
12.362659 70.97467 52.71149
11.02766 72.16467 51.768494
8.009659 23.90368 81.81649
8.240662 22.14567 81.44149
24.76866 22.26768 82.363495
26.535662 22.159678 82.2635
25.66266 80.38267 5.3974915
26.85766 81.30667 3.7274933
2.840664 80.37367 4.172493
4.430664 81.04567 3.4094925
12.447659 98.70267 36.48049
10.70966 100.24967 37.088493
35.63166 101.35867 41.263496
35.35566 101.44467 43.030495
35.27166 12.31267 24.66049
35.91566 9.966677 23.988493
12.93066 12.370676 23.692488
13.265659 12.016672 25.499487
9.394661 54.94767 65.49549
8.169662 53.26267 64.32249
32.83966 53.32467 71.38249
31.748661 54.59167 71.82949
17.691658 35.46067 0.35549164
16.988659 33.76168 106.571495
32.289658 30.52868 108.18849
32.70966 31.540674 1.198494
11.2236595 95.87667 40.573494
12.45166 93.90367 40.9795
35.74266 97.96467 45.4215
35.40466 99.25167 44.368492
15.31266 4.191675 27.386488
17.25166 3.096672 27.083494
30.80866 110.079666 28.278494
31.86666 110.32567 29.783499
1.8536644 91.80267 91.280495
1.8556633 90.050674 90.05349
24.063662 89.925674 92.10649
22.89366 88.87367 92.57549
4.359665 58.69367 21.39749
3.227665 60.65167 20.567488
27.054663 65.04367 23.04849
25.569662 64.08967 23.35649
6.4646645 21.388681 79.542496
6.0146637 23.66868 79.878494
26.937662 25.360682 82.500496
26.30366 26.67068 83.22049
14.761658 41.01467 100.36549
13.522659 40.99167 98.28549
37.72466 42.84467 105.49649
37.46066 44.55067 105.52149
27.36866 34.785683 74.72849
28.76766 36.26368 74.81349
6.821659 35.122673 71.73949
8.101662 35.943672 72.50049
16.25166 81.06767 47.35549
15.199657 82.83567 47.366493
30.980661 84.259674 42.705498
30.97566 85.39467 41.444496
13.04966 80.523674 53.09949
15.28466 79.46367 52.35549
30.75266 79.52467 48.05049
30.75466 78.676674 46.67549
13.664661 71.56967 65.21949
13.026661 72.50467 63.101494
36.11766 72.53667 64.97949
35.60966 74.05567 64.56049
21.90766 57.62267 23.95349
22.319662 57.60967 21.889494
6.4076614 55.29567 22.861494
5.00766 54.86967 21.82749
1.4676628 82.61467 83.01249
0.60466385 80.46467 83.601494
24.03166 87.58067 86.73149
23.526663 89.17467 87.431496
16.433659 98.84067 54.25349
18.336658 99.29167 55.170494
32.728657 92.82067 48.575493
33.01766 91.34467 49.63449
22.512663 96.35467 97.04649
22.46366 98.31667 96.41149
7.84766 99.31667 102.17149
6.3726616 100.18367 103.19149
15.296658 92.72067 49.347496
15.852657 92.26967 46.944496
31.645658 94.51967 40.6325
31.952662 95.96267 39.6585
6.458664 75.91667 22.093489
7.3556633 74.08867 23.232489
28.41466 72.08467 23.561491
28.35066 73.59267 22.60449
31.631659 92.09867 36.63349
29.70566 91.91367 35.376503
15.175659 99.37667 37.88549
15.364658 100.56767 39.146492
24.131662 28.61268 55.873493
25.33566 30.177683 56.991493
3.1486626 35.295677 55.865494
3.6586647 35.24267 57.651493
11.754662 8.93767 8.200492
11.134659 7.85367 6.2794952
27.257662 10.143671 3.5254974
27.693663 8.544672 3.649498
14.359661 84.55867 50.70449
15.668659 86.15967 49.762493
31.31066 86.30967 47.45249
31.716661 86.76467 45.80749
16.67466 25.12568 22.227491
15.658661 26.322672 23.860487
38.98766 27.374674 28.453497
39.06166 26.703684 30.050497
35.346657 65.229675 75.70549
34.02366 66.729675 74.97949
18.61966 67.17267 76.044495
18.406658 66.28367 77.54949
30.27866 57.44667 67.76949
31.35566 55.46167 67.28349
8.587662 56.01967 63.033493
9.579662 56.64267 61.91949
3.3806648 63.28867 7.361496
2.2756615 64.61667 6.267494
24.10666 63.48267 9.955489
23.67666 65.15667 10.628493
7.314663 109.84267 6.1294937
5.9456635 111.07067 5.021492
29.88566 2.6066742 6.6004944
29.536661 0.9876709 6.606491
29.44066 90.65767 25.864492
27.82266 89.65567 26.816488
25.390661 83.97467 30.43749
26.374662 84.22367 28.929495
16.40866 46.25067 3.0144958
16.77966 46.31967 5.4334946
0.02865982 42.95967 8.14849
37.52966 43.76067 8.530494
35.47266 34.978676 16.358488
35.013657 36.928673 16.45149
20.39966 38.51168 24.712492
19.625662 38.38468 23.141493
12.7236595 17.01967 22.962492
11.865662 15.407671 21.177488
34.77166 16.472673 21.848494
34.63066 18.279673 22.72949
27.487661 39.704674 59.94649
26.97466 38.38668 61.858494
3.8156624 31.885675 65.13249
5.1226616 32.758675 65.83049
30.556662 103.44467 33.336494
30.486662 104.64767 35.06849
16.016659 108.96267 36.51249
15.010658 109.997665 35.610497
22.96866 16.961672 62.185493
23.55166 16.000673 63.84849
1.2776642 19.620676 60.130493
2.1786613 20.96467 60.726494
29.138662 26.263681 87.14449
29.26866 26.136683 89.155495
12.81966 30.272684 91.42149
12.109661 31.741678 91.583496
3.9426613 9.24267 83.06649
4.338661 8.957674 84.931496
26.28766 14.387674 84.99049
26.098661 14.663675 86.67349
32.795662 38.24668 91.35249
34.26366 38.882668 92.52549
11.561661 38.081673 93.128494
11.3746605 36.41868 94.20149
26.152662 89.51867 16.809492
27.55966 90.453674 15.387488
5.816662 89.28167 15.0864935
6.925663 88.89167 16.361494
22.70666 63.70167 4.6034927
22.265661 61.64067 4.4394913
0.41566467 60.02667 2.9004974
0.29166412 58.98467 1.6454926
6.960663 95.34567 17.835493
5.427662 96.23867 16.237494
28.716661 97.842674 21.518492
28.52566 96.61167 22.352491
8.136662 16.084673 99.92449
6.505661 15.22867 101.52049
12.29866 26.82168 102.444496
13.172661 27.284678 101.056496
36.735657 33.594673 31.1695
37.697662 35.25068 30.446493
21.21366 42.21467 34.85949
21.957663 43.65567 35.03849
15.656658 87.97467 47.610497
15.801659 89.70967 47.8115
31.735659 90.76167 40.6885
33.407658 90.75567 41.448494
9.663662 2.1686707 11.05049
11.426662 3.608675 12.43949
8.276661 4.699671 4.1334915
7.936661 3.9786701 2.6854935
23.633661 65.34467 6.787491
24.873663 65.896675 4.964493
1.4286613 66.355675 1.4244919
2.2376633 67.88567 1.948494
26.64366 80.00667 1.5524979
26.487661 81.87667 0.039497375
3.555664 76.78167 104.59549
4.107662 74.97667 105.26249
3.6856613 58.79067 24.765493
2.4706612 57.69567 23.14649
25.228662 58.36767 24.501493
25.603662 56.99867 25.500494
1.4426613 62.24767 4.4594955
3.5376625 61.12767 4.7254944
19.756662 58.20767 4.7154922
21.216661 58.94867 5.2664948
38.807663 85.39667 81.2215
38.190662 86.20967 78.904495
23.09466 89.11167 78.88549
21.500662 88.80467 78.419495
35.47266 21.121683 26.278494
35.358658 22.365671 25.00649
20.445662 30.16868 26.98049
19.383661 30.090677 25.68749
15.670658 47.70367 98.363495
14.245659 46.44967 98.99149
36.844658 48.11467 97.87249
37.43966 46.79467 96.934494
1.1706619 101.94667 85.059494
0.80766296 104.13567 84.044495
23.54666 100.87567 84.212494
23.32466 102.65667 83.84149
26.104662 104.092674 11.407493
26.389662 103.37267 13.57849
10.654659 111.20367 13.91149
10.989662 0.4136734 14.455489
8.224659 112.05767 4.325493
9.17366 111.32667 2.394493
25.439661 109.22467 3.7684937
25.23866 108.13767 5.203491
32.12666 33.83468 95.02449
33.20666 32.69268 93.0965
8.831661 27.109674 91.6935
9.662659 28.370676 92.1795
36.547657 65.620674 82.612495
35.59366 66.36567 80.835495
18.718658 65.39167 86.56249
17.14766 66.15267 86.3045
17.885658 22.287683 42.28649
18.905659 23.317682 40.7575
35.158657 16.906672 39.590492
34.75766 17.765673 38.284492
38.90566 38.09768 12.263488
0.9186592 37.844673 10.774489
15.884659 34.006676 13.860488
17.41766 33.939674 14.87149
23.50466 75.814674 3.870491
25.380663 74.63967 5.226494
0.3446617 75.06167 1.1594925
1.5646629 73.85167 0.8984909
2.2396622 101.01867 79.55149
39.10166 102.38267 79.070496
22.50366 102.995674 81.11949
21.117662 104.01667 80.73149
36.14666 40.91167 20.711493
36.484657 42.624672 19.471487
21.922663 43.04667 22.626493
20.41366 42.57867 23.177488
3.446659 36.48168 43.43049
4.739662 36.846672 45.3955
16.899658 26.527674 48.88849
18.56366 25.490671 48.81349
33.22166 106.34167 27.255491
34.78266 107.43567 28.129492
10.93866 106.61567 30.1155
10.15366 105.06167 29.510489
22.647661 14.46567 76.82549
22.841661 13.175676 78.403496
7.7476616 17.613672 83.212494
8.04866 19.315683 82.87349
10.45266 15.488672 93.236496
10.27866 13.302675 93.864494
26.06066 12.387674 95.945496
25.411661 11.122675 94.64849
26.38666 0.98267365 98.53349
25.487661 0.8156738 100.23249
10.9806595 7.3176746 101.32749
9.8486595 6.449671 100.49849
28.285662 66.38567 32.961494
28.146662 63.97967 32.338493
6.142662 65.85267 27.8375
7.2806625 66.52767 29.02149
10.66766 3.4826756 22.374487
11.135662 2.4016724 24.525488
34.899662 4.674677 30.317495
33.58766 3.4226704 30.64649
5.802662 58.416668 31.306494
4.1656647 56.35767 30.522497
26.33766 60.29367 32.12449
26.74566 61.659668 32.860497
23.554663 18.738672 63.854492
23.50266 20.991678 64.23349
6.6526604 20.16868 67.04249
5.7216606 21.30668 66.12849
20.05266 43.57767 27.288488
19.065659 41.55467 27.60449
4.224659 47.97367 32.280495
3.3236618 49.50867 31.742498
4.2186623 48.59567 19.25849
5.0516624 50.69167 18.246489
18.677658 49.31067 20.18949
19.577662 50.47267 19.097494
11.193661 80.35267 40.681496
11.942661 79.87967 38.960503
28.652662 73.77267 36.437492
28.361662 72.44667 35.267494
5.2856636 28.109674 74.03549
3.6006622 26.865671 74.88049
27.75366 31.08468 75.78549
26.47066 29.771677 75.48049
35.59766 92.01267 63.059494
34.96566 91.01467 64.83149
19.549662 96.63167 65.41749
18.248661 97.15867 64.50649
