71.48163 15.083162 35.993618
71.62563 13.420162 37.378613
24.565636 43.391163 55.94761
22.470634 43.377163 57.21761
19.909637 40.036163 67.52761
18.244637 39.307163 66.856606
68.46863 10.410163 16.593613
67.471634 12.152163 15.756615
71.64563 19.821161 6.8526154
70.43763 19.236162 5.0856094
53.02963 6.283162 8.381615
52.173634 7.724162 9.591614
44.840633 6.803162 19.006615
45.16763 4.0311623 18.716614
21.39064 16.129162 29.21362
21.717636 13.946162 28.857616
14.214638 12.716163 39.059612
15.244637 11.039163 39.528614
54.105637 25.809162 1.0486145
51.656628 26.688162 2.1146164
47.564632 21.100163 10.759613
46.185635 19.316162 10.315613
1.0366364 20.970161 3.4216156
94.92563 22.104162 2.294609
91.08263 18.708162 14.536613
90.87163 16.507162 15.746613
32.121635 28.504162 19.79361
33.850624 29.988161 19.552612
34.374626 35.88616 9.470612
35.447624 34.167164 8.80761
1.5026321 44.701164 26.165615
0.51963043 43.956165 24.109612
7.3316345 45.325165 14.933609
7.334633 43.53216 14.024612
57.48763 18.241161 48.997616
57.33563 18.64816 46.401615
65.33063 23.187162 37.786617
66.73863 21.350163 38.729618
68.67463 55.411163 33.89462
68.25263 53.207165 33.246616
63.57763 46.357162 40.916615
61.67863 47.016163 42.107616
21.414635 42.465164 19.20861
21.53064 44.482162 17.776611
26.851631 48.659164 8.311615
26.062637 49.099163 6.0716095
40.139626 14.587163 56.272617
40.65763 13.171163 55.128613
46.09963 15.5341625 45.911617
45.19363 16.264162 44.43662
65.14763 13.134163 17.62461
63.32163 14.256163 18.353615
58.21663 9.681163 28.263615
59.08863 9.828162 30.10262
20.782639 38.731163 34.118618
19.037636 39.381165 32.643612
22.358635 42.395164 21.87761
23.868637 40.633163 20.853615
51.20463 21.480162 47.34661
49.73363 19.984161 47.02561
44.933628 14.846163 57.386612
46.91663 14.366162 58.913612
89.36963 9.501163 46.88861
91.42063 8.132162 47.77661
88.80063 4.3121624 59.47761
89.98563 2.8671622 60.64561
51.62663 7.008162 25.858616
51.964634 8.934162 25.251614
53.129635 11.328162 13.190613
55.274635 10.577163 12.520615
55.205635 53.479164 42.751614
53.184628 54.591164 42.946613
49.12663 51.040165 53.668613
50.467632 53.128162 54.286617
52.659634 49.256165 55.93461
54.307632 49.180164 57.32161
47.183628 42.562164 65.717606
48.813633 44.206165 66.78861
18.310638 32.37416 30.501614
17.675636 30.486162 29.862614
20.484634 35.506165 18.019615
21.302635 33.399162 16.846611
70.85663 23.65516 3.5906143
68.58963 22.153162 3.6596146
75.68463 19.133162 61.80861
73.57863 18.850163 60.65561
18.507637 1.1041627 5.844612
17.091637 2.4081635 7.5366135
13.411636 55.283165 17.686615
14.254639 55.043163 19.692612
41.83163 15.999163 41.925617
42.548634 13.888163 42.722614
39.871635 10.428163 54.665615
41.12763 8.894162 54.28261
15.247635 23.055162 61.24261
16.869637 25.14816 61.46361
24.301636 28.284163 52.81561
23.451637 28.769161 50.50861
27.199638 2.3371623 25.119614
26.929634 4.3201623 24.317612
35.260628 2.6761622 16.324615
34.455635 4.657162 16.461609
71.69663 0.2411622 51.60261
71.09263 0.6361622 49.330616
74.74063 7.915162 40.476612
74.88363 6.937162 38.161617
24.683632 44.409164 21.241615
23.770638 44.733162 19.77761
28.011635 49.402164 10.525612
28.551636 51.78916 11.198616
16.271637 41.690163 18.248611
15.136635 40.002163 18.186615
12.401634 40.426163 30.163616
12.774635 42.054165 31.186619
85.248634 16.324162 63.886612
85.82163 14.336163 64.967606
78.37263 15.013163 6.23761
79.56763 14.652163 7.6166153
10.649635 35.883163 11.356613
11.555634 33.876163 12.300613
4.346634 32.086163 22.93061
3.4486313 29.908161 23.509613
11.635635 3.524162 20.116615
11.540634 5.416162 18.017609
20.218636 5.604162 11.72261
19.268639 5.461162 9.642616
81.49663 19.865162 28.020618
82.08163 21.897161 27.118618
88.22763 20.883162 17.02761
89.99263 21.312162 16.233612
89.33763 8.318162 12.481613
91.041626 9.428163 14.081612
86.48063 5.258162 24.984612
85.262634 3.715162 24.649612
37.331627 27.24916 40.52062
37.625633 25.147161 40.272617
31.613632 23.89816 50.177616
30.194633 22.084162 49.836613
38.17663 16.605162 55.643612
40.03663 17.671162 56.096615
44.633633 23.168161 45.56061
45.75063 21.653162 44.768612
82.95063 5.533162 40.823612
85.09563 6.658162 41.095615
91.63563 9.674163 31.706615
93.58563 9.058163 31.605618
27.541634 34.819164 3.4016113
27.178635 35.588165 5.422615
19.092636 31.045162 11.868614
18.467636 33.28216 11.54261
21.060638 1.2951622 39.427616
22.863632 1.5841621 40.247616
29.597633 2.0421622 30.019619
28.885635 2.1141622 28.115612
67.90563 26.158161 22.762611
68.83463 24.285162 21.451614
76.01963 28.654161 12.110611
77.53263 30.021162 11.540611
5.828636 31.784163 25.04361
7.7046356 30.680162 24.69561
15.540634 35.502163 17.008614
15.359634 37.389164 17.953613
10.4826355 27.723162 10.41761
11.846634 26.553162 11.680611
10.143639 26.177162 23.68061
11.570641 27.083162 24.66861
31.847633 12.447163 1.0066147
33.455635 13.978163 0.96060944
42.87463 16.365162 61.489613
42.07963 15.934162 59.75861
41.44063 34.310165 25.178616
41.187634 32.830162 23.699615
48.398632 38.187164 15.41861
48.588634 40.429165 15.296616
81.23363 3.5181642 25.160614
80.05963 1.8121629 24.049614
73.082634 54.312164 33.51962
72.61663 52.322163 32.46462
26.145638 15.255162 47.12861
25.158638 16.733162 48.69061
22.178635 9.065163 58.677612
19.857635 9.9091625 58.53261
59.82563 3.0521622 26.889614
60.69963 1.1911621 26.091618
64.27663 3.754162 16.081612
63.23263 5.132162 14.414612
13.625633 41.002163 33.455616
13.900635 40.11516 35.540615
11.773636 36.135162 44.759617
12.439636 33.662163 45.466618
11.553635 6.778162 22.677612
13.466637 8.312162 23.533615
8.8316345 7.344162 35.639614
6.5656357 7.519162 35.42161
53.72963 29.501162 66.37761
55.62863 29.533161 64.66461
59.67163 31.019161 53.49461
61.52563 31.848162 54.72961
1.7606354 8.894162 0.2646103
3.3526306 8.643163 2.2986145
1.5706329 -0.39483777 10.006615
1.2766342 0.21216221 12.163612
51.93263 13.902163 45.774616
50.95863 12.145163 46.358616
48.739628 3.146162 55.223614
48.69363 4.2871623 56.758617
36.86564 13.0671625 36.334614
36.059624 11.040163 37.10262
35.01963 7.830162 48.46461
36.28663 6.836162 49.694614
16.412636 10.450163 23.81961
17.592636 9.367163 25.816616
14.106636 5.9521623 36.35362
12.142639 7.2541623 37.832615
73.89963 41.684162 32.308613
74.31963 39.456165 32.166615
64.24963 37.67116 38.099613
64.28163 38.326164 40.315617
60.24863 29.746162 34.863613
61.74163 31.785162 35.198612
63.81263 34.069164 24.022614
65.81663 35.633163 23.51461
8.26963 51.103165 49.178616
6.65963 51.76116 47.61662
14.032639 55.186165 37.650616
16.361633 54.652164 37.851612
63.87363 30.313162 3.5506134
65.235634 29.100163 4.7446136
58.42363 26.02316 14.1736145
56.13963 25.300161 14.524612
35.550636 18.295162 4.434616
36.113625 17.705162 6.493614
30.269638 15.757163 15.982613
27.774635 15.670162 16.97361
15.525635 28.76316 29.724613
13.727638 30.490162 29.515614
5.898636 30.548162 38.82662
4.2656326 29.277163 39.261616
25.186638 34.676163 38.438618
26.777634 33.378162 38.46462
26.858635 31.020163 50.726612
27.678635 28.973162 51.67461
40.428627 43.564163 11.540611
41.53963 44.603165 12.325615
46.296635 48.842163 2.087616
44.713634 50.476162 1.6026154
74.11563 29.467161 28.014614
74.02363 26.762161 28.098614
67.70563 25.076162 38.095615
65.20063 25.884161 37.649616
39.234627 46.084164 12.034615
39.622627 48.437164 12.425613
41.131634 53.03216 0.8646164
41.74763 51.696163 67.16561
91.42763 52.206165 9.100616
90.74863 54.322163 10.381615
85.46863 51.27516 21.161613
84.81763 53.565163 22.15361
66.99363 34.298164 40.716618
69.74563 33.752163 41.43762
76.20363 41.704163 33.731617
78.04563 40.721165 33.481617
75.28663 25.09616 59.851612
76.43863 26.935162 59.02861
81.971634 29.040161 48.98561
82.457634 27.007162 47.91161
93.75663 29.29416 41.569614
92.27863 27.178162 41.813618
84.77363 28.601162 48.67261
85.48663 29.782162 50.553616
95.31063 27.258162 35.597614
1.3926315 27.694162 35.697613
11.109634 28.517162 27.082615
11.87764 30.19016 27.527615
12.8196335 8.623162 4.527611
12.412636 7.319162 2.8126144
14.984634 15.907163 62.04861
13.447639 15.809162 60.10961
19.80764 36.203163 50.884617
18.899635 35.815163 48.46361
23.583633 42.926163 38.390614
23.941635 44.930164 38.973614
8.725632 55.184162 15.735611
6.872635 54.892162 16.675613
2.4166336 47.295162 25.49162
3.9376297 48.212162 27.064617
18.077637 18.937162 43.735615
19.672638 17.495161 43.720615
26.603638 20.121162 34.359615
25.131638 21.005161 32.754612
58.64763 31.63116 18.040611
60.07663 29.726162 18.13961
66.79963 33.829163 7.4166107
65.16563 34.092163 6.467613
95.26263 50.172165 9.912613
94.05663 49.26116 11.898613
89.82863 50.614162 22.753609
89.69763 52.345165 23.355614
74.41163 19.469162 8.159615
73.53963 21.19016 8.554611
69.929634 19.74216 18.771614
71.59863 18.783161 20.01361
74.60363 24.027163 25.675617
74.24663 21.652163 25.32462
67.01363 15.7581625 32.42161
68.06063 15.196162 34.169613
67.54563 55.809162 31.389614
66.71763 1.5731645 31.632618
63.34163 53.484165 42.294613
62.43263 51.677162 43.10262
50.447628 26.717161 49.34061
48.73263 25.86016 47.96461
44.79163 19.139162 59.52061
44.14063 17.222162 58.49961
82.87863 51.826164 22.574615
82.03563 50.070164 21.80761
77.56063 43.810165 32.485615
75.62463 43.272163 31.017612
80.92263 52.482162 35.669613
82.63063 51.785164 36.285618
85.90663 54.841164 24.636612
87.17963 53.256165 23.76461
59.76363 2.4951622 11.9496155
59.47363 4.1951623 12.88961
58.46063 0.07316222 24.614609
57.19663 -1.2828379 24.23761
23.537636 10.860163 62.21061
22.016632 9.109162 62.90061
20.037636 3.215162 6.5106125
18.313637 4.663162 7.273613
19.214638 24.505161 30.448612
18.684639 22.668161 29.434612
11.074638 20.658161 39.06061
11.692635 18.36016 39.009617
48.118633 41.119164 2.4536133
47.70463 38.855164 2.0836105
47.21063 31.484161 11.527611
49.29063 31.534163 12.090614
17.470634 17.35316 61.53661
16.088638 18.020163 59.38061
23.285637 23.576162 51.56161
25.334633 22.266161 51.56961
36.08863 51.688164 45.970615
37.117638 50.310165 45.112614
46.783634 55.685165 38.34062
44.79363 0.26816565 37.689617
14.22364 34.036163 11.615616
14.65464 35.940163 10.572609
19.64164 39.667164 2.8266144
20.89264 41.068165 1.811615
91.57463 34.309162 37.36762
91.39463 35.13616 35.364613
1.9036331 38.322163 25.726612
1.6576309 40.17116 26.220615
4.2206345 7.7931623 67.80661
6.5016327 6.929162 67.29761
15.351639 10.327163 59.56161
15.397636 9.190163 57.77161
74.51063 53.950165 36.264614
73.49363 55.496162 35.68561
68.18763 52.146164 44.956615
69.04163 52.999165 47.300617
58.74163 16.143162 16.032616
61.04363 17.03716 15.568611
66.346634 18.349161 4.176613
67.77763 19.609161 5.7156143
49.90463 43.589165 51.74361
50.96863 42.271164 50.319614
55.488632 50.516163 43.180614
57.674637 50.783165 42.001614
21.593636 50.621162 57.68661
21.095634 52.609165 58.62561
16.167633 51.434162 67.97661
15.254639 49.187164 68.09661
61.20763 34.471165 20.755615
60.27663 32.855164 21.47361
52.21163 31.904161 31.153614
52.46163 33.834164 32.485615
84.56263 7.257162 27.959614
82.49163 6.525162 27.298618
76.48863 -0.25583783 34.792614
78.50763 -0.5948378 35.665615
2.3476334 2.0341623 67.15761
1.5646362 4.3901625 67.31961
93.05263 2.1571622 10.124611
94.64163 4.289162 11.2986145
9.902634 26.672161 45.984615
10.582634 24.612162 46.223614
95.55063 25.786161 52.052616
96.01663 27.281162 53.620617
79.77063 12.917163 42.01962
78.04963 13.728163 40.773617
85.165634 18.826162 30.194614
86.08763 16.849163 29.891613
79.13363 34.089165 49.16861
79.58763 32.305164 50.87761
71.56663 28.453161 57.573612
71.91863 30.401161 57.98861
24.821632 11.999163 44.998615
25.584633 13.998162 44.334614
33.026634 15.076162 36.081615
33.579628 16.893162 34.529613
36.175636 46.588165 42.302616
36.625633 47.92116 40.429615
42.05763 0.32716376 35.164616
40.97363 1.1101632 33.57662
56.73563 17.862162 67.45661
57.91963 17.84616 1.3566132
55.79863 14.086163 10.943611
55.57663 14.773163 13.016609
3.2166367 18.22116 36.34062
1.9396362 17.453161 34.153614
6.858635 21.67616 24.44661
5.5366364 23.569162 24.519615
4.6166306 31.893162 7.731613
4.9206314 34.033165 7.650612
14.396637 35.913162 67.63761
16.288635 34.877163 66.62761
17.95964 48.080162 20.81961
15.979637 47.52516 21.984612
22.445633 53.831165 24.66661
23.989632 54.248165 26.646618
56.33864 52.496162 24.469612
56.200638 53.258163 26.624615
47.77463 52.574165 34.65962
46.91963 50.358162 34.633617
27.753632 47.524162 25.306614
26.882637 48.745163 23.190613
33.253624 50.798164 13.993614
32.14463 50.686165 12.341614
35.738625 -1.7578378 65.72761
34.563637 -0.9398378 63.86961
41.21863 5.9061623 56.25561
43.34963 5.703162 57.86361
34.281624 30.578161 22.050613
34.64463 28.468163 22.754608
33.707634 26.536161 35.205616
33.48963 24.019161 34.555614
84.83163 55.067165 57.16761
84.11663 52.602165 57.59761
81.20163 47.551163 0.48361206
79.31663 48.12916 1.0006104
17.394638 51.598164 4.00161
18.161636 52.135162 5.97361
9.57164 47.573162 13.867615
10.565636 45.894165 15.400612
23.695633 48.112164 37.970615
22.685638 47.564163 36.226612
28.010635 49.982162 26.401615
26.139633 50.03916 25.275616
38.281624 18.598162 36.578617
36.99363 19.845161 35.703617
45.368633 22.576162 26.916615
47.38863 23.36716 27.549618
84.79663 11.654162 43.46562
83.75063 11.908162 41.426617
89.59963 12.288162 30.847614
88.04063 13.653163 29.103619
52.52863 19.238161 46.383617
52.73363 18.188162 44.165615
56.95063 26.587162 35.65962
56.54163 28.505161 35.489613
18.039635 32.973164 14.248611
17.060638 30.811161 14.012611
10.070641 28.99216 23.832611
7.8276367 28.126162 22.776611
48.850628 36.734165 1.3106155
47.466633 35.534164 67.96361
39.512627 28.470161 6.12661
37.194633 29.804161 5.5646133
21.685638 51.057163 5.283615
24.015633 50.160164 4.4986115
25.775635 0.7821656 62.30361
26.888634 55.251163 61.156612
28.167633 9.642162 16.233612
25.824638 10.366162 15.621613
25.265633 14.502163 27.482616
22.882637 15.162163 26.512615
93.03563 50.299164 43.251614
93.19763 49.751163 40.917614
3.0756302 50.627163 30.585613
4.5536346 51.850163 31.195614
36.305626 34.107162 24.026611
35.71163 35.651165 25.492619
30.638634 28.731161 36.161617
32.757637 28.789162 36.806614
19.902634 38.899162 18.41661
21.301636 39.540165 19.97261
14.180634 32.66516 27.917614
12.000633 33.027164 27.69962
14.98764 28.376162 26.367619
13.175636 29.201162 25.093613
19.471634 27.178162 15.041611
19.011635 29.032162 13.76461
9.817635 12.785163 4.32061
11.572639 14.307162 4.938614
17.770638 18.699162 63.97061
16.386635 19.609161 62.67661
10.818634 42.297165 15.11261
9.511635 43.603165 15.638611
5.346634 39.080162 26.806614
5.4306335 40.404163 28.011616
95.64563 3.4651628 65.43861
95.54463 1.1731629 64.98761
89.40363 53.010162 7.531616
87.45263 53.332165 6.3436127
86.91763 27.72116 16.302612
88.35763 27.621162 18.58461
77.94563 21.632162 23.604614
79.06363 20.385162 24.844612
15.332634 37.727165 32.077618
15.600639 39.682163 32.388615
18.797638 42.922165 19.942612
17.826637 44.883163 20.58561
87.41063 14.0081625 46.78261
85.41863 13.022162 45.911617
79.70563 9.201162 56.01961
77.98863 7.928162 55.258617
61.36463 29.708162 38.369617
61.79863 31.554161 39.226612
53.00763 30.125162 48.384617
53.56963 31.383162 49.655613
14.617638 40.342163 49.93161
12.5816345 42.384163 49.47061
3.4496307 38.859165 57.66161
3.9766312 36.826164 57.246613
87.64463 19.656162 29.872616
89.874626 19.371162 30.494617
94.98663 21.682161 20.27761
94.34563 21.685162 18.525612
49.017628 0.14816222 54.443615
50.811634 -0.5568378 53.32661
51.712627 3.497162 43.730618
52.301632 2.3211622 41.86662
8.733635 16.943163 23.28061
9.887634 15.469163 24.338615
5.9186325 13.955163 36.175617
4.6146317 15.566163 36.017612
14.57164 38.148163 15.426613
13.490639 39.813164 15.962616
10.203636 35.092163 26.751614
9.374634 37.073162 28.301617
68.74663 16.034163 36.760616
69.81663 14.948163 38.569614
62.35963 11.176163 47.636616
62.65663 9.019162 47.543613
77.07663 46.700165 14.800613
76.17463 47.649162 16.617615
69.03463 44.211163 25.980618
66.67563 44.828163 24.922615
32.899635 35.847164 25.364613
33.929634 37.213165 26.88062
24.135635 31.552162 34.530613
25.665634 32.174164 36.133617
13.833633 11.512162 41.67362
13.481636 13.320163 42.979618
8.917633 11.685163 52.738613
7.6446304 10.001163 51.46361
76.21163 23.89816 43.21562
74.84763 23.663162 41.849613
82.17863 25.238161 31.57462
84.03163 24.472162 31.043613
15.616638 7.818162 38.345615
17.22564 9.070163 39.207615
22.217636 11.3241625 28.240612
24.028633 11.780163 26.856617
64.07563 12.635162 1.5326157
63.58763 14.5741625 2.336609
57.47963 12.255162 12.224609
57.54363 11.765162 14.437614
25.378632 19.755161 49.76661
26.402634 19.406162 51.78161
21.393639 15.098163 62.29161
21.273636 13.128162 62.16461
66.17163 42.765163 59.385612
65.21563 42.159164 57.899612
72.20963 45.588165 47.61361
73.78563 44.265163 48.28061
92.11363 9.587163 66.522606
93.39563 10.7581625 68.01361
84.762634 7.199162 9.920616
86.55063 7.262162 11.244614
30.148636 40.769165 7.86261
29.334633 42.61516 9.976616
24.647636 38.626163 18.731613
22.405632 37.466164 18.702614
91.43663 54.035164 61.40461
90.16863 54.161163 63.27061
84.10363 47.820164 1.398613
83.34263 45.600163 1.1246109
74.248634 49.600163 50.20561
75.15763 49.748165 52.60161
72.95963 42.887165 63.09261
71.21863 43.714165 61.996613
37.58863 44.232162 13.024612
35.292625 43.49016 12.602615
31.397636 38.86516 21.478615
31.509636 39.128162 23.727615
23.219635 37.344162 0.5826111
20.94664 37.124165 2.0696106
14.494637 31.307161 10.803612
16.316635 30.920162 11.443611
50.878628 11.795162 9.467613
49.658634 11.146163 7.6336136
42.227634 6.875162 16.559608
41.947628 4.920162 16.427612
21.625633 4.473162 9.18161
21.772636 2.1511621 8.98661
18.754639 0.13616219 21.971611
17.943634 1.8751621 22.546608
81.262634 40.189163 17.892609
82.63063 39.835163 19.421608
74.52363 35.642162 26.313618
73.66663 35.309162 28.228619
91.90163 42.473164 22.234612
94.07663 41.661163 22.325615
94.43863 46.581165 10.790611
0.5096359 46.678165 10.846611
13.197639 35.730164 33.101612
13.795639 33.507164 32.299618
11.420639 25.758162 41.642612
12.917633 24.45416 41.280613
76.40963 16.259163 21.254608
75.80963 14.714163 19.610611
82.79963 21.075161 13.006615
83.83763 19.340162 11.536613
82.14463 2.237162 57.03361
82.12863 4.2291627 58.21761
78.52363 54.837162 0.75260925
76.568634 54.368164 1.1036148
80.665634 0.4881622 38.61762
83.13463 0.9241622 38.401615
86.52063 1.5591621 27.229618
87.81463 3.1241622 26.120617
7.1496353 48.65716 31.094616
5.8416367 49.682163 29.797619
15.326637 51.189163 19.93161
14.118637 52.118164 18.493614
41.51163 23.158161 7.9516144
39.443626 24.400162 7.3026123
32.802635 18.271162 16.533615
33.010628 16.538162 17.865608
83.10263 32.85216 30.031612
82.97463 30.53716 30.077618
90.64263 36.095165 22.283615
90.05263 34.388165 21.19461
88.96263 45.354164 57.621613
88.58163 47.540165 57.79961
80.30263 43.597164 66.35861
81.65663 42.074165 66.45461
78.457634 23.71416 45.206615
78.20463 25.80116 44.86762
86.28463 26.443161 35.082615
88.44063 26.357162 36.479618
59.82663 26.90516 0.7626114
60.38563 24.628162 1.7606125
53.55363 23.498161 11.687614
52.22263 25.202162 11.716614
7.6356354 41.494164 63.82461
5.865631 42.745163 64.24661
93.69363 38.213165 3.3736115
94.527626 38.430164 5.933609
51.23463 43.12916 34.594616
53.43663 42.458164 34.09062
58.77863 44.75416 23.922615
60.565628 43.949165 23.433609
58.25363 53.384163 41.605618
56.41363 54.538162 40.56061
59.54763 54.391163 27.905613
58.74463 52.441162 26.662617
83.20963 42.443165 18.34761
82.77063 44.074165 17.240608
85.39963 49.459164 6.2866135
84.40763 51.108162 8.092613
79.16463 4.887162 6.5386124
77.39063 5.6491623 5.5366135
72.27763 6.693162 17.066612
72.69563 4.664162 17.011612
31.093636 33.564163 5.535614
31.577637 31.672161 5.0576096
26.367638 28.251162 16.337608
26.176636 28.387161 18.148613
40.257637 50.830162 33.012615
39.125633 48.808163 33.49262
34.184624 44.293163 39.942616
34.780632 42.538162 41.595615
81.76463 46.053165 34.287617
83.34363 47.909164 34.529613
87.43763 49.957165 22.414612
88.21963 48.419163 20.881615
92.98363 35.812164 20.98761
93.402626 37.833164 21.814613
2.042633 40.591164 11.185616
2.8686295 38.809162 11.886612
53.55263 25.387161 50.22061
53.01563 23.300161 50.25761
47.183628 17.350163 59.29161
48.660633 16.215162 59.97961
52.16463 45.567165 53.64461
50.91063 47.209164 52.07761
60.20163 54.662163 46.46562
59.93663 52.974163 44.244617
9.422638 8.283162 1.7606125
10.8346405 10.050162 1.8006134
8.47863 14.780163 57.86261
8.772636 17.211163 59.14661
75.51663 45.496162 33.552616
73.33563 46.390163 33.726612
67.74763 42.257164 42.850613
65.30163 41.272163 42.480618
21.12764 8.006163 11.061615
20.233635 7.849162 8.559616
24.646637 13.4491625 67.78161
23.532639 14.547163 66.59661
81.61963 16.538162 10.671616
81.40763 14.090162 11.15361
76.596634 8.820163 20.643608
78.55763 8.796163 21.324615
45.561634 14.597162 41.040615
43.80663 15.218163 40.384617
50.36163 15.871162 29.691616
49.037632 17.717161 29.416615
61.75263 23.72116 17.45861
63.08363 25.678162 17.46061
68.62263 30.086163 7.0816116
69.80163 28.425161 6.801613
80.707634 52.885162 6.0696106
82.26663 51.429165 6.4186096
79.49963 45.253162 15.457611
80.582634 45.534164 17.509613
60.51863 17.910162 0.017608643
59.19363 18.72816 66.18861
66.47963 19.025162 56.75061
67.69863 17.359161 56.41061
74.62763 40.556164 48.431614
75.90463 42.498165 48.24461
81.41163 44.154163 36.859615
81.31463 43.684162 34.660618
48.33163 23.89816 45.610615
50.172634 25.394161 45.904613
53.85763 28.967161 34.064617
53.35763 30.800161 33.21362
76.63363 7.864162 23.233612
76.91363 8.463162 25.372616
68.88663 5.205162 31.622616
67.52163 7.203162 31.496616
71.28863 31.194162 7.16761
70.26763 32.62216 5.398613
77.03763 33.453163 64.31761
75.18563 34.061165 62.489613
38.720634 46.619164 64.26661
40.831627 47.134163 64.36661
47.78963 54.676163 57.24561
48.20463 53.980164 55.16961
80.24763 56.020164 4.039612
78.34263 55.003162 3.3946152
72.59363 53.686165 14.0486145
72.33963 51.302162 14.047615
70.22663 48.869164 47.190617
70.36963 50.175163 45.529613
77.04263 52.854164 36.03261
79.096634 53.787163 37.416615
62.46163 7.751162 13.433609
62.19363 5.9391623 11.912613
65.07663 7.0371623 67.68361
67.21063 7.470162 0.04360962
33.612633 39.186165 57.41061
36.033638 40.130165 57.11961
40.62063 42.951164 47.57561
42.77563 42.060165 48.13761
36.832634 48.339165 31.805614
34.362633 48.687164 30.982616
26.619637 43.288162 38.462612
26.097633 41.343163 38.679615
74.08363 47.428165 48.42161
76.16163 46.37916 48.948612
81.44963 49.540165 36.443615
81.74763 47.137165 37.010616
6.7976303 9.877163 2.3026123
4.804634 10.491162 3.2326126
5.0856323 8.950162 15.733612
4.483635 7.217162 17.207611
29.255638 25.840162 36.188618
28.799637 25.623161 33.550617
30.018639 33.409164 27.086613
32.475624 32.794163 26.019619
73.54863 34.639164 11.190613
75.47063 35.327164 12.317612
69.45563 29.586163 22.00161
69.11163 31.682161 24.07061
29.668633 10.709163 29.030613
27.472633 10.920162 28.800617
32.091637 17.667162 20.07061
31.876633 19.798162 20.350609
28.486633 14.007163 31.988613
26.689636 12.803163 31.188618
23.731636 9.704163 43.927616
21.254639 10.881163 43.760616
53.96163 44.40716 37.81061
53.49863 42.201164 37.405613
48.601627 35.613163 46.67161
47.991634 33.751163 45.274616
0.36963654 51.64316 62.72361
95.95063 53.76816 63.73061
88.10863 50.582165 5.1236115
86.65463 49.015163 4.0346146
9.596634 10.575163 55.54961
7.9746323 11.489162 55.48561
3.1286316 5.008162 64.76561
2.6016312 6.490162 65.97361
23.720634 10.349163 13.965614
24.522636 8.3831625 12.553612
19.964638 4.665162 24.170609
22.328636 4.7531624 24.68061
54.842632 1.7441622 42.09062
54.48763 -0.0008377787 39.84062
60.45163 2.175162 29.597614
62.61363 1.4601622 29.308613
47.81963 5.844162 41.08962
48.81763 7.356162 42.664616
38.751625 4.4851623 48.441616
39.094627 6.382162 49.918613
14.255638 28.44716 61.07661
15.4566345 29.746162 62.31161
20.05864 34.325165 53.13561
20.882637 36.118164 53.20061
71.09763 25.694162 7.636612
72.15363 27.621162 8.177612
66.53563 21.651161 17.80661
65.50563 22.226162 19.324615
11.003639 38.141163 30.456615
10.722633 36.238163 31.807613
3.3176346 37.406162 40.854618
3.681633 38.547165 43.043613
42.98363 10.9491625 21.518608
41.84363 11.078162 19.480614
48.48563 15.213162 11.238609
46.739628 16.527163 9.663612
71.64363 53.577164 50.42261
71.609634 54.328163 48.08862
77.38063 2.8421617 38.65962
76.84463 1.1701646 37.196613
45.16463 22.553162 24.213615
47.09363 22.727161 24.160614
52.810635 26.026161 15.55761
51.82063 24.069162 14.104614
12.314636 43.145164 67.12861
14.556641 42.742165 66.97861
9.830635 37.985165 9.655609
7.7326355 37.487164 9.09861
38.371635 27.928162 24.207611
39.40763 27.712162 25.497616
33.67263 21.922161 32.726612
33.044624 20.046162 33.00662
6.764633 30.720161 9.512611
4.990631 29.525162 8.785614
1.2896347 25.404161 19.864609
95.78563 26.730162 20.187614
69.66363 21.69716 37.89562
71.50163 20.299162 37.568615
78.67563 27.76316 30.412617
79.53663 26.695162 28.846615
55.272636 44.798164 20.27961
53.932632 44.50416 21.451614
49.71063 39.14316 30.813618
47.62463 39.726162 32.094616
51.51863 6.2281623 42.640614
52.71963 5.403162 41.781612
54.37163 10.270163 30.750614
56.634632 11.007163 30.599613
41.537632 26.06516 8.068611
43.29363 26.84616 9.30761
48.647633 31.679161 66.17361
50.77963 31.37416 66.81361
77.846634 4.995162 56.19061
77.11763 6.308162 57.74261
74.34563 1.7361622 67.82761
75.70863 0.7251622 0.47161102
63.69563 13.506163 50.93661
62.21763 15.404162 49.851612
69.88863 18.740162 40.77062
71.88163 18.762161 40.139614
86.249626 23.468163 63.11661
88.43863 22.791162 62.629612
92.63663 28.661161 54.77961
93.57763 28.337162 52.89161
55.25463 8.596163 61.98561
57.31663 8.991162 60.621613
62.32863 6.145162 49.32961
60.71763 7.087162 48.16461
61.82563 38.861164 7.3026123
62.76263 38.417164 9.054611
61.308628 40.133163 19.310608
61.09063 39.047165 21.286613
32.43763 15.678163 52.90961
34.259636 14.853163 51.402615
36.663628 17.882162 40.204617
38.473625 20.031162 40.243618
89.81363 39.28216 19.538612
88.28063 40.863163 19.81961
91.45763 43.181164 8.578613
90.09863 43.952164 6.565613
2.5086365 16.528162 19.69461
4.195633 15.454163 19.310608
8.40863 17.60316 8.495613
7.7586365 18.149162 6.4776154
62.76063 24.534163 3.33461
64.77863 24.404161 4.414612
63.19463 21.656162 16.287613
61.46363 20.811161 17.343613
3.082634 52.202164 11.919609
2.497635 53.255165 10.02861
10.275635 1.0101649 3.4136124
12.7066345 1.9801621 2.8406143
36.32763 55.063164 0.96461487
38.35563 55.283165 1.8626099
37.31263 49.972164 13.741615
35.28463 48.940163 13.878616
60.19963 32.689163 51.537617
58.28363 32.36716 51.079617
59.72463 36.411163 39.28362
62.02063 36.334164 39.313618
27.580635 2.5581622 61.36361
26.734634 4.1761622 59.98561
30.313637 8.341163 49.79161
31.950638 7.7281623 48.51661
30.699638 21.472162 52.69261
32.085625 22.393162 54.08261
21.550636 19.644161 62.26561
22.798637 20.92616 63.642612
22.395638 49.999165 20.72461
22.213638 50.474163 23.075615
15.303635 43.478165 30.405613
15.852638 43.28916 32.351612
94.88763 19.109161 20.118614
0.1116333 17.556162 20.04361
91.56963 14.280163 31.104618
93.29963 13.223163 32.263615
25.176636 25.60316 30.846615
24.638634 23.886162 29.497616
29.447632 17.003162 20.20961
27.972633 18.059162 18.343613
43.658634 53.272163 52.77261
42.26363 55.477165 52.71661
37.987633 53.020164 64.64961
39.856636 52.807163 65.43261
61.25363 17.106161 51.95461
59.81763 16.842161 53.70861
52.21363 18.809162 61.19561
53.55463 20.521162 62.24261
23.893639 34.11516 17.093613
23.612633 33.947163 14.926613
31.496635 36.280163 7.2066116
29.878632 35.985165 5.420616
28.203636 25.109161 16.596611
26.648636 25.793161 15.0746155
31.292633 24.105162 4.0086136
32.177635 26.024162 3.4006119
59.67463 40.785164 22.747612
57.74263 39.828163 21.747612
51.67063 38.701164 33.08862
51.61863 39.975163 34.592617
89.47163 11.032163 63.774612
87.90763 12.160163 65.28861
83.42563 11.055162 9.067612
81.46663 11.303163 7.851616
35.001625 55.442165 30.875614
37.013634 0.31116492 30.538616
44.37263 3.409163 22.936615
46.62363 2.8981652 22.161613
22.486633 47.506165 3.7816162
22.299637 48.267162 6.259613
13.768639 42.403164 13.503616
13.314636 42.753162 16.011612
21.744637 38.940163 54.52161
19.43364 38.642162 54.64861
19.43364 30.88116 64.84761
17.132637 31.185162 65.69461
33.456627 29.620161 53.705616
33.982628 31.236162 54.737614
43.69363 35.998165 48.361614
44.408634 37.587162 48.870617
59.439636 40.758163 57.31261
57.48963 39.503162 57.572613
49.40463 41.549164 67.81861
48.575634 39.978165 66.22361
40.34263 -3.1318378 48.76961
39.12063 -1.7098379 47.78462
40.234627 4.196162 37.080616
42.670628 4.342162 36.933613
4.7396317 52.526165 49.21661
4.837631 54.770164 49.63961
95.10663 50.336163 60.19261
93.624626 49.40016 59.23861
52.19363 47.209164 37.632618
52.01363 47.226162 35.204617
61.40863 47.895164 27.279613
62.98463 49.634163 27.381618
26.025635 2.6181626 11.870613
26.455635 0.6881638 12.804611
20.963638 54.257164 22.59961
20.146637 52.16416 23.02861
93.71563 53.970165 9.107613
94.29363 52.443165 7.684616
9.233635 0.252163 0.9446106
8.705635 54.88616 67.71561
11.114639 1.1571622 17.202614
10.54464 0.8321622 14.982613
14.551636 8.473163 6.6336136
15.448639 7.1031623 5.211609
68.65163 10.757163 2.9026108
69.99163 11.006163 4.43161
66.43263 9.487163 14.84861
64.03363 9.499163 14.772614
4.2156296 32.250164 39.750614
2.3636322 33.500164 40.343616
7.0856323 38.452164 29.146618
6.4146347 36.24016 27.916615
14.47464 26.377161 62.63361
14.768639 24.45716 63.350613
9.853638 18.300161 3.8856125
9.5206375 16.272161 4.2936096
39.766624 18.408161 58.76261
38.770638 16.397161 58.69261
34.693626 16.299162 2.233612
36.237633 15.781162 3.4966125
1.1486359 6.1821623 29.006618
95.31763 5.719162 28.348614
4.056633 8.889162 19.262611
6.004631 9.1921625 19.50161
8.627632 55.469162 51.59261
9.221634 53.694164 50.775608
2.5266342 47.762165 60.76261
0.66963196 48.193165 60.13161
31.506638 52.99016 64.45761
33.309624 52.984165 65.90161
31.220634 48.78916 8.583611
30.790634 50.375164 10.161613
60.74463 4.815162 32.373615
59.54663 6.540162 32.036617
50.72663 2.7791622 39.86762
50.46863 4.946162 40.444614
74.03863 9.715162 21.21061
74.55363 9.644162 23.367615
67.17263 3.419162 29.819614
65.14063 3.158162 29.404613
28.358635 8.711163 30.522617
29.197632 6.7611623 30.438618
25.709633 6.0961623 42.79661
26.363632 4.8251624 44.63062
29.825638 51.584164 25.599613
31.292633 50.332165 26.914616
39.724632 55.545162 19.08461
39.77363 53.206165 18.215614
20.51664 22.494162 13.712616
21.82064 23.942162 15.267616
17.29464 23.327162 26.279613
17.451637 21.540161 27.171612
26.789635 9.295162 65.26561
27.091637 7.2741623 66.37561
24.300636 1.1831621 7.8856125
26.583633 1.2151622 9.685616
36.375633 36.898163 42.268612
35.387627 34.947163 42.327618
30.482635 29.875162 51.823612
30.387634 28.281162 50.79761
36.639626 33.234165 59.023613
35.735634 34.788162 60.176613
30.422638 35.369164 2.6186142
29.510635 32.95616 3.5066147
4.33963 25.69016 39.484615
2.4476318 27.004162 39.293613
90.930626 20.680162 48.097614
91.27963 18.997162 49.760616
85.61963 38.054165 19.438614
83.72863 37.192165 18.644615
80.89363 31.595161 28.818615
79.554634 30.001162 28.666615
16.927635 28.880161 47.654613
19.43164 28.219162 47.240612
22.188637 29.341162 35.79762
23.884636 28.961163 34.244617
52.99963 24.185162 30.281612
54.53963 22.512161 30.186619
60.58063 29.136162 20.76361
61.81863 27.712162 19.241615
8.208633 9.842162 36.60262
10.415634 10.661162 36.81061
12.254639 14.113163 25.294613
14.812637 14.749163 24.79261
95.92063 11.611162 0.07561493
2.0766296 11.190163 67.32561
5.537636 15.136163 57.14261
5.2656326 16.910162 56.26061
64.66863 16.974163 2.4296112
65.02363 16.284163 0.61761475
68.56863 19.864162 58.10961
68.96163 22.063162 57.86961
86.51863 25.318161 15.461609
84.28763 25.609161 15.898613
88.48563 18.189161 16.410614
87.46763 17.812162 14.704613
67.40163 4.4101624 15.203613
65.78763 4.3011622 13.691612
71.846634 9.175162 4.257614
73.91163 9.511163 3.523613
48.80663 6.243162 6.45961
50.256634 5.830162 7.808609
44.020634 0.7671622 18.06961
45.603634 1.6281621 19.591614
81.693634 37.755165 34.10362
80.55663 40.160164 33.767612
88.10763 44.051163 24.949615
88.86963 43.919163 22.748611
7.124634 16.186163 37.406612
4.83963 16.077162 38.799618
1.9536362 14.069162 49.525616
3.9416351 13.798162 51.120617
34.454628 19.489162 18.005615
33.05163 21.259161 18.379608
41.312634 27.507162 11.091614
39.50863 27.609161 9.171616
24.738632 39.471165 68.05761
24.673637 41.831165 0.9046097
29.960632 40.99016 57.25761
30.970634 42.588165 57.636612
52.02663 20.837162 12.046616
50.077633 22.260162 13.27961
45.157635 16.572163 22.600609
46.466633 14.432162 23.646614
36.762627 8.595162 34.332615
38.305626 7.764162 32.503613
47.700634 9.158162 27.179615
49.684628 8.106162 27.431614
67.82163 24.997162 55.641613
69.28563 26.474161 55.334614
76.99463 26.587162 47.499615
77.84263 28.188162 46.744617
50.84763 41.377163 16.410614
50.95763 43.647163 17.991615
54.467636 51.212162 8.580612
53.809628 51.398163 6.6496124
68.71363 37.206165 10.6736145
68.87763 38.551163 11.971611
62.83263 32.120163 20.12461
64.69263 32.356163 21.80761
41.173634 8.576162 56.87461
43.114628 8.421163 57.565613
37.93963 7.331162 67.55261
36.065636 6.332162 0.66161346
68.40663 6.724162 2.2686157
67.10963 5.019162 1.660614
58.56163 4.553162 9.997612
56.82563 5.449162 9.151611
64.98263 39.067165 57.80661
64.52963 40.173164 60.253613
57.96863 33.809162 0.3836136
56.01963 33.154163 67.54661
23.921638 28.085161 31.113613
22.175636 28.843163 29.919613
27.102638 32.934162 19.921608
27.709633 34.540165 21.144615
65.707634 24.057161 21.825615
65.18563 26.032162 22.47461
56.82963 22.892162 31.346615
56.23063 20.577162 31.481617
54.86963 33.952164 18.008614
54.63863 36.227165 17.648613
62.65363 35.824165 8.537613
61.97663 35.086163 6.3676147
72.67563 31.849161 9.379616
71.20363 33.324165 10.161613
64.87263 26.73516 19.617615
64.15563 27.976162 20.895615
58.16263 7.323162 29.577618
56.89963 6.2021623 27.913616
63.69463 10.981163 18.892609
65.12363 10.275163 17.396614
85.90363 50.786163 55.558613
86.50863 52.534164 54.925617
94.53863 55.107162 46.61662
94.19863 53.39316 45.24162
65.17163 51.480164 63.392612
66.12263 49.956165 65.272606
59.37063 46.919163 6.8266144
58.24963 48.600163 7.4466095
66.22063 50.587162 44.47762
65.65763 52.61516 43.707615
68.02063 5.0521646 34.33962
67.75463 3.3811631 33.096615
52.921635 28.845161 0.74661255
55.175636 28.220161 1.4886093
49.74763 29.068161 10.770615
47.06763 28.811161 10.75161
22.356636 8.349162 26.836613
20.582634 9.310163 28.154613
18.146637 1.7681621 37.208614
16.66864 0.4541622 35.692616
70.52963 27.011162 26.970615
68.43863 25.83216 26.981617
69.082634 18.684162 36.822613
66.99263 18.870161 37.481617
48.314632 52.905163 18.092613
46.98763 51.665165 17.580612
46.716633 0.026165009 6.3556137
46.60763 2.079165 5.240616
32.17263 13.832163 18.303612
29.950638 13.361162 17.929611
26.790634 6.232162 26.197613
24.565636 5.795162 25.792614
27.949638 47.986164 43.114613
28.176636 45.945164 42.999615
27.473633 45.387165 55.356617
28.698631 43.688164 56.026615
59.13263 35.660164 56.50861
57.22063 36.711163 57.18661
49.905632 36.306164 66.84461
49.34863 34.235165 66.57561
7.662636 25.786161 56.86661
9.177635 24.225163 56.821613
16.83664 25.793161 47.051617
16.207634 26.30116 45.068615
54.944633 30.88116 17.885612
53.66463 31.542162 19.715614
45.58363 25.201162 23.865608
43.70563 26.401161 23.47461
48.008633 -0.8508378 3.5466156
48.76563 1.5021621 3.700615
56.790634 6.5371623 64.11361
57.817635 8.750162 65.08961
46.173634 2.5611634 54.56361
46.962627 1.2861619 56.91261
40.74563 55.830162 0.016609192
39.499626 54.560165 67.46061
1.8226318 10.835162 17.296608
0.6536331 10.759163 14.956612
4.9806366 17.775162 5.7726135
4.13163 17.312162 4.044609
54.057632 42.943165 53.88761
53.76363 44.242165 55.35661
48.629635 38.849163 63.77861
46.715633 37.026165 64.078606
67.09163 12.065163 1.0856094
68.99163 10.950163 68.11361
69.89863 15.997163 57.71761
70.73263 18.201162 57.385612
95.76263 18.313162 16.740608
95.22763 18.156162 14.208611
1.5516357 18.392162 4.908615
1.1736298 17.68316 3.0346146
22.408638 31.484161 50.67461
24.432632 31.711163 51.163616
25.643639 38.166164 39.070614
27.059631 39.228165 39.682613
32.829628 40.01116 9.249611
31.672638 41.792164 9.873611
28.976631 38.819164 20.27761
27.209633 38.704163 19.065613
13.799637 49.983162 50.46661
13.813637 47.778164 49.831615
19.250633 44.121162 51.891613
17.524635 45.130165 51.90761
43.94563 22.946161 8.997612
44.893635 24.83216 10.647614
38.25564 22.611162 19.643608
40.04963 21.180162 20.318611
53.27863 14.017162 29.879612
54.95763 12.444162 29.072613
58.822628 17.626162 18.407608
61.28063 18.378162 17.98761
26.047638 20.260162 14.729614
24.030632 18.766161 15.05661
19.91864 18.142162 28.093616
18.616638 16.175161 26.617619
86.63163 10.836163 11.95961
88.76963 10.838162 11.747612
93.69963 13.257163 0.6396103
91.57963 14.326162 0.06561279
45.92963 32.849163 63.96561
43.89963 33.670162 64.37561
35.300636 28.490162 3.5976105
33.334633 29.908161 3.6306152
40.822624 27.070162 22.90261
42.202633 28.633162 23.12761
46.171635 36.706165 14.351616
48.23463 35.812164 14.146614
8.998634 34.917164 62.56561
8.713631 35.537163 64.30461
2.6686325 30.709162 4.2486115
1.1286316 28.52316 3.8446121
64.25963 27.795162 40.906612
62.28663 28.524162 40.739613
53.398632 23.856161 46.140614
52.71463 25.193161 47.46362
88.65763 47.648163 6.586609
90.41463 46.475163 5.478615
93.51863 46.642162 61.63361
91.92363 47.999165 60.628613
18.094635 9.035163 9.175613
18.854637 9.423162 11.34761
10.847633 7.183162 20.102615
8.7556305 8.075162 19.83461
83.762634 24.68316 12.01561
84.26063 22.587162 10.905609
85.99663 25.267162 67.22061
86.95863 23.421162 65.64561
12.82164 12.605163 23.00161
14.0846405 14.392162 22.151611
15.289635 22.479162 12.16861
17.134636 21.969162 11.323616
3.780632 25.119162 23.00161
4.096634 25.198162 20.441612
11.425636 31.319162 11.796616
12.628639 29.531162 11.65461
24.484634 24.467161 15.965614
24.218636 26.173162 17.270615
21.111633 23.048162 28.671612
22.050636 24.453161 29.657612
8.147636 18.496162 20.339615
9.69664 16.845161 19.90461
13.746635 16.739162 8.642616
12.717636 18.258162 7.6596146
24.106636 44.908165 4.2206116
25.958633 43.903164 6.0486145
15.52964 40.554165 13.856613
16.397636 41.528164 15.48761
83.27563 24.246162 46.820614
82.88063 26.241161 45.169613
90.21863 31.67616 37.56061
91.93563 31.724161 38.710613
59.56263 10.991162 65.15961
60.29863 12.612163 64.97261
63.61863 13.460162 53.82861
62.56663 15.380162 53.32061
22.338638 3.5261621 43.510616
20.117638 3.4901621 42.74262
17.26664 3.613162 54.222614
17.30664 5.931162 54.001614
38.24064 36.551163 24.743614
39.05863 34.771164 24.215614
42.86363 39.764164 13.207611
44.921635 41.133163 13.186615
24.419632 24.031162 32.948612
22.660637 22.656162 33.166615
14.082634 21.75616 41.166615
12.667633 20.026161 41.212612
0.0046310425 40.24016 58.15161
2.0786362 41.603165 58.21661
9.018639 44.883163 49.89261
7.8596344 46.216164 48.48361
75.901634 17.163162 7.3386154
77.57063 16.314161 8.732613
69.92463 16.357162 18.58361
72.22663 16.165163 20.436615
60.76063 27.30816 36.291615
62.21263 28.562162 35.883617
71.08063 29.672161 27.961613
72.179634 31.70716 27.996616
4.962631 5.9971623 30.953617
2.955635 4.8731623 32.115612
94.14863 0.4091622 41.126614
95.42263 -1.0228379 42.96362
80.02963 3.373162 39.148617
79.82863 2.8671622 37.243618
86.58263 8.636163 29.051617
88.16763 7.279162 28.260616
81.276634 7.594162 41.69962
81.67463 10.029162 40.670612
86.19463 11.205163 29.44962
85.25063 12.527163 28.187618
0.6416321 37.278164 13.711609
2.5796356 36.361164 12.800613
4.0056305 37.26816 24.33361
4.054634 35.672165 26.065617
74.78163 13.197163 5.023613
72.50763 13.815163 6.179611
72.06463 11.702163 18.506615
72.69463 9.626163 18.968613
45.115635 50.333164 51.07361
46.55263 49.895164 52.47261
39.093636 43.300163 61.962612
40.059624 44.447163 63.704613
20.679634 17.415161 63.69461
20.645638 19.348162 64.85461
17.929634 13.296163 6.608612
17.785637 13.594163 8.758614
54.716637 46.339165 3.9686127
55.302635 44.39316 5.2966156
51.01363 37.828163 14.368614
52.882633 36.917164 15.549614
35.07363 9.073163 51.10761
32.983635 9.142162 51.62161
29.572632 4.381162 62.302612
29.028633 6.871162 62.20761
21.776634 27.29416 63.82061
21.925636 25.814161 62.33261
30.008636 25.651161 52.72461
31.150635 27.729162 53.19961
20.814636 13.794163 12.604614
21.726639 12.282163 13.534615
16.286636 7.378162 23.589615
14.854637 6.239162 22.367615
92.57963 34.614162 3.7636108
94.59563 35.960163 2.6856155
1.1166306 40.354164 60.57661
2.7896347 40.992165 61.52361
53.46363 55.663162 24.108612
52.57063 56.148163 21.978615
57.19663 0.3711663 11.726616
59.21463 56.107162 11.65361
76.88463 37.536163 47.886612
76.59463 39.151165 49.77761
77.40763 34.402164 60.60561
78.78763 33.024162 61.86261
5.287636 46.930164 29.705616
4.8696365 45.485165 31.715618
92.37263 46.346165 39.943615
93.75663 44.766163 41.244617
70.11563 37.791164 62.885612
71.748634 36.287163 62.46061
67.18663 31.107162 4.7586136
67.64063 33.321163 5.0186157
94.72463 7.928162 65.981606
93.04063 7.107162 66.509605
86.00763 2.895162 7.398613
87.00163 1.0631621 8.360611
78.15463 33.601162 12.00061
77.74963 32.35916 9.925613
83.44763 33.207165 2.134613
85.75863 33.968163 1.9986115
95.06163 34.741165 4.9356155
1.1526337 33.571163 4.5106125
9.94664 37.533165 65.77561
11.908638 36.481163 66.50061
49.979633 14.231163 8.627609
49.229633 13.419163 6.5386124
52.05263 14.115163 62.07561
52.91463 15.9751625 62.04661
78.73763 4.843162 22.064613
77.50163 6.159162 20.851608
79.457634 11.207163 9.974609
78.99963 10.209163 7.851616
7.185631 34.550163 9.297615
6.078636 35.688164 10.336609
2.134636 28.640162 20.50261
1.1836319 29.958162 21.651611
92.92663 27.080162 1.7606125
94.56963 27.477161 2.9376144
92.01763 21.108162 14.744614
94.11363 21.361162 15.674614
35.093636 20.864162 37.240612
34.28663 22.220161 39.249615
27.418633 18.171162 48.653614
28.552635 17.524162 50.592617
54.217636 34.715164 0.98361206
52.240635 33.328163 1.2166138
43.62463 31.570162 10.231613
41.37563 30.664162 10.579613
65.81263 1.0451646 13.189613
65.25763 55.609165 14.00061
60.06963 51.114162 24.65561
61.56363 49.731163 24.893608
90.02263 4.269162 11.73661
90.79863 3.482162 9.622612
93.36863 11.140162 13.310616
92.96163 12.812162 14.523613
16.786636 49.13616 53.39861
17.28064 47.315163 54.39961
15.040634 45.446163 66.022606
16.203636 47.038162 66.98361
12.342636 25.960161 59.85461
10.87764 26.136162 58.36061
17.180634 31.083162 49.30961
18.45964 32.667164 49.83161
78.53363 19.090162 59.454613
80.29263 17.28016 58.558613
89.20863 24.598162 52.49461
89.49163 23.068161 50.61261
58.53563 16.061163 30.594616
60.88163 15.966163 30.090618
67.37963 18.430162 19.822609
67.86363 20.623161 20.11161
61.47763 54.838165 10.398613
60.56263 54.186165 8.369614
67.97963 56.176163 66.41361
70.32663 56.216164 66.12661
54.664635 46.005165 43.279613
53.92063 48.219162 42.071613
43.95463 44.569164 47.467617
45.78063 44.995163 48.675617
88.59463 25.166162 13.754616
87.027626 25.062162 12.046616
89.92763 29.29416 1.2676163
91.72863 30.298162 1.7726135
26.268639 54.809162 10.741615
24.270638 55.137165 9.201614
19.98964 49.430164 19.163612
19.553635 47.335163 18.45961
38.905632 2.4731622 50.36861
40.516624 1.6311631 52.09461
34.013634 54.743164 61.379612
34.81263 52.830162 61.948612
9.750633 49.874165 66.18361
11.458633 49.660164 65.43461
18.020638 54.269165 56.00761
17.416634 0.2921639 56.34061
84.36763 15.326162 10.2346115
82.29963 13.994163 8.693611
88.81963 14.012162 67.134605
88.50163 15.198163 65.08961
56.901634 2.7891622 12.929611
55.99064 4.8321624 11.655609
49.20763 3.310162 22.11261
50.44063 1.8811622 21.818611
60.31663 48.833164 9.564613
60.87963 50.728165 8.188614
67.82963 53.344162 67.14361
70.16363 53.028164 67.91361
34.37963 49.338165 44.634617
32.537636 50.384163 45.151615
27.186638 51.478165 56.286617
28.673637 50.49716 57.764614
69.22463 11.2911625 19.11261
67.73763 10.3171625 18.98661
63.77463 8.451162 32.400616
62.12963 7.2931623 32.147617
47.979633 17.368162 43.841618
50.12763 17.355162 44.257618
55.203636 19.439161 33.97862
54.849632 21.291162 33.641613
92.72463 40.587162 6.0026093
91.87363 38.647163 5.575615
86.33363 38.415165 15.509613
87.59463 38.600163 17.683609
66.44563 36.391163 6.658615
64.99763 38.101162 6.184616
66.46863 39.382164 61.871613
67.58963 40.983162 61.79661
59.44963 49.89316 60.97361
61.00363 47.802162 61.233612
56.66663 42.512165 4.101616
54.79963 42.675163 3.4186096
91.96963 32.12416 19.132614
91.50663 30.017162 18.106613
1.9006348 30.334162 8.302612
2.0386353 32.42116 7.089615
41.03063 47.131165 14.333611
39.507637 45.051163 15.189613
31.097633 44.753162 25.136612
32.195625 43.437164 26.481617
81.85263 49.715164 55.92061
79.64663 48.937164 55.29961
75.82863 47.864162 67.77561
77.11863 46.336163 68.06061
3.1406326 42.233162 8.999611
1.2446365 43.310165 8.666611
8.385635 45.878162 66.29361
8.208633 44.769165 64.53161
51.523632 12.107162 29.031612
51.633633 10.185163 30.605618
42.273632 7.009162 36.286617
40.13363 6.013162 35.232616
46.81863 20.347162 27.054615
48.384632 20.441162 28.814617
39.113625 16.517162 38.85262
40.31463 17.866161 40.356617
47.183628 22.796162 12.925613
45.586628 21.095161 12.642616
41.853634 16.335161 20.078613
42.787632 16.093163 21.59961
71.82063 35.107162 26.132618
72.53763 36.736164 24.469612
77.262634 39.612164 14.409615
79.06363 40.477165 14.420616
62.21763 0.91316223 45.419613
63.14363 -0.6748377 44.160618
63.77563 6.276162 33.865612
65.50063 5.3331623 33.042614
91.56563 6.560162 64.19761
91.11063 5.034162 65.884605
81.89863 6.015162 5.5086136
81.90663 6.690162 7.2866135
53.31263 10.635162 10.150612
52.99663 10.559162 8.312614
55.70963 14.140162 65.29061
57.81263 13.685163 65.52961
26.348633 9.999163 62.601612
27.948631 11.980163 62.59261
34.550636 13.914163 54.07561
36.406624 13.816163 54.81161
12.394638 18.38816 4.8996124
12.734634 20.61016 5.2966156
16.153633 28.438162 65.40261
17.649635 28.694162 63.586613
60.42663 20.237162 1.5196152
61.59163 21.724161 2.4796143
57.08463 19.945162 14.564613
55.766632 18.731161 15.52861
44.13563 2.458162 35.677616
45.06963 0.7431622 34.809612
46.52963 7.1161623 25.696613
47.50263 6.133162 23.954613
34.107628 45.692165 27.591618
36.747627 45.889164 27.597614
36.472633 51.941162 17.526611
37.916634 50.710163 16.397614
51.17763 9.818163 61.27861
52.69163 8.962162 62.80561
47.04463 6.586162 4.32061
46.63663 4.6401625 4.254616
58.87963 44.653164 42.663616
59.07063 47.13616 43.262615
53.33263 41.894165 51.703617
53.009632 39.783165 51.318615
57.928635 22.167162 16.007614
57.374634 20.071161 17.344612
48.491634 18.336163 25.454617
49.20763 16.719162 26.734615
9.522636 51.022163 15.230614
8.879639 53.093163 14.297615
13.006638 3.1201615 5.3906097
12.441635 5.1131616 4.233612
86.20763 48.125164 54.36761
87.60063 48.306164 55.514614
0.6776352 49.794163 46.64462
95.44963 51.074165 45.781612
68.68063 47.387165 13.255615
66.46963 46.632164 12.988609
61.29263 42.484165 20.971611
59.26863 42.980164 21.12661
57.940636 28.656162 17.185608
57.052635 26.538162 16.518608
50.799633 24.539162 28.492619
50.870632 22.250162 28.751614
31.577637 22.743162 1.3916092
31.096634 20.689161 68.07661
41.51463 22.446161 61.17961
42.356632 22.724161 58.78261
73.637634 6.422162 54.98061
75.18863 6.3861623 56.14261
68.18963 1.6671622 62.997612
67.83363 -0.6048378 63.719612
49.712627 45.685165 35.750614
48.72263 43.836163 34.81061
44.60863 39.667164 46.392612
45.09463 40.214165 48.56061
65.13863 21.882162 3.0676117
63.81763 22.606161 1.2806091
72.50163 21.125162 60.448612
74.74363 21.667162 60.52061
46.731632 38.438164 67.634605
46.15063 40.160164 0.17461395
37.065636 37.783165 7.5606155
36.14863 35.888165 6.858612
46.561634 45.249165 18.185608
48.14963 43.569164 17.674614
44.41463 39.957165 28.414616
45.411633 39.846165 29.973614
