2.065834 16.400288 4.9628906
64.21184 7.5442886 68.889885
65.93384 6.036289 0.40288544
60.551834 1.4182892 10.496887
59.153835 55.730286 10.920883
76.90083 6.948288 6.022888
76.37183 8.850285 6.385887
83.16783 13.520283 65.05289
85.11383 13.214283 63.792885
84.00183 0.45028687 10.637886
85.31683 0.95728683 12.06189
78.39183 52.332287 21.563889
79.89983 51.500286 22.841888
53.774834 35.134285 2.9268875
52.227833 34.619286 1.4738846
60.453835 36.312286 61.141888
61.806835 37.403286 62.463886
64.05683 15.757282 39.21689
62.856834 17.085285 40.187885
58.793835 13.642284 49.11989
59.635834 14.817287 50.858887
57.363834 22.589285 17.75589
56.193836 22.908283 16.19989
63.620834 25.349285 7.734886
61.899834 26.345284 6.4788895
87.214836 14.866283 13.105888
85.230835 15.108288 11.381889
94.19683 21.302286 5.3728867
94.28284 23.639284 5.1838837
21.047836 39.529285 55.821888
22.105843 38.971287 57.999886
20.62284 34.517284 67.736885
19.210838 32.521286 68.93489
66.07183 53.751286 14.064888
67.508835 55.416286 14.117889
70.620834 0.7192879 2.7978897
72.76183 0.6102867 2.050888
66.52683 14.608288 41.247887
64.868835 13.162289 40.047886
59.162834 6.1172867 48.107887
58.729836 4.170288 47.124886
55.995834 42.058285 22.93789
56.718834 44.211285 23.43789
63.965836 44.730286 13.696884
65.54784 43.811287 13.287888
44.524834 45.668285 55.012886
43.001835 44.746284 53.409885
38.715836 39.849285 63.004887
36.575832 40.313286 63.440887
79.55984 4.870289 43.208885
77.551834 5.7442894 42.962887
76.257835 2.677288 55.433887
75.69183 0.97628784 57.110886
33.213833 3.6752892 15.50589
35.136833 3.5152893 16.466888
44.206833 3.4902878 7.193886
45.042835 5.7252884 7.9198837
29.777834 19.293285 19.265884
31.150833 18.037289 17.982887
40.271835 19.11929 11.064888
40.150833 20.168285 9.429886
68.01383 7.9022865 68.779884
70.065834 8.593288 0.27988434
72.89283 16.434284 60.89789
74.76583 16.692287 61.535885
55.665836 26.326284 54.527885
54.285835 25.319284 53.199886
48.385834 21.478285 63.593887
47.777836 19.506285 62.314888
10.932838 53.655285 57.931885
10.48584 51.844284 57.787888
4.014839 49.654285 65.263885
4.412842 50.081284 67.15889
18.37384 11.425289 12.151886
19.520836 11.358288 13.635887
13.04184 5.7802887 21.779884
13.579842 7.1432877 23.429886
63.937836 14.255283 17.642883
66.18684 13.4542885 18.168884
68.86083 16.490284 7.034889
70.965836 18.038288 6.151886
72.47583 55.443287 68.47889
72.299835 1.5882874 68.138885
77.453835 8.221287 59.442886
78.64283 10.019283 59.958885
35.37384 41.841286 31.980886
35.23284 39.685284 31.114887
30.72284 36.239285 41.363888
32.17684 34.159283 42.658886
35.859833 11.272289 38.664886
33.972836 11.634289 37.236885
39.303833 15.972286 26.32589
40.507835 17.403286 25.485886
80.97483 34.309284 51.385887
82.73983 36.000286 51.981888
84.148834 39.727283 39.943886
82.273834 38.463284 39.134888
58.157833 7.929287 13.050888
56.061836 9.649288 13.306885
49.234833 4.471287 23.38089
50.376835 3.559288 24.890884
0.992836 35.372284 60.302887
1.8718338 33.669285 59.21689
10.757835 33.593285 50.446888
12.93084 33.797283 51.125885
62.191833 34.798286 62.27289
62.608833 32.637283 62.067886
55.540836 30.174284 2.2428894
56.351833 28.986284 3.7598877
23.979836 33.568283 21.79789
23.379837 35.337284 20.243889
26.698837 41.602283 10.665886
27.717842 43.244286 11.374886
39.349834 46.811287 68.10889
38.508835 46.677284 66.07889
48.095833 49.563286 58.340885
50.130833 49.376286 57.823887
69.356834 10.8412895 56.795887
69.40483 8.394283 56.101887
60.397835 7.252289 65.75589
61.721836 9.501286 66.154884
43.078835 32.942284 48.448887
43.599834 34.069286 46.710888
48.539833 37.123283 36.167885
49.954834 37.943287 38.149887
58.999836 7.0952873 31.166885
61.157833 7.7722893 31.342888
62.236835 10.953289 20.135887
63.903835 11.785282 18.938889
27.020836 39.608284 24.08889
25.593842 39.795284 22.465889
34.09584 43.637283 14.4878845
35.717842 43.931286 15.517883
59.950836 28.064285 7.4508896
58.464836 26.781284 7.4738846
52.428833 21.939283 16.358887
50.147835 21.021284 16.415886
50.470833 52.881287 59.392887
51.093834 55.051285 59.266888
55.785835 55.189285 47.691887
56.659836 53.816284 46.450886
19.22284 14.518284 47.565887
21.132835 14.290287 47.475887
21.66484 14.123287 34.659885
23.58184 14.111286 34.387886
62.018833 15.550289 52.416885
60.056835 16.391285 53.387886
55.955833 14.184284 62.70989
55.204834 15.369289 64.57789
54.339836 9.8522835 30.702888
54.404835 11.825283 29.975883
62.107834 15.290287 21.739883
62.726833 14.0152855 19.988884
37.614834 26.039284 60.969887
37.786835 26.885284 58.701885
44.583836 34.480286 50.825886
46.442833 32.634285 50.889885
19.837837 2.6272888 43.231888
18.376839 3.1312866 42.197887
22.924843 7.2612877 31.534887
24.505836 5.710289 30.883886
11.279839 6.679287 7.141884
11.653839 8.893284 8.149887
10.671837 7.130287 19.428886
9.815842 9.304287 20.640884
56.934834 14.986286 33.000885
57.646835 17.337284 32.973885
61.758835 18.148289 21.915886
63.811836 17.823284 21.095886
89.968834 33.221283 59.131886
89.190834 35.199284 57.901886
81.08583 35.182285 67.70289
82.771835 34.069286 68.97589
7.0738373 45.039284 15.024887
5.4368362 44.981285 13.423889
8.65184 48.507286 2.4878845
10.144836 50.082287 3.2178879
56.155834 52.998283 62.085888
57.937836 51.561287 62.687885
51.029835 46.796284 4.4568863
49.918835 48.610287 4.030884
5.6198425 36.825283 9.8658905
6.2468414 35.702286 8.5138855
13.196838 33.831284 68.70289
14.63784 35.074284 68.49189
11.338837 39.283283 16.024887
9.825836 37.622284 15.530884
3.9998398 30.335285 24.368889
4.7328415 28.681284 25.484886
38.146835 2.946289 21.58989
36.87684 4.1432877 20.181885
28.04184 0.18728638 29.794884
27.893837 54.592285 28.953888
71.118835 22.491285 44.67489
70.30283 23.834288 46.214886
67.87283 15.196285 55.176888
69.06084 13.371288 55.693886
75.35883 34.547283 33.34889
76.85184 35.160286 34.460888
73.12183 30.089285 45.16189
74.19183 29.984285 47.116886
6.072838 30.865284 63.549885
7.3838425 30.770285 65.166885
94.35284 31.025284 6.722885
0.469841 30.894285 8.586884
32.751835 16.163288 19.002884
34.020832 14.245289 18.514885
42.559834 21.183287 13.90789
43.470833 20.038288 12.26989
26.326836 26.385284 20.474884
24.02684 26.810284 20.61689
21.044838 21.458284 30.686882
20.743835 20.522284 33.010887
92.43484 51.345284 45.77989
91.24783 51.057285 43.350887
6.6288376 51.087284 35.609886
7.688843 52.885284 35.955887
48.715836 47.325287 56.099888
49.220833 45.493286 57.788887
43.808834 41.232285 68.11989
42.608833 42.774284 0.056884766
85.42983 8.857288 14.328888
84.257835 7.3762894 13.19989
78.951836 4.920288 23.984886
80.256836 3.658287 25.11589
19.40084 29.369284 68.333885
21.008842 30.540285 68.71989
25.91784 30.089285 57.435886
27.575836 31.971285 57.491886
48.491833 22.231285 30.574883
47.659836 22.340284 28.245888
54.503834 22.082285 18.545883
53.110836 23.548285 18.26989
23.47084 41.824284 3.687889
25.561836 43.190285 4.639885
31.27884 44.040283 62.663887
30.433838 45.058285 61.247887
85.104836 8.936283 48.15489
85.19984 8.350285 50.372887
83.97684 10.110287 61.118885
81.61283 10.097286 59.787888
20.684837 40.790283 3.873886
18.815842 40.002285 4.064888
12.38884 37.940285 13.967888
13.70784 37.659286 15.598885
77.48483 52.617287 57.018887
76.66483 54.702286 57.233887
73.551834 51.771286 0.5898895
71.87683 50.503284 68.542885
51.873833 35.731285 19.918884
52.564835 35.877285 18.054886
57.427834 40.355286 7.743889
56.407833 42.032284 7.774887
38.119835 6.8862877 4.647888
38.419834 4.3812866 3.7448883
30.809834 54.790287 13.678886
31.516834 52.868286 13.387886
32.797832 25.229284 22.939888
32.818832 27.175283 22.647888
38.327835 27.726284 12.666885
38.644833 30.348284 11.751884
28.739838 48.613285 60.347885
30.449837 48.841286 60.208885
36.841843 50.206284 49.838886
38.453842 49.472286 48.761887
57.036835 27.309284 37.02289
56.179836 25.699284 36.756886
49.100834 23.134285 46.63989
48.388836 20.840284 47.073887
44.414833 32.462284 30.916885
43.028835 33.486286 29.618889
50.569836 32.169285 19.169884
48.992832 33.361286 17.780884
65.465836 40.165283 44.675888
66.97483 40.132286 45.794888
73.48783 47.922283 37.77289
73.94884 46.146286 36.352886
37.867832 24.824284 44.294888
36.705833 26.156284 43.074886
42.993835 28.358284 32.051888
41.142834 29.560284 30.732887
47.469833 0.17228699 59.287888
45.515835 0.36828613 58.699886
38.528835 0.07128906 68.876884
37.929832 54.274284 0.4478836
11.090836 39.911285 30.913887
9.155838 40.229286 29.950882
18.061836 48.427284 23.840889
19.85984 47.192284 23.792885
72.64183 5.915287 3.1988907
72.88983 8.657284 3.1198883
74.05683 12.308285 61.12689
74.273834 14.071285 60.479885
79.77683 42.978287 1.8488846
80.25083 41.297283 0.814888
88.370834 42.788284 61.52989
87.26083 41.743286 59.692886
47.427834 42.557285 53.52989
46.807835 40.331284 54.36989
40.710835 39.966286 65.029884
39.192833 40.940285 66.93789
77.49683 17.835285 61.989887
77.05383 17.975285 60.192886
82.84483 21.894285 50.516888
81.16783 21.839285 48.970886
21.731842 16.643284 51.346886
20.821838 14.752285 50.468887
13.641838 13.028286 60.756886
12.942841 13.381283 62.995888
36.403835 44.158283 30.586884
35.482834 42.712284 29.071884
40.280834 52.161285 22.049889
38.864834 51.906284 20.461884
7.159836 19.364285 41.255886
9.062836 20.331284 41.162888
13.962837 23.922285 31.280888
13.856842 26.607285 30.585886
11.556839 47.002285 37.026886
11.940842 48.287285 38.984886
4.5478363 42.228287 46.953888
5.659836 41.477283 48.592888
6.825836 10.551289 6.8788834
6.6118393 12.566288 7.786888
0.79283905 9.663288 17.014885
94.26183 7.736286 16.994888
76.965836 38.689285 1.6688843
78.090836 40.534286 1.6108856
76.550835 33.447285 11.877884
74.41683 33.365284 12.108887
3.728836 40.777287 11.776886
5.7978363 40.095284 11.390884
12.084839 42.119286 1.1068878
12.801842 43.994286 0.20988464
23.950836 20.131283 36.68889
22.210838 21.820288 37.78689
15.587837 19.885288 46.144886
13.931839 20.862286 47.27889
37.131836 36.038284 30.375887
36.12784 34.282284 30.375887
28.049843 32.722286 40.257885
28.077843 34.847286 40.818886
3.4778366 53.509285 67.13689
3.2818375 55.383286 65.75388
8.481842 0.5132866 56.039886
8.917839 2.3682861 57.094887
8.932838 43.572285 66.68389
11.08284 43.170284 67.08889
18.923836 45.913284 58.903885
18.071838 45.535286 56.565887
41.945835 0.9472885 5.4248886
40.777832 55.087288 4.474884
35.718834 49.052284 14.717888
34.983833 50.549286 16.007889
68.369835 33.045284 45.300888
66.92983 31.215284 45.031887
62.673836 25.837284 56.118885
64.15684 23.960283 55.600887
22.56984 11.766285 12.155884
20.67884 11.328289 10.886887
27.669838 17.512287 1.9408875
27.286842 17.864285 68.76089
2.5098343 10.500286 52.950886
3.7008362 9.679287 54.826885
91.78983 6.6032867 65.222885
92.19483 8.7162895 66.28889
90.801834 6.854286 32.139885
91.87583 6.0042877 33.81389
85.09783 54.840286 41.763885
83.18584 55.910286 42.280888
18.606842 0.19628906 42.38389
18.023842 55.310287 40.974888
25.412842 0.42928696 31.945887
26.116837 2.0962868 30.564886
36.422836 3.3932877 36.845886
36.83184 1.9822884 38.745888
33.26883 2.6172867 50.158886
30.698837 2.1802864 49.918888
21.95784 13.781284 29.717888
20.115837 13.862286 28.066887
28.242836 16.560284 19.611885
27.476837 18.331287 18.362885
81.982834 26.816284 33.936886
79.52883 26.972284 33.280888
75.27883 21.956284 44.694885
73.54684 23.380283 44.336887
37.418835 10.388287 20.403885
37.574833 12.422283 21.233887
41.030834 15.975285 10.647888
42.756832 17.132282 9.160889
10.048836 27.987284 64.710884
8.044838 27.952284 65.61488
7.8358383 27.163284 8.772888
6.94384 25.147284 9.434891
74.40283 20.898285 63.382885
75.952835 20.422285 61.561886
79.133835 23.973284 49.453888
79.605835 26.006285 50.403885
86.353836 26.470284 68.43589
88.353836 25.725285 68.27489
1.1708374 24.900284 59.793888
3.0368347 23.808285 60.684887
53.313835 32.422283 54.430885
53.138836 30.511284 54.023888
47.166836 28.736284 64.71989
45.938835 27.544285 63.835888
68.78983 1.3332863 16.835884
71.204834 2.5222893 17.209885
76.26783 7.189289 8.720886
77.786835 8.496288 9.978889
92.55984 42.936287 44.537888
90.93584 41.314285 44.669888
87.27983 38.175285 55.463886
88.30483 37.687286 57.109886
25.38984 35.824284 41.427887
24.69384 37.618286 41.621887
17.545837 36.305286 50.684887
15.422836 35.140285 50.198887
65.63983 25.189285 5.734886
67.83383 24.515284 4.764885
75.604836 28.246284 65.86789
77.40283 28.707285 66.763885
89.76483 16.23029 35.984886
87.96983 18.118282 36.096886
79.15283 16.879284 42.874886
79.24084 19.004284 44.371887
13.436836 18.261288 46.891888
14.12484 17.396282 49.166885
7.955841 16.955288 57.984886
6.9588394 19.408283 58.781887
36.098835 25.713284 9.149887
36.764835 25.281284 11.114883
34.763832 21.034285 21.704887
32.783833 20.925283 21.28389
53.309834 25.899284 1.788887
54.142834 24.216284 3.1128845
47.871834 22.200285 12.272888
46.497833 20.427284 11.431885
11.738838 34.777283 15.025887
11.937836 32.564285 14.868889
9.593842 29.197285 26.666885
11.044838 29.753284 28.652885
9.538841 10.199284 6.036888
11.133842 9.4512825 5.484886
18.353836 16.557285 65.847885
18.731842 18.153286 66.64289
3.0578384 47.726284 66.66389
3.2438354 47.645287 68.98289
90.01383 43.567284 8.31089
88.19683 44.889286 7.7678833
10.231842 31.718285 48.738888
8.481842 32.901283 48.551888
2.9258347 24.023285 55.823887
0.8048401 24.143284 55.130886
9.20784 55.097286 19.28489
8.98484 0.51628876 20.88189
7.284836 52.164284 32.333885
6.0558395 50.444286 32.764885
17.086838 52.674286 42.773888
16.69384 54.830284 43.402885
9.598839 52.600285 52.880886
10.54184 51.063286 53.953888
77.55383 49.860287 20.961884
76.36684 48.406284 20.264885
69.95583 45.752285 30.069885
69.50183 45.555286 32.163887
65.95583 53.838287 67.98289
66.21384 54.746284 0.82888794
60.048836 48.074284 9.232887
58.409836 48.956284 10.8018875
1.8668365 45.649284 29.486885
0.9358368 44.900284 27.778885
3.115837 49.555286 16.830887
2.7838364 51.624287 15.071884
35.933834 38.444286 10.793884
36.589832 36.763283 9.72789
37.535835 42.517284 68.832886
38.051834 44.511284 0.35888672
83.72083 27.149284 16.138885
85.12683 28.637285 17.36689
92.61584 32.371284 9.53289
94.367836 31.978285 10.970886
74.68183 36.201286 50.207886
75.06983 34.443283 48.64689
83.48983 31.932285 40.248886
83.57384 34.132286 39.14089
49.444836 35.169285 49.84889
50.303833 36.849285 51.439888
53.504833 43.612286 42.28589
53.288834 44.068287 40.131886
63.637833 43.857285 63.14789
61.689835 42.113285 63.299885
65.022835 37.602283 63.503887
65.52883 39.392284 64.388885
42.622833 26.301285 63.236885
44.440834 25.881285 61.910885
48.831833 26.699284 50.752888
50.516834 28.599285 49.643887
24.38684 23.469284 53.081886
24.006836 21.248283 54.099888
23.740837 20.793283 66.377884
25.62484 22.107285 68.04488
60.038834 5.5952873 12.381889
61.949833 4.0652885 12.545883
69.24883 13.706287 6.3958893
71.31883 12.900288 5.96389
78.92284 45.798286 19.137886
77.478836 44.545284 18.096886
72.242836 37.052284 27.18689
72.55383 35.403286 28.758888
14.786842 41.687286 0.7928848
16.76484 41.792286 0.27388763
19.65084 41.632286 56.668888
21.599838 42.117287 58.11289
94.078835 4.3272896 49.905888
1.2328339 5.726288 50.135887
7.1738358 3.3882866 37.98789
8.550842 4.8272896 38.579887
30.714836 37.222286 61.518887
29.812836 35.194286 60.603886
25.76484 32.155285 2.0418854
24.441841 30.802284 2.189888
26.251839 21.795284 17.830887
26.547836 19.933285 16.31089
29.50084 25.083284 4.604889
31.307838 23.852283 4.3098907
42.639835 49.962284 34.942886
44.097836 51.694286 35.67489
48.655834 54.902287 25.022888
48.126835 52.836285 23.904884
28.562836 10.236286 68.85089
30.880836 11.304287 68.069885
35.451836 12.429287 56.696888
37.173836 13.710285 56.204887
50.695835 2.9842873 60.912888
51.797836 1.6402893 62.456886
45.227833 54.965286 3.1428833
43.348835 54.387287 3.4218903
17.06884 38.394283 38.800888
17.229836 40.675285 39.847885
12.252838 36.202286 49.947887
9.783836 36.328285 50.59889
49.718834 21.689283 49.295887
48.751835 23.803284 49.516888
43.254833 23.367285 60.585888
43.968834 22.033283 62.663887
43.685833 2.7262878 40.752888
43.818832 4.054287 42.477886
36.179832 55.916286 49.48089
37.209835 0.9942894 50.743885
2.2068405 55.871284 14.187889
0.050834656 54.101288 13.766884
4.8698425 0.27328873 1.7958832
4.3968353 55.651287 68.99389
45.303833 44.574284 2.3208847
43.511833 44.856285 1.8508835
39.199833 40.789284 14.184891
38.114834 42.570286 14.750885
35.961834 53.409286 68.13389
36.432835 55.328285 66.93389
41.430832 54.044285 56.011887
43.722836 54.617287 56.246887
51.819836 53.410286 61.736885
49.473835 54.579285 62.180885
42.619835 49.333286 1.1968842
43.719833 48.124287 2.5848846
37.577835 27.602283 9.905884
39.472836 28.477283 10.216888
43.595833 32.185284 66.94189
42.439835 34.293285 66.474884
66.87383 13.359287 38.250885
67.63583 12.010288 36.870888
72.578835 18.56329 29.265884
72.86083 21.034283 29.571884
39.621834 21.572287 45.11289
41.192833 20.023289 45.28689
41.350834 11.168285 52.87689
41.192833 10.970287 55.288887
52.425835 5.6522865 26.295883
50.188835 6.181286 25.442886
55.087833 14.920284 15.942886
52.834835 15.299282 14.779884
35.808838 52.905285 51.484886
35.826836 55.211285 52.196888
32.19484 52.023285 63.155888
33.115837 54.020287 64.45389
8.042839 23.516285 11.161888
9.128838 25.697285 12.226891
4.439842 24.988285 23.375885
2.2158356 24.024284 23.390884
56.126835 48.715286 9.356888
55.846836 46.316284 9.45089
47.748833 39.756287 16.03289
47.852833 40.757286 18.147888
27.66484 20.434284 67.790886
28.61084 22.115284 68.71689
30.88984 21.768284 56.235886
28.682838 21.403284 55.477886
15.687836 32.494286 68.500885
16.37384 30.397285 68.74789
12.070839 26.609283 11.440887
10.154839 27.181284 9.992889
9.881836 9.331287 23.392883
10.65184 7.241287 24.253883
6.247841 6.9772873 35.17388
5.492836 8.243282 36.394882
39.044834 55.506287 35.638885
40.859833 54.805286 36.498886
35.829834 53.115284 47.566887
34.896835 50.926285 48.171886
86.19283 41.201286 39.635887
86.772835 39.789284 38.490887
0.50683594 43.597286 30.344887
93.62783 43.438286 28.731886
32.71884 50.076286 65.06589
33.749832 48.631287 66.56289
27.909836 47.036285 8.65789
25.662842 46.137283 8.485886
29.453842 21.650284 52.785885
30.712837 23.386284 54.116886
36.30184 28.265284 44.74489
37.62284 30.013285 46.048885
24.830841 24.291285 38.40489
23.196838 23.481287 39.690887
17.84584 19.982288 47.95989
16.695839 18.295284 48.675888
78.69483 32.264286 67.099884
79.22483 30.950285 65.68388
82.22483 35.220284 55.366886
81.23583 33.922283 54.033886
36.451836 52.474285 32.330887
35.672836 52.152287 34.479885
29.954842 53.999287 44.067886
30.116837 54.289288 46.27989
47.151833 30.806284 49.29289
49.956833 31.088285 49.435886
54.071835 36.949284 39.51589
53.445835 39.239285 39.770885
77.745834 37.355286 68.14389
77.71983 39.339287 67.88089
86.28284 39.173286 58.290886
84.55583 39.113285 56.842888
4.895836 53.235287 31.896889
3.0418396 54.044285 31.827888
7.228836 4.672287 21.540886
9.703842 4.953289 20.749886
12.55584 55.871284 58.019886
10.654839 0.3052864 57.799885
7.4488373 52.353287 0.102890015
7.209839 54.337288 1.6328888
86.33183 10.920284 30.818886
88.46284 12.647289 30.654884
85.86283 4.8592873 29.253883
86.40383 3.4712868 30.867882
26.056839 46.116283 59.352886
27.782837 45.686287 61.070885
22.329842 44.424286 2.9488907
23.80584 45.186287 4.502884
33.784832 38.210285 7.7968903
31.251833 37.894283 6.7448883
36.844833 38.046284 64.957886
38.868835 37.228287 64.28589
5.089836 37.413284 64.73988
6.3968353 37.821285 66.821884
93.44783 34.830284 8.040886
91.410835 34.012283 7.4458847
65.18083 31.659285 61.057888
64.48984 31.512285 58.703888
74.357834 33.830284 51.796886
74.63583 32.137283 49.920887
23.739838 53.034286 46.145885
24.306839 51.203285 46.07789
22.336838 44.370285 55.851887
23.564842 42.432285 55.964886
21.129837 50.334286 4.717888
20.92884 52.160286 3.437889
27.226837 50.534286 63.282887
28.90084 50.495285 62.125885
84.88084 55.494286 44.314888
86.12183 55.715286 45.679886
81.037834 51.054287 55.711887
79.05483 50.504284 54.368885
45.434834 41.605286 17.466888
44.207832 42.929287 19.070885
37.430832 40.920284 29.023888
37.383835 38.923286 29.461884
65.21284 12.617283 55.534885
65.96284 14.262287 53.835888
74.46284 17.040287 45.59189
75.01283 19.320286 44.98789
3.9988403 33.651283 62.742886
2.0738373 33.573284 62.291885
91.75383 28.058285 5.068886
93.661835 28.276285 6.4218903
68.217834 40.673286 63.803886
66.687836 42.386284 63.432888
74.409836 45.186287 52.523888
72.63983 44.281284 51.422886
82.67883 37.053284 0.62088776
84.63983 38.215286 1.7318878
91.40884 47.008286 63.255886
92.96983 45.655285 63.535885
81.64384 53.477287 5.5738907
81.493835 51.718285 4.139885
83.85184 0.4282875 62.803886
83.28384 2.0132866 61.956886
3.426834 42.165283 65.040886
1.6538391 41.336285 66.055885
90.65283 41.094284 7.316887
89.51984 39.428284 6.0448837
83.661835 33.244286 3.3348846
84.716835 32.309284 1.1958847
89.17184 40.259285 62.417885
89.67083 40.573284 60.058887
5.1168365 11.767284 55.294888
5.617836 12.950283 57.45989
0.0438385 7.7692833 66.82689
0.94983673 7.7792854 68.943886
61.329834 43.468285 26.47889
61.151836 42.528286 24.320885
69.18183 47.142284 15.507889
70.023834 49.728287 15.642883
40.194836 27.696285 44.548885
40.847836 29.857285 44.13989
46.368835 30.919285 32.609886
46.387833 32.877285 32.565887
2.3038406 27.362284 25.612885
4.3688354 26.029284 25.730888
93.46183 24.155285 37.181885
91.840836 23.204285 36.912888
20.591843 54.891285 7.0378876
19.38684 54.131287 4.972885
26.392838 52.711285 64.485886
28.477837 52.981285 65.24088
3.695839 43.222286 13.50589
5.212837 41.771286 14.155884
91.01083 40.269283 24.24089
89.38983 40.173286 22.67189
76.742836 7.519287 40.954887
75.76183 9.054287 39.40489
83.05984 13.018284 30.822887
82.83683 11.483288 28.917887
57.021835 33.224285 57.646885
56.502834 34.856285 58.775887
48.542835 32.228283 67.70089
47.353832 33.643284 68.62889
42.282833 49.487286 18.652885
44.470833 48.203285 18.424889
49.073833 51.344284 7.939888
49.235832 52.796284 6.4268875
80.40784 26.759285 17.217888
79.107834 25.223284 17.00689
73.01383 21.757284 26.840889
71.73983 22.786283 27.751884
61.012833 23.521284 19.913887
59.768833 24.794285 18.847885
68.006836 30.841284 11.113884
67.62683 32.909283 11.428886
58.053833 29.422285 19.766884
58.725834 31.495285 19.946884
62.785835 34.243286 7.7378845
63.688835 36.479286 7.74189
79.87883 2.2362862 58.02989
79.82083 4.0582886 59.391888
76.298836 55.870285 1.1878891
77.59883 55.482285 2.9948883
60.649834 33.565285 60.094887
58.625835 34.429283 60.172886
52.239834 27.749285 68.625885
50.476833 29.491285 0.053886414
25.149841 11.965282 34.729885
26.75084 11.109287 35.822887
18.007835 9.593288 43.713886
17.772842 11.855289 44.307888
5.8498383 33.684284 45.804886
4.7278366 35.812286 46.586887
0.28183746 28.642284 57.307888
93.270836 29.824286 56.190887
32.590836 1.1002884 51.964886
31.459839 2.8632889 52.450886
29.006836 55.622288 64.13689
27.155838 0.8442879 64.52289
18.287842 29.851284 34.336887
17.785843 31.524284 35.171886
10.26384 28.567284 44.201885
11.116837 30.463285 45.304886
1.2828369 49.764286 46.081886
2.516838 48.098286 47.067886
9.244843 51.069286 37.703888
11.322838 51.519283 36.887886
8.431839 35.920284 66.32389
7.842842 33.900284 66.304886
8.100838 32.244286 9.419884
6.169838 32.931286 10.230888
69.398834 2.6522865 53.720886
71.812836 2.8582878 53.419888
73.981834 6.9382896 41.342888
72.27883 7.0292892 40.115887
29.905838 16.433285 0.85588837
31.65184 15.376286 68.946884
37.823837 23.637285 59.981888
39.72084 22.510286 60.358887
59.813835 1.2232895 33.131886
58.264835 2.8932877 33.40489
52.564835 6.4422874 44.186886
50.900833 4.7202873 44.433887
82.30383 18.122288 15.340889
80.062836 18.912289 14.223885
75.26783 12.764286 25.220886
76.65683 11.186283 25.12989
49.475834 53.128284 41.873886
48.027836 50.956284 41.68189
45.536835 45.405285 50.586887
45.609833 46.737286 52.191887
81.19783 28.989285 54.909885
80.14083 27.400284 52.614887
71.24084 25.589285 59.688885
70.80683 24.199284 61.048885
52.227833 47.292286 57.260887
52.913834 49.612286 57.387886
60.974834 54.111286 48.818886
61.282833 52.325287 47.70289
84.46083 50.181286 58.674885
85.14083 51.773285 57.34189
91.217834 53.531284 47.407887
92.59583 53.415287 49.274887
31.759842 35.418285 58.73089
30.523842 35.103283 57.432888
35.702843 39.234283 47.620888
37.91584 38.986286 48.49389
56.153835 24.505283 0.8448868
57.654835 23.173285 0.4948883
60.400833 27.471285 58.393887
61.292835 29.185284 57.486885
83.05783 8.891285 63.340885
83.62283 7.116287 63.75189
79.452835 2.3252869 3.953888
79.91983 0.8522873 5.5798874
78.05383 45.072285 53.444885
79.21284 45.066284 55.080887
70.05283 44.390285 65.639885
70.075836 46.367287 66.53189
18.02584 43.346287 21.488884
16.119843 42.890285 20.46489
12.972839 33.514286 29.888885
10.5058365 33.868286 28.833885
33.698837 54.650288 48.94589
33.19684 54.987286 51.145885
28.189842 53.280285 62.152885
26.787842 54.520287 62.642887
48.583836 13.863285 64.374886
47.197834 15.004284 65.141884
47.156834 13.832287 9.5138855
47.038834 11.784283 8.9268875
68.76683 30.237284 61.134888
70.66783 28.461285 60.088886
68.38983 37.285286 61.930885
66.38883 36.399284 61.193886
92.58884 18.328289 37.328888
93.17983 16.926289 38.756886
88.36183 15.113285 47.99389
87.50083 13.109287 48.233887
89.22784 48.881287 43.316887
89.42783 50.131287 41.807888
92.022835 49.168285 30.434887
94.02483 49.636284 29.832888
60.096836 40.467285 40.187885
58.827835 42.381287 39.955887
63.320835 44.769283 29.748886
65.12383 45.421284 28.491886
42.961834 33.172283 14.389885
44.405834 32.134285 13.454887
49.006832 38.873283 4.94989
51.538834 38.715286 5.391884
44.729836 12.562283 58.205887
43.540833 11.005283 57.002888
45.566833 15.209286 45.867886
45.701836 13.494289 43.939888
34.009842 11.488285 21.64489
34.822838 9.532284 21.085884
28.56784 3.6972885 30.234886
26.807838 5.0582886 30.066887
65.204834 46.878284 65.390884
65.079834 48.846287 64.083885
71.66383 51.807285 54.224888
70.21083 52.694286 52.275887
7.7608414 14.912289 59.86289
7.3668365 16.418285 61.065887
94.40383 15.6782875 68.80089
94.17184 16.684284 1.6948853
18.56984 25.797285 31.976887
18.36084 24.259285 33.743885
11.174843 23.576284 43.043888
10.933838 25.406284 43.527885
81.45783 14.889286 43.42489
83.315834 14.3032875 43.82789
93.800835 13.004284 37.597885
93.76083 15.016285 36.947887
63.621834 36.691284 60.23089
61.654835 37.595284 58.986885
72.397835 37.325287 52.115887
74.56184 37.085285 52.693886
40.450832 24.713285 63.014885
41.341835 23.110285 62.468887
36.132835 16.596287 3.3678894
38.310833 17.094288 4.451889
44.941833 7.4772873 57.674885
46.749832 6.0862885 57.159885
49.243835 13.211285 46.574886
51.655834 13.078289 47.27289
12.5058365 13.527287 26.28489
12.953842 15.609287 27.300888
9.760841 10.471287 37.834885
7.969841 10.935284 39.573883
48.019833 29.945284 0.38988495
46.506832 31.127285 0.93388367
39.076836 22.267284 7.35289
37.917835 24.023285 7.9288864
32.849834 35.189285 27.566887
34.972836 34.355286 26.322884
36.065834 40.174286 15.276886
37.890835 38.520287 14.785889
72.28883 13.2652855 59.00189
70.952835 11.309284 58.857887
65.19383 7.0102882 66.318886
64.37383 4.8192863 67.526886
41.987835 47.817284 52.957886
42.833836 46.639286 51.233887
44.845833 49.105286 39.263885
46.666836 49.305286 37.763885
38.496834 9.318287 40.738888
39.113834 10.630283 42.724888
33.082832 9.876286 52.636887
34.578835 10.929287 54.568886
69.326836 0.7022896 68.31589
68.26583 55.110287 67.415886
73.700836 2.8342896 58.021885
74.94683 4.901287 57.817886
21.65184 4.1622887 64.84189
20.812836 2.3702888 64.277885
12.425842 55.468285 2.3568878
11.145836 56.135284 4.1408844
63.802834 11.082287 35.93189
62.287834 12.825283 36.685886
58.012833 11.501286 47.815887
58.734833 10.101284 49.797886
72.74184 11.006283 56.062885
71.14183 10.684284 54.368885
78.43584 16.491283 45.644886
76.772835 16.551289 44.353886
32.91384 30.783285 6.8708878
32.94684 28.596285 8.106888
28.112839 26.383284 17.405884
27.455841 28.012285 18.93689
24.703842 30.962284 4.974884
26.543839 30.854284 6.2428894
19.035843 31.952284 15.280884
18.327843 29.317284 16.632889
25.85984 36.158283 57.867886
26.272842 34.814285 59.479885
22.022842 34.447285 1.2408905
23.467842 33.193283 2.7468872
52.962833 50.693287 6.958885
51.860836 52.536285 6.389885
58.205833 54.708286 65.583885
59.292835 0.4852867 65.32288
41.274834 13.1402855 25.753883
40.832832 15.047283 24.267883
45.321835 20.623287 14.488884
46.323833 22.353285 15.058884
64.01183 27.795284 42.18889
65.88983 26.702284 42.117886
62.840836 22.922285 52.943886
60.584835 23.450285 52.486885
28.725838 28.269285 55.34889
29.324837 30.175285 56.424885
31.992836 28.739285 44.07789
33.614838 30.073284 43.269886
6.9988403 29.803284 45.386887
8.386841 30.406284 43.603886
12.848839 33.943283 32.89789
13.350838 31.943285 32.335888
90.14283 44.740284 59.809887
89.01383 43.711285 57.60589
2.6788406 44.307285 49.534885
2.6528397 45.086285 47.09189
41.630833 39.631287 49.969887
40.489834 41.112286 50.643887
37.935833 34.954285 62.572887
39.628834 34.149284 62.996887
25.939842 11.696285 14.356888
25.210838 10.3412895 12.281883
34.08484 17.424282 4.842888
33.310837 16.810284 2.8948898
14.4568405 7.8122826 7.264885
13.787842 6.0392876 5.651886
18.090836 7.756283 64.443886
16.189842 8.166286 63.427887
33.072838 25.883284 41.092888
33.999832 26.485285 43.365887
27.23384 23.606285 52.781887
27.107841 25.215284 54.555885
38.612835 9.564289 23.054886
40.216835 8.833286 24.503883
33.583836 3.2412872 31.772888
34.426834 1.3242874 32.845886
35.240837 36.792286 63.071888
35.52384 34.322285 64.264885
30.66584 27.640284 5.1688843
28.614838 27.495285 4.0208893
86.48883 20.835285 65.70489
86.98583 18.904285 65.403885
93.98483 20.991283 56.941887
0.12583923 23.209288 57.89789
69.44884 14.618282 40.795887
68.023834 15.568287 39.148888
75.68383 19.808285 29.764887
77.28983 19.073284 28.995888
43.364834 7.5512886 60.097885
42.634834 9.807285 59.59189
40.046833 7.8212852 3.052887
41.840836 7.7092896 4.097885
33.282837 42.206284 62.424885
33.384842 42.686287 64.514885
27.49784 34.812286 3.2988892
28.241837 33.741283 5.335884
13.663841 40.923286 52.000885
15.766838 41.571285 52.153885
19.725838 44.322285 41.293888
21.593842 44.049286 40.317886
51.578835 21.422285 33.148888
49.479836 21.842287 33.233887
43.530834 14.935284 43.122887
43.657833 16.727283 44.326885
28.908836 9.719288 15.878883
28.585838 9.886288 18.662888
23.438843 12.191288 27.979889
22.24784 10.270283 29.025887
44.562836 43.100285 51.712887
46.077835 42.006287 51.222885
49.224834 46.958286 43.721886
50.648834 45.505283 42.865887
19.321838 3.528286 46.02189
20.719841 2.2522888 45.721886
18.392838 53.050285 57.339886
17.157837 55.117287 58.48789
29.379837 4.491287 66.236885
29.728836 4.139286 68.596886
22.95684 53.346287 6.4218903
23.55384 54.155285 8.747887
34.89084 39.104286 13.174889
34.994843 36.794285 13.417885
29.562836 38.101284 24.646889
27.950836 37.051285 24.530884
82.160835 44.349285 21.189888
82.645836 42.717285 19.96289
88.92284 50.121284 12.023888
88.68083 48.765285 10.433884
62.545834 32.190285 6.2458878
63.422836 30.905285 4.7548904
68.673836 35.466286 64.17289
70.51283 34.481285 64.32689
35.193832 43.129284 48.190887
36.899834 41.889286 48.437885
32.813835 37.847286 59.939888
33.555832 36.236286 60.681885
57.922836 6.200287 66.71589
56.312836 5.0202866 66.13589
51.240833 5.0482864 8.453888
53.323833 4.620289 9.766884
68.08383 43.893284 28.970886
66.48683 42.917286 27.916885
71.19183 50.360287 18.46289
72.76984 50.046284 17.000885
33.93483 25.957285 58.73789
34.80784 25.107285 60.700886
32.02884 20.231283 1.3118896
33.394836 19.616283 3.2358856
1.190834 20.537289 54.375885
2.6518402 22.433287 53.554886
5.5628357 20.882282 42.74489
7.4378357 22.400286 41.590885
28.821838 0.43728638 46.399887
27.615837 55.804287 44.381886
30.59584 4.9542885 35.228886
31.033836 3.7292862 33.150887
6.988838 28.843285 10.545883
4.895836 28.065285 10.829887
0.054840088 23.174284 21.053886
92.675835 22.890284 20.848885
13.769836 10.463284 62.21689
13.932838 8.3902855 62.183887
3.4558334 6.712288 0.014884949
4.7588425 8.318287 1.7108841
77.62483 22.641285 47.315887
78.29784 25.235285 47.21689
82.04483 31.752285 37.720886
80.91783 33.926285 37.399887
63.447834 40.048286 62.778885
64.673836 41.665283 61.929886
72.01283 41.743286 51.507885
71.29383 40.074284 50.563885
42.488834 7.712288 56.16189
42.991833 8.943287 54.456886
49.757835 7.6032867 45.497887
48.855835 6.741287 43.53689
33.139835 13.398289 2.3858871
34.227833 14.903286 1.2128906
38.706833 17.539288 58.851887
37.130833 16.31329 57.048885
91.854836 28.836285 23.472885
91.689835 27.462284 22.013885
4.4848404 33.577286 12.210884
2.440834 33.729286 10.919884
87.43283 18.184284 17.097885
88.91883 19.42529 17.350883
3.0488358 16.949284 8.108887
3.667839 19.110287 8.0518875
93.728836 54.031284 65.60689
93.02583 56.061287 65.432884
4.2868423 4.0342865 54.329887
4.594841 6.292286 54.583885
91.034836 0.3522873 31.279886
91.051834 54.473286 30.709887
84.93083 52.487286 40.603886
85.27883 51.156284 42.156887
64.99184 11.754284 0.788887
64.18183 12.707287 67.79889
66.20783 14.984287 56.998886
66.273834 16.875286 56.942886
30.507835 13.4662895 1.3598862
30.574837 11.461285 1.7328873
23.338837 6.931286 10.919884
22.115837 8.935284 11.330887
88.30984 23.726286 36.274887
89.714836 21.906286 36.73789
81.478836 18.293285 46.085888
82.326836 16.723286 45.49489
66.71384 4.7942886 36.453888
67.454834 3.1922874 38.15489
56.062836 0.41428757 43.326885
53.414833 1.0882874 43.420887
35.980843 51.616283 0.99588776
35.12484 48.996284 1.1198883
30.035843 43.102283 10.141884
30.79284 44.408283 11.914886
63.972836 51.743286 13.844887
64.87383 49.355286 14.175888
59.008835 48.716286 25.72889
57.265835 48.286285 24.566887
11.09584 35.909283 12.055885
12.849838 34.902283 12.429886
20.434837 36.135284 2.6178894
18.918839 35.010284 1.340889
69.383835 0.81528854 34.901886
69.87683 55.275288 34.233887
73.05583 5.4162865 23.272888
72.40383 7.3482895 23.10289
38.298832 16.988285 23.609886
38.832832 18.993282 23.65989
45.754833 17.840282 27.286888
46.528835 19.753284 27.951889
23.780838 8.479282 47.63289
23.107841 6.3672867 48.627888
16.575836 6.7532883 59.120888
14.344841 6.889286 59.799885
28.906837 23.999285 2.3488846
31.09784 23.046284 1.1748886
34.13083 30.380285 61.322887
34.633842 32.402283 62.372887
55.566833 41.504284 57.259888
57.330833 40.682285 55.678886
64.26784 43.829285 47.213886
63.597836 45.837284 46.28589
22.533836 6.264286 66.35089
20.455841 7.325287 66.429886
16.330841 2.330288 6.4428864
15.008842 4.299286 7.4108887
37.905834 24.796284 26.604889
38.992832 24.461285 28.961884
32.742832 22.775284 37.693886
32.733833 24.284285 38.806885
56.476833 35.891285 20.721886
54.816833 37.033283 19.443886
61.439835 37.602283 8.704887
60.332836 35.969284 7.526886
3.4168396 5.349289 19.266884
4.5198364 5.3782883 21.201889
94.09883 1.8912888 30.958885
93.08483 3.3662872 31.593887
80.315834 51.688286 25.72689
78.05583 51.242287 25.385887
74.925835 48.548286 34.759888
73.11083 49.485287 35.155884
52.319836 55.152287 26.86789
52.796833 56.143288 28.692886
46.608833 52.130283 37.832886
46.332832 52.451286 40.10488
22.28984 31.496284 37.33988
22.91784 33.146286 37.815887
29.87584 34.761284 27.987885
30.91584 33.967285 26.22889
0.93083954 20.623283 38.21488
3.042839 19.215284 39.125885
7.8688354 21.846285 28.223885
10.22184 23.331284 27.967888
71.979836 12.874287 23.14589
70.868835 14.600285 24.287888
66.537834 9.385288 35.640884
67.23583 7.554287 35.526886
48.206833 15.609287 46.11189
50.180836 15.981289 45.992886
55.610836 23.063288 36.809887
53.716835 23.175287 34.950886
25.615837 41.335285 57.36289
24.104836 42.943287 59.078888
19.814842 37.856285 0.2678833
20.447838 38.603287 2.0378876
12.281837 46.724285 34.500885
10.325836 48.020287 33.887886
13.384842 53.235287 22.233887
12.097839 51.657284 21.703888
33.551834 6.981289 54.625885
32.31884 8.722286 55.222885
26.63884 4.792286 64.96989
26.685837 5.9052887 66.53489
87.95983 48.609283 62.960888
86.73783 50.318287 62.227886
78.51984 47.201286 68.81089
76.88783 45.312286 68.05189
17.87384 22.294285 12.042885
18.032837 20.531284 10.918884
27.44484 21.960283 3.2348862
27.195839 20.200285 1.7818832
36.465836 32.457283 45.901886
37.157837 32.392284 47.725887
31.598839 25.683285 54.858887
30.655838 27.005285 57.054886
6.087837 19.799282 61.333885
4.552841 21.358286 62.507885
89.19683 21.409285 66.709885
88.093834 19.223286 67.72089
73.13583 50.190285 52.905888
72.84583 51.910286 51.629887
78.327835 1.4812889 42.628887
80.50584 0.90628815 42.418888
51.684834 6.6222878 47.18889
53.202835 6.5012894 48.86989
49.599834 1.5182877 58.676888
48.401833 3.021286 59.058887
36.630836 20.174282 6.5258865
33.91983 20.262287 6.409889
27.283836 17.315289 15.471886
26.019836 15.635288 15.177887
82.853836 40.911285 3.2798843
81.94283 39.233284 1.9798889
79.259834 31.287285 11.665886
78.55984 32.628284 13.871887
32.090836 45.530285 13.96489
31.406837 47.361286 13.256889
25.34684 42.763287 22.981888
23.44484 41.585285 21.90889
3.5438385 51.648285 49.416885
2.405838 51.865284 47.260887
7.120842 0.61128616 37.839886
8.548836 0.01928711 36.294888
19.72184 42.186287 19.789886
17.856842 40.930286 18.359886
25.173836 43.498283 9.04689
24.342842 43.814285 7.057884
86.43584 29.268284 39.78589
85.39484 27.621284 38.82789
77.36483 30.873285 47.812885
76.995834 28.720284 47.92489
57.361835 22.849283 34.863884
56.641834 21.348284 33.462883
64.424835 22.070284 23.850883
63.019833 24.125284 22.14589
5.4968414 21.960283 58.423885
4.558838 23.890284 58.123886
10.963837 27.300283 47.894886
12.560837 28.877285 48.290886
53.175835 53.408287 8.697884
53.316833 51.556286 10.732887
46.194836 52.015285 19.724884
44.901833 50.265285 20.03489
51.818836 10.869289 10.03289
51.315834 9.037289 9.174889
52.655834 18.250286 68.221886
55.113834 17.018284 68.27389
60.268833 12.411289 32.93889
61.060833 10.433285 32.221886
65.064835 15.008289 21.485886
66.87783 13.759289 20.801888
53.513836 56.016285 9.008888
54.208836 1.6692886 9.403885
60.114834 5.795288 68.49789
61.930836 5.224289 67.03289
56.537834 15.237286 66.915886
57.741833 14.399288 65.64489
67.38583 16.808285 59.667885
68.51183 18.144283 60.929886
49.092834 10.820286 59.915886
48.967834 13.018284 60.40489
54.237835 14.337284 50.724888
55.700836 13.330288 50.708885
65.69383 7.144287 37.629887
66.700836 6.2252884 39.423885
58.396835 1.5022888 45.50189
58.439835 55.939285 46.443886
11.774841 44.736286 52.645885
12.700836 47.205284 52.592888
19.641838 49.589287 43.66189
19.032837 49.266285 41.79289
49.696835 39.537285 55.367886
49.853832 41.452286 54.064888
52.031834 47.531284 44.561886
53.823833 46.545284 44.016888
54.128834 22.155285 67.070885
56.409836 22.623283 67.20289
60.009834 24.577284 57.093887
60.812836 23.917284 55.225887
25.218842 50.330284 61.742886
24.04184 52.113285 63.166885
17.168839 48.164284 3.9008865
18.294838 50.007286 4.7118835
57.630833 38.749287 40.324886
56.409836 36.939285 41.393887
51.473835 34.000286 51.533886
51.926834 32.319286 52.225887
61.448833 47.418285 63.993885
62.434834 49.420284 63.631886
65.64284 52.547283 53.065887
66.19483 50.245285 51.874886
87.33483 46.438286 24.661888
89.33483 46.582287 25.28489
91.29483 49.943287 12.999886
91.536835 52.220284 13.007889
77.07384 35.103283 15.869888
75.645836 33.523285 16.244888
65.786835 31.493284 24.148888
66.84483 32.451286 26.165886
75.29183 27.946285 11.495888
76.55883 29.829285 10.734886
74.97784 33.758286 68.34189
74.03083 34.961285 1.0178833
71.022835 20.368282 62.201885
69.30783 22.019285 61.891888
64.80583 14.484287 1.3788834
66.88883 14.797283 2.2518845
2.7068405 36.455284 43.687885
2.2238388 35.887283 41.927887
8.549843 43.984283 35.47389
10.282837 44.566284 35.226887
60.033836 12.556286 16.46289
57.985836 11.356289 15.992889
56.988834 7.557289 29.030884
56.817833 5.1122894 27.975883
60.170834 28.423285 21.818886
59.318836 26.716284 20.604889
54.302834 21.611284 32.32688
53.158836 20.163284 31.387886
32.979836 42.831284 11.9878845
34.632835 41.479286 12.170883
41.304832 48.459286 3.701889
39.377834 48.338284 2.3278885
17.891838 26.998285 52.269886
17.254837 27.741283 54.420887
10.949837 25.408285 62.103886
9.392838 26.889284 62.464886
41.439835 18.049282 59.958885
41.859833 16.671284 61.474888
37.229836 11.541286 2.3238907
38.629833 9.944286 2.8958893
46.470833 37.272285 34.610886
45.113834 35.756283 35.041885
39.222836 33.008286 45.865887
39.036835 35.276283 46.48089
21.56984 55.922287 9.29789
22.86084 0.031288147 11.133888
15.391838 54.211285 20.72889
14.404839 55.884285 21.808884
65.69483 21.856283 5.238884
64.20983 23.425283 4.2858887
68.94383 26.143284 60.618885
67.048836 25.643284 59.440887
30.076836 38.813286 59.513885
31.11084 37.853287 57.604885
31.806839 40.532284 45.274887
32.784836 42.405285 44.997887
53.782833 19.136288 66.153885
52.511833 21.333284 65.096886
50.568836 22.198286 52.868885
51.867836 21.065289 51.328888
42.199833 52.540283 19.884888
43.638836 51.807285 17.93789
51.174835 0.9712868 9.372887
51.196835 3.0832863 10.445885
77.590836 54.585285 38.156883
77.509834 54.510284 36.037888
86.51483 0.6492882 29.505882
86.39283 54.987286 28.085884
10.97184 42.009285 55.336887
9.143837 40.922283 54.830887
1.5228348 40.135284 63.746887
0.7618408 38.756287 62.249886
69.32384 40.912285 48.780888
69.83884 39.739285 46.826885
74.632835 42.718285 36.378887
76.30984 44.264286 36.531887
54.609833 12.406284 65.17889
55.029835 10.920284 66.72789
55.486835 11.389286 10.892883
53.682835 9.295284 10.847885
41.991833 6.6882896 38.337887
43.758835 5.125286 38.016888
52.270836 11.747288 31.673887
52.316833 13.763287 31.280888
14.187836 29.576284 30.736885
13.368835 30.771284 29.353882
18.06784 31.824286 17.739883
16.41584 32.326286 16.743889
35.166832 20.076283 39.391888
35.493835 19.029285 41.497887
36.028835 19.094288 52.685886
34.749832 19.561283 54.36289
33.40483 48.540283 47.739887
32.186836 47.231285 47.468887
26.23584 43.996284 57.391888
27.705841 42.668285 58.235886
43.037834 28.195284 44.918888
44.100834 26.543283 44.692886
48.773834 26.345284 34.87689
49.511833 24.544285 34.742886
6.000839 17.31429 7.460884
7.3618393 17.443287 8.632889
0.6518402 13.645283 18.244888
93.66583 14.062283 18.480888
23.24984 54.713287 62.842888
21.19384 55.034286 62.031887
11.1048355 54.701286 68.83689
10.599838 52.340286 68.92189
57.700836 15.402287 18.078888
58.822834 14.883289 16.231888
59.800835 17.557285 5.623886
61.326836 16.586285 4.2618866
20.09584 35.394283 52.907887
21.98484 36.489285 52.85589
28.187836 36.998283 44.186886
30.35884 37.031284 43.839886
33.42183 4.9652863 1.3968887
31.951836 3.4802895 0.60788727
26.432838 56.129288 10.364883
26.731842 55.283287 12.804886
12.020836 9.448284 58.815887
12.004837 8.891285 56.946888
17.868835 11.754284 47.65389
19.404839 10.931286 46.20989
24.81984 53.275288 10.841888
24.246841 54.267284 12.71489
16.816841 49.509285 21.710884
16.344841 50.656284 23.341888
28.120842 6.321289 34.305885
27.851837 4.524288 35.053886
25.284836 54.958286 44.353886
23.340836 55.635284 45.367886
94.33583 47.468285 13.559891
93.631836 45.526283 12.791885
91.06683 43.241283 22.683884
90.981834 42.775284 25.014885
80.730835 48.532284 39.114883
82.25183 49.877285 39.810883
82.853836 51.352283 26.50489
82.87483 53.258286 25.79689
64.31084 33.494286 43.059887
65.854836 32.194286 42.393887
69.16383 39.224285 31.218887
70.08683 40.014286 32.679886
21.47084 31.030285 2.3588867
22.26384 29.826284 4.08889
13.34684 31.323284 12.993889
15.01284 30.975285 14.606888
3.9918365 32.884285 44.088886
5.122841 35.318283 43.043888
12.003838 36.715286 33.797886
10.251839 37.550285 32.628887
12.852837 48.827286 54.678886
11.836838 49.821285 56.082886
6.879837 42.536285 64.820885
7.603836 41.013287 65.959885
8.283836 19.427288 27.111885
8.344841 18.043285 25.656883
2.3318405 13.652287 35.237885
3.47184 11.408283 36.442886
6.912842 45.885284 67.02289
4.9168396 45.694286 68.14589
0.19883728 45.130283 10.517883
1.9298401 44.582287 11.68589
88.69383 54.910286 13.2378845
89.68684 53.718285 14.7258835
84.23783 50.939285 24.177887
84.65183 49.327286 24.892883
52.155834 8.658283 63.370888
51.123833 8.158283 64.93388
47.275833 8.848286 5.488884
46.388836 7.106289 5.9448853
30.090834 53.202286 30.254883
31.720833 51.985287 29.929886
37.594833 55.762287 20.792885
39.157833 54.505287 20.163887
51.330833 26.208284 17.61689
50.211834 28.080284 17.286888
53.787834 29.067284 4.24189
52.943836 31.468285 3.9078903
7.8888397 48.831284 50.275887
6.9168396 50.922283 49.573887
12.38784 54.612286 40.450886
14.5058365 54.177284 39.582886
29.857841 21.159285 3.764885
31.462837 21.010288 5.2218857
22.698837 18.997288 13.762886
21.008842 17.570286 13.693886
93.339836 48.573284 64.06789
93.96384 51.045284 63.359886
5.0398407 51.931286 51.832886
5.584839 53.829285 52.797886
29.08184 50.813286 29.379883
28.08384 51.996284 27.54889
34.80384 2.1102867 18.56089
34.26184 0.210289 17.674889
1.733841 8.440289 19.119888
1.9678345 7.3522873 20.910889
93.04083 6.2492867 30.994888
94.368835 5.7602882 32.446884
21.802841 50.578285 44.949886
20.841843 52.568287 46.011887
15.932838 51.796284 55.564888
16.757835 50.515285 56.66189
58.079834 12.909283 51.685886
57.129833 10.876286 51.767887
51.580833 10.970287 61.262886
50.614834 12.799282 62.520885
0.45983887 43.986286 63.463886
93.954834 42.065285 62.691887
4.842842 43.271286 50.492886
6.816841 41.857285 51.113888
27.62284 7.2042885 15.707886
28.856842 7.3482895 17.372887
23.370842 3.3392868 26.46489
22.850838 1.8702888 27.995888
40.500835 18.237284 7.3318863
39.821835 19.787285 6.637886
44.714832 24.311285 64.03088
45.904835 22.972284 64.25989
75.270836 23.041285 28.523888
77.357834 22.388285 29.082886
82.75383 24.692284 17.60389
84.799835 24.890284 17.600883
8.163841 34.636284 46.22389
8.279839 32.793285 45.059887
15.93084 36.736286 35.898888
16.77784 34.896286 35.467888
32.229836 7.0532875 68.84189
32.31283 8.923283 67.737885
37.746834 7.545288 56.704887
39.888832 8.596287 56.425888
94.74184 33.132286 41.632885
0.2898407 34.665283 43.727886
93.106834 26.908285 54.248886
91.13683 28.984283 54.337887
59.619835 39.890285 6.576889
58.823833 41.875286 5.7378845
61.777836 48.218285 66.71889
64.19283 49.247284 66.74389
80.75283 42.643284 4.43589
82.50584 42.892284 5.191887
74.231834 41.604286 13.753883
73.978836 43.716286 14.456886
89.758835 26.255285 35.995888
91.926834 25.836285 35.900887
92.76483 24.802284 23.025887
0.12083435 25.383284 22.890884
89.245834 49.768284 27.938889
87.243835 49.466286 28.025887
86.814835 44.223286 37.21689
87.18584 44.863285 39.414886
73.857834 7.049286 56.241886
72.33483 8.065289 55.39089
78.57484 10.010288 43.080887
79.716835 11.699284 43.72389
92.853836 26.854284 57.22389
91.382835 28.519285 57.607887
82.35083 28.432283 64.99789
80.10083 27.726284 63.78689
42.352833 37.676285 17.022888
40.751835 36.668285 18.090889
38.915833 31.836285 28.162888
38.696835 33.572285 29.302887
64.58684 9.2652855 53.931885
63.095833 10.997288 54.229885
57.203835 11.733288 65.28289
57.509834 9.788288 66.08089
70.35883 44.614285 15.56089
71.26283 42.596287 16.662888
65.01684 38.931286 25.846886
64.315834 40.502285 26.902885
73.28284 0.2992859 36.245888
75.15683 55.599285 35.722885
79.105835 7.5702896 28.289886
78.35083 9.070286 26.660889
90.93383 47.506287 10.212891
92.453835 47.836285 11.832886
2.9898376 50.385284 0.93188477
4.988838 50.855286 0.62288666
59.962833 24.337284 38.725887
58.057835 25.512285 39.050888
53.444836 22.007284 49.316887
55.055836 20.737284 50.25889
50.519833 36.003284 34.630882
49.297832 37.027283 33.510887
58.002834 41.870285 24.86789
58.700836 43.541286 25.67289
93.80483 8.347286 52.15489
93.926834 7.311287 50.210888
4.7918396 8.376286 39.601887
3.58284 9.432285 38.421886
82.26683 55.903286 25.01989
83.77483 55.097286 23.70089
87.01783 6.7982864 15.034889
87.99883 5.571289 13.39489
88.47183 44.624287 41.893887
87.440834 45.370285 43.721886
85.17083 39.833286 54.338886
83.86283 38.074284 54.481888
