6.3950367 24.298086 18.278122
5.5620365 26.426086 18.555122
59.25304 50.595085 55.40312
57.933037 51.887085 56.960117
50.16404 47.034084 64.12712
49.88804 48.950085 65.65312
27.353037 39.391087 52.55912
25.879038 40.353085 54.51912
24.103037 41.502083 63.86112
24.147036 43.659084 65.75612
4.7270374 3.5180855 10.453117
5.087038 4.606083 11.856117
90.36404 54.229084 20.082123
91.86404 52.468086 20.298119
22.569033 54.286083 19.799118
20.298037 53.052086 19.36412
17.483034 1.3450851 31.276123
15.356035 55.805084 31.237122
31.750032 9.049088 61.306118
32.20004 10.319084 59.45612
38.450047 8.956085 49.619118
40.78304 9.985085 49.905117
66.644035 54.686085 6.585121
65.37804 52.622086 6.9851227
60.126038 48.450085 16.372124
61.07404 48.871086 18.259117
29.621035 11.432083 59.855118
29.432032 13.252083 59.29012
37.079044 19.103088 51.60212
35.984043 18.67109 49.357117
87.466034 24.409084 63.070118
84.56703 24.818085 63.043118
80.65604 19.647087 3.785118
80.77303 17.10009 2.955124
57.17904 5.2960854 21.980118
58.73204 4.120083 20.666122
66.88503 9.469086 13.861122
67.35703 8.065086 12.403122
65.17904 47.725086 37.62512
66.49703 46.214085 38.445118
74.59503 51.157085 30.164118
75.01003 50.466084 28.41112
88.12103 52.911083 19.066124
88.033035 52.241085 21.265121
78.78703 51.106083 28.974121
79.32104 49.184086 29.414124
86.05003 52.758083 17.108124
86.73704 50.657085 16.928123
92.507034 54.886086 6.1711197
1.1350327 55.074085 7.1821213
3.5310385 34.635086 53.633118
4.8990345 36.374084 53.49212
10.178034 35.947086 43.77812
10.257036 37.983086 43.02012
15.255037 7.389084 33.55712
16.889032 6.0670853 32.329124
18.112032 13.775085 21.40812
16.874033 12.252083 19.846123
0.20703125 27.099083 68.65812
92.282036 25.538086 68.15612
89.92803 17.00309 6.7861176
87.69403 18.276085 6.908119
10.879038 38.946087 24.119118
10.268038 37.393085 22.188118
15.288034 43.255085 11.39212
17.613031 44.379086 11.599121
49.90704 51.954086 69.17512
51.92704 53.371086 68.29612
55.80904 55.535084 57.99812
57.209038 0.9090843 58.51112
90.02503 18.512085 62.584118
88.14204 17.51709 62.31812
83.45603 13.262085 2.5041199
81.63403 12.328087 1.6581192
64.591034 44.535084 58.523117
63.86004 46.441086 59.300117
60.431038 43.318085 0.5921173
59.919037 45.884083 69.97212
65.78004 44.540085 3.3961182
63.77704 44.602085 3.9921188
60.695038 39.830086 14.26712
61.47604 38.531086 16.18512
55.640038 21.564087 11.57412
57.54604 21.523087 11.81012
54.390038 18.583084 23.76612
52.689037 17.020088 23.07212
40.188038 48.794086 27.641119
41.392033 48.813084 29.52612
37.458042 42.985085 38.45712
35.46304 43.771084 39.307117
73.33504 14.385086 1.6121216
73.62604 14.96209 3.6571198
67.020035 14.833084 12.912117
66.22404 16.776085 13.500122
75.23103 17.161087 18.04712
76.36404 16.713089 15.441124
78.32803 21.210083 4.377121
79.31703 23.080086 4.210121
54.31004 21.099083 62.676117
52.88604 22.049088 63.46312
53.404037 21.230087 5.405121
51.11504 19.876083 5.181122
18.574038 36.041084 45.731117
16.205034 36.151085 45.223118
10.034037 26.742086 51.454117
11.705034 27.630087 53.216118
9.07004 49.126083 9.304123
9.669039 47.159084 9.951118
2.669039 45.134083 19.415123
2.9730399 44.341084 21.792122
38.526035 4.785084 47.88112
37.399036 2.8190842 49.127117
37.180042 2.6830864 60.53412
37.844044 0.24508286 61.91012
13.188036 44.411083 45.63512
15.027033 42.830086 44.31112
17.108034 45.573086 32.76712
16.044039 47.161083 31.959118
29.419031 16.415085 26.55912
29.108034 18.344086 26.54412
34.85304 17.414085 15.140121
35.790043 15.546089 14.19912
7.9960346 6.809086 63.73412
6.483034 6.908085 61.81912
12.753038 8.008087 49.926117
10.773035 7.4430847 49.68012
83.22203 55.954086 15.674118
84.01003 1.9240837 16.624123
91.50304 6.448086 9.691124
90.243034 7.0890846 8.423119
91.48804 28.390087 48.16412
0.08703613 29.497086 47.439117
6.004038 33.822086 38.81012
5.0220356 32.103085 37.62412
65.09304 25.541084 15.522118
66.80303 25.235085 16.814117
63.61804 24.117088 28.700119
62.22804 22.563087 30.050125
51.139038 38.300087 63.07312
51.466038 37.198086 60.97112
56.35104 42.795086 50.460117
55.46304 44.689083 50.919117
39.805042 10.0750885 31.44912
40.939045 8.410088 30.677124
48.80504 16.14209 23.875122
47.20604 16.64309 22.39312
17.961031 23.432083 39.39312
18.353037 24.712086 41.16312
12.467035 18.452087 50.758118
11.552034 19.275085 52.794117
50.245037 0.0260849 1.5911179
48.535038 55.021084 1.0011215
45.36604 51.862083 12.389122
42.65704 51.958084 12.133118
74.55404 28.735086 5.191124
72.769035 30.022087 4.7111206
68.27503 27.304087 16.557121
66.24603 28.201086 16.002121
0.3670349 30.440086 51.40712
92.55003 28.785086 50.572117
84.44303 27.109085 61.08912
86.17703 26.999086 62.55412
4.7230396 50.295086 26.459122
3.1870368 49.429085 26.232117
91.34403 45.720085 37.36412
93.36003 45.896084 38.261124
70.895035 36.032085 21.585121
71.51504 38.337086 21.07412
75.95403 39.102085 10.150124
76.16604 40.964085 9.266121
70.699036 0.41008377 28.493118
71.47204 54.548084 29.11312
66.69504 49.980083 38.04412
65.29204 49.904083 40.13712
22.178034 31.226086 25.149117
23.203035 33.304085 26.205124
30.540033 37.797085 20.247124
30.883036 39.299088 21.654121
24.261034 16.719086 23.22612
23.276033 17.838089 20.88012
32.037037 19.854088 13.2771225
31.860033 21.763084 12.31012
54.25504 35.666084 47.65712
52.862038 36.435085 47.20012
48.67904 36.767086 59.251118
49.55504 34.982086 59.08212
89.977036 46.274086 17.387123
89.035034 44.659084 16.619118
92.535034 46.217083 3.8881226
92.95403 48.022083 3.415123
93.14803 0.27508545 56.744118
1.8490392 0.97208405 57.09012
3.7030356 8.356087 47.31212
2.6270392 9.022087 45.688118
11.301035 17.676086 1.7391205
12.020037 19.76709 3.3821182
16.47603 18.35009 6.5031204
18.490038 18.992088 5.5931168
45.99404 20.468086 4.6831207
46.613037 18.620087 5.1471176
37.591038 17.194084 12.842117
37.24004 18.974083 14.25312
18.510035 13.67009 4.4251175
18.425035 12.914085 2.1201172
25.683031 13.413086 63.93712
25.466036 15.80909 63.239117
30.723032 23.739086 47.30212
30.575037 22.165087 45.65112
34.430035 27.271086 34.37912
34.82404 29.505087 35.31512
28.068033 53.480083 3.436119
29.01703 51.497086 3.8381195
22.256037 50.049084 15.216118
22.093035 47.613083 15.349121
77.49503 16.790085 40.897118
75.97504 17.250084 39.59012
69.20804 14.968086 49.029118
67.216034 13.96109 48.65112
8.86204 22.802086 53.34012
8.743036 20.54609 54.40212
4.1970387 17.955086 63.98412
4.827036 17.64109 66.20112
15.002039 14.107086 19.597122
15.159037 13.44809 17.358124
19.579035 14.194084 7.0391235
20.626032 16.232086 7.62912
30.585032 41.040085 19.526123
29.441034 42.483086 19.22612
32.799038 44.660084 6.86512
32.820034 43.251083 4.634117
73.51704 31.177086 20.69912
75.54504 31.678087 20.89412
79.714035 35.007088 10.966118
80.00104 37.119087 10.131119
42.984043 43.271084 26.634117
42.338047 41.653084 24.980118
47.41004 49.054085 14.395119
49.00804 47.514084 13.727119
7.530039 0.2890854 63.120117
5.1560383 0.015083313 62.683117
0.766037 0.44508362 4.4281235
92.05604 0.7250862 4.285118
41.275043 1.2390862 47.765118
40.869038 54.959084 47.75412
32.154034 52.239086 56.202118
31.704035 53.054085 58.18412
15.47304 17.261086 54.38012
17.553034 15.523087 53.85312
20.780031 18.122086 41.95512
20.29503 19.775085 40.28412
24.548037 38.122086 67.75112
24.594034 35.477085 68.02012
16.436037 37.132088 7.5051193
17.328035 35.953087 9.396118
81.50004 14.398087 21.71112
82.45603 16.522087 22.83612
89.00004 18.840088 13.090118
90.37403 20.82409 12.633118
26.314035 1.2530861 4.165123
24.177034 56.034084 5.2671204
24.164034 53.326084 17.096123
25.827036 54.516087 18.118118
10.8990345 9.596085 67.76212
11.852037 9.28109 69.81712
7.617037 3.0690842 8.775124
7.525034 3.1410866 11.164124
4.799036 53.373085 5.945122
3.7850363 52.841084 4.0481186
10.33404 1.6750832 65.09612
12.383036 0.517086 65.83512
10.066034 34.711086 56.59012
9.571039 36.821087 56.281116
8.817034 39.471085 44.91512
9.308039 41.416084 43.27112
2.4620383 16.39209 66.03912
3.7290366 15.104088 67.31412
92.01303 7.081085 6.1401215
0.7570343 6.739086 6.8681183
80.63403 28.234087 43.474117
80.06703 29.545086 45.20512
76.27203 21.831085 54.74112
76.66504 22.707087 56.72012
76.70804 52.481083 64.00212
75.71903 50.979084 64.11212
73.26003 46.761086 5.6571198
71.13303 47.725086 5.952118
9.32004 9.216087 14.106117
8.967035 7.8360863 12.161118
12.085039 11.909088 0.83512115
10.012033 12.610085 70.024124
75.90604 41.948086 28.376118
74.813034 43.746086 29.37312
71.34604 39.485085 38.13512
70.14703 37.333088 37.55912
51.621037 51.216084 15.133118
50.76004 53.106083 16.46312
43.24304 47.599083 26.223122
43.52604 49.518085 27.611122
3.1990378 12.093086 30.028118
4.2290363 10.593086 30.90412
1.2680379 7.4520836 42.023117
1.6330358 5.7750854 43.57412
80.41403 41.775085 9.783119
79.77503 41.603085 7.960121
83.51203 45.943085 67.51112
82.44303 46.638084 66.02612
37.17304 26.647085 34.622124
39.241047 25.847086 35.45912
45.767036 28.872086 26.66912
45.129047 28.940086 24.403122
4.9330387 42.637085 5.512123
4.0860386 44.151085 6.5741196
0.27703094 37.340088 16.597122
93.08003 39.134087 17.304123
6.0120335 8.744087 64.44812
3.9030325 8.51609 65.29912
3.2290366 5.8030853 7.5171204
3.5330374 5.8290863 9.519119
56.60304 38.495087 16.162117
58.47804 37.804085 17.034119
55.67004 34.092087 27.335121
55.72704 31.856087 26.98912
60.35804 16.44809 66.26512
62.54104 15.841087 66.57012
57.76904 9.460083 6.2601166
56.60404 11.384087 6.5361176
23.874033 2.946083 4.3171234
25.361032 3.491085 5.589119
18.570032 55.930084 17.121117
20.72503 54.576084 17.230118
5.238039 37.104088 23.61412
3.2080328 38.047085 23.057121
0.23803711 33.860085 35.424126
92.771034 32.192085 33.58812
65.365036 51.269085 20.751122
64.45904 49.538086 19.620117
74.49904 48.909084 12.123123
75.87303 47.764084 12.727119
9.885035 30.706087 19.966118
9.865038 32.523087 20.847122
15.315035 34.156086 9.500122
14.950037 34.328087 7.2931213
58.80204 38.720085 49.725117
59.293037 36.795086 50.68412
51.264038 32.534084 60.605118
51.364037 34.420086 60.96912
20.842035 43.059086 33.35612
18.285036 43.029083 32.77412
15.701036 35.547085 42.543118
14.0880375 36.703087 43.002117
57.97504 12.164085 41.98612
59.259037 10.64209 41.87812
63.71204 12.343086 30.743118
64.91504 14.275085 30.87612
84.15504 32.349087 47.772118
84.90304 31.663086 49.80312
76.18004 28.183086 58.01212
75.742035 26.239086 58.02112
19.80903 9.193085 55.781116
18.430033 10.327087 56.795116
17.54503 4.5390854 67.98012
15.779039 5.3670845 68.32212
81.146034 19.15509 40.83812
81.603035 20.25409 43.01912
73.58604 16.555084 52.56812
71.646034 16.570084 51.35112
68.59604 13.710083 30.952118
67.08504 13.595085 32.89712
61.61704 7.4310837 42.50412
62.11804 5.378086 41.94912
24.889032 12.604088 60.67812
26.526033 11.831085 61.88812
20.702036 6.819084 0.79911804
21.089037 5.1030846 1.5131226
15.776033 4.446083 51.163116
13.981035 3.267086 50.792118
9.484034 54.880085 61.40912
7.4230366 54.653084 61.10812
38.52004 33.428085 55.22112
40.08904 32.02709 55.899117
32.418034 28.484087 66.024124
32.851032 26.385086 65.83412
17.783037 26.031086 60.87912
18.063036 24.078087 61.04612
10.866037 23.814087 1.0061188
10.235033 25.606087 2.0561218
71.56503 9.327087 67.74212
72.91403 7.894085 69.26112
67.29104 6.771084 9.997124
65.282036 7.2840843 10.236122
86.409035 12.254089 4.3261185
86.09203 10.299088 2.8311234
89.44804 14.008087 61.417118
87.533035 14.354088 60.11112
7.3070393 0.31508255 10.761124
7.7460346 54.773087 12.9021225
0.121032715 52.898087 22.732117
0.6890335 52.753086 24.492119
68.95303 42.963085 1.8151169
70.062035 41.122086 2.285118
74.68104 44.003086 60.74812
74.02303 46.467083 62.12412
71.727036 25.653084 38.682117
72.46004 23.259087 39.30912
66.25803 21.594086 48.709118
66.26704 23.427086 50.424118
73.16904 20.790087 17.772118
71.325035 21.845085 16.125122
79.144035 26.385086 9.189117
78.480034 27.887087 7.396118
92.520035 17.595085 10.853119
91.32803 18.492088 8.943123
7.6230335 24.730083 2.387123
8.168039 22.93409 0.790123
30.310038 39.727085 55.029118
32.427036 39.405087 55.50612
27.263033 38.067085 66.95612
28.430033 36.233086 67.76612
77.05003 55.573086 13.359123
77.90003 1.4880829 12.977119
82.69704 4.198086 1.5301208
80.69203 3.7840843 1.1781235
76.784035 11.960083 38.69912
78.10803 13.149086 39.994118
73.228035 12.326088 50.885117
75.28004 13.563087 49.54812
70.14204 43.558086 22.441124
71.80804 44.380085 23.612122
78.90003 50.597084 14.2511215
78.52503 48.914085 13.24012
50.475037 47.176086 50.31012
51.335037 48.796085 51.058117
46.05404 43.834084 60.468117
44.01904 44.503086 61.126118
92.33303 8.209084 43.09412
0.30303192 8.042084 44.78412
86.672035 7.0150833 53.488117
85.410034 8.039085 54.97812
46.746037 5.3430862 15.405121
46.54604 7.4760857 14.743118
50.84604 12.092087 5.783119
52.28404 13.609085 6.6241226
44.28104 22.16909 20.529121
44.056038 20.97509 18.40512
51.93704 24.812084 11.31012
52.12504 25.366085 9.1751175
74.00104 11.468086 69.40012
75.811035 13.0110855 69.77512
79.31603 16.761086 57.94412
77.74903 18.660088 57.18612
66.785034 34.190086 56.598118
65.27403 35.260086 56.065117
58.89404 29.536087 64.84312
59.67704 27.596087 66.39012
22.808031 52.710083 55.44112
22.693033 54.688084 56.90012
16.003038 52.081085 65.190125
17.258036 51.661083 67.12912
27.560038 15.015083 9.367119
26.560038 12.7610855 9.366119
26.486032 11.923088 21.205124
26.635035 9.925087 22.009117
73.73103 12.42009 15.51712
73.94003 14.338089 15.959122
76.56804 15.456085 4.141121
76.31804 17.207085 3.186119
84.43204 6.1290855 2.7671204
87.21903 5.6920853 2.4911194
92.00104 9.135086 62.31612
91.962036 11.242088 61.474117
50.78304 42.259083 29.629118
48.919037 41.906086 29.38312
44.06204 42.591084 40.13712
44.182037 43.723083 42.28312
43.452038 19.29509 35.40712
45.009037 17.278084 35.832123
51.600037 19.90509 26.67112
49.97204 19.89309 25.069122
0.34303284 33.600086 50.39312
92.79304 35.448086 50.64412
5.5100346 39.029087 40.56812
6.214037 40.891087 41.06112
66.15404 12.245087 13.367119
65.54404 13.379089 15.4631195
59.716038 10.709084 24.40812
58.81104 9.112083 26.068123
15.222033 32.491085 62.244118
14.921038 31.961086 60.27812
18.405031 36.626087 48.56212
19.619036 34.865086 48.294117
73.16203 36.612087 61.00512
71.16504 37.324085 60.49312
66.97104 35.801086 2.1181183
65.09704 36.137085 1.5741196
37.803043 38.035088 21.096123
36.293034 39.071087 20.329117
44.571033 40.790085 10.650124
43.14104 42.036083 10.205124
52.23604 46.659084 65.76112
52.57304 48.599083 66.21112
61.87504 53.128086 59.065117
64.091034 52.384083 58.63712
75.16804 14.967087 53.92912
74.52203 12.32209 53.45612
70.75903 13.457085 66.42012
68.87003 14.363083 65.870125
57.065037 37.593086 46.78212
55.10104 37.297085 45.71512
61.46404 38.801086 36.64312
62.33104 37.257088 35.33312
68.12003 8.832085 29.385124
67.131035 7.307083 27.673119
72.243034 7.899086 16.861122
71.75803 7.7050858 14.26812
38.414036 46.360085 25.834122
40.680042 46.393085 25.817123
43.719044 53.470085 15.96212
45.66204 53.084084 14.621117
67.576035 34.160088 4.363121
69.091034 33.099087 5.216118
62.307037 27.458086 13.290123
62.54404 29.225086 13.727119
60.917038 52.965084 56.260117
62.41504 54.390083 56.42112
68.51504 1.135086 46.62312
68.16604 3.099083 45.043118
31.493036 15.008087 46.41512
32.15804 14.112083 44.25612
38.304035 16.249084 34.51312
38.562046 18.097084 33.22012
70.063034 22.01709 54.24212
71.19704 23.230087 56.26212
66.12804 19.898087 65.634125
67.12003 17.620087 65.25812
62.605038 16.496086 28.599121
61.45604 17.291084 26.47612
69.797035 20.537086 18.276123
69.02403 22.522087 17.136124
50.35304 27.160086 61.31212
52.32304 27.814087 60.440117
57.97204 30.399086 49.084118
60.16604 30.496086 49.68612
27.715036 4.1170845 40.35412
27.461031 4.422085 38.404118
33.336033 9.255089 30.125118
33.550037 11.341087 30.716118
25.016031 16.140083 8.278122
25.449038 17.090088 10.294121
22.771036 9.110085 18.290123
21.044031 9.454086 19.80812
62.946037 14.293083 26.926125
65.240036 14.33609 28.089119
72.88804 15.68409 19.160118
72.05504 16.358086 16.965118
91.75903 41.162086 53.216118
90.327034 40.260086 54.738117
90.20403 34.130085 64.940125
88.25004 33.113087 64.40312
17.758036 51.932083 13.778122
20.047037 50.397083 13.624123
22.023035 54.922085 2.2791214
22.148035 52.938084 1.0521164
65.465034 2.4830856 62.72812
64.87004 3.7800865 64.05412
58.10104 53.995083 2.5151215
60.42104 54.102085 2.5501175
21.08703 36.490086 10.96212
20.662035 38.158085 9.537117
25.280031 43.023087 69.21412
26.903032 42.559086 0.16612244
22.19803 37.677086 12.973122
21.57303 35.869087 14.558121
18.599031 32.028088 24.189117
17.011034 31.568087 23.135117
43.983036 8.359085 15.148117
44.838047 6.8250847 16.995117
35.890034 3.3000832 23.732117
34.336033 4.1880836 25.145119
86.21903 22.733086 43.77612
84.88603 23.361084 45.10312
78.784035 18.51809 54.58712
76.26404 19.207085 54.432117
92.58604 35.796085 36.75612
92.80103 35.084087 38.68712
86.30604 30.581087 47.26112
84.855034 29.907085 46.320118
20.930033 34.832085 63.856117
21.026033 35.470085 65.830124
11.61204 28.192085 2.2031174
12.977037 27.607086 4.2461166
44.33904 24.522087 22.99012
43.38104 25.063086 21.008118
52.153038 27.261086 12.409119
53.76104 26.416086 13.867119
39.10404 26.573086 19.576118
37.681034 28.267086 18.96212
32.86604 24.237085 29.443123
30.972033 24.802086 30.21212
9.837038 53.687084 43.75612
11.999033 53.218086 43.26412
15.900034 3.3340836 33.91812
15.764032 3.6580849 31.402119
61.96204 45.205086 56.65312
59.69804 45.073086 56.41512
55.835037 42.851086 67.29212
56.11404 44.628086 68.15112
4.8610325 12.893089 13.802116
3.1460364 11.429085 14.325119
91.43003 4.4940834 22.175117
90.13703 2.2210846 22.238121
36.372044 30.212086 69.94312
34.620037 31.455086 68.86812
41.536045 37.547085 60.113117
40.23804 39.135086 59.376118
65.587036 24.229086 31.159119
65.63403 22.015083 29.986122
71.700035 25.336086 21.214119
71.65304 24.256086 19.293121
33.351032 45.645084 3.929123
35.206036 45.591084 5.5931168
44.036045 47.717083 66.606125
42.722034 46.902084 64.26512
7.6180363 13.30809 49.67812
5.648035 14.191086 49.433117
0.30303192 6.7800865 59.54712
0.99303436 8.689087 60.74312
31.008036 45.952084 4.943123
30.161036 48.278084 4.148117
22.115038 40.742085 10.100121
20.072031 40.468086 10.2771225
89.86304 1.7370834 55.63012
87.58504 3.0550842 56.065117
84.20403 54.834084 66.38112
85.67703 54.978085 68.41712
64.94704 42.881084 19.147118
63.86804 44.939083 19.51812
68.10004 50.595085 8.40712
69.463036 48.870083 8.065117
49.63404 8.890083 4.829117
48.53604 7.3600845 4.248123
39.72304 10.813087 11.689117
40.280033 10.123085 13.965118
44.09404 33.148087 22.53212
45.779037 32.14509 22.964119
47.306038 34.353085 10.06012
47.14404 33.796085 8.247124
33.68704 49.721085 56.044117
34.676037 47.565086 56.265118
42.996037 51.780087 49.06812
43.40404 53.876083 48.74112
68.42803 24.916084 34.40612
68.701035 25.740086 36.48412
61.412037 21.097084 46.66012
60.82404 23.230087 47.924118
53.39304 37.943085 28.325119
54.40004 36.492085 27.484123
61.88504 43.119083 18.56112
61.18704 40.993084 17.694122
80.41904 46.600086 45.92812
80.59303 44.631084 44.81112
87.51604 49.978085 35.53912
89.50304 49.305084 36.00812
51.05404 28.136086 43.90012
50.51904 28.928087 42.08912
54.905037 31.599087 30.369118
53.64504 31.257086 28.662119
54.787037 2.3840866 58.05212
53.779037 0.34508514 59.424118
48.15904 5.1120834 69.38312
46.424038 6.198086 69.273125
24.036036 38.096085 26.064117
24.243036 39.179085 28.113121
31.696032 42.312084 23.230118
29.761034 41.548084 21.924118
78.615036 9.022087 0.2831192
77.435036 10.55909 69.62612
81.92004 14.318085 59.00412
83.56503 12.805084 58.63012
91.36003 41.535084 67.54612
90.66704 43.417084 66.99112
0.5880356 44.696083 56.077118
92.58604 45.679085 54.862118
57.20804 48.567085 54.453117
57.84404 45.845085 54.633118
51.24904 42.991085 64.81312
49.591038 42.151085 64.441124
89.60903 21.964087 60.376118
89.12303 23.897087 60.27512
1.6350347 27.532085 50.99212
3.4650366 28.865086 51.14312
30.925035 20.936089 49.218117
31.771036 20.137085 50.76812
28.778032 15.504089 60.459118
27.264032 14.596085 61.05412
45.107037 50.743084 29.456123
45.42204 52.901085 30.190125
52.04804 0.8160858 20.109123
50.48504 1.7020836 18.661118
21.64203 22.744085 40.64612
21.092035 24.817085 40.460117
24.245035 30.644087 29.655119
26.084032 31.581087 30.78612
26.632036 50.014084 38.001118
25.422037 51.289085 38.905117
17.919031 45.930084 47.03412
17.577036 43.938084 48.56812
15.589037 15.69809 3.35112
15.886034 13.802086 4.5951233
7.624033 16.495087 13.529121
7.329035 14.313087 13.081123
89.69704 44.330086 0.4721222
90.838036 42.335083 0.07711792
81.242035 39.269085 9.319122
82.60004 38.733086 11.279121
16.347033 44.038086 9.133118
14.797037 42.746086 8.178123
23.547037 45.289085 0.13511658
23.287035 45.591084 67.80312
36.40404 22.134087 33.96412
36.390034 23.97509 34.87212
31.374033 19.352089 45.65812
31.746035 18.881088 48.02512
53.919037 41.159084 30.225119
51.849037 39.630085 30.037119
44.39204 37.531086 39.56812
44.551037 35.554085 38.647118
13.151033 3.5470848 66.56112
15.461039 2.512085 66.96612
23.065035 5.7020836 57.21412
22.995035 4.1710854 55.01112
19.151033 48.693085 67.68512
17.984034 49.177086 65.75312
25.339037 50.095085 55.718117
26.899035 52.139084 55.577118
48.481037 3.038086 1.0781174
48.79804 4.7680855 2.853119
45.34504 1.8270836 13.304123
45.64304 55.708084 13.700119
79.491035 33.306087 45.68012
78.39204 31.895086 46.480118
72.980034 32.343086 56.97112
71.64803 30.074087 56.95812
29.440035 22.779083 11.01812
30.496035 21.411087 9.641121
33.350033 20.73909 68.04612
34.86604 22.375084 68.18012
13.411036 15.380089 53.11112
12.412035 17.260086 54.655117
9.282038 9.50309 63.426117
9.805033 10.735085 65.09112
10.755037 7.614086 31.586119
10.628038 5.1520844 32.69612
8.966036 0.20208359 43.516117
10.553034 0.5340843 44.557117
26.271036 55.224083 38.03412
27.049036 0.14808273 36.05212
34.889034 5.2140846 30.38312
35.052036 4.929085 28.499119
48.37004 8.782089 35.60012
49.11004 6.859085 36.29712
42.095036 3.1740837 45.86412
40.038044 3.1500854 46.47112
32.59004 20.273087 30.730125
35.230038 20.491089 30.39212
37.190037 22.402084 17.277122
36.19504 20.985085 16.29612
89.30303 23.334084 30.01212
89.94103 22.05809 31.45312
83.62003 17.902084 40.584118
84.40504 16.785088 42.391117
46.69204 15.703087 19.889122
45.55304 17.069084 18.284119
51.53204 21.592087 8.750122
53.384037 22.751083 7.6161194
20.490038 30.198086 61.65812
20.39203 29.959085 64.01112
17.218035 25.984087 4.3691177
15.824038 23.920086 3.9701233
86.71803 22.398087 60.996117
85.035034 23.132088 60.34512
92.24903 24.606083 50.60312
90.80003 24.746086 48.849117
1.0900345 26.874086 66.06812
2.4220374 25.920086 64.55312
9.776033 32.341087 57.63912
11.428034 32.649086 59.44912
62.53304 34.122086 51.33812
60.820038 35.081085 52.334118
55.56604 29.315086 60.95112
56.292038 29.130087 62.98612
87.631035 1.2090836 18.35212
87.089035 3.3110847 18.835121
3.3990347 8.887085 13.349121
3.6200354 10.166084 11.472122
10.066034 46.718086 42.22112
10.601038 47.796085 44.00312
6.1260395 41.953083 54.723118
6.504038 40.072086 56.11812
36.08704 40.886086 39.90012
35.97504 39.069088 40.35912
32.799038 36.116085 51.718117
32.943035 34.119087 51.04612
81.07204 33.206085 8.110123
81.94804 35.398087 8.57412
90.18304 34.918087 69.38712
89.826035 34.690086 67.59012
93.41403 19.511086 29.60612
92.80904 21.428085 31.18912
86.70703 15.658089 41.33012
84.99603 14.00309 41.544117
27.98903 24.624084 47.24712
28.387033 23.30909 49.078117
21.260035 22.513084 59.202118
20.354036 20.18309 59.21312
51.65004 28.316086 9.494118
49.856037 27.494085 8.981117
41.037037 27.319086 17.093117
40.95704 25.314087 17.388123
65.240036 34.062088 3.5441208
65.631035 32.180088 4.123123
54.48904 28.479086 9.47612
53.758038 29.791086 11.092117
25.362032 37.038086 14.901123
24.543032 34.935085 14.235123
18.981035 29.088087 23.681122
17.53103 27.572086 23.85212
26.092035 19.663086 9.847122
27.203035 18.207085 8.568123
31.166033 22.508087 67.73912
31.033037 24.415085 66.81012
10.932039 51.455086 63.051117
9.826036 53.466084 63.787117
5.794039 46.888084 3.9091187
5.7530384 44.835083 3.7861176
20.47503 30.352087 46.46512
20.593035 32.203087 47.66412
14.703035 27.236086 58.328117
16.571032 27.742086 59.38212
28.190035 3.6190834 23.916122
28.257036 1.347084 23.56112
26.282038 53.842083 34.788124
26.80903 51.431084 35.07512
25.028032 0.9310837 39.556118
25.308031 2.613083 41.61112
18.896036 53.672085 50.65212
19.25303 52.208084 52.57412
89.79404 50.295086 20.043121
90.92004 50.125084 22.108124
82.73503 49.062084 31.418121
81.32204 50.571083 32.14412
78.62704 4.8150864 69.61212
77.09704 3.1670837 69.11312
70.15504 55.293083 8.075119
71.12504 55.758083 9.885117
12.242037 46.395084 27.029121
11.224039 45.674084 25.674118
14.229036 49.181084 15.118118
15.668039 50.410084 14.786118
45.390038 41.844086 7.882118
46.461037 43.807083 8.725121
52.09704 48.446083 68.86712
53.168037 49.470085 69.86712
1.3500386 35.138084 17.274117
0.42003632 34.586086 15.612122
5.315035 39.609085 5.1541214
6.844034 40.665085 5.734123
85.68404 34.625088 48.51112
87.757034 34.727085 49.62912
0.9300308 39.107086 38.94112
1.4410344 36.872086 38.383118
55.808037 39.343086 48.38512
57.181038 41.164085 48.41412
65.812035 43.857086 39.960117
66.69804 41.906086 39.20712
73.67904 50.373085 62.17812
73.82104 48.913086 63.384117
77.546036 40.815086 66.48312
79.658035 41.912086 66.81012
59.22604 24.115086 63.75012
58.36004 24.530087 61.675117
63.820038 29.601086 52.26412
64.66204 31.229086 52.924118
42.79204 27.629086 56.752117
40.901035 25.851086 56.05912
34.26904 21.899086 65.74812
32.10204 22.476086 65.121124
69.64204 10.446083 14.346123
69.95804 9.002083 12.514122
76.851036 11.981087 4.2601166
78.726036 10.770088 3.799118
90.088036 41.683086 17.446121
89.63803 42.952084 19.01712
85.28104 38.249084 29.677124
85.672035 36.541084 30.868118
27.882036 45.050083 0.2681198
27.48903 44.180084 67.98512
32.439037 50.197086 58.65312
34.374035 50.584084 58.84712
15.859034 8.354088 50.12212
15.502039 6.399086 49.15212
19.26703 11.112083 37.67812
21.039034 9.352089 36.94312
45.00704 39.665085 59.800117
44.19504 40.401085 62.04012
37.596043 36.126087 0.9041214
36.125034 34.485085 1.1961212
33.287037 28.203087 14.373123
32.512035 29.378086 12.3641205
42.57604 29.797087 4.0011215
41.95104 31.719086 3.188118
57.12304 48.956085 35.147125
55.70604 47.541084 33.90812
61.91404 50.818085 23.053123
64.091034 49.629086 22.707123
39.512043 12.422089 68.50012
42.140034 12.03009 68.12912
43.599033 14.847084 55.88212
44.374043 14.21109 53.947117
59.509037 2.1820831 59.481117
57.94304 3.394085 59.74212
50.572037 55.513084 67.64612
49.08304 0.25008392 68.85112
34.384037 37.024086 38.711117
32.596035 35.476086 38.446117
30.441034 31.085087 48.17912
28.417032 29.801086 48.542118
57.69704 26.369085 48.55312
59.419037 26.896086 49.67712
55.47104 23.685085 62.161118
54.37404 25.532085 62.90212
52.82304 6.1360855 37.86612
52.072037 7.588085 39.02112
50.77004 0.21708298 49.73412
50.667038 53.877083 49.89512
11.816034 49.567085 10.177116
11.341036 52.050083 11.139122
13.761034 1.7630844 68.94912
16.640032 2.2510834 70.08112
55.86704 46.926086 69.63212
53.78904 46.832085 0.100120544
54.278038 42.859085 13.195122
53.18504 41.770084 12.349121
46.58804 54.675083 65.87412
48.77604 54.333084 66.39412
54.564037 54.689083 55.62312
55.980038 53.017086 54.905117
63.06504 1.1760864 58.425117
61.35704 56.010086 59.419117
55.01704 51.705086 69.51412
56.396038 49.516087 69.91112
48.96304 30.038086 6.728119
50.97604 29.448086 6.811119
57.855038 31.765087 66.621124
56.58304 30.897087 65.26312
72.049034 18.514084 33.094124
73.68104 18.958084 34.49212
80.04204 18.496086 23.715118
81.84403 18.313087 24.678123
56.940037 17.319084 43.452118
56.71804 18.686089 44.90912
48.92704 13.580086 52.64412
49.668037 12.427086 54.286118
58.53804 17.442085 25.626122
59.168037 19.036087 26.425117
62.74104 23.41909 14.797119
61.67104 23.998085 12.820122
48.590042 0.51008606 51.420116
46.49904 55.409084 51.417118
40.151035 51.076084 60.88712
40.420033 48.832085 61.341118
16.619036 31.463087 8.246117
16.957033 29.112087 8.084122
8.960039 26.391087 17.203117
6.995035 27.914085 17.222122
63.86104 48.789085 3.978119
62.924038 47.182083 5.0271225
59.334038 42.307083 16.040123
59.76004 44.110085 17.550117
34.176037 18.290085 67.13112
33.480038 19.44809 65.45912
43.913044 23.15509 57.800117
42.55904 23.819084 55.83212
27.244036 33.177086 67.121124
26.887033 34.387085 69.19512
20.965036 31.533087 8.53112
19.71203 31.871086 6.530121
24.939035 12.427086 23.341118
23.42003 13.553085 24.67012
18.359034 10.196083 35.12812
19.230036 7.9360847 35.29712
49.542038 3.958084 36.52712
49.96504 2.1050835 36.02012
43.739037 55.946083 47.15312
45.33204 0.19308472 48.996117
2.1100333 48.156086 39.99812
4.634035 48.226086 40.181118
9.422037 51.596085 29.928118
7.294039 52.438084 28.574118
42.855045 51.788086 66.24912
41.567036 51.111084 65.11012
36.07604 50.077084 7.2931213
37.512043 50.504086 8.016121
41.82604 23.611084 52.81812
41.15204 22.01709 52.15212
48.43604 27.474083 43.17112
49.432037 26.717083 40.69112
39.416035 27.850086 37.174118
37.05704 27.390085 37.084118
33.064037 23.692085 48.95612
33.264034 22.313086 50.36012
85.85803 37.099087 65.20212
83.24603 36.700085 65.14212
88.159035 38.618088 54.01912
86.921036 40.080086 52.50712
43.672047 6.7790833 34.27712
44.80904 4.425083 34.76012
39.509037 0.8410835 44.77712
39.012043 54.732086 45.36812
56.403038 34.241085 48.30412
58.459038 35.787086 48.24312
64.088036 38.449085 37.78012
65.50104 36.729088 37.077118
88.68104 40.906086 66.92312
90.03104 39.392086 66.634125
87.839035 45.419086 55.79612
88.19003 43.804085 54.288116
11.607035 2.253086 29.99112
13.532038 1.3500862 29.51712
18.072031 2.4830856 20.03312
19.933031 2.5460854 18.317123
27.001032 7.2730865 57.89612
25.379038 5.5610847 58.22112
19.872034 3.6610832 69.690125
19.383036 1.5940857 0.35812378
6.3190327 18.902084 31.536125
7.6610355 17.236084 30.96112
5.8190327 12.89109 29.69712
7.106035 11.89109 30.634125
38.067036 48.689083 58.82612
37.800037 49.880085 60.799118
32.692036 46.995083 1.1361237
30.518038 45.819084 0.85611725
47.271038 32.956085 5.672119
45.924038 34.710087 6.0411224
50.92004 40.079086 65.20912
52.97204 40.898087 66.36512
17.380037 43.269085 65.58412
16.280031 44.592083 66.61212
10.108034 43.683086 7.009117
11.8380375 42.943085 7.3641205
79.07304 31.870087 62.13812
78.87103 33.145084 59.996117
82.54204 36.233086 50.08312
84.71903 35.314087 51.21512
36.344044 55.753086 45.28512
34.43604 54.097084 45.759117
28.858034 50.975086 52.74812
27.544031 52.878086 53.03312
31.319033 52.913086 4.7531204
32.137035 54.530087 4.7271194
35.68604 1.017086 64.93012
37.499043 1.9940834 63.99712
2.9110358 50.168083 42.03112
1.1180344 51.489086 42.140118
91.08103 54.443085 52.134117
88.96803 53.488083 52.27512
54.95404 50.767086 17.361122
55.99304 50.052086 19.262123
47.161037 45.897083 26.702118
48.54704 43.852085 27.178123
77.102036 12.115089 52.69312
77.602036 13.98909 53.90712
86.450035 14.551086 44.06212
87.88403 16.119087 43.724117
13.810038 37.387085 61.780117
11.764032 37.046085 61.38012
7.2340336 33.292088 1.6771164
5.1990376 33.635086 1.7931213
71.85703 43.318085 58.47912
72.10603 45.436085 57.63612
78.22203 45.890083 47.72512
79.910034 47.164085 48.536118
1.5680333 46.216084 3.2601166
3.5420325 46.462086 2.71212
9.198038 46.919086 63.24112
8.790033 46.742085 61.056118
88.78903 53.880085 69.36612
91.130035 53.978085 0.009117126
1.7480336 1.5550842 59.711117
0.12503052 0.082084656 59.45512
15.518038 47.164085 67.48912
17.284037 47.691086 69.05412
11.466036 45.379086 8.830124
13.850039 45.350086 10.094124
1.8500386 40.059086 1.4541168
3.1600363 38.247086 0.540123
5.6400394 42.019085 58.188118
7.8200397 42.949085 58.31212
16.520037 10.740089 55.06112
14.668039 9.991089 54.38912
11.522036 8.201088 65.22312
12.233034 7.441086 66.77112
72.13303 49.094086 25.85212
74.68104 48.615086 26.149117
83.12303 52.618084 17.81012
83.81703 54.629086 17.98912
53.106037 33.830086 45.92712
52.92304 32.240086 44.74912
58.61604 34.827087 35.09612
58.51704 33.032085 33.63512
14.239038 23.492086 23.217117
12.817034 25.029087 22.78212
9.595034 26.973085 35.11712
8.009035 28.250086 36.58612
29.955034 55.551086 3.455124
29.243036 1.8020859 2.679123
34.620037 2.743084 61.59412
35.93404 3.7490845 62.821117
12.360033 48.757084 12.984123
10.021036 48.069084 12.53212
7.8140354 43.759083 23.270119
8.739038 42.127083 23.960121
90.574036 8.458084 41.17012
90.34703 10.423088 42.12512
92.09804 14.18409 28.826118
0.7720337 14.89109 29.503119
70.73403 39.768085 59.88912
69.02503 39.143085 60.25612
62.786037 37.917088 69.46212
60.653038 38.550087 69.29412
59.190037 50.750084 17.718117
57.47204 52.216084 17.82212
60.349037 3.210083 6.3481216
58.83004 4.9570847 7.457123
91.80103 28.339087 15.451118
89.742035 28.213087 15.008118
87.80503 21.326086 26.493118
85.88703 20.320086 26.04612
72.965034 28.756086 19.358124
73.47504 26.677086 18.771118
78.70403 30.417086 8.762123
79.30403 30.666086 6.58712
68.81904 31.462086 18.298119
69.67603 32.656086 19.376122
77.188034 36.884087 9.441124
76.94704 36.123085 7.00412
90.644035 7.807083 60.356117
91.17503 5.5300865 59.38912
83.644035 2.5870857 69.76212
84.952034 1.2580833 69.95212
67.15404 37.713085 58.606117
66.213036 39.298084 59.100117
64.91304 30.792086 68.76512
63.14104 31.011086 69.87312
40.76604 11.354088 34.96312
39.049046 12.518089 34.31812
35.025036 10.852089 45.88012
33.637035 9.241089 45.07312
13.201036 40.582085 45.45812
12.447039 42.171085 47.70612
12.972033 34.958088 58.07412
11.358034 36.484085 58.87912
48.01004 6.2230835 54.04012
47.12504 4.6150856 53.31712
39.077045 6.535084 63.15012
37.165043 6.632084 61.69412
27.17003 34.955086 33.04412
25.622034 33.733086 32.25512
21.279032 27.553085 41.487118
21.949038 28.253086 43.190117
15.984034 49.979084 46.884117
15.606035 50.335083 45.036118
18.423037 49.274086 34.445118
19.505037 51.582085 34.06412
15.828035 39.724087 65.40812
14.082033 38.945087 63.95112
10.846033 33.479088 4.5831223
9.495035 31.911087 3.127121
82.15203 6.1550865 52.259117
84.05804 6.724083 52.47912
88.64903 6.9450836 40.96812
90.75803 5.5510864 41.966118
43.46404 18.248085 1.4361191
41.93704 18.381088 69.913124
50.71404 18.828087 60.598118
49.773037 17.984085 59.24312
69.41403 8.510086 31.768118
69.69203 5.911083 31.471119
62.508038 0.6890831 39.58912
62.19404 0.4900856 41.54512
90.69403 15.415085 9.970123
88.29003 15.263084 9.862122
85.27503 12.483086 22.69712
87.23303 11.9500885 23.691124
65.62003 3.4640846 44.10112
65.02404 1.2940865 43.431118
56.79604 53.382084 52.05512
57.15204 51.506084 53.15212
87.729034 30.953087 49.42312
86.48303 29.116087 49.774117
80.12604 25.221087 58.37212
81.018036 23.375086 57.898117
70.37504 0.6190834 62.74812
68.324036 0.57608414 61.42912
73.78004 1.3190842 52.107117
75.12003 0.006084442 50.36012
88.479034 4.9610863 53.91412
90.521034 3.755085 53.76912
3.0170386 54.423084 44.52412
1.1440353 54.158085 42.90912
41.860035 36.940086 57.294117
42.373035 35.512085 55.39412
46.84604 40.961086 45.89912
47.14804 39.052086 44.72612
67.16303 29.203087 0.025123596
67.32903 31.566086 0.2621231
72.89004 29.457087 59.189117
74.52804 30.509087 58.25512
3.05604 6.6880836 63.857117
0.7480316 7.6830864 63.550117
89.81703 2.0080833 2.5711212
90.228035 2.656086 4.3281174
80.591034 53.582085 51.10912
81.66704 51.619083 51.356117
79.963036 46.774086 62.266117
81.30804 47.850086 63.988117
26.033037 40.130085 15.002121
24.148035 41.016087 15.288116
19.355036 38.493088 28.233124
21.315035 37.007088 28.384125
43.088047 4.611084 48.65212
44.138035 2.4830856 49.779118
36.97504 51.065086 57.97112
36.90404 52.420086 60.02112
59.44404 20.564087 64.996124
57.452038 20.342087 64.96312
49.59404 18.554085 3.3951187
47.821037 17.468086 3.1401215
80.39803 27.423086 59.980118
82.15304 27.558086 59.045116
79.05904 36.096085 60.260117
80.07304 35.821087 62.300117
14.456034 23.116089 37.92912
12.166033 23.410088 38.13112
7.818033 18.29409 49.599117
8.344034 16.081085 49.47812
7.768038 47.902084 41.62812
9.467035 49.718086 41.29112
11.790033 53.703083 30.413118
11.325037 55.730083 30.62712
67.27403 48.330086 40.50412
69.06403 49.523087 39.433117
78.854034 50.271084 31.73412
78.601036 52.864086 31.652119
53.21504 38.502087 12.12812
53.01304 39.695087 10.363121
57.403038 43.099083 0.056121826
57.20104 41.102085 68.90612
53.014038 21.399086 60.328117
52.25404 20.285088 58.63812
58.42004 22.011086 48.446117
58.787037 20.250084 46.884117
43.810047 13.367088 18.611122
45.351032 12.622086 19.757118
39.093037 8.86409 28.700119
37.800037 6.8970833 29.955124
75.93903 49.102085 61.503117
77.60603 50.601086 62.11612
77.19804 1.9050865 51.09712
79.088036 3.2300835 51.84612
17.411036 20.32209 57.510117
17.676035 21.860085 58.86512
11.947039 19.821083 0.18911743
12.494036 21.821083 0.9041214
34.110035 23.158089 32.34312
31.978037 22.528084 31.61912
27.155031 19.505089 42.52612
27.379038 17.867088 44.169117
4.730036 22.790085 49.399117
3.129038 21.661087 48.17112
7.8690357 25.316086 37.13012
8.786036 24.597084 35.12312
74.60603 34.973087 59.273117
76.33404 36.503086 59.438118
78.85903 38.109085 47.058117
80.98704 38.164085 47.162117
51.76204 25.602085 63.385117
50.97604 23.666084 62.633118
47.376038 23.840088 3.9071198
45.093037 24.255087 3.7061234
53.454037 13.080086 59.18712
53.82304 15.582085 57.98312
60.61404 16.317085 48.19812
62.73504 15.668083 47.52112
26.616037 16.28209 25.903122
24.439035 15.80809 25.696121
19.272036 18.05909 36.36212
20.721033 16.64209 37.194122
61.99204 35.389088 0.5291214
60.10204 33.694088 0.06612396
52.86504 34.743088 9.430122
51.09004 32.881084 9.792122
41.693043 37.385086 23.875122
42.79804 36.894085 21.85212
47.618042 42.206085 11.914124
46.81804 44.502083 11.455124
78.80003 12.329086 55.68612
78.01504 14.121086 56.81212
74.216034 9.620087 66.898125
75.115036 9.30809 68.51112
54.869038 1.8340836 54.335117
56.21104 55.797085 53.63812
58.06904 6.005085 44.22712
60.07404 5.651085 44.14312
54.54504 14.826088 41.58012
55.05904 12.528084 42.37312
48.94204 8.734085 52.32312
48.42104 10.443085 52.61512
80.69804 1.9050865 69.29412
80.39803 55.745083 67.96512
86.59804 6.482086 57.738117
86.228035 5.3690834 55.93712
31.622034 11.04409 63.231117
29.486032 10.263084 62.641117
24.986032 7.3550835 4.169121
22.946032 7.8900833 4.853119
74.421036 14.699089 33.78112
72.324036 14.159088 35.04512
67.547035 9.33709 42.765118
66.049034 8.71209 44.11712
86.313034 13.301086 57.795116
84.90304 12.682083 55.952118
92.85004 15.720085 47.570118
92.20403 15.505089 45.848118
42.329044 36.287086 5.5341187
43.22704 34.112087 5.440117
39.453037 29.882086 17.495117
37.314045 29.033087 16.595123
36.611042 40.012085 5.764122
34.861034 41.248085 5.825119
32.638035 36.996086 16.071121
32.781033 36.796085 17.83612
36.345036 43.984085 58.25712
35.99204 42.083084 58.68012
30.97603 35.748085 68.718124
32.293034 36.632088 0.44911957
61.37204 54.919086 5.5291214
61.08204 0.18108368 3.903122
68.66504 7.161083 68.56112
68.549034 7.7560844 66.22412
53.16504 21.801086 23.48912
55.45504 21.384087 23.28012
59.953037 28.807087 13.816124
58.58104 30.173086 12.97612
76.57204 29.410086 42.04712
77.756035 29.113087 43.83812
71.465034 25.297087 53.29112
70.71104 26.801086 54.59612
43.230045 30.324087 56.20712
41.827045 30.335087 54.266117
49.712036 35.791084 45.99912
48.46804 36.221085 44.57412
20.057032 31.306086 44.01712
22.395037 32.04109 43.640118
24.321032 40.466084 37.67012
24.484034 39.650085 35.72112
5.230036 44.380085 55.51212
7.299036 45.394085 56.92812
11.166033 51.474083 45.15812
13.186037 51.702084 45.348118
51.37504 41.067085 46.58112
50.75404 42.358086 48.53412
47.65804 39.843086 59.11812
48.69804 40.936085 61.022118
37.10404 21.967087 13.901123
36.679035 21.03009 12.436119
40.648045 22.438087 1.0171204
42.07204 24.275087 1.2311172
22.921038 15.971085 4.901123
24.926035 16.807083 5.3521194
29.269037 14.353088 62.885117
30.700037 15.954086 62.61112
45.40404 29.134087 41.147118
46.824043 29.440086 42.70712
40.331043 26.897085 51.63612
41.021046 27.142086 53.74212
50.41404 11.623085 23.221123
51.54804 9.550087 24.287117
43.959038 3.585083 32.17212
41.95004 4.3170853 31.450119
46.155037 42.090084 62.40812
47.253036 41.026085 64.14712
39.93604 38.673084 3.353119
37.88204 39.243088 3.7371216
3.7050345 20.585083 64.93212
2.9690344 22.332085 65.52512
10.229036 25.212086 56.08212
10.759035 27.756084 56.07612
78.12403 15.542084 38.46512
78.813034 13.68409 37.653122
84.37704 17.898087 26.134117
87.02804 17.313087 27.089119
54.766037 13.980087 61.863117
55.563038 12.222084 60.649117
50.258038 7.5940857 2.065117
48.079037 6.920086 1.2731171
47.556038 46.721085 65.02612
47.57604 47.882084 66.81012
42.13104 40.338085 4.382118
42.883038 38.468086 3.9721222
24.121035 40.822086 50.489117
25.861032 39.896088 50.494118
31.808031 41.544086 40.32512
30.487032 43.358086 39.120117
64.30904 25.873085 32.64212
63.33704 23.677086 32.35312
57.54804 20.213089 42.27112
56.889038 21.285088 43.93012
40.54204 12.395088 16.053123
40.972034 10.693085 17.203117
34.36704 11.217087 26.28212
35.125034 10.674088 28.221123
52.90904 44.511086 48.424118
54.52004 46.174084 48.11512
62.45504 49.420086 40.40612
62.758038 47.386086 38.877117
30.477037 6.4540863 42.536118
30.602037 5.2350845 44.64212
25.581034 5.401085 54.58212
26.146036 3.9590836 56.232117
38.31104 10.540085 67.05812
39.211033 9.395088 68.56712
36.04204 2.738083 7.957123
36.07404 3.6400833 10.624123
45.44704 48.590084 11.752121
43.788044 49.469086 13.130119
39.847034 41.633083 21.557121
37.338047 40.966084 22.401123
90.087036 48.931084 17.869118
92.16503 49.512085 17.008118
2.0520346 51.060085 6.165123
1.2600347 53.026085 4.821121
70.615036 34.068085 2.8071213
72.60903 33.934086 2.641121
74.09203 39.276085 62.08112
75.21104 38.247086 60.940117
48.31604 46.715084 47.72612
49.34604 44.939083 48.73312
43.108036 42.076084 59.91412
41.563038 41.104084 60.049118
67.00304 16.022087 67.65012
65.44103 18.39209 67.927124
63.18304 9.98909 8.029121
61.31204 11.194084 8.580124
74.05504 44.606083 25.038116
75.327034 45.729084 26.246117
83.92703 49.446083 17.64112
85.602036 48.414085 18.049118
47.437042 24.321085 58.424118
46.90204 22.262085 59.51112
40.405033 24.434086 68.82412
38.944035 23.320084 69.14012
18.37803 22.792086 56.33212
16.644037 23.856087 55.60112
19.158037 26.912086 42.83912
18.405031 29.261086 42.987118
34.986034 7.035084 43.57412
33.567036 6.113083 42.15912
41.023045 7.161083 33.556118
39.717045 5.9470863 32.01512
11.011034 31.031086 5.6351166
12.7360325 29.985086 5.8071213
6.823038 23.999086 15.696121
9.258036 23.853086 15.952118
20.422037 12.15509 57.411118
20.320032 13.805084 58.835117
19.488031 9.425087 0.20111847
20.650034 9.611084 2.042122
83.491035 25.867086 44.08112
85.06403 24.859087 42.60412
90.12003 29.805086 32.841118
90.99603 27.730085 31.51212
74.255035 46.346085 58.920116
75.66904 46.736084 60.17712
80.98403 48.895084 50.56712
82.53803 47.838085 49.906116
52.19904 10.82209 55.328117
51.13804 10.102089 53.773117
59.17304 15.206085 46.49812
59.51104 13.081085 45.67212
44.45604 16.672089 69.36312
46.113037 15.055084 70.14312
48.17004 16.151085 58.017117
49.92704 14.893089 57.93012
12.122034 33.554085 22.86512
12.525034 35.812088 23.217117
18.349031 37.935085 10.955124
17.676035 40.149086 11.320122
7.450037 21.180084 15.176117
5.849039 21.90509 14.356117
13.094034 25.152084 4.829117
12.699038 23.963089 2.9731216
7.8200397 2.5570831 61.885117
10.509035 1.3000832 62.35212
17.347033 6.5980835 54.494118
16.90603 8.2230835 53.68412
7.8950367 7.137085 32.48512
8.378038 8.849083 33.31412
6.488039 1.7970848 44.431118
4.821039 0.29608536 44.50412
73.37804 17.311089 0.28912354
74.965034 17.318085 68.63212
74.365036 18.222084 56.42812
75.646034 19.97609 56.938118
42.011036 13.311089 0.38812256
40.22304 11.357086 0.90711975
31.305033 12.785088 7.96212
32.681034 13.282089 9.388123
5.1420383 28.702085 35.85412
5.525034 26.655087 36.24812
92.76404 26.110086 47.681118
1.4720327 26.805086 48.57612
73.70804 6.663086 31.098118
74.35903 7.1080856 33.41312
70.19103 2.6380844 43.59512
70.41103 0.28808212 44.09512
40.578037 55.304085 66.77612
42.25504 55.789085 68.06912
39.454044 48.177086 7.1641235
41.07004 47.822086 8.917122
76.396034 51.640083 12.79612
73.87203 51.795086 12.623123
69.019035 48.228085 23.15712
67.089035 48.852085 22.695122
25.889032 41.756084 12.924118
23.80903 40.400085 12.228119
30.187037 38.232086 1.4301224
28.85003 38.233086 69.79712
79.73503 54.884083 30.81112
80.28703 0.9520836 30.943123
87.49503 4.6880836 23.992119
88.35004 4.114086 21.575119
51.42704 19.663086 22.786118
50.08904 17.894089 22.118118
48.355038 25.637085 22.554123
49.08904 26.455086 24.57412
26.145037 10.04409 43.419117
28.269037 9.306084 44.50312
19.763033 7.331085 53.76212
19.597033 5.024086 52.13712
41.390038 35.150085 1.6481171
43.211037 34.314087 2.6491165
48.530037 33.301086 61.58212
46.93704 34.346085 59.74712
63.62804 40.683086 54.036118
63.07504 42.675083 54.892117
72.45603 43.736084 47.418118
73.450035 45.613083 46.799118
35.164036 15.457085 65.86512
33.058033 15.968086 66.73712
31.090036 8.902084 5.62912
28.950037 7.4350853 5.370117
53.127037 23.777084 25.229118
52.83704 22.043083 27.242119
44.141037 22.474083 36.00512
44.95604 20.840088 37.02912
69.29104 39.933086 19.78312
68.59503 40.678085 18.312119
74.46004 45.014084 8.938118
75.063034 43.090084 8.173119
13.531038 11.64109 19.249123
12.828035 9.828087 19.35012
6.9290333 6.335083 29.23912
6.9110355 4.377083 28.161125
91.54304 3.715084 24.806122
91.45703 1.5860863 24.483124
86.03703 51.592083 33.110123
84.74803 52.552086 34.23712
65.22304 1.7950859 25.54612
63.17104 2.262085 25.14412
58.758038 54.875084 36.15912
59.12104 52.945084 36.67112
37.250034 34.694088 36.99112
39.340046 34.778088 37.723118
44.369038 39.931087 28.820118
45.04204 41.416084 27.56412
16.200037 21.344086 36.912125
18.428034 21.826086 37.222122
20.285036 25.232086 26.05812
20.040033 26.825087 25.03312
76.96104 11.76709 19.761124
79.007034 11.626083 20.095123
75.48704 11.328087 32.495125
76.23303 12.097084 34.59912
59.48304 16.830086 44.40112
61.44404 16.139084 45.16612
67.58304 21.94909 35.48812
67.671036 20.286087 34.01012
34.61604 46.357086 58.56012
33.521038 44.148087 57.44912
29.471033 42.800083 69.07212
29.053034 40.827084 69.398125
21.325037 50.305084 32.55712
21.941034 52.227085 33.18112
26.33703 55.486084 22.092117
26.147036 53.985085 20.778122
45.28304 6.5390854 52.60412
44.87604 9.055084 52.68412
37.590046 9.208084 62.683117
37.983036 9.29409 64.72912
3.0740378 44.818085 57.216118
1.8660375 46.526085 58.52512
90.44804 46.120083 68.40912
91.94003 45.184086 68.90512
27.598032 28.646086 11.383118
29.555033 28.083086 11.631119
36.04204 31.902086 2.061119
37.754047 32.018085 1.4541168
52.898037 30.754086 48.20412
51.542038 32.300087 47.154118
45.44304 32.068085 57.76412
45.85304 31.644087 59.85112
14.902033 24.503086 57.418118
16.097033 24.088089 59.148117
10.040033 19.37809 68.50412
7.9440327 18.423088 68.85312
81.87804 55.927086 50.412117
82.70703 54.781086 48.66512
85.23603 2.503086 37.73212
83.47304 1.1260834 37.091118
66.55904 9.705086 48.82412
66.68304 10.718086 50.66512
58.745037 11.181084 59.58912
57.77604 13.564087 59.68612
45.40404 27.474087 4.5901184
45.547047 28.695086 6.676117
36.994038 26.894087 15.078117
38.830036 26.482086 16.085121
93.02804 43.180084 1.7391205
91.157036 44.210083 2.8861237
90.00304 38.482086 13.650124
89.341034 40.286087 15.336121
35.321033 52.091084 9.43412
33.138035 51.554085 9.270119
28.414034 52.342083 20.555122
28.407038 53.317085 22.44812
13.272036 0.57608414 45.58912
13.131037 55.647083 43.52012
18.148035 1.4690857 34.17912
19.22603 55.668083 32.584118
30.294031 45.574085 20.647118
30.230036 45.593086 18.347122
36.550037 45.681084 8.514122
37.265034 48.216084 9.047119
1.603037 30.633087 34.35912
1.5880376 31.890087 36.65312
89.924034 23.826086 44.29512
88.16704 24.134087 45.737118
70.29004 22.674088 35.07012
69.16504 22.317085 33.32012
