13.212341 75.46166 20.617317
20.13034 5.7336655 20.430317
21.273336 4.531662 18.435318
67.164345 72.97866 30.012318
66.815346 72.08866 32.25332
60.720345 63.675663 31.625319
59.113342 63.486664 32.93832
58.679344 1.99366 33.66032
58.44834 2.4576645 35.984318
49.526344 76.04466 37.27432
49.457344 74.164665 39.088318
63.583344 37.51266 38.213318
62.45534 36.535664 36.01032
58.838345 28.589655 31.651318
57.047344 27.847658 32.73632
55.69934 19.03566 4.0553207
57.845345 17.707657 3.961319
62.370342 22.903658 47.12832
64.03435 22.018661 48.194317
32.440342 39.454662 38.694317
33.794342 38.901665 40.486317
42.663345 44.482662 38.91732
41.708344 46.265663 38.13632
44.911343 58.31766 26.389317
43.301346 58.026665 24.560318
35.276344 53.24866 26.98132
33.681343 51.83866 25.60632
61.964344 42.34566 31.927319
63.893345 41.787663 33.24432
69.412346 50.520664 32.860317
67.63135 51.805664 31.319317
22.614344 54.642662 0.3143196
22.035343 56.340664 49.040318
30.104343 58.919662 41.58532
30.370344 60.82366 42.977318
11.196342 72.913666 16.98132
11.675339 71.483665 18.771317
2.3453445 68.02366 19.281319
2.0383453 66.76166 20.837318
22.98834 20.544655 11.906319
23.428343 19.336655 10.4603195
17.067345 11.686661 14.08632
17.678345 11.963661 16.158318
1.1063461 46.779663 12.247318
1.2413406 49.21366 10.875317
7.141342 56.000664 15.65532
9.164345 55.472664 14.29432
37.526344 72.32666 3.3283195
35.514343 73.60566 4.145321
28.492344 68.638664 9.213318
27.921345 66.37966 9.562317
1.6153412 28.88666 23.560318
1.8033447 30.573656 25.07732
8.584343 38.78166 22.11932
9.716339 37.759663 20.138317
47.888344 69.486664 11.169319
45.655346 70.05766 11.556316
50.985344 2.4576645 10.31432
51.207344 2.5266647 8.26432
48.469345 6.515663 7.2553177
47.302345 5.0186615 5.614319
40.948345 76.069664 9.940319
39.224342 0.22366333 9.346317
50.638344 60.118664 45.081318
51.310345 58.24066 44.52932
46.541344 51.93666 0.60331726
44.556343 52.697662 49.702316
34.803345 66.915665 14.32932
33.803345 69.33566 14.640321
38.617344 73.39166 6.3843193
37.062344 74.97766 6.317318
69.43735 52.981663 25.32832
68.19734 52.312664 23.020317
79.10235 52.78266 24.414318
78.759346 54.975662 24.732319
22.14134 37.423664 45.671318
22.208342 36.30266 43.457317
26.439339 45.08866 39.88432
25.052345 46.263664 41.14032
65.596344 68.04966 17.64732
65.17435 68.73966 19.45932
61.368343 60.95666 23.455318
59.765343 62.21966 23.781319
6.8423386 12.936661 41.617317
4.9963455 13.107658 43.05732
81.51334 7.0366592 44.94032
81.913345 5.4196625 42.68132
60.252342 32.42866 2.1883202
58.942345 33.87866 3.6113205
66.704346 39.605667 1.8193207
67.00334 41.761665 1.8713188
24.976343 58.042664 17.32732
26.094343 58.197662 18.858318
33.346344 63.688663 13.637319
34.509342 64.50666 15.345319
29.720345 40.009663 26.78632
29.257343 40.40766 28.516321
37.372345 45.08766 24.350319
38.949345 44.614662 25.385319
17.733345 16.752655 40.03732
16.919342 15.664658 38.31632
8.095345 11.239655 38.19032
9.443344 9.739662 38.42632
43.336346 76.194664 22.764317
41.078342 0.06565857 21.97332
34.969345 69.30966 22.532318
35.865345 67.75966 21.20932
26.762344 19.565659 26.42632
25.205345 20.928658 26.822319
17.178345 16.084656 30.357317
17.499344 15.344658 28.357319
82.026344 3.3516617 2.1043205
81.734344 4.012665 4.100319
75.206345 73.85266 5.2763176
74.955345 71.68566 4.9583206
52.377342 48.737663 24.019318
51.893345 47.499664 21.78032
42.938343 44.033665 21.12032
43.338345 42.11566 22.158318
36.682343 14.8906555 43.456318
36.412342 14.025658 41.505318
31.046345 5.59066 41.12032
29.747343 5.710663 43.089317
30.145344 49.736664 10.559319
31.571344 49.242664 11.701317
38.190342 57.426662 7.7743187
40.109344 56.805664 8.935318
55.125343 20.351662 8.68832
57.501343 21.288658 10.4413185
63.708344 25.48466 6.171318
64.65234 26.807657 7.6653175
67.332344 34.42766 39.826317
67.70035 34.27566 42.395317
58.890343 30.23466 42.89632
57.630344 29.647661 41.38532
14.482346 7.4416656 4.5503197
16.42334 7.0116653 3.4373207
25.407341 11.428658 0.5113182
25.069344 13.505661 1.6643181
71.27235 26.493662 16.864319
73.12834 25.46766 17.805317
77.07435 32.41666 13.034317
76.14134 33.80366 14.077321
1.6173401 11.595657 28.535318
1.5423431 9.71566 27.997318
77.81435 3.878662 29.930317
77.69734 3.0946655 32.046318
10.68634 74.52266 13.0853195
10.025345 72.635666 14.216321
1.8373413 67.69866 15.061318
83.15534 68.39766 15.125318
75.99135 49.63766 3.33432
75.48035 51.375664 2.6473198
83.38834 56.116665 48.30932
1.3273468 55.18466 46.936317
46.701344 22.514656 38.85532
48.115345 23.724657 40.17432
53.620342 28.235659 40.137318
55.29634 28.35966 41.701317
68.16634 75.708664 0.6703186
67.55734 75.32666 48.075317
57.520344 74.304665 48.896317
56.007343 76.581665 49.01532
61.23234 58.894665 24.978317
59.005344 60.061665 25.172318
51.013344 54.403664 23.589317
49.372345 54.550663 21.924316
24.002344 0.74866486 20.320316
24.798344 1.5086594 18.042316
32.026344 7.486664 19.663319
32.874344 8.75666 21.51632
43.225346 13.1436615 9.40332
45.522343 13.023659 9.16032
50.826344 17.610657 7.32032
52.585342 18.997658 6.5763206
29.752344 24.78766 44.590317
27.679344 24.643663 44.915318
24.733343 16.176659 49.139317
24.527344 14.676659 47.178318
1.3313446 12.621658 24.049316
2.3913422 13.921661 25.774319
8.264343 22.17266 24.30032
8.432343 22.416656 22.206318
1.747345 31.736658 34.41032
3.1883469 30.40066 35.159317
77.54835 26.626657 34.776318
78.04835 24.56766 33.91832
40.665344 19.403656 10.596317
41.241344 17.623657 9.4223175
49.550343 21.82766 5.6653175
49.241344 21.706657 3.692318
52.616344 57.752663 42.06332
54.26834 57.76866 42.88432
58.544342 64.67466 36.456318
59.280342 62.936665 35.37932
57.04534 5.9526596 31.791317
57.221344 3.720665 31.833319
47.977345 75.929665 31.358318
47.539345 75.10766 33.72532
25.49234 69.25666 2.4603195
22.867338 68.72366 1.8463173
16.816345 61.592663 0.617321
17.959343 59.894665 49.49632
37.993343 68.97866 40.31332
36.902344 68.64866 38.39732
29.681343 62.889664 41.228317
29.304344 60.965664 39.630318
51.732346 35.757664 32.338318
51.356342 36.968662 31.021318
60.375343 43.276665 29.568317
59.928345 42.797665 27.136318
45.889343 6.41066 44.36532
44.060345 6.003662 42.82232
41.525345 73.16866 46.85132
39.208344 73.37566 46.299316
47.323345 19.023659 31.354319
49.058346 18.34166 32.11432
57.46934 23.37166 29.424318
57.311344 25.175661 30.965317
47.691345 26.199663 8.333321
48.903343 27.276659 9.858318
58.213345 29.890657 4.727318
57.268345 31.87266 3.8283195
35.154343 16.027657 45.55732
36.072342 15.600655 48.12632
32.340343 8.56266 3.8253174
33.229343 6.274666 2.6423187
41.715343 73.15666 9.73032
40.106342 73.385666 10.872318
36.342342 67.30366 18.448318
36.137344 66.137665 16.977318
72.11835 54.912663 48.500317
73.523346 53.27566 48.58532
79.88035 58.56766 43.49532
81.926346 57.978664 42.818317
4.699341 53.009663 44.345318
4.806343 53.938663 42.78832
10.2343445 61.514664 38.291317
10.928345 62.69166 39.65532
49.866344 64.14166 7.664318
50.592342 62.132664 7.218319
42.914345 56.64366 7.525318
40.873344 56.852665 6.192318
15.399345 17.93666 32.978317
15.46434 15.862656 33.34732
4.1593475 15.608658 34.693317
4.532341 14.247658 36.55732
64.691345 5.442665 0.68631744
64.96435 3.0806656 0.17931747
58.786343 76.539665 2.699318
57.124344 0.80766296 3.6693192
13.662338 12.79966 2.8253174
14.086342 13.363655 4.666321
22.16934 18.796661 3.4153175
22.718344 17.890656 1.3833199
24.612343 5.4126587 30.802319
24.572342 3.564659 30.465317
18.210342 72.83766 32.16832
16.892342 73.00866 33.99332
66.37734 62.237663 1.4273186
64.85535 62.044662 49.08532
57.400345 55.120663 1.2933197
56.382343 56.417664 49.51832
45.750343 52.291664 6.395321
46.468346 53.583664 8.04232
51.376343 60.306664 3.3403206
53.21934 59.475662 2.3143196
56.06034 11.545662 46.638317
57.251343 9.825661 47.409317
51.861343 1.3136597 47.082317
54.39934 1.0086594 47.084316
13.849342 63.555664 49.424316
14.410339 62.895664 47.28232
23.848341 67.91866 48.728317
23.661337 69.680664 46.567318
26.430344 27.953661 36.63232
28.659344 26.37266 36.39232
37.529343 31.526659 37.374317
36.847343 32.881657 35.62732
45.851345 75.40966 23.329319
45.455345 0.94966125 23.77332
53.85934 6.2946625 25.46732
54.952343 6.18766 27.270317
27.195343 55.178665 20.243317
25.600342 55.488663 18.816319
21.73734 46.98366 20.115318
22.264341 45.26866 21.630318
73.60034 43.751663 27.364319
71.43234 44.648663 27.744318
64.65634 38.08266 31.241318
62.383343 38.48466 31.070318
49.541344 51.961662 22.492317
51.772343 51.610664 22.984318
60.495342 54.288662 19.222317
61.99634 55.620663 20.57832
21.374342 30.513659 36.87032
20.344345 31.48466 38.38932
14.816345 24.368662 39.70232
12.788345 26.090662 38.82032
44.799343 13.903656 14.324319
44.127342 15.488655 15.91332
48.886345 22.20366 13.619321
51.124344 22.638659 14.751321
45.593346 62.597664 40.138317
46.557343 63.631664 38.13532
52.221344 67.85066 31.947317
50.649345 70.15366 32.53632
34.122345 28.946657 16.838318
33.053345 27.961657 15.27432
24.574345 22.738657 15.4533205
23.430344 23.033663 16.963318
0.05834198 18.809662 33.895317
0.6253433 16.389656 34.901318
77.387344 9.32766 38.429317
78.90935 7.789665 39.595318
33.025345 32.686657 13.85732
33.417343 31.407656 15.4343195
42.074345 37.813663 17.486317
43.797344 36.422657 16.305317
63.602345 20.954659 30.517317
65.707344 20.457657 29.712318
72.77035 27.143656 27.576319
72.26434 25.864656 26.017319
46.692345 11.88166 15.12132
47.450344 13.637657 14.388318
55.58634 18.142662 14.26732
56.408344 19.13166 12.086319
41.001343 27.793657 34.51032
42.702343 27.653658 32.700317
49.368343 34.55366 30.735317
48.179344 35.88766 29.697317
43.364346 51.055664 4.5163193
44.670345 49.895664 3.8793182
37.841343 44.186665 1.8653183
38.684345 41.58866 2.020321
18.975342 33.538662 37.64232
19.225342 31.556658 35.54432
7.9243393 30.00966 35.166317
8.550339 28.792658 33.574318
52.641346 38.670662 43.874317
52.582344 37.72766 41.83632
60.17034 44.357662 37.27832
59.669342 46.203663 37.39132
32.120342 0.17366028 40.006317
32.903343 76.53766 37.860317
39.403343 7.3086624 36.16732
38.483345 8.240662 34.32332
55.42734 68.611664 33.99632
55.196342 67.485664 32.539318
50.565346 60.328663 38.82332
49.463345 60.94966 40.789318
36.798344 2.3586655 46.792316
37.727345 1.203659 49.04432
44.116344 7.9556656 48.27532
44.646343 8.34166 0.742321
28.199345 11.639656 11.50832
26.671345 11.564659 9.135319
22.383345 4.57666 14.01732
22.557344 3.2866592 15.737321
55.661343 61.585663 11.995319
53.45434 61.12266 13.107319
51.264343 52.13666 14.928319
51.683346 51.83766 16.881317
25.793343 70.16166 5.287319
26.219345 68.165665 4.92432
19.848343 62.276665 8.37632
19.099342 62.940662 10.07832
76.30035 62.237663 38.561317
76.03235 60.284664 38.40432
68.63235 54.678665 41.090317
67.830345 56.149662 43.082317
55.618343 68.82466 43.860317
57.333344 67.93166 44.70432
54.245342 59.912663 48.33532
55.356342 58.762665 0.4673195
54.46934 30.55366 36.60532
54.20434 28.69166 37.51832
44.337345 26.951662 34.66032
44.285343 24.189661 34.77432
81.148346 35.60066 23.00832
81.58935 33.94666 24.95932
6.9583435 39.271664 24.416317
7.1443405 41.28366 25.39032
34.583344 1.2586594 46.644318
35.046345 75.45166 46.450317
27.876345 69.98066 49.14032
26.265345 69.81466 47.43432
30.112345 44.592663 2.6323204
30.323343 44.80366 0.6943207
26.893345 34.06666 1.7583199
24.827345 34.738663 1.8143196
21.178345 52.12366 38.71732
20.273344 54.09466 37.999317
29.760344 56.58166 32.59332
28.829344 58.297665 32.172318
42.615345 42.550663 16.900318
42.014343 43.611664 18.538319
49.510345 49.660664 15.622319
50.787346 49.59466 13.831319
70.359344 21.53366 45.181316
70.499344 20.10566 42.98832
79.164345 22.28366 41.971317
77.427345 23.822657 41.457317
44.480343 51.877663 9.853317
45.522343 50.885662 11.463318
38.369343 44.69266 13.180317
38.432343 43.283665 14.611318
33.045345 4.3226624 47.693317
35.339344 4.5896606 46.89832
42.185345 8.046661 44.21932
41.535343 6.5226593 42.55632
68.970345 4.364662 5.902321
70.00735 6.501663 6.94532
74.30834 14.836655 5.3423195
74.86935 14.149658 3.2243195
9.276344 30.66466 47.354317
11.09034 31.656656 49.020317
19.486343 36.810658 48.916317
17.99134 38.476658 49.603317
62.248344 36.059658 20.68932
61.979343 36.09866 23.09932
56.500343 29.515657 27.179317
56.480343 28.793657 29.871319
51.268345 41.919662 8.322319
49.854343 42.430664 6.173321
40.570343 38.993664 6.711319
40.568344 37.320663 8.326321
18.012344 36.06866 28.16232
17.100342 37.321663 29.440317
24.290344 42.946663 25.144318
24.315338 44.84466 26.864319
34.294342 13.087662 31.373318
32.480343 12.91066 29.983318
26.813343 5.1316605 29.519318
27.199345 3.220665 28.412317
3.155342 70.58166 27.156319
3.1783447 70.819664 29.256317
10.036339 76.24266 27.474318
11.122345 2.0936584 28.280317
1.0033417 21.059662 45.750317
0.9373474 22.670664 47.859318
8.377342 28.23266 42.936317
7.1353455 29.35966 44.18332
59.890343 75.61966 20.54332
60.331345 73.53766 20.139317
52.098343 69.53266 22.117317
50.332344 68.96166 21.097317
68.553345 65.08766 11.478317
69.134346 66.49466 9.750317
77.89435 69.082664 7.7933197
79.10134 68.610664 9.488319
32.375343 66.69566 12.159317
34.545345 66.276665 11.894318
41.113342 71.11566 8.02232
43.066345 71.21566 8.245319
46.510345 36.921658 21.768318
47.958344 35.425663 21.49532
54.659344 41.413666 18.02932
54.507343 43.44866 17.457317
66.91135 2.817665 47.116318
67.21735 5.1416626 46.28032
76.886345 7.467659 46.109318
77.67034 7.269661 44.25932
77.75835 45.613663 44.75832
75.898346 46.99066 43.951317
83.054344 54.51166 40.769318
0.8993454 54.013664 39.71032
45.343346 74.402664 16.243317
47.501343 74.20066 17.255318
53.159344 3.7516632 13.561318
54.306343 5.2786636 15.10032
22.129343 30.847658 28.721317
23.708344 30.494661 30.478317
30.131344 38.035664 30.788317
31.104343 38.36166 28.66932
70.48734 24.185663 5.0573196
70.91634 26.360659 6.1583176
65.48834 26.380663 12.61232
65.75134 27.09366 10.277317
6.388344 39.244663 9.60532
6.790344 40.81066 11.575317
11.116341 47.274662 4.7813187
9.640343 47.93566 3.6913185
62.525345 1.2006607 27.493319
61.82934 2.5916595 25.906319
71.36434 7.180664 23.410316
71.64535 6.6036606 25.531319
73.526344 30.048655 38.93432
73.14134 32.20666 38.422318
79.870346 39.550667 36.20932
80.22234 40.503662 38.56632
52.340343 32.449657 29.992317
53.911343 32.59466 28.126318
60.651344 39.32566 27.359318
62.73234 39.42166 26.071318
1.0223465 24.27466 8.43232
3.4913406 24.196657 8.106319
9.0073395 31.570658 6.8913193
7.2733383 32.607662 5.7643204
45.024345 58.738663 34.408318
43.161343 59.65766 33.659317
37.681343 51.735664 36.172318
37.96834 52.488663 38.486317
47.696342 65.55866 2.1623192
47.241344 64.04666 0.36231995
39.970345 58.46366 0.23731995
37.729343 57.755665 1.48032
75.86535 34.29466 9.892319
76.98834 34.356663 8.07732
82.817345 42.56166 5.8003197
82.038345 44.332664 4.06332
32.984344 49.980663 23.30832
31.221344 51.223663 24.51532
22.871344 47.356663 26.053318
22.425344 46.653664 27.912321
66.61434 24.439661 8.971317
64.288345 24.314661 9.128319
59.801342 17.641655 12.962318
61.660343 17.442657 14.429318
65.026344 8.387665 9.37532
63.770344 7.9576645 7.485321
62.42034 11.39566 2.5093193
63.881344 13.391655 1.8463173
6.563339 53.169662 4.1253204
8.448341 51.856663 4.05632
1.8133469 43.59466 7.1513176
1.8103409 42.357662 5.3333206
74.46134 45.621662 41.89832
75.829346 44.257664 42.89732
67.97835 36.988663 42.64732
67.54635 37.145664 44.65632
42.080345 45.84466 28.92232
41.597343 47.31766 26.927319
46.540344 55.389664 25.38332
48.891346 54.826664 25.253319
16.515343 33.46066 18.382317
18.08834 32.117657 18.046318
23.41934 40.360664 16.235317
24.78334 38.66666 16.486317
49.633343 42.57366 49.311317
51.989346 42.508663 0.16531754
58.000343 49.822662 47.699318
59.515343 49.676662 46.192318
78.53134 18.84166 19.047318
80.176346 19.11866 20.740318
1.3973465 27.444658 16.205318
3.7583466 27.485659 16.80032
20.609344 8.221664 23.313316
19.510345 9.487663 24.667316
11.137344 2.1136627 25.399319
9.653343 3.2046585 24.305317
12.722343 56.189663 25.447319
11.800339 58.128662 25.380318
21.438337 61.353664 24.539318
21.928343 61.069664 22.39832
16.155342 28.382662 13.137318
17.986343 27.88566 15.081319
23.65734 36.649662 14.518319
26.04634 35.897663 14.270318
82.54434 53.523663 22.727318
82.134346 54.076664 25.171318
4.568344 62.030663 25.151318
4.1143417 64.33966 25.103317
49.457344 67.31066 23.181316
48.668343 68.81466 24.594318
38.852345 66.28666 25.257317
38.323345 67.38066 27.38532
37.874344 13.6056595 39.361317
40.241344 14.192657 40.359318
49.112343 16.574661 36.19132
49.988342 14.198662 35.77532
69.30734 26.069658 20.747318
68.16834 26.535662 22.172318
59.146343 23.252657 23.840317
59.349342 23.51266 26.17632
32.778343 66.63366 16.954319
31.425344 66.80966 19.200317
24.082344 62.446663 22.08532
23.350344 63.663662 23.07832
29.679344 32.908657 12.051319
30.427343 34.06666 13.622319
38.057343 38.88966 11.753319
38.978344 40.30966 13.838319
79.456345 66.32366 46.685318
78.346344 67.44566 45.409317
1.8253403 74.14266 42.700317
2.1393433 76.02366 44.52932
53.110344 69.79766 30.310318
55.043343 70.42066 31.752317
61.71834 75.15666 26.267319
63.742344 74.79666 27.574318
39.826344 1.5156631 13.691319
40.932343 1.0906601 12.165318
47.660343 8.6816635 12.387318
47.162346 10.809662 12.868317
33.09334 25.49766 5.0613174
34.284344 24.19166 3.1873207
40.325344 29.466661 3.2003174
40.012344 31.589655 4.301319
53.320343 32.47366 25.420319
55.037342 31.430658 25.854317
57.245342 38.94766 19.691319
59.37134 38.963657 19.39032
60.007343 29.63766 47.311317
60.772343 30.460657 48.53732
67.82334 37.060658 47.61432
67.830345 37.426662 0.5113182
64.53134 25.117662 3.7933197
65.58835 24.70466 1.5003204
70.01634 31.855661 0.07831955
70.95934 33.78966 0.40431976
53.535343 22.600657 16.049316
54.118343 24.861658 16.593319
62.115345 28.27466 12.607319
63.021343 27.58066 10.77932
15.7693405 25.683657 46.73932
15.1323395 26.69066 48.513317
24.14334 32.88766 49.38432
23.28134 35.173656 49.66232
11.613342 42.028664 38.52532
11.429344 40.704666 36.59332
1.77034 36.52766 38.34432
1.6703415 35.773663 35.88632
40.762344 33.967663 6.037319
39.450344 35.288662 5.1723175
32.617344 28.98266 4.0403175
33.003345 27.23466 2.593319
58.919342 70.70266 49.089317
57.501343 71.582664 1.0903206
50.335342 64.123665 2.2573204
49.224342 62.348663 1.1693192
76.27934 56.227665 25.407318
76.733345 55.510662 27.059319
68.45035 53.785664 32.97432
68.30634 55.42166 34.00832
15.009338 40.179665 44.22632
15.980339 37.98966 43.85732
8.472343 31.599657 42.964317
7.997345 31.865656 44.73232
18.052343 24.24566 5.1113205
19.794344 24.269663 6.3353195
28.694344 25.73166 2.0283203
30.388344 27.443659 1.3233185
13.415344 34.673664 17.573318
15.099342 35.696663 17.107319
18.288345 41.72066 11.665318
17.039345 43.406662 12.349319
18.022339 65.597664 21.284317
20.018341 65.860664 22.218319
27.564339 72.22566 20.630318
29.766342 72.110664 20.505318
80.79835 64.193665 2.6423187
80.191345 64.35666 0.30931854
74.343346 59.534664 4.789318
72.62935 57.676662 4.1273193
16.665344 41.138664 48.99032
15.067345 40.959663 1.0843201
8.370338 35.55566 49.00432
9.169342 33.634663 49.395317
25.289345 28.21766 27.389318
26.156343 29.573656 29.64032
34.075344 31.544657 23.616318
34.992344 29.453661 23.37632
39.942345 25.433657 26.402317
38.497345 24.337664 27.85232
32.670345 16.650658 26.14032
32.921345 15.197655 24.375317
47.845345 31.643656 18.609318
47.164345 29.749659 17.950317
38.168343 26.989656 20.667316
37.620342 27.741655 22.656319
46.607346 9.53566 6.8613205
47.676346 8.349663 5.11232
51.481342 18.45266 2.374321
54.131344 17.54866 2.3473206
80.692345 24.151659 39.234318
79.749344 26.309664 40.937317
0.6913452 33.70866 37.867317
2.733345 33.10066 36.52332
34.687344 54.112663 34.92532
34.403343 52.73466 33.16232
41.386345 59.616665 29.089317
41.710342 60.785664 31.005318
62.269344 20.665657 26.033318
61.667343 22.610659 27.513319
67.93034 28.91466 23.910316
67.23834 30.642656 25.199318
53.53134 34.754658 46.55832
52.052345 33.08666 47.15032
46.249344 25.876657 44.229317
47.777344 24.589663 42.78032
57.421345 54.613663 43.26432
56.02634 55.943665 42.00332
62.762344 59.586662 36.30632
63.71834 60.76866 37.65332
18.735344 36.953663 41.96732
16.166344 36.575657 41.22332
10.642342 29.897661 42.131317
10.876343 28.221659 40.80232
38.559345 74.14866 49.02332
36.397343 75.01666 49.12832
28.768343 69.40666 2.4773178
30.114344 69.38466 4.34132
30.194344 3.7126617 46.602318
29.118343 1.7406616 47.49032
22.446344 72.511665 46.91132
21.323343 73.92266 45.144318
1.9503403 52.924664 34.52332
0.12334442 54.15066 33.35732
8.357346 61.80366 34.18432
9.514343 61.16466 32.012318
79.581345 16.90966 23.27232
77.59135 17.751656 24.41932
73.12734 9.182663 25.865318
71.24135 9.260666 26.427319
45.306343 19.254662 25.311317
46.660343 18.837662 26.938316
52.441345 26.33066 25.556316
52.645344 28.558657 25.448318
73.91734 28.600657 33.35632
75.54635 28.294657 33.811317
0.2653427 32.28066 30.342318
0.20534515 33.74966 28.976318
2.5993423 28.319658 19.708317
5.0103455 28.113657 19.394318
10.466339 35.491657 17.674316
11.499344 34.131657 15.886319
16.064339 60.987663 44.980316
14.073341 61.631664 43.548317
21.385344 69.12066 38.914318
21.032341 70.78266 39.804317
35.910343 42.555664 5.204319
36.313343 44.783665 3.9773178
44.080345 50.06166 6.926319
45.511345 50.15766 8.197319
79.21134 10.943657 6.1703186
81.249344 10.5186615 5.5943184
3.3913422 18.231659 6.6303177
4.0333405 18.222656 4.3043175
51.029343 72.333664 30.292318
51.143345 71.401665 28.631319
57.87834 0.9176636 24.646318
59.166344 0.21166229 25.847319
67.16634 10.681656 32.27332
65.332344 8.739662 30.873318
58.846344 6.8636627 35.17532
58.398342 4.960663 34.915318
7.638344 5.7126617 26.985317
9.418343 6.281662 27.924318
14.497345 12.324661 22.505318
16.179344 13.280655 23.76532
49.576344 49.112663 8.27132
51.627342 48.131664 9.576317
57.891342 56.291664 7.989319
59.71834 55.430664 9.599319
11.056343 51.08866 7.414318
9.264343 52.399662 8.53632
5.209343 42.908665 11.73732
4.7813416 42.425663 9.576317
45.098343 38.981663 18.422318
44.461346 40.815662 18.427319
52.455345 47.432663 17.699318
51.247345 49.26966 17.938316
12.68734 16.876656 17.24432
14.3823395 17.485657 19.77332
18.38234 25.01066 15.257318
20.692345 25.526659 16.594318
69.788345 0.9806595 5.095318
67.985344 2.0146637 6.2413177
63.540344 70.499664 5.992321
65.36334 69.53066 6.99432
70.80534 73.872665 36.755318
70.232346 75.78666 38.582317
77.50635 5.767662 38.164318
79.35235 5.3816605 38.05232
66.04134 7.7046585 12.603317
67.06934 7.2476654 14.583318
58.992344 1.8416595 15.401319
58.917343 0.68865967 16.909317
40.823345 61.55366 23.829319
42.976345 60.987663 24.555317
51.488342 64.85366 27.33832
52.439342 64.33466 25.337318
81.03235 41.140663 45.02432
80.17435 43.710663 44.16932
2.8163452 46.43466 38.41332
4.485344 47.954662 38.39832
67.579346 18.092659 40.68832
66.59035 20.121658 39.51632
73.663345 26.64966 37.02932
74.053345 28.67766 36.05932
67.37734 3.1436615 3.7653198
66.99035 4.8816605 2.6213188
75.885345 8.120659 1.8253174
75.46535 10.434662 2.2053185
76.45934 11.391655 45.87132
76.04635 12.308655 47.91332
82.259346 19.543655 44.991318
82.69834 19.456657 47.03732
48.551346 69.17566 15.695317
50.365345 68.749664 16.697319
57.464344 76.52066 13.139317
59.437344 76.03766 14.208318
38.106342 5.033661 28.557318
38.824345 5.4456635 30.888317
31.635344 0.46966553 34.03732
31.837343 74.956665 33.77232
31.344343 44.232662 45.310318
32.456345 42.524662 44.338318
41.411343 47.543663 43.27232
40.318344 47.95766 41.430317
15.851341 73.34866 36.46832
17.119339 71.56066 37.60832
9.057343 66.290665 38.68932
8.504341 66.39466 40.97432
65.36334 24.38466 45.945316
63.680344 25.102663 44.638317
69.70035 33.19266 47.202316
70.54735 33.23666 45.382317
0.84534454 48.846664 18.52232
2.5133438 49.689663 20.561317
9.54734 54.847664 19.817318
11.2343445 55.410664 18.313316
15.705345 44.548664 2.3003197
16.18634 42.340664 2.9273186
7.8373413 37.362663 4.4443207
9.802345 36.432663 3.2793198
54.29534 72.94966 36.86232
55.22034 71.61566 35.15432
64.957344 74.09866 33.96732
65.28235 75.18566 35.82332
49.507343 57.02566 36.82232
50.848343 58.73366 36.74432
58.96834 60.755665 32.165318
60.998344 59.81666 32.82732
8.114342 64.33866 33.57732
8.593346 63.593662 31.396318
17.190338 67.458664 30.508318
16.732346 67.652664 28.473318
53.39334 7.4016647 10.887318
54.49834 7.5986633 13.227319
57.540344 15.369659 8.905319
60.13534 15.88266 8.384319
32.452343 60.035664 45.221317
31.206345 60.158665 47.047318
26.777344 50.17866 0.6773186
25.780344 49.688663 48.43232
51.235344 10.547661 29.038319
51.296345 9.623665 27.147318
48.416344 76.51866 27.980318
45.973343 76.41166 27.786318
39.117344 57.370663 3.8253174
38.410343 55.020664 3.3003197
31.729343 48.714664 6.5613174
32.169342 46.716663 5.89032
68.95135 59.257664 0.3763199
70.330345 58.065662 48.59432
80.13934 61.18466 45.42532
79.77035 62.592663 43.584316
34.131344 15.585655 30.282318
34.861343 16.824661 32.05732
40.879345 23.35766 29.109318
42.097343 23.534662 27.328318
29.360344 71.29466 16.805317
29.617344 73.524666 18.052319
37.936344 75.35266 11.180317
39.251343 75.42566 13.23932
21.845345 23.295664 14.383321
21.052343 25.393663 13.90632
25.694344 33.671658 10.283318
26.803345 32.856663 8.477318
65.54434 66.48866 7.1803207
66.02235 64.85466 8.231319
59.671345 58.26166 9.096317
57.485344 58.599663 9.93932
56.516342 45.42166 27.641317
54.71934 45.604664 28.208319
48.315346 40.027664 30.700317
49.580345 38.07366 29.556318
11.538345 14.1286545 3.4483185
11.030342 15.4806595 1.3783188
14.817345 23.561663 48.000317
12.945343 25.598658 47.04532
37.717342 68.06566 32.16832
37.036343 69.90666 31.648317
44.754345 0.29466248 30.554317
44.062344 2.1246643 29.810318
24.897345 57.89366 12.458317
26.452345 56.24066 11.704319
36.433342 59.785664 11.240318
38.103344 59.023663 11.768318
15.607346 42.420662 45.41932
14.7083435 44.239662 44.00132
22.079336 50.600662 47.088318
21.167341 52.988663 46.597317
25.384338 46.488663 36.14932
25.573341 44.260662 37.19732
16.63234 39.605663 36.972317
13.968346 39.760662 37.12032
52.006344 50.937664 31.468317
52.320343 52.461662 33.659317
45.318344 44.55966 37.80032
46.513344 43.563663 39.94132
32.745342 64.31466 7.07732
32.73934 64.65366 5.025318
41.558346 69.82666 5.19532
42.566345 71.610664 3.6743202
58.439342 67.09366 42.18432
60.505344 66.18966 42.623318
56.027344 58.005665 47.19632
54.771343 56.70666 45.69632
82.91634 51.515663 17.566319
83.03034 49.640663 16.386318
4.1663437 57.711662 12.944317
3.5483475 59.19866 11.58432
32.476345 62.45566 46.519318
33.206345 64.77966 46.66132
37.121346 72.32066 45.346317
37.109344 72.53466 42.96732
1.4233475 22.139656 6.9643173
82.414345 22.25866 7.169319
81.663345 12.537659 9.657318
81.317345 12.2686615 11.76532
79.47534 28.349657 3.3793182
80.25735 28.431658 1.2703209
0.18334198 37.21066 0.14532089
2.358345 37.508663 0.829319
70.274345 38.55366 7.253319
70.23734 37.69666 9.173321
60.916344 33.742657 8.75032
59.608345 33.365658 6.9443207
52.240345 39.717663 2.4863205
51.875343 41.704662 3.539318
60.019344 45.28266 49.32132
61.129345 46.363663 1.6223183
38.312344 61.33866 22.67532
38.649345 60.522663 20.582317
34.391342 51.409664 19.617317
36.22534 49.953663 19.790318
57.085342 70.637665 9.0473175
58.10134 68.92866 7.7953186
53.044346 62.375664 5.8983192
53.77434 61.050663 4.4713173
49.677345 26.671663 12.41132
48.884342 24.742662 12.134319
39.385345 25.527658 18.30132
37.911343 24.78866 16.535316
83.46034 47.09566 20.226318
1.2493439 47.558662 22.12732
77.54735 41.582664 24.393318
76.651344 42.223663 26.262318
40.329346 3.9696655 22.70332
39.984344 4.4456635 20.694317
40.978344 11.542656 13.321321
42.500343 12.722656 14.74632
48.025345 44.515663 43.737316
48.748344 44.974663 45.83032
56.312344 52.114662 43.99432
56.734344 52.013664 41.991318
7.997345 63.769665 40.89732
9.14534 63.119663 42.63532
1.2993469 57.382664 43.539318
0.0033416748 57.234665 45.35732
37.179344 38.449657 0.22431946
35.185345 37.393658 49.23332
31.004343 31.27466 4.0713196
29.022345 31.518656 3.71632
79.75435 61.40066 40.887318
81.483345 60.785664 42.236317
4.636345 67.01566 38.102318
6.3593445 66.59066 38.909317
70.26634 67.15766 26.18332
68.913345 66.14666 24.435318
62.905342 59.690662 29.744318
61.062344 59.966663 28.366318
52.843346 38.00566 48.80132
53.763344 40.144665 49.24032
62.87834 41.18566 48.220318
63.97534 43.301662 48.153316
13.969345 73.37666 28.318317
13.063339 73.235664 30.317318
5.763344 67.71066 31.983318
4.6683426 70.03566 31.732317
31.748344 45.30966 48.097317
33.594345 43.95666 48.729317
40.772343 51.795662 47.118317
40.951344 53.14466 45.535316
37.791344 55.027664 48.429317
38.383343 52.875664 48.319317
34.040344 46.910664 3.2773209
31.824345 46.709663 2.7843208
8.6443405 57.630665 26.663319
10.134338 56.207664 27.178318
3.4013443 49.30266 26.449318
2.4293442 47.806664 24.84232
61.340343 21.462662 38.39932
59.754345 22.057655 39.18832
54.231342 15.435661 38.55932
52.618343 14.64666 40.15532
40.945343 16.64566 4.72332
39.212345 17.82766 4.0573196
46.988342 24.08066 6.374321
46.016346 25.868662 6.4083176
20.433342 55.467663 40.555317
19.04734 56.783665 39.227318
22.732344 62.187664 32.44532
25.150345 61.96366 31.786318
75.40234 45.161663 37.33432
74.37734 46.283665 35.39032
83.011345 50.56866 33.30132
0.033340454 52.107662 31.476318
70.037346 32.685658 36.263317
72.18735 33.657658 36.576317
78.91634 38.232662 31.031317
80.64435 37.879658 31.793318
63.119343 23.325663 0.5903206
63.97634 22.290657 2.4443207
60.311344 16.045662 5.44532
58.95434 14.2426605 4.544319
80.899345 20.335655 40.65732
81.41634 18.543655 39.449318
73.09834 13.17366 42.054317
73.44534 10.934662 40.66732
35.902344 67.50766 30.188318
34.848343 66.64366 28.602318
29.894344 62.805664 35.90532
27.162344 62.186665 35.777317
63.525345 51.152664 6.6943207
64.10435 51.10166 4.7073174
71.65634 51.279663 49.033318
73.43735 50.424664 49.03132
46.032345 58.545662 31.820318
46.617344 56.544662 31.246317
39.150345 49.420662 29.316319
37.074345 48.78366 30.844318
23.458344 1.72966 10.885319
25.402344 0.23966217 10.756317
32.962345 7.158661 10.646317
33.097343 9.773659 11.34832
8.179344 48.556664 43.192318
8.225342 45.99866 43.33032
1.0553436 39.742664 46.805317
0.721344 38.49166 45.431316
45.650345 3.4946594 36.847317
47.611343 2.9456635 36.664318
56.310345 7.2126617 34.179317
55.83834 8.638664 32.99332
13.474342 70.568665 14.466321
13.06234 69.78466 16.45932
8.4963455 62.906662 20.670319
6.1583405 63.235664 20.255318
9.973343 42.319664 29.452318
11.125343 43.49766 27.49232
14.370338 51.225662 25.388319
14.890343 52.478664 27.458319
63.575344 56.417664 22.725319
62.33734 58.172665 22.000317
69.331345 62.786663 16.455318
69.44935 65.05166 17.053318
68.261345 57.051662 39.402317
65.999344 58.021664 39.680317
57.479343 52.524662 39.48332
57.854343 50.572662 39.493317
57.459343 37.182663 10.819317
57.853344 39.99066 11.045319
64.81135 40.647663 3.5883179
66.373344 42.06666 4.3993187
20.661345 13.181656 32.70232
22.881344 13.156662 32.41232
28.416344 20.626656 30.374317
29.854343 21.766655 31.943317
16.277344 20.471657 43.612316
16.10434 18.255661 43.778316
10.098343 14.458656 46.86532
7.9063416 14.2306595 46.785316
29.707344 47.774662 8.249321
29.789345 47.01166 10.849319
21.276344 42.291664 8.773319
20.758345 42.37366 11.130318
74.79534 24.417658 38.27532
75.84235 22.668657 39.366318
71.20235 14.50766 37.104317
69.44434 16.316658 37.77132
27.706345 40.21366 20.602318
26.958344 41.730663 19.372318
35.881344 44.97766 18.888317
37.372345 43.540665 17.263317
4.794342 22.682657 11.9223175
6.544342 22.693659 13.093319
11.910339 30.41366 10.81432
10.433342 30.975657 12.507317
6.704338 40.884663 22.16832
5.2123413 43.055664 23.241318
80.22334 38.17766 23.137318
79.900345 37.639664 25.276318
69.00134 40.81666 46.348316
67.384346 42.47066 47.16932
66.13335 37.396664 39.28232
65.537346 37.016663 41.59232
66.454346 70.471664 16.55732
65.14234 72.02166 18.00832
73.80634 0.12466431 16.98132
75.06335 75.01466 16.271317
44.628345 72.27066 17.686317
42.792343 71.97866 16.657318
38.031345 64.78566 19.94032
38.956345 63.35866 21.139317
31.131344 53.83266 21.27232
29.794344 55.639664 20.782318
37.723343 60.614662 17.610317
36.641342 62.322662 18.615318
55.771343 41.027664 20.568317
53.83134 40.218662 21.706318
46.679344 39.53266 26.072319
47.849342 37.60866 25.837318
23.760344 43.29666 18.694317
23.161345 45.30966 18.554317
32.526344 49.37366 20.84932
31.773344 50.930664 20.85632
31.144344 22.895662 48.888317
29.224344 24.686663 49.213318
21.332344 19.995659 0.310318
21.407345 20.068657 47.792316
49.818344 73.611664 34.18432
48.615345 73.42466 35.68832
43.577343 64.56166 34.35532
43.746346 62.218662 35.178318
52.215343 12.922661 30.409317
53.15034 12.759659 28.32432
59.46834 18.306656 24.337318
59.59334 20.182655 25.13332
4.235344 61.30366 13.18232
2.3173447 62.096664 13.65532
0.5473404 53.863663 17.813316
0.37834167 53.730663 20.02232
18.137344 5.620659 12.937317
17.95234 7.3376617 11.6983185
8.248344 4.043663 14.451318
7.78434 2.1766586 15.7643175
76.31235 29.669657 4.975319
74.85435 30.951662 3.7803192
66.663345 26.669657 4.4973183
66.88235 25.58066 6.4173203
23.286345 32.370663 36.85132
23.728344 31.089655 35.659317
32.895344 35.72566 33.88332
34.171345 36.58466 35.64132
62.039345 67.58066 39.88632
60.09434 68.14766 40.09932
65.289345 75.95066 39.02832
67.635345 75.429665 37.866318
72.35535 57.251663 10.687317
69.95035 57.56066 10.635319
62.619343 56.03266 17.944317
61.313343 55.202663 16.728317
73.44534 45.369663 25.025318
74.03535 46.374664 23.34132
83.22735 49.253662 24.64832
0.4733429 50.069664 22.917316
74.67535 40.585663 15.381318
73.53335 40.97766 13.324319
79.802345 49.633663 11.91132
82.25835 48.257664 11.982319
82.872345 31.569658 25.51532
82.36735 30.642656 23.644318
76.52235 22.29766 25.410316
75.677345 23.044657 23.832317
48.131344 41.519665 41.354317
49.633343 42.69866 42.30832
56.206345 49.093662 37.76532
55.266342 50.399662 36.45232
20.337343 22.149658 8.844318
22.264343 21.778656 7.3663177
28.671345 28.925661 8.023319
29.164345 30.089655 5.9643173
81.38834 41.13066 49.512318
79.94634 41.33766 1.8903198
73.98934 35.09866 5.7453194
73.18134 33.43366 4.58432
18.012344 53.90166 31.96732
17.052345 53.74166 29.630318
24.703339 55.866665 23.65532
24.203339 57.647663 21.992317
60.039345 42.625664 23.195316
62.104343 43.445663 23.528316
68.511345 46.619663 20.25832
69.163345 45.362663 18.93232
14.60334 37.28966 36.36432
12.723343 38.08566 35.533318
5.75634 32.04366 35.27432
5.877342 31.46966 33.54232
27.555344 10.569656 44.35832
27.360344 12.662659 43.74032
35.032345 16.017662 40.50132
35.578342 17.398659 41.87832
63.02434 74.123665 30.476318
62.341343 0.28866577 29.978317
53.076344 72.47466 32.70832
52.608345 73.36366 34.68132
65.64435 75.58466 31.996317
68.20934 74.555664 32.256317
75.068344 5.70166 34.26632
76.55834 5.609665 32.14132
79.61134 40.71366 41.34332
77.21234 40.51866 40.743317
72.19935 33.56866 43.262318
70.01734 33.434658 41.58632
3.9143448 10.574661 27.47132
3.6613464 11.602661 25.490318
10.971344 17.907661 23.310318
13.073341 17.206657 23.574318
38.717342 47.134663 25.94032
38.040344 48.779663 26.889317
42.379345 55.833664 19.95232
41.227345 57.388664 21.075317
75.22334 7.186661 37.60632
75.71635 7.2476654 39.325317
67.85535 1.9146652 42.69632
66.54735 1.6706619 40.13632
61.766342 61.899662 35.776318
62.065342 62.342663 33.54932
69.31235 67.76866 30.628317
72.07435 67.41766 30.332317
0.3883438 6.998665 14.85732
1.5683441 5.4006653 16.074318
79.72434 73.64866 18.82832
78.762344 73.416664 16.92632
15.053345 4.3016586 40.30232
15.508339 3.8956604 37.840317
24.320343 9.289665 35.97332
24.772339 6.970665 34.99032
41.317345 22.503654 24.290318
43.174343 21.621658 23.229317
50.715343 28.999659 23.77932
51.237343 28.464655 21.540318
28.003342 40.068665 36.090317
25.805344 41.05966 35.206318
21.662336 34.217663 37.96932
22.125341 32.84666 39.665318
62.625343 31.854662 14.971318
61.896343 32.37666 16.636318
52.602345 28.94266 18.88432
53.125343 27.463655 20.14132
19.31234 38.981663 3.2203178
17.277344 39.430664 2.6723175
12.513344 30.67766 2.3403206
13.787338 28.506655 2.3893204
31.450344 69.08966 13.312318
29.955343 68.89766 11.408318
34.986343 0.22366333 6.7763176
34.676342 75.92566 5.2283173
30.248344 26.141657 46.76832
31.111343 26.999659 48.362316
36.212345 34.55766 45.21732
36.450344 35.25366 47.485317
62.674343 42.341663 26.251318
62.574345 44.422665 27.777319
68.27235 49.70666 29.329317
69.94634 51.163662 30.044317
4.586342 29.242655 31.692318
2.8493423 30.278658 31.150318
76.93334 27.203661 29.610317
76.66135 24.55266 29.975317
18.152344 38.723663 45.30132
19.848343 38.42266 46.78032
23.147337 48.627663 44.27232
24.972343 47.097664 43.63332
61.33634 17.45066 20.007317
60.909344 19.801659 20.61332
70.234344 23.354662 20.421318
71.22534 23.660662 18.500317
31.265345 16.49466 18.097317
30.129343 17.109657 16.171318
35.581345 20.583656 8.447319
35.208344 22.633661 8.79232
50.937344 54.085663 32.01432
51.582344 55.898663 33.23332
58.96234 59.175663 29.820318
58.10734 60.83066 27.988317
32.397343 73.64666 31.265318
34.669342 73.416664 31.616318
40.806343 2.0846634 25.187319
42.979343 1.1346588 24.869318
79.61234 17.037659 28.214317
77.621346 17.626656 27.345318
69.317345 13.347656 28.772318
68.36935 12.755661 30.617317
76.981346 76.497665 23.608318
76.082344 76.358665 21.816319
68.26734 69.18466 24.652317
66.803345 70.61466 22.941319
37.065342 17.24466 0.435318
36.409344 18.65866 48.68332
43.202343 26.535662 1.9813194
42.229343 28.431658 0.617321
27.574345 59.389664 35.37632
27.309343 60.170662 37.63332
23.357344 52.298664 43.27532
23.496344 53.93666 44.820316
74.72334 20.02066 16.234318
76.426346 20.56166 14.529321
79.88335 30.281656 16.998318
80.75234 29.896662 14.876321
50.166344 9.608665 13.860318
52.042343 8.774666 12.857319
57.991344 15.7656555 11.519318
59.60734 14.178658 12.0733185
36.679344 8.510666 28.968319
35.705345 6.3276596 29.248318
32.153343 4.043663 35.71232
29.661345 4.7506638 36.026318
24.459345 3.939659 27.090317
24.574345 4.4356613 25.200317
31.718344 11.038658 24.73832
32.231342 13.022659 25.82732
26.957344 18.43966 12.871319
25.823343 20.15866 11.898319
30.136343 29.37166 11.788319
32.090343 28.698656 10.913319
13.525345 22.29966 27.172318
14.9203415 23.888659 28.59532
21.07634 27.171656 25.02232
21.97534 29.48266 24.34232
50.822346 17.749657 34.38632
50.795345 16.07566 33.11332
60.68434 21.13166 31.966318
60.68434 21.43666 29.539318
60.127342 51.223663 44.21132
60.643345 49.451664 43.277317
60.625343 46.271664 39.859318
61.733345 44.663662 40.62832
14.486343 40.814667 39.80732
12.379341 40.604668 40.57932
8.327339 32.050663 40.01432
6.2433395 32.84766 41.304317
26.284344 12.150658 47.546318
26.806343 13.525658 46.30232
34.127342 20.490662 48.070316
33.796345 20.513657 0.49932098
18.099342 7.0726624 15.500318
18.68834 9.2076645 14.438317
25.412338 15.526657 15.701318
26.579338 15.861656 13.561318
49.855343 33.34666 28.405321
47.372345 33.799664 27.349321
39.922344 29.348658 23.89832
40.299343 28.21866 25.71632
68.50034 13.950661 36.42032
68.096344 11.918655 36.21232
57.699345 10.065659 39.00832
56.189342 9.058662 37.326317
21.680344 68.42866 31.965319
21.105345 70.10066 33.477318
28.856344 74.610664 33.62132
29.494345 76.52366 31.906319
44.472343 10.52066 8.399319
42.899345 10.614655 10.803318
38.049343 2.783661 9.096317
35.681343 2.7106628 7.45232
55.307343 41.55966 13.227319
56.014343 42.910664 15.22432
62.532345 49.73366 13.803319
60.824345 51.458664 13.313317
65.191345 4.033661 41.241318
64.64134 4.1906586 38.972317
70.34035 11.13166 40.00332
70.065346 12.419655 38.35832
49.556343 10.907661 20.533318
49.210342 13.499657 21.36232
54.707344 21.165657 18.178318
56.106342 19.740662 16.75832
52.390343 63.318665 11.41832
50.512344 62.626663 12.759319
45.359344 55.174664 12.878319
44.557343 54.24866 11.141319
68.54134 57.426662 46.526318
67.51334 56.75466 48.312317
59.491344 53.904663 44.64132
58.244343 52.131664 45.971317
80.60335 56.188663 31.465319
81.33835 57.597664 29.951317
4.5143433 64.43966 29.670319
6.3633423 62.985664 30.068317
34.841343 37.55866 42.520317
34.361343 35.94166 43.71132
28.074345 30.632662 48.68232
27.472343 32.258663 0.12031937
57.499344 71.333664 44.957317
58.216343 71.30166 42.553318
65.72935 1.7786636 44.124317
65.22334 3.856659 44.875317
64.495346 18.892662 33.78032
62.387344 19.400658 33.73032
54.01134 13.762657 34.90432
55.000343 12.136658 33.623318
72.86334 31.55266 49.714317
74.901344 31.985659 0.99531937
81.28535 35.648663 46.51832
82.83334 37.422657 47.39932
82.39034 7.4036636 11.608318
81.887344 8.810661 13.437318
74.63834 2.5686646 15.216321
73.454346 3.842659 16.367317
75.37935 42.655663 38.16232
73.51534 43.22866 37.957317
67.954346 35.005657 37.117317
68.483345 35.15366 35.02332
14.887344 51.77666 18.80132
15.702339 51.856663 16.935318
24.970345 56.49066 15.110318
25.475342 54.614662 13.698319
57.452343 63.17766 29.451317
55.272343 63.885662 29.005318
49.270344 60.695663 35.94732
47.489346 60.02566 34.39832
23.578344 69.00866 43.14132
23.431343 68.54866 40.944317
29.977345 0.24066162 38.44732
30.353344 0.5146637 36.32932
9.939339 70.50166 6.5073204
11.643341 70.25866 4.8053207
19.567345 76.03466 6.143318
20.121346 0.48165894 4.324318
41.810345 25.865664 35.81632
41.267345 23.749659 35.68932
36.236343 20.069656 41.75732
34.175343 20.704659 42.451317
62.592342 9.622665 0.55731964
61.110344 8.763664 1.9603195
53.287342 3.1386642 2.6763191
52.531345 3.46566 4.6163177
0.86834717 0.89266205 41.79932
1.8783417 76.05666 40.722317
7.4633408 6.6796646 35.332317
7.6143417 8.1436615 36.644318
8.164345 11.63166 47.71132
7.4843445 10.274658 45.222317
82.942345 5.378662 0.28831863
81.66634 4.281662 49.005318
43.232346 51.28366 41.262318
41.497345 52.04066 40.53832
47.165344 60.498665 39.53832
47.173344 61.183662 37.37932
64.51334 46.605663 12.726318
65.70235 47.006664 14.393319
59.853344 41.378662 20.247318
58.138344 43.419662 19.637318
15.194344 24.402658 44.137318
17.071342 23.960657 44.999317
23.14134 30.67666 43.318317
25.275345 31.34566 43.99432
76.040344 30.865656 44.81632
76.25735 30.264658 42.50832
82.040344 39.093662 40.942318
0.40834045 38.215664 41.464317
75.74235 68.28766 42.347317
75.44634 69.26866 40.40532
0.73334503 74.06266 38.450317
83.08634 75.40966 37.158318
34.95434 18.81166 44.50132
36.766342 18.025658 45.63432
41.631344 26.645662 46.339317
41.447346 28.659655 45.01032
2.1003418 14.644661 28.408318
3.8393402 13.497658 29.379318
11.349342 20.101662 28.257318
10.241341 21.823662 27.000319
72.538345 18.390656 48.69132
71.997345 19.698662 46.68932
75.78134 27.820658 44.213318
77.830345 27.851656 42.69632
11.456345 42.311665 34.78532
11.426338 44.036663 36.630318
19.331345 48.30366 37.228317
20.967339 49.903664 36.18832
37.969345 55.046665 41.77432
38.47534 55.144665 43.895317
46.100346 62.808662 44.63632
47.425343 60.993664 44.04532
11.053345 59.193665 30.617317
9.7463455 57.73366 29.090319
4.4533463 50.951664 33.83532
2.846344 49.403664 33.17032
33.081345 11.624657 22.09832
33.758343 11.17366 20.124317
40.084343 18.752655 21.893318
42.488342 17.676659 21.712318
41.121346 72.901665 49.617317
41.640343 74.93266 49.00332
49.863342 1.2896652 45.430317
48.738342 0.4996643 43.77932
69.524345 10.736656 34.00732
69.72334 9.449661 32.534317
66.42335 0.82066345 34.685318
65.065346 2.4876633 35.228317
68.08334 45.91466 16.111317
70.24435 45.133663 16.378319
77.150345 51.534664 13.950318
79.539345 51.440662 14.351319
50.684345 52.22666 27.96132
52.311344 52.209663 29.01232
54.798344 48.59466 22.032318
54.465343 46.154663 22.06432
31.619345 54.161663 26.967318
29.749344 55.159664 27.997318
25.639343 47.423664 32.671318
23.489344 47.777664 31.926317
55.937344 35.494663 4.6423187
56.859344 36.98566 5.829319
63.23234 42.72066 2.1743202
62.990345 45.104664 3.303318
55.501343 53.74766 37.590317
55.478344 52.84566 35.73232
63.78834 55.85866 32.96632
65.58534 54.86566 33.172318
47.722343 50.31066 10.194317
48.344345 51.56866 8.694321
53.973343 60.614662 7.739319
55.80434 59.616665 7.8733177
42.386345 8.345665 39.49632
43.817345 7.07666 40.498318
51.634342 13.199661 38.13432
53.862343 12.964661 37.37632
1.0923462 3.680664 4.289318
1.6413422 3.043663 6.423321
77.17235 75.18766 6.9623184
76.84834 73.135666 7.67432
44.328342 50.94166 47.58732
43.377342 52.556664 47.02432
52.849342 55.206665 42.21632
54.139343 53.76966 42.887318
1.497345 18.239655 45.081318
0.28534698 17.432655 43.35732
78.59135 10.21666 47.485317
78.52834 9.741661 45.714317
15.732346 36.295662 34.27232
16.648338 38.327663 34.59732
22.799337 44.77566 30.357317
24.89534 45.30366 31.203318
49.028343 53.28966 14.40632
49.362343 53.717663 16.805317
56.12134 58.005665 21.236317
55.565342 60.274662 21.060318
74.45834 49.118664 45.38632
72.30534 49.709663 46.40432
71.02834 39.99066 49.73332
68.90434 40.83766 49.00332
61.939342 57.385662 31.557318
62.723343 55.86566 30.623318
57.804344 48.403664 31.052319
56.419342 46.812664 30.052319
44.463345 35.450657 10.094318
44.019344 33.65266 11.51532
33.86434 31.863657 11.201317
33.981342 29.793657 12.541317
40.735344 70.402664 46.444317
40.851345 70.318665 48.71932
30.189344 66.49566 49.43232
30.194344 67.05666 1.9443207
45.035343 39.14166 23.546318
45.389343 37.08166 24.263317
40.134342 30.20666 30.158318
37.763344 30.63566 29.923317
27.801344 42.795662 34.52232
27.473345 44.640663 35.57332
32.063343 54.266663 34.831318
32.102345 53.431664 32.46932
7.2033386 3.406662 18.23732
8.836342 2.2486649 18.847317
16.260345 8.003662 17.274319
15.997345 9.876663 16.935318
72.553345 18.08966 44.539318
73.46535 16.765656 46.047318
64.00134 10.56266 45.69032
62.355343 11.601662 45.903316
78.193344 30.53966 2.558319
79.082344 30.946657 4.7283173
1.5283432 38.80666 3.6863174
2.931343 37.36466 3.5213203
24.625343 11.749657 45.35032
22.563337 12.606659 45.720318
17.066345 5.9406586 45.48932
15.543343 5.6196594 43.82932
8.994339 21.512657 15.089318
9.836342 19.837662 13.984319
17.02034 26.076662 11.871319
16.523338 27.236658 10.39032
48.720345 34.949657 25.240318
49.931343 35.87366 26.749317
58.46234 40.376663 25.607319
59.619343 40.162666 23.80032
26.155344 36.17166 11.14732
27.068344 37.800663 12.405319
36.501343 41.062664 11.177319
36.881344 41.787663 13.220318
56.953342 29.159655 38.13932
56.493343 30.949656 39.09132
52.728344 36.172657 38.831318
51.645344 35.30366 37.07132
73.34734 61.847664 28.295319
73.22735 59.465664 27.456318
66.15935 57.457664 33.38332
63.83734 58.183662 34.242317
77.621346 56.005665 17.851318
78.85535 53.76866 18.496319
72.23734 47.40866 21.699318
71.15835 45.627663 20.74432
45.190346 20.14566 39.560318
44.415344 21.262657 37.61432
35.491344 18.831657 34.11432
34.447342 21.255661 34.52532
43.390343 10.172661 5.107319
42.559345 11.239655 3.1143188
36.685345 3.3416595 3.4823189
35.445343 4.3206635 1.6573181
73.95834 6.595665 27.785318
73.93735 9.06266 28.318317
81.023346 15.186661 26.974318
79.88135 15.843658 25.73532
5.9673386 45.203663 21.908318
7.2083435 44.197662 21.142319
14.18634 49.729664 16.430317
15.960342 49.474663 14.83632
81.968346 65.60366 8.721317
79.83835 66.39966 8.345318
74.88235 58.51166 11.761318
73.096344 59.250664 12.416317
24.759338 72.27066 12.866318
23.902342 73.61266 14.63532
15.538345 74.75866 19.070316
13.688339 74.61466 17.98732
13.716339 27.895655 5.1413193
11.97834 27.849657 4.315319
5.15934 21.725655 8.52932
3.905342 20.82566 6.7193184
53.55434 64.35566 20.79332
51.047344 64.236664 20.623318
47.401344 56.459663 22.407318
45.516346 57.174664 23.15432
81.46435 54.637665 17.84132
81.316345 55.659664 20.218319
4.358345 62.39366 18.659317
5.516342 60.52566 19.27232
6.7773438 59.75466 28.391317
5.5733414 59.538662 26.369318
0.86834717 51.049664 26.498318
82.45235 51.80366 26.386318
14.917343 30.138659 10.771317
14.415344 32.11166 10.07832
23.26534 34.51666 10.116318
24.60234 34.785664 7.787319
0.88734436 66.72566 12.64732
2.6153412 66.06066 12.920319
6.985344 71.05966 5.56332
7.1683426 71.567665 3.5173187
