28.336058 22.335228 75.15247
4.908058 17.55024 72.08047
5.9660606 16.24923 71.61147
9.605058 69.75823 33.827473
11.273058 69.79823 32.06147
27.314058 68.20523 28.138472
26.752058 68.30523 26.46347
24.375057 90.66123 91.74847
24.041058 89.352234 89.32347
0.12105942 81.56323 83.87147
1.6640587 80.711235 84.27247
7.271058 51.89823 34.08247
8.892057 50.63623 33.67347
24.058058 55.73223 29.482471
24.077059 55.68323 27.888472
12.698058 28.141228 79.14847
13.491058 26.690239 77.58447
28.087057 26.195229 77.97047
29.351057 27.355232 78.39547
29.702057 6.953232 89.391464
30.323057 5.821228 87.55247
7.6380615 2.899231 89.223465
8.08606 1.3882294 89.63347
3.5130615 91.37723 101.639465
4.85606 89.921234 101.10747
7.802059 87.34223 0.9004669
6.9710617 86.57123 2.188469
11.07206 13.8782425 93.79747
10.81506 13.465233 95.98047
32.568058 13.746231 97.224464
31.991058 14.872231 96.18647
24.183058 62.77123 18.73747
23.020058 63.61123 16.873472
6.059058 59.92423 19.54247
5.0350585 58.94023 20.478472
2.9440613 34.888237 11.724464
2.594059 32.866234 12.322464
17.04606 27.92823 8.0594635
16.71506 29.23423 8.975464
16.162058 10.7732315 20.100471
17.154058 9.298233 21.201471
32.133057 8.626228 18.146471
33.256058 10.2352295 17.621471
14.676058 74.38723 51.94247
14.197058 74.50823 54.09447
35.785057 76.91623 53.862473
35.53306 78.66923 54.56747
28.191057 13.2122345 85.61447
27.587057 11.329231 84.36447
10.596058 8.202232 87.723465
10.580058 9.659233 87.22947
10.971058 38.878235 64.80947
12.467058 37.284233 65.22247
26.400059 31.990242 58.88447
27.234058 31.851234 57.37147
34.105057 74.98823 74.43247
33.41406 72.31123 74.81047
18.185059 79.01423 72.91647
17.846058 79.34223 71.38647
38.479057 66.824234 95.97547
0.81505966 66.24423 94.37147
17.27606 62.25223 96.32447
16.91606 61.79123 94.76747
21.509058 13.518234 45.13447
22.566057 13.441231 42.81647
35.937057 5.2892303 38.90547
37.19206 6.4242325 39.18147
0.9770584 13.254234 31.617472
2.4560585 14.0262375 30.57047
16.427057 12.378235 25.241472
17.15106 13.448235 26.519472
0.27505875 86.697235 92.35947
0.5320587 88.45923 91.39247
23.119059 91.75623 88.43847
22.169058 93.06423 89.03147
37.96006 68.15923 103.710464
37.88006 65.78323 103.56847
21.151058 68.601234 99.47947
19.568058 67.88123 100.332466
4.3260612 4.9872284 68.19347
3.4180603 6.0302277 65.94447
25.773058 9.638229 64.957466
25.476059 11.432228 64.39047
20.603058 82.62423 82.32747
21.944057 81.31623 83.849464
36.32906 77.03623 80.67047
37.89206 76.25023 81.72847
23.167059 34.69523 26.580471
24.274057 34.866234 24.916471
37.71106 27.65223 24.753471
38.61306 27.018242 23.527472
1.0170593 52.62723 8.816467
38.75506 50.74923 9.496468
23.429058 53.61023 11.365463
22.133059 52.46923 11.147469
5.40506 81.64823 12.327469
3.5830612 82.838234 11.223465
25.599058 78.87323 9.855469
25.432058 77.267235 9.4344635
29.653057 109.56723 102.17447
30.010057 108.90123 104.404465
6.91206 102.87323 101.99547
6.8600616 101.54623 100.88047
7.7820587 90.71523 4.2844696
6.84906 88.91023 4.0624695
28.769058 90.31123 3.1784668
27.154058 91.12323 3.3934631
9.562061 7.566231 93.182465
8.709061 5.923233 94.541466
31.665058 8.287231 98.390465
30.979057 6.7162323 97.832466
34.23206 10.469231 105.32847
34.78706 9.935234 107.402466
11.438061 10.35923 105.94047
11.958061 9.83123 0.062469482
0.9390602 32.45524 14.67247
0.91106033 30.696236 13.469467
13.571058 22.631233 10.401466
14.912058 23.033241 11.264465
2.823059 90.46923 90.346466
1.0100594 89.98723 88.86647
25.853058 97.115234 90.54547
26.235058 98.73123 89.764465
28.395058 71.60423 31.930471
27.027058 69.38623 33.01247
11.793058 72.90323 33.03347
11.250058 74.43323 33.904472
6.691058 70.22823 12.3094635
7.574058 68.49223 12.586464
23.460058 67.28723 8.905464
24.447058 66.13523 9.418465
2.8780594 52.73923 19.22247
0.77706146 53.50623 19.320469
25.144058 57.43923 14.721466
24.198057 56.72623 16.176468
17.517057 50.064228 94.08747
16.984058 50.56923 91.93647
31.641058 41.90623 90.27247
33.000057 42.40923 91.05847
31.878057 112.66023 6.1424637
31.030058 113.44923 4.301468
14.057058 113.17823 4.739464
12.226058 113.408226 5.21447
0.6740608 95.91523 64.50147
0.74505997 94.26323 63.07347
17.433058 94.03823 62.284473
17.72006 95.14523 63.29647
4.12706 91.32823 85.70547
5.1000595 92.59723 84.332466
19.823057 91.48623 81.61347
20.35206 92.70023 80.44647
7.10606 31.421242 68.30047
6.1020584 33.364235 68.43447
6.347061 27.642235 65.27947
7.075062 26.17324 65.02647
5.5780582 72.96623 7.8314667
7.002058 71.21923 7.417465
21.277058 76.449234 4.1654663
22.631058 76.32123 3.1444702
35.04706 43.77323 92.05047
36.35106 44.44923 90.42747
12.624062 44.46823 84.78847
13.893057 43.32123 84.876465
15.639059 107.68823 36.48447
13.724058 107.71023 35.321472
36.166058 111.08823 34.71147
35.40106 112.228226 35.613472
23.787058 26.725243 53.827473
22.071058 27.018242 54.96447
5.467058 23.24723 54.10747
4.913058 21.39724 54.252472
16.068058 72.73323 85.847466
17.921059 72.46623 84.916466
33.549057 67.20123 84.112465
34.534058 65.86823 84.14747
11.835058 2.5332336 98.78147
10.682058 2.850235 97.03547
26.390059 112.80923 90.00847
26.736057 112.27423 91.46547
2.1740608 92.018234 99.61847
1.9680595 94.27523 98.75847
24.759058 92.045235 94.485466
24.242058 91.75823 96.222466
24.895058 101.73823 93.09047
23.651058 100.08123 91.92547
7.982058 101.54023 97.11447
7.426058 101.33523 95.58747
10.109062 59.12023 57.251472
8.896061 59.758232 58.833473
32.542057 67.27423 58.605473
32.299057 68.87423 58.21947
5.504058 4.7162323 70.89347
6.443058 5.002228 72.68547
21.951057 113.14723 69.08047
22.874058 0.3322296 69.59947
7.995058 73.81323 14.4114685
9.065058 75.51023 13.554466
23.148058 71.49923 8.735466
23.693058 69.88223 7.928467
34.195057 105.39723 39.47047
33.527058 104.37723 41.17747
20.477058 111.14023 45.95447
21.338058 112.48723 45.95847
23.838058 84.18223 102.48047
24.101059 86.46723 102.11547
2.8850594 84.45723 97.46647
3.5290604 85.83223 96.10347
15.087057 73.64023 73.49547
15.370058 75.65423 73.70347
38.214058 81.66123 72.34047
38.18906 82.47423 70.96447
20.489058 74.77523 106.71647
19.737059 74.84023 104.67947
3.797058 79.62523 102.76047
3.6190605 80.73023 101.42947
2.9340591 36.56923 17.371468
3.1590614 35.76523 19.62547
17.747057 32.075233 15.014465
19.20006 32.959236 15.68647
12.604058 22.709236 92.599464
13.427058 21.88424 91.113464
29.884058 20.20124 87.55247
30.314058 21.959236 87.12247
15.772058 57.38223 85.20647
15.664058 59.30923 85.65747
30.393057 57.55923 82.35847
30.199057 56.52023 83.91147
21.977058 110.84323 72.66747
23.135057 112.72723 72.03347
8.400058 7.2612305 75.27447
7.064058 7.9162292 74.66347
8.123062 65.97823 32.06547
7.3450623 64.02323 31.943472
29.459057 66.23823 34.44047
29.604057 66.90423 36.09547
4.3900604 40.09423 12.03447
4.604061 37.994232 12.387466
17.440058 30.760231 5.348465
18.28306 30.168236 6.9914703
1.443058 57.30323 23.020472
1.5470581 55.74023 21.687471
25.580057 58.81323 18.051472
25.259058 60.33923 18.73347
5.431058 1.8532333 63.65847
6.7160583 2.1702347 65.20647
23.230059 3.6692276 62.69947
22.971058 5.4002304 63.18647
12.55006 51.34023 85.182465
12.71006 52.67023 83.40147
35.12306 56.09623 86.04947
35.01806 57.36723 84.821465
22.734058 35.429237 32.917473
22.971058 36.494232 30.520472
0.3480606 32.51023 28.257471
1.2650604 31.59623 27.183472
33.59406 16.000237 16.46447
32.846058 18.036232 15.126465
17.256058 16.888237 18.474468
16.543058 15.389229 18.867474
6.226059 63.20923 21.01847
4.6330605 61.57923 21.361471
27.699059 66.16523 23.079472
26.696058 66.15523 21.79247
24.076057 0.5492325 83.60847
22.750057 2.3812332 82.54747
8.464058 7.6122284 84.305466
8.551058 8.759232 85.79547
17.389057 75.71623 80.64847
17.720058 73.90123 82.34047
30.892057 64.90623 78.11947
32.43506 64.39623 78.01047
11.686062 81.01423 46.356472
10.2320595 78.80623 45.07347
34.876057 89.16423 46.231472
34.80006 89.253235 48.06847
30.958057 18.653236 83.570465
29.540058 19.490242 81.59047
6.929062 18.90023 75.49247
6.8830605 18.59623 73.76847
9.670058 66.83023 29.908472
8.328058 64.78523 29.26147
23.854057 58.46623 28.770472
24.589058 60.07023 29.30647
35.43406 13.935234 17.614471
35.23806 12.493233 18.986471
14.302057 12.95723 19.842472
14.598059 12.591232 21.339472
35.82306 72.37523 76.13947
37.57806 71.50023 76.47347
14.053061 73.03623 68.40947
14.684057 74.75523 68.48847
36.03206 105.93323 45.85847
36.55006 106.18723 47.76747
21.558058 109.45423 49.81847
21.328058 108.30923 51.24747
6.426058 30.156242 48.091473
7.856058 32.60624 48.74647
23.755058 29.034233 50.610474
24.383059 29.127235 52.132473
15.277058 51.76823 72.46047
15.548058 49.08123 71.69847
26.561058 49.32323 60.756474
27.794058 48.54223 61.902473
1.1020584 82.80023 67.90447
0.844059 80.44023 68.52247
14.480059 74.42223 64.22347
14.979059 73.18323 63.12347
35.05806 47.59423 100.821465
33.49606 46.20323 100.41947
19.053059 51.20623 106.17647
18.726057 53.02623 106.710464
3.0770607 57.54423 11.523468
2.5830612 56.411232 13.386467
26.109058 60.97823 16.13247
25.419058 61.88723 14.852463
38.403057 4.84523 47.52647
1.6850586 5.3722305 47.90347
17.011057 2.2902298 43.717472
18.059057 1.0042343 43.50947
15.67206 72.49223 81.59547
14.66506 74.42223 80.72247
0.16205978 73.33023 86.38547
37.889057 72.15323 86.51847
19.199059 57.96023 101.86647
20.514057 59.74123 101.79447
35.63406 51.44723 100.445465
36.03206 50.66223 99.085464
17.531057 12.621231 29.679472
15.789061 13.080231 30.755472
1.7770615 15.087242 33.82947
0.99905777 15.326241 35.38447
4.4870605 7.4002304 62.19047
3.1560593 9.190231 62.327473
25.514057 14.077232 62.10247
24.564058 15.442238 61.438473
12.003058 16.004234 95.74547
12.937058 16.49923 97.583466
29.530058 11.908234 95.819466
29.188057 10.046234 96.37147
22.563059 67.23223 106.22047
22.143059 69.67623 105.08147
1.1650581 70.00623 106.640465
1.2250595 69.42923 104.71247
32.72506 47.53023 71.92047
32.83606 48.42723 70.11447
7.236061 48.446228 61.50447
8.951061 48.46423 62.16547
27.004059 85.475235 7.049469
25.819057 83.91923 8.494469
3.4340591 80.08223 7.4944687
3.8430595 81.71623 8.716469
8.485058 109.78623 82.31047
9.336058 110.96723 84.17847
25.877058 109.72923 83.85847
26.390059 108.28523 84.626465
13.572058 67.58023 54.09547
12.832058 65.59423 53.243473
29.182058 59.07823 51.557472
30.790058 58.10623 51.42047
25.437057 42.84623 39.272472
27.136059 41.32423 38.855473
5.221058 41.69223 39.53447
5.686058 41.72223 37.97047
5.944058 65.14723 11.967468
7.967058 66.12323 11.181465
23.084059 62.35323 6.277466
22.950058 61.06223 5.190468
17.02006 64.37823 93.79047
17.862059 66.28023 93.69947
1.3500595 72.77823 98.32547
0.5350609 72.43223 96.84347
15.18606 23.35424 0.40646362
15.24206 25.521233 0.0574646
37.945057 24.83323 7.053467
36.71806 24.264229 5.997467
12.1140585 108.46323 13.524467
12.025058 106.75323 12.307465
28.414059 102.35223 7.737465
28.735058 104.09323 7.6154633
13.951059 104.21923 40.48447
12.7700615 102.71223 39.66747
35.87706 108.54923 38.744473
34.466057 107.66723 38.27847
22.209059 55.13423 17.918468
21.58806 55.95223 16.135468
4.9890594 55.37123 17.177467
4.44606 56.33323 15.969467
25.000057 14.166237 56.737473
26.064058 16.501228 57.286472
4.4160614 14.071236 59.417473
4.64806 12.388229 59.222473
11.31406 108.18323 20.527472
10.951061 106.255226 21.725471
33.07206 105.93123 23.773472
31.737057 105.797226 22.998472
18.587057 84.38523 75.22647
19.595058 82.83223 74.32547
36.202057 81.43823 74.64447
36.499058 79.754234 74.54647
20.633059 85.15523 83.63147
20.809057 87.19023 82.59547
38.34906 85.00923 83.096466
38.513058 84.31123 84.695465
22.908058 38.97823 23.651472
23.495058 37.97623 25.471472
21.171059 34.78823 30.84847
21.073057 34.07623 29.16847
18.276058 23.115242 20.24447
19.706059 24.457237 20.970472
35.431057 20.695229 19.41147
36.22406 21.766228 18.343472
8.513058 107.84723 98.627464
8.774057 106.48823 96.87347
26.607058 107.32423 94.75947
25.821058 108.66323 94.00347
20.894058 82.836235 71.62747
21.156057 80.71823 72.55847
35.396057 77.657234 66.10847
36.209057 76.76123 64.95247
18.148058 30.81623 10.56147
16.391058 30.467232 11.499466
3.4980583 33.978233 14.328468
2.8430595 34.351234 15.841469
27.530058 65.282234 39.37947
27.458057 63.20723 40.13047
12.518058 63.94023 42.06047
11.645058 62.42323 41.39847
38.200058 20.069237 19.517467
0.21706009 21.353233 21.226467
13.886057 20.564232 12.162468
14.118059 18.91523 12.237465
18.932058 90.03323 55.728474
18.753057 90.02723 57.92847
1.4260597 89.92723 62.60047
0.95906067 88.27923 61.68647
32.091057 71.934235 51.689472
31.122057 71.68623 53.51747
16.693058 70.82123 62.145473
15.864058 70.38323 63.69147
32.89806 70.49223 54.967472
34.070057 69.85323 56.82547
11.652061 65.060234 55.93347
11.62706 63.800232 55.00447
14.063058 44.94123 91.32447
15.283058 45.19923 89.35447
31.042057 39.73423 88.208466
31.450058 39.12623 89.681465
13.335058 52.050232 66.46247
14.021058 52.63223 64.00247
30.604057 52.83323 65.75347
31.727058 54.19223 65.61947
0.568058 64.449234 100.74547
1.0440598 66.60423 101.76247
17.355059 61.501232 101.17647
18.598059 61.83023 100.03847
18.855059 11.310234 43.80247
17.538057 9.940231 44.42747
2.6470604 13.191231 48.13947
2.4070587 15.298241 48.63547
15.3380575 47.05623 93.99347
16.096058 44.80423 93.43947
31.719057 40.15523 92.28847
31.746058 38.58323 92.40147
34.66406 10.427231 8.481468
35.486057 12.1482315 9.675468
11.678062 9.858231 4.1544647
12.778061 8.3982315 4.83947
25.970058 64.96423 14.233467
26.365059 63.53523 12.523468
1.0150604 60.772232 5.667465
0.4900589 61.980232 4.43647
8.757061 57.34723 39.06747
8.3950615 55.67723 40.72147
31.650057 59.59023 45.31747
30.292057 60.730232 45.56147
37.15406 77.05723 71.57347
36.07206 77.26323 73.65647
19.655058 79.96823 78.01147
19.216059 80.198235 79.83347
26.723059 76.75623 20.279472
26.495058 78.727234 21.360472
11.797058 84.40423 23.717472
11.584058 84.338234 25.596472
12.001058 66.85423 50.897472
13.727058 68.51323 50.543472
29.984058 63.54023 48.24947
30.873058 62.81723 46.75747
1.11306 101.16123 69.54447
1.9170609 102.89023 69.82247
18.300058 100.28723 65.75947
19.751059 99.84523 64.92047
28.796059 111.15723 104.333466
28.865059 112.11423 106.07847
13.694058 0.4852295 104.48047
12.348058 113.69123 104.44047
2.0560608 21.817238 36.59647
2.5950584 20.320229 38.40647
17.56806 13.422234 37.48647
19.294058 12.60923 36.93147
6.554062 93.45023 14.704468
5.5390587 94.26923 16.207466
29.567057 92.36923 15.081467
28.840057 93.64023 14.273468
12.263058 104.03623 22.272472
13.016058 104.49923 20.48347
29.467058 100.08123 20.128471
30.689058 98.96523 20.363472
29.659058 105.70523 21.31347
29.561058 103.81623 21.714472
13.093058 109.25923 24.501472
13.847058 108.90523 26.17447
32.24606 67.32623 65.62747
33.000057 67.01923 63.76147
12.045059 65.91123 60.014473
13.094059 64.84523 60.245472
10.443058 37.30423 54.38747
10.441058 39.35523 55.16247
26.358059 42.10023 53.25547
26.286058 40.92923 51.81547
0.07006073 50.55823 2.2764664
1.021061 52.32623 0.6804657
17.155058 49.55223 102.95047
18.282057 50.92223 103.28847
36.410057 113.70123 42.93747
36.79406 1.0182343 41.79747
20.460058 1.9512329 44.56347
20.229057 0.74922943 45.807472
3.7750587 103.60823 90.58647
4.108059 103.72023 93.00847
27.048058 103.29323 98.00947
27.135057 103.52423 96.37047
8.408062 77.18723 34.245472
7.9090614 77.461235 36.57547
30.770058 76.24523 36.83847
30.740057 76.63123 35.25547
0.26705933 56.85623 101.653465
1.2480583 58.86323 101.40847
14.385057 55.119232 91.223465
14.847059 56.44623 92.04047
37.57206 89.31423 79.60547
35.569057 90.50923 79.92747
24.087057 97.74323 81.52047
23.002058 96.991234 82.59147
28.882057 51.19023 40.258472
27.788057 52.57023 39.29147
11.281058 55.16023 41.80947
10.057058 55.40623 43.19247
19.406057 36.70523 11.821465
21.332058 36.964233 12.838463
38.17606 34.73423 6.7764664
0.12105942 36.37023 6.102463
3.615059 76.87723 106.765465
4.7230606 77.77723 1.1464691
19.605059 81.68823 104.667465
20.565058 83.046234 104.14247
29.224058 111.75823 94.53347
30.445057 112.59623 92.63547
5.9110603 109.24523 85.33047
6.83506 110.58123 84.82247
31.066057 26.447243 85.417465
32.028057 26.738228 86.973465
9.796062 24.545235 84.31447
10.614059 23.196236 83.39547
8.995058 88.07823 7.068466
9.847058 86.09123 6.122467
23.269058 93.27123 104.48047
23.491058 94.56423 103.43947
6.6800613 13.935234 57.716473
6.6760597 12.849228 55.327473
6.20306 16.279228 59.51047
4.915058 17.360237 58.917473
29.078058 1.586235 105.26247
27.735058 1.5512314 103.321465
12.298058 5.255234 107.155464
11.663058 3.602234 107.31747
32.325058 58.96623 69.85847
32.39906 60.92023 70.96647
16.285057 60.43123 71.51847
14.677058 61.05323 70.89647
20.880058 101.80723 63.45747
21.858059 101.75923 65.39047
36.667057 99.70323 55.723473
37.520058 100.69323 54.85847
32.95406 64.89723 73.92147
32.06506 64.088234 71.96947
15.583058 65.94323 73.48747
15.172058 66.38523 75.53747
22.976059 73.836235 0.4094696
23.325058 75.81523 0.39946747
1.0200615 76.68823 3.8904648
2.0440598 76.66423 2.150467
17.057058 59.20423 99.57647
16.668058 57.34123 100.40047
4.1090584 57.52423 0.31147003
2.6470604 57.03223 107.30247
35.22406 74.185234 61.37347
34.416058 73.06223 62.987473
18.764057 80.39723 66.09547
17.874058 80.98323 67.51247
9.658058 76.47423 18.27747
11.399058 76.60923 20.084469
23.710058 67.09923 14.750465
23.660059 65.50223 15.191467
24.604057 51.84123 24.48347
25.675058 53.42323 22.98347
3.5850601 51.55823 21.738472
5.25206 51.36523 22.142471
14.915058 47.56823 79.26047
16.088058 48.59823 77.54447
30.836058 45.33323 72.84447
31.758057 46.13323 73.96447
35.494057 54.64623 91.945465
37.34306 55.279232 92.98147
13.82406 52.19723 90.030464
14.294058 53.49023 89.03147
32.132057 19.409233 0.99546814
31.647058 19.279228 3.1204681
19.190058 27.360237 6.368469
18.149057 26.10923 6.1134644
11.076061 33.84423 85.49647
10.116062 31.406242 85.03347
32.54006 36.716232 84.15947
32.679058 38.48123 84.542465
31.831059 81.57923 49.02547
32.02206 79.43823 48.36747
16.410057 80.09623 52.522472
15.998058 78.27623 52.271473
37.903057 13.069229 26.500471
0.2760582 12.145233 28.023472
15.03406 9.518234 29.016472
16.232058 10.3112335 29.94947
10.727062 23.03724 80.59947
9.03606 21.987236 80.07647
31.426058 22.004234 82.96947
31.135057 21.266228 84.363464
34.86406 59.793232 68.75347
36.591057 60.16523 70.457466
14.34606 62.51423 67.48247
13.393057 64.30923 67.71447
22.551058 58.84423 3.9884644
22.809057 58.793232 1.8154678
1.3000603 60.30823 2.2584686
2.2800598 59.65523 1.1304703
16.60206 87.35523 67.59447
17.22206 89.01523 69.68847
1.5200615 88.017235 76.47947
38.80106 87.51223 75.86647
32.480057 63.33423 43.96147
32.51806 64.82223 45.14347
9.305061 58.68323 46.14147
10.570061 58.25923 44.92247
11.677059 39.71123 78.83547
12.458061 40.79723 80.29647
35.49706 45.65223 86.00447
34.473057 44.71623 85.20647
25.267057 44.00723 31.18147
27.091059 42.53823 31.80647
4.2930603 45.47223 29.562471
4.5050583 43.74423 29.894472
3.0450592 72.54723 3.6814651
1.7300606 73.81323 2.7444687
25.472057 69.06723 11.137466
25.557058 69.80423 12.736465
38.068058 3.9382324 42.51347
0.24905777 2.6642303 43.03147
16.49906 0.70023346 40.106472
16.71506 2.2912292 39.17047
34.73106 104.24723 52.166473
35.598057 104.82123 54.32447
20.016058 100.95423 56.04647
19.132057 100.59223 54.681473
24.500057 43.55223 33.70747
23.730059 45.40623 33.38747
9.942058 48.29923 42.58247
9.856058 49.70223 41.43047
20.186058 95.16123 66.82247
20.060059 92.91623 67.27147
37.35606 90.56223 64.06447
36.660057 88.91123 63.81147
28.558058 45.27423 64.89247
27.295057 47.18423 64.25147
12.495058 43.12923 69.86347
10.684058 43.34923 69.37747
35.230057 97.30323 49.34647
37.30706 98.45123 49.03047
15.36606 96.64523 45.571472
15.775057 96.38623 47.203472
12.712058 69.43223 40.79647
11.411058 68.70923 39.81947
27.111057 66.59523 33.028473
28.021057 65.41023 32.16347
13.709058 90.09923 45.48247
14.088058 89.71923 43.24247
28.982058 84.838234 39.09447
30.258057 86.003235 39.585472
25.735058 81.074234 1.5324631
26.851059 82.65123 2.4174652
4.589058 82.86723 1.8774643
5.1660614 81.38023 2.5224686
8.455059 108.60123 107.09247
8.05806 110.39123 107.23047
30.972057 110.28723 3.2424698
30.466057 111.57223 2.3384628
34.764057 102.49923 38.15647
34.65506 103.783226 36.25547
12.017059 98.449234 31.846472
12.310062 99.53923 30.47747
22.456059 36.936234 6.9424667
21.912058 34.808235 5.884468
36.74806 31.217232 2.0414658
38.35206 31.570229 2.3234634
31.933058 99.34023 15.710471
32.48406 98.03523 14.559471
9.555061 97.12223 21.344471
10.010059 95.99423 22.652472
23.998058 1.6882324 60.292473
25.652058 2.2562332 61.994473
1.6810608 1.2592316 57.97147
1.1690598 2.383232 59.291473
5.14106 50.95923 15.458466
6.769062 50.64923 14.574463
19.814058 48.56823 7.3284683
20.231058 47.00323 7.1394653
29.005058 15.788231 85.17847
28.591059 18.032234 85.26247
12.3050585 17.28823 89.50847
13.1140585 19.214241 89.47747
32.575058 62.876232 65.04947
31.674057 60.61123 65.64547
32.10606 66.838234 69.07047
32.77606 66.00523 70.45447
7.7300606 26.70623 60.305473
6.6970596 28.364235 61.946472
29.293058 31.738228 67.10247
28.769058 30.944237 65.65147
29.283058 63.63923 57.937473
31.224058 64.46223 58.93647
8.53006 60.76223 52.610474
9.438061 60.25423 53.94747
34.54406 79.156235 61.314472
33.055058 80.14723 60.72147
20.233057 87.892235 60.238472
19.384058 88.17323 61.70047
4.979061 85.35323 106.25947
4.521061 85.35823 1.3314667
27.853058 92.53923 1.0434647
26.947058 94.08023 0.94646454
36.062057 53.83323 101.56447
35.59306 54.51923 99.10447
21.437057 65.35723 104.40847
20.126059 64.33723 104.41347
32.32806 9.205231 0.9724655
32.29406 11.26223 0.98046875
16.022058 12.027229 7.3874664
15.893058 10.833229 6.049469
29.653057 17.914238 75.79547
31.119057 18.139229 74.07147
5.879059 9.351234 72.52147
6.361061 7.614235 71.91947
9.8950615 56.52823 55.68347
9.081062 57.58323 53.94347
31.296057 57.61023 58.057472
30.473057 56.43123 58.87347
33.985058 40.33623 77.18447
33.49806 42.20623 78.332466
13.35206 41.51623 77.62247
14.834059 41.90323 77.37347
7.9140625 49.30923 46.33947
7.740059 48.04023 47.83647
29.924057 49.18123 52.40847
30.400057 49.76023 54.08047
17.780058 82.15323 70.43347
17.731058 83.98123 70.98447
1.2030602 85.34723 74.56647
0.49905777 84.14623 73.54547
15.684058 76.66623 60.90547
16.777058 74.989235 62.049473
31.499058 75.05623 52.72047
32.285057 75.79423 51.67147
22.841059 18.94323 42.47847
24.705057 20.49923 43.61547
1.4120598 18.223228 48.56547
2.6580582 18.013237 49.58247
5.645058 48.82223 18.175472
7.135058 49.12623 16.665472
22.951057 49.18523 18.98347
24.195059 50.03323 19.748472
31.665058 99.91323 23.205471
30.270058 99.143234 24.804472
14.641058 101.10523 26.953472
12.752058 101.79123 26.61547
9.498058 19.534233 67.78647
10.530058 18.67524 66.16647
23.912058 17.707237 62.63447
25.326057 17.950233 61.59547
36.979057 77.80223 62.22547
36.555058 76.323235 60.13747
14.364058 71.86323 58.30847
14.89506 71.15123 59.99747
16.095058 6.588234 22.760471
17.457058 8.157234 23.635471
32.23406 3.8762283 18.49447
31.702057 2.2292328 17.922472
22.780058 76.12423 8.235466
22.729057 77.185234 10.249466
7.589058 77.87223 12.188469
7.013058 79.25923 12.503464
11.62006 110.18223 22.391472
12.16806 111.51523 23.11947
34.042057 0.93523407 27.406471
33.633057 113.57623 28.284472
36.96206 84.52923 74.50347
35.83006 83.56623 72.78347
20.213058 87.00223 72.50947
18.628057 86.18223 73.22747
9.636059 41.59523 61.69847
8.091061 41.00823 59.93547
31.040058 42.10523 65.57547
29.572058 42.90323 65.82347
3.686058 101.29423 88.90047
5.3640594 101.34423 90.50847
20.92806 93.96623 82.77647
21.975058 94.56123 84.09447
8.787058 24.439232 67.95447
9.483058 22.54023 68.43047
25.479057 23.291237 66.84547
26.162058 24.780235 67.77447
14.164058 1.3312302 11.308464
14.030058 113.992226 12.806465
28.275059 105.02123 11.993469
28.968058 103.85123 10.77047
11.540062 44.49423 95.640465
11.69006 42.30623 94.43847
34.97006 49.30023 93.38447
34.19706 50.85223 93.10847
34.93906 5.1742325 31.92547
34.88606 4.87323 30.08847
11.851059 113.90323 29.691471
12.99506 113.45523 28.871471
33.76806 80.13923 45.31647
34.812057 78.34423 45.53347
10.388062 74.28923 43.466473
11.978062 73.61823 43.73647
30.898058 87.36923 6.6494675
29.929058 85.59023 7.973465
6.21706 82.25623 16.649467
6.5760612 80.83123 17.199463
7.514061 85.04923 6.3474655
6.4020615 83.94123 5.162468
28.709059 87.43023 2.3664703
29.025059 87.06923 3.9844666
32.63706 4.003235 10.9604645
31.157057 2.489235 11.100464
14.654058 3.182228 9.243469
14.154058 3.9362335 10.74247
8.579058 106.37323 94.237465
8.780058 107.86523 92.569466
24.563059 103.61923 90.932465
26.173058 104.17523 91.890465
4.114058 93.24923 97.13347
5.0280576 94.56723 98.877464
22.362059 88.42923 97.07947
22.321058 87.227234 95.77147
34.64806 74.66723 52.562473
34.50906 72.42823 52.96147
10.68306 68.949234 52.76847
11.184059 70.11223 54.064472
4.207058 47.42423 13.67247
2.7940598 46.11823 14.443466
25.413057 48.35123 17.98447
25.314058 47.57923 16.27047
1.0910606 73.75023 92.29547
1.1360588 71.60923 92.57347
17.13706 66.22923 89.58947
17.212057 66.18723 87.97847
0.21405792 78.65023 96.96247
0.1340599 80.31623 95.55247
22.842058 80.072235 95.76247
22.618057 78.73723 95.09547
21.648058 105.63523 72.10147
21.252058 107.32423 73.91447
5.069058 113.90723 71.80647
3.5540576 113.80623 71.14747
16.931059 110.71323 41.07247
15.486059 109.35023 41.564472
38.22506 110.37023 42.70047
36.971058 111.25723 42.01247
22.515059 109.83423 78.01347
22.161058 111.54823 76.20347
6.895058 113.94623 74.61547
5.151058 0.57323456 74.57747
25.909058 33.19123 48.75747
27.792059 33.23423 47.03047
4.11306 31.717232 44.29647
5.811058 32.488228 44.22647
33.55006 0.0442276 3.4544678
34.256058 1.7672348 5.0224686
8.847061 112.03023 4.118469
9.906059 113.28023 3.2664642
27.356058 109.83223 90.110466
26.210058 107.93423 91.13147
10.280058 113.00923 90.82947
9.134058 113.94523 91.724464
23.058058 48.91823 27.889471
21.558058 49.95423 28.99747
7.865058 55.22923 28.453472
8.870058 55.25723 30.191471
14.711058 76.87623 66.57347
13.013062 76.90023 67.53747
38.85206 86.79723 70.12247
0.040058136 86.68923 71.91147
29.326057 24.373238 87.028465
28.628057 23.77523 89.05147
15.325058 30.99424 96.944466
15.023058 32.49723 97.27547
10.767059 102.894226 14.4374695
9.923061 104.45423 13.397469
31.372057 102.27123 13.753464
30.838058 103.54923 12.67347
27.594059 47.25923 66.79947
28.256058 47.18023 68.81747
15.544058 56.28823 71.88347
15.551058 58.11623 72.44947
23.523058 44.40723 8.910469
24.239058 43.29523 11.160469
2.0160599 40.42323 9.986465
2.09206 39.668232 8.24247
0.26605988 97.21523 68.02247
1.9180603 97.80523 66.34447
17.295057 91.48023 67.93647
18.476057 90.53723 66.89347
26.725058 51.73123 32.314472
27.456059 53.47623 32.10047
4.0510597 57.88923 28.468472
4.110058 58.38123 26.88347
31.731058 17.50924 97.807465
32.35706 17.396233 95.780464
10.39006 17.799232 100.154465
10.094059 18.526237 101.58947
27.276058 75.61023 22.99747
28.666058 74.63223 21.17847
5.955059 69.71623 22.134472
5.708061 70.65423 20.910471
12.743061 2.5012283 7.5574646
12.235062 4.4402313 9.014465
33.389057 3.1342316 13.545464
32.924057 2.8962326 15.323463
10.00806 106.83623 15.071465
8.339062 106.00223 15.38047
31.633057 107.75423 19.185467
31.073057 108.07323 20.76247
28.257057 23.642235 82.58847
27.660059 24.19123 84.34247
12.031058 23.657234 89.00647
10.986058 25.169228 89.01047
38.042057 24.267235 34.87347
0.59305954 24.614235 36.31647
26.909058 33.37124 42.800472
26.425058 32.434242 44.33247
22.129059 44.17923 14.699463
23.765059 43.62123 16.091469
2.212059 43.20323 12.927467
2.09206 43.36523 14.592468
9.136059 96.78423 15.109467
7.637062 95.97423 15.78447
31.105057 102.27123 16.773468
31.058058 101.03523 18.037472
30.941057 89.10523 42.057472
31.854057 87.52723 42.987473
16.343058 88.91523 48.827473
14.837058 88.68823 48.18147
14.399058 27.932228 91.055466
14.365058 26.052238 92.001465
30.289057 25.99923 93.94247
30.494057 27.07824 92.682465
21.098059 83.739235 90.015465
20.746058 84.489235 88.17647
37.451057 76.36323 87.20047
38.619057 76.240234 85.54847
13.13006 54.62323 85.41047
13.80406 55.74123 87.08947
38.12006 58.04023 96.54847
38.03006 56.12523 95.61547
0.69506073 105.33023 63.68447
38.57406 107.06423 64.99047
22.997059 109.62323 68.89047
22.228058 110.52723 69.89447
17.85906 109.95823 43.98947
16.78306 109.41223 46.05447
1.0550613 2.5732346 48.97847
0.40406036 0.78523254 48.13547
1.3140602 29.092232 23.109472
1.3780594 29.184242 25.61247
17.97906 27.63424 19.634472
18.836058 26.474236 19.057472
24.185059 94.31523 98.28647
22.964058 94.27423 96.49447
8.079058 96.43823 102.23247
6.9790583 97.656235 101.30047
24.333057 3.489235 70.86647
23.272058 2.7932281 68.82647
8.110058 10.872231 71.70547
6.850058 11.8342285 72.49347
12.908062 24.850243 97.81447
11.401062 23.939232 97.944466
34.64406 28.82624 99.85847
33.61406 30.390236 99.25947
30.041058 85.68323 26.90747
28.832058 84.935234 28.59547
12.733058 87.70223 29.965471
12.132058 86.19123 29.71647
18.162058 94.116234 68.59447
16.30306 94.69223 69.37147
2.1560593 94.93123 74.06147
1.8430595 94.43823 72.56547
27.912058 110.019226 81.02047
28.216059 108.15323 81.74747
4.167061 102.42423 79.07447
3.5220604 100.70223 78.42447
28.621058 101.88523 17.552467
29.205057 103.82923 15.828468
13.268058 106.422226 18.159473
13.506058 107.17523 19.537472
26.636059 15.557228 78.40247
28.666058 15.298241 80.22547
6.40506 14.941231 74.09447
7.3990593 13.635231 74.31447
9.224058 76.29023 22.074472
10.188058 74.76123 21.790472
24.879059 71.268234 17.131472
26.162058 72.09423 18.35147
9.755058 96.02823 104.60847
10.104058 98.073235 103.90147
24.745058 99.52023 99.98347
25.461058 101.12523 100.68747
33.82406 102.17323 26.302471
35.888058 103.45623 25.828472
11.130062 99.74023 21.801472
12.35606 101.03123 21.318472
15.281058 68.767235 58.395473
14.992058 66.83123 58.77647
30.709057 58.99523 55.613472
31.577057 60.08923 56.902473
29.526058 92.24723 28.04247
28.660059 90.48623 28.83847
13.528058 87.33123 26.255472
12.425058 86.48523 26.991472
35.791058 9.640228 29.81047
34.50506 7.7542343 30.488472
19.837057 13.70723 27.416471
19.778057 14.888237 28.85247
38.27306 98.15923 54.055473
38.700058 98.85323 51.624474
14.203058 96.39923 50.381474
15.730059 95.47823 50.064472
19.459059 33.61623 6.207466
18.92906 35.99923 5.9254684
3.6760597 36.84223 6.324463
2.7290611 36.25523 4.862465
24.365059 90.40423 103.73047
25.077059 89.781235 105.33947
26.493057 93.62023 100.474464
24.922058 93.26523 101.335464
23.835058 38.38623 39.39547
24.394058 40.21423 39.35747
12.164058 49.09823 47.01347
10.384058 48.76223 47.578472
28.232058 51.49223 58.064472
26.395058 49.83223 58.167473
11.107058 49.61523 64.11247
12.264058 49.78223 65.59447
23.346058 93.56123 75.58047
22.256058 91.76423 76.20847
36.66206 90.600235 72.79147
36.84206 89.114235 72.41647
33.723057 37.96523 102.221466
33.83806 36.27023 101.24747
16.038057 35.08523 100.55347
15.129058 33.55923 101.001465
12.832062 32.22724 95.62147
11.313061 31.877235 93.85447
34.13606 36.239235 94.583466
33.389057 34.64524 94.85147
12.376058 96.83423 21.753471
13.659058 98.41423 21.12947
29.019058 95.09223 19.682472
29.815058 93.65223 19.663471
6.143059 98.23723 80.17447
6.9190598 98.06923 82.31847
18.51206 91.78523 73.20047
18.57506 93.17223 71.90947
16.746058 40.73323 98.54747
18.118057 39.09323 99.64747
33.36306 33.09823 97.81747
34.81406 33.46223 98.583466
1.318058 112.54123 49.62547
1.257061 110.214226 49.453472
17.88806 106.54923 48.848473
17.75706 104.69223 49.29247
38.67506 19.210228 22.98047
37.15406 19.47123 24.656471
19.840057 23.041237 25.198471
19.318058 23.704231 23.701471
37.88006 64.08023 95.056465
38.508057 62.94823 93.30047
14.924059 58.494232 93.67947
15.869059 57.91323 95.28547
3.8400612 65.12523 7.1564636
4.6000595 64.85723 8.994469
20.279058 57.668232 4.7904663
21.67806 57.09523 5.957466
11.31506 85.003235 36.68347
10.463062 83.29123 37.445473
34.66806 82.77623 45.16647
33.74806 82.88123 43.751472
34.80206 73.48323 78.24947
34.37106 75.77823 77.27247
17.453058 72.60623 76.68547
17.671059 73.17723 74.82747
4.9920583 107.30123 74.04247
5.491058 109.53923 72.87147
21.012058 104.67723 65.57947
21.600058 106.37523 65.12547
33.40606 38.13923 74.72547
32.92006 37.79023 72.71347
7.24506 35.91123 69.78047
7.20306 34.50623 70.60247
10.903058 30.891228 82.26747
12.612058 29.936241 81.30247
25.603058 24.985237 79.24447
25.981058 23.599236 78.36047
9.5390625 52.86723 62.19747
9.25906 52.11423 64.06647
32.04306 54.68523 61.438473
31.359058 54.00723 59.96847
1.8450584 38.53223 13.043465
1.8950615 36.18723 13.525467
22.639057 40.48723 13.61747
21.219059 39.63023 13.068466
18.591059 113.12223 42.00747
19.045057 112.82923 39.91647
33.466057 108.01223 35.599472
34.271057 106.52323 35.74647
9.877058 88.50123 17.485466
9.662058 87.75523 15.892464
26.603058 91.01623 15.485466
26.920057 89.83023 16.50547
7.6240582 10.33123 63.564472
7.476058 12.758232 63.562473
18.677057 8.960228 53.020473
18.524057 8.272232 51.47047
2.75206 108.80623 73.57847
1.6110611 110.01023 71.78747
25.886059 4.1122284 75.08747
25.636059 5.274231 73.84347
7.4400597 103.01223 106.20547
7.566059 104.64023 0.15146637
29.583057 104.061226 105.446465
30.033058 105.52323 104.05847
31.045057 83.225235 37.41547
29.670057 81.92923 36.63447
14.808058 87.48623 38.57347
13.591058 86.56423 37.716473
11.606058 54.04923 55.42947
12.032058 54.35823 57.181473
28.563059 52.87023 50.05447
29.835058 53.82223 50.20747
12.541058 61.60423 44.015472
13.377058 61.42023 46.05147
29.018059 58.95123 43.61447
29.327057 57.27023 43.06547
29.957058 45.11023 46.82447
30.400057 47.41123 45.38947
6.420059 47.52423 42.58247
7.0390625 47.94823 44.05647
23.590057 108.59423 63.439472
24.164059 106.825226 64.97547
38.10706 102.26123 61.146473
38.80306 101.96323 59.64847
8.363058 42.08523 47.82647
9.181058 40.51123 48.620472
24.362059 37.13223 48.75947
25.648058 38.08923 48.362473
21.953058 42.28323 17.425472
21.226059 42.88223 19.109472
7.395058 45.33923 25.67147
8.243058 46.62723 26.868471
15.274058 30.026237 101.735466
16.273058 31.223228 103.08747
31.202057 25.995232 96.67847
31.720058 24.264229 96.58047
0.2610588 16.00724 30.91447
37.299057 15.288231 32.12847
21.658058 12.473228 34.83847
20.245058 11.608231 34.23947
8.974058 4.6952286 92.29947
10.103058 6.0542297 90.85747
26.810059 5.159233 89.20447
28.254059 4.642235 89.862465
26.617058 44.571228 37.37247
25.126059 45.53523 38.71847
10.620058 51.51223 38.68047
9.920058 49.96923 38.57447
30.312057 109.04323 6.292465
28.820059 106.41123 6.39447
12.589058 109.74523 9.124466
12.485058 109.86823 10.715469
11.570061 2.432228 30.18147
9.698059 1.9322281 30.696472
35.020058 113.35223 32.92047
34.12706 113.67123 31.566471
26.432058 104.01723 100.57947
24.717058 103.44823 99.652466
10.068058 106.31623 106.56847
9.615058 105.99923 0.9054642
25.228058 63.904232 25.74747
25.129059 62.42023 27.479471
9.841058 63.08223 32.28047
10.282058 61.51723 32.348473
33.465057 11.865234 11.495468
31.484058 12.97023 10.106468
17.254057 16.13723 14.023468
16.824059 16.698235 15.680466
22.705057 74.20223 10.330467
23.602058 72.88723 11.250465
9.114058 77.80723 15.877464
8.528058 78.14423 14.370468
24.985058 38.73323 36.76947
25.513058 38.143234 34.85747
2.7530594 35.183235 36.44047
4.2390594 33.92623 36.363472
32.25906 54.84323 46.44747
31.839058 56.39823 44.82347
8.908062 50.86723 43.994473
9.547062 51.44723 45.627472
9.2440605 46.75823 55.235474
8.30006 48.73923 54.909473
29.570057 48.10123 56.131474
28.316057 48.04323 57.28747
2.846058 52.23323 5.0004654
4.9750595 51.16823 5.094467
18.710058 55.13723 105.110466
19.668058 56.25423 104.417465
31.911058 10.682228 102.06247
33.51106 11.316231 101.113464
10.354061 4.974228 99.10547
10.73806 6.6502304 99.361465
21.828058 23.614235 48.37447
22.118057 25.011238 50.13647
5.733058 25.444237 51.63447
4.7210584 26.327232 52.78047
20.660057 72.86923 102.291466
21.205057 71.68923 100.110466
37.53306 68.13923 99.49847
38.424057 68.78023 100.96647
8.8120575 26.906242 63.305473
8.803058 24.918236 62.098473
24.308058 18.957237 57.98347
24.415058 17.694237 59.08747
37.193058 24.847237 17.593472
35.66906 23.977242 16.64747
20.057058 28.849236 21.13347
20.072058 30.45324 21.787472
23.974058 61.508232 21.98347
25.936058 61.74623 21.194471
2.4330597 57.56023 19.89747
3.4380608 57.33523 18.81347
20.048058 103.87023 50.44347
20.827057 101.91223 49.81647
19.047058 98.48523 46.62947
17.375057 98.37723 47.07947
15.982058 76.29923 54.80147
16.843058 75.84523 52.92747
31.615057 73.20023 48.25347
32.105057 73.69223 49.71347
29.358057 43.13723 68.30647
27.568058 44.58423 67.51047
13.077058 47.48423 69.49447
14.530058 46.29023 70.33947
0.10105896 45.78723 104.571465
1.8000603 47.64623 105.78647
15.011057 38.68523 102.08047
15.800058 37.88723 100.35847
23.114058 98.31323 78.59347
22.129059 100.04323 79.73647
6.984058 103.49723 82.35447
6.702058 104.61223 83.56747
11.886059 67.47223 42.62947
9.973061 68.78023 42.06647
32.909058 72.87123 45.88547
32.000057 74.16123 45.09647
30.417057 20.069237 97.46147
29.374058 18.834236 99.27247
14.564058 27.85424 99.01047
15.1210575 27.209236 97.460464
17.734058 98.546234 53.502472
19.352058 99.615234 52.14347
34.77406 93.741234 52.92247
35.41106 92.39523 51.827473
17.959059 93.712234 59.604473
19.525059 95.25723 59.110474
37.10806 89.62523 61.08747
37.73106 88.43723 59.82447
19.25706 38.92923 7.3574677
19.60406 38.28623 9.67247
4.1560593 40.11123 16.859467
3.3480606 41.34023 17.726463
9.586058 97.28323 8.385468
11.546058 98.366234 8.689468
26.082058 93.50923 3.7084656
26.437057 93.14723 5.17247
2.6590614 74.48023 0.11546326
0.17406082 75.59223 0.04146576
26.548058 74.33323 8.699463
25.157059 74.78323 9.682465
34.694057 11.382233 24.18847
33.76006 13.296234 23.23347
17.768057 13.155228 23.321472
17.335058 11.529228 22.875471
25.079058 10.474228 69.24847
24.912058 11.737228 70.76447
8.356058 14.817238 70.56647
7.833058 16.44123 69.80347
9.297058 81.05123 27.36947
10.180058 82.61323 26.999472
27.134058 80.96023 22.962471
28.062057 81.69023 21.707472
6.57806 47.55023 59.14247
5.117058 48.90323 59.44947
31.668058 50.10423 66.03747
30.169058 49.57723 64.96547
10.556058 49.90323 54.28947
11.410058 47.96523 54.263474
27.556059 48.87823 50.210472
28.097057 50.08523 49.13247
25.729057 14.973228 71.65747
24.713058 14.31324 69.90647
8.182057 16.68023 64.87347
8.055058 15.510231 66.07747
29.071058 54.88523 61.930473
28.472057 56.72123 60.61447
12.276058 53.84223 61.05847
11.113058 53.19323 59.90547
18.475058 99.23323 68.83847
18.190058 101.78123 68.34247
1.7510605 97.00623 72.13247
0.62005997 98.60823 72.46947
8.387062 109.37723 96.62247
6.955059 111.25323 96.74647
31.773058 4.921234 100.14447
31.047058 3.7162323 101.33847
11.71106 4.45623 19.721472
12.21706 4.70623 21.859472
35.28606 4.8562317 24.99447
35.367058 6.2312317 23.890472
22.452059 37.99323 33.772472
22.691057 37.79223 35.98247
6.684058 43.286232 42.390472
6.235058 41.46123 42.18747
36.88706 80.101234 67.63847
34.799057 80.28423 66.83947
19.100058 85.241234 67.02847
18.016058 85.09423 68.28747
33.076057 110.86623 22.356472
34.40006 112.46523 21.207472
12.57906 1.6792297 19.639471
12.775059 2.5272293 18.130472
17.366058 43.56023 99.52147
15.481058 42.95123 100.88047
16.916058 42.34023 105.82847
17.542057 43.91823 106.17747
0.19705963 13.765228 49.10847
38.47706 11.976234 49.89247
25.498058 18.20623 55.26147
24.424059 19.393242 54.953472
23.099058 112.04123 55.35147
24.403057 112.02323 57.127472
1.0040588 112.79923 53.17247
2.0220604 111.59523 52.182472
10.728062 110.16923 6.664467
9.313061 109.59923 5.2534637
32.55206 111.11923 9.240463
32.71706 112.87423 8.844467
34.57106 8.474228 10.628464
36.19706 7.536232 10.3094635
12.413059 3.6742325 4.31147
12.784061 2.0562286 4.5854645
2.5860596 92.71923 82.63247
2.5190582 93.54423 84.21547
27.515059 102.09123 87.807465
27.412058 103.45223 88.93947
38.167057 31.822243 7.789467
38.777058 31.416237 5.5434647
15.927057 31.111229 1.2244644
15.62306 32.075233 107.319466
16.809057 21.172234 21.34147
15.868059 21.755241 19.218472
37.82206 17.345238 18.694471
36.65506 16.282234 17.82747
11.810058 86.57823 20.419472
11.847058 87.64723 19.013472
27.605059 80.949234 19.017471
28.242058 80.22323 17.65747
14.966058 9.520233 3.775467
15.250058 11.745232 3.2584686
31.786058 12.032234 104.32747
31.570057 10.862228 105.68547
14.372057 109.60923 33.52047
14.26206 111.60123 34.74347
37.124058 0.4322281 39.286472
36.612057 113.950226 37.55247
24.471058 97.449234 85.32347
25.498058 98.27923 87.12347
1.4240608 91.17523 84.96147
1.8790588 89.67523 85.69047
37.487057 6.9692307 43.01747
36.18506 5.6262283 43.418472
20.576057 7.20623 43.69947
19.883059 8.67823 44.22247
0.3290596 11.6102295 47.36147
38.804058 12.423233 45.39947
23.610058 17.482231 47.70147
22.637058 18.960228 47.95047
4.1850586 12.591232 66.84747
5.0060616 14.633232 66.20047
28.954058 17.986229 72.60747
27.650059 19.071236 72.05547
30.407057 22.802238 94.765465
32.37106 21.599236 96.057465
9.541061 17.728233 90.971466
10.514061 16.170235 91.59447
14.923058 63.925232 76.81647
15.833058 62.71523 77.93847
31.491058 61.91323 78.69647
31.685057 60.77823 79.93547
18.256058 83.795235 62.342472
19.279058 81.98823 64.10847
33.40406 77.90323 58.896473
35.37906 77.45123 58.05847
12.302058 103.79123 18.01447
12.793058 104.11523 15.942467
28.113058 100.50823 10.417465
29.354057 99.56823 11.357468
28.269058 26.817238 68.33947
27.357058 27.131233 66.32947
5.670059 22.493233 63.92847
7.3130608 23.10624 64.34947
19.468058 84.50923 80.80147
18.571058 82.62123 80.60747
1.5150604 88.38323 79.62947
1.4980583 89.93123 79.31047
37.841057 86.02523 57.807472
0.23706055 86.21023 59.570473
15.8100605 87.170235 54.85247
17.077059 86.072235 55.89947
13.126058 73.54723 46.73547
13.813058 75.13623 44.925472
29.463058 74.43323 44.22147
29.772058 75.95723 44.82247
18.126059 40.16023 1.8394699
17.46406 38.41323 3.060463
1.5720596 41.97023 3.721466
1.1040611 40.90023 4.8554688
38.368057 48.47523 5.445465
36.81406 48.33323 7.1254654
21.004057 47.54623 2.9824677
20.097057 48.28223 4.390465
15.749058 106.48623 40.877472
16.787058 108.09923 39.36847
31.617058 100.76423 40.20447
33.10606 101.69723 41.20147
17.268057 56.95923 93.41147
18.771057 55.96523 92.63447
33.06406 47.76023 89.68947
33.74806 46.78923 90.84547
27.498058 101.86823 92.28147
26.780058 99.66123 93.77647
3.8830605 96.36723 96.79547
4.590061 97.32923 98.05047
9.64806 108.72323 12.24247
8.19706 107.67923 13.208466
30.599058 106.61223 13.20047
29.836058 107.84123 14.14447
32.07306 104.05623 27.148472
31.370058 105.92023 25.992472
15.230058 109.40123 28.430471
15.083058 109.65123 30.28247
9.264058 84.23723 12.963463
10.163058 84.94623 14.810463
27.252058 86.14123 10.027466
28.825058 86.26023 10.638466
30.646057 52.87923 57.291473
30.723057 52.48223 54.74747
9.068062 48.98723 57.53247
8.92606 48.29723 59.139473
6.8530617 27.602242 74.77547
7.014061 29.39724 75.71847
31.840057 29.921242 80.76847
32.22006 30.60624 82.24747
33.74606 61.78723 73.16347
34.63006 59.99623 72.59147
12.206062 56.95423 67.53847
12.57806 55.16223 67.95547
27.388058 105.75423 98.58047
27.894058 106.28023 100.236465
5.87006 105.88323 96.48947
6.609062 105.13723 97.820465
22.014057 67.62523 3.947464
20.907059 66.11023 3.7984695
5.590058 68.80823 8.627464
5.923058 69.586235 9.983467
16.21406 82.50923 62.97647
16.752058 82.34323 64.89147
1.7610588 88.989235 69.75747
1.3170586 90.52123 68.71047
9.094058 3.425232 86.40847
8.402058 1.48423 86.876465
24.353058 113.894226 86.61447
25.761059 112.99123 87.34547
29.125057 67.33223 30.041471
29.084059 69.41923 30.163471
7.226059 69.34723 26.972471
7.677059 67.94123 27.434471
3.7670593 4.880234 58.18647
3.9370613 3.899231 55.812473
19.968058 4.661232 52.33047
20.18706 6.458229 52.786472
31.412058 79.26123 41.40847
29.749058 77.95223 42.90947
14.426058 81.30123 45.21147
13.303058 81.93823 44.00047
35.716057 73.06723 68.46347
37.33006 71.64823 67.47447
13.08506 64.53823 71.082466
12.553062 63.03023 71.42447
21.22806 88.71023 89.66947
21.580057 90.82923 90.610466
5.18906 96.93223 92.07947
5.903061 98.43123 93.14547
29.679058 11.146233 82.12847
30.496058 12.560234 83.82647
8.1260605 15.777229 79.59547
9.095062 16.488228 78.06347
2.476059 56.35823 6.3474655
1.4650612 57.668232 7.9064636
25.397058 59.01023 10.975464
24.087057 58.97223 12.024467
21.726059 10.643234 49.67347
22.630058 10.3372345 51.90147
0.35805893 8.467232 53.19947
1.5890579 8.119232 54.23447
36.51006 77.434235 76.87947
36.96006 75.86723 78.06047
15.799059 76.66923 78.06247
16.25006 77.24323 76.32647
27.735058 99.45923 0.7844696
27.609058 97.407234 1.9954681
11.933058 100.93323 7.265465
11.073058 102.01423 6.178467
13.062058 5.4832306 99.20547
14.504058 3.8272324 98.806465
28.513058 2.034233 96.556465
29.170057 3.5012283 96.166466
24.734058 48.31623 31.801472
23.557058 50.64823 31.17847
7.443058 47.50023 35.93847
7.956058 46.19523 37.22047
30.457058 34.06523 70.50247
31.886057 36.05623 70.89547
9.0200615 40.11823 66.35447
8.730061 41.70223 66.58047
28.300058 88.225235 8.600464
27.667059 90.41523 9.537468
10.087058 92.77323 8.854469
9.025058 92.26623 7.2864685
29.811058 1.4132309 100.96347
29.773058 113.70223 101.694466
7.886059 0.21523285 98.54547
8.473061 1.6622314 98.41547
18.65806 83.94323 57.76947
16.60906 83.54723 57.070473
38.69806 86.34623 63.44347
37.292057 85.76023 64.15647
19.11806 61.550232 104.654465
17.799059 59.95723 103.625465
2.3570595 63.35823 102.807465
2.153061 62.223232 101.56747
20.96306 12.105232 47.480473
19.031057 12.545235 48.842472
4.8430595 14.954231 52.20747
3.3070602 14.322243 51.46947
25.343058 32.81823 64.72047
26.762058 34.48923 63.722473
11.203058 37.83923 69.53947
10.846058 37.47023 67.62747
4.874058 33.55123 39.02347
5.4090614 31.685234 39.89647
20.84006 24.674232 37.25747
20.781057 23.88723 35.58647
29.658058 83.52323 13.67247
30.875057 84.56223 12.15847
7.2090607 75.95623 16.358467
7.163059 74.61823 17.39447
26.220058 75.338234 17.32547
28.319057 76.42423 17.95747
4.875061 67.51923 13.157463
6.2630615 67.31623 14.57547
27.724058 70.41923 36.64847
27.626059 68.56123 37.939472
11.283058 71.94423 37.47247
10.236058 72.865234 36.16947
33.383057 50.20523 95.53547
32.13006 48.06323 96.41147
17.810059 54.85623 99.23347
16.186058 54.53323 99.58047
16.098059 80.89623 60.42047
14.544058 80.310234 61.94347
37.02306 80.94023 63.98247
35.945057 82.282234 64.51647
29.545057 88.38123 24.271471
30.924057 88.10823 22.392471
9.7510605 86.36923 21.905472
10.14706 84.77823 21.62947
36.715057 95.32723 65.36147
36.39406 97.05023 66.96547
20.872057 94.44623 72.95947
20.977058 95.45323 74.42447
29.113058 83.93023 21.278471
31.008057 82.84823 20.308472
8.09906 85.657234 16.418472
8.354061 84.11123 16.735472
17.080057 66.39023 96.95547
17.974058 66.56823 98.80847
1.6800613 72.587234 101.99347
1.9530602 73.91523 102.91947
9.16806 98.87723 10.789467
10.158062 100.53023 10.00547
31.361057 101.71623 7.8994675
30.115057 100.39223 8.057465
3.573059 26.503242 39.06847
4.2930603 24.59623 38.41747
18.33106 18.783241 33.493473
19.836058 17.95124 32.49147
25.750057 1.647232 80.25247
26.887058 3.2262344 80.66647
4.978058 114.10923 79.68847
6.12706 0.8812332 80.33947
30.343058 81.18323 16.312471
31.293058 82.81123 17.547472
8.19006 79.58123 20.524471
9.55106 78.518234 20.755472
32.07306 17.502235 102.68747
31.390059 15.699242 103.03147
13.997058 17.627235 104.07447
12.770058 18.10923 102.860466
10.58606 62.55223 45.56747
9.701061 63.00323 43.37147
34.35006 70.51023 47.04547
32.839058 70.59623 47.43147
8.598058 41.68123 37.78047
10.230058 41.20823 36.52647
23.004059 39.12723 31.229471
23.942059 39.88923 32.529472
13.814058 49.88723 79.98647
12.51606 49.58123 78.16847
34.57206 50.45623 85.02147
33.22006 51.46723 84.75747
24.615059 104.32323 82.70647
22.545057 104.23523 82.97947
6.4920583 107.58223 80.25747
6.076058 106.08823 79.24247
4.261059 87.72023 102.502464
2.99506 88.81223 103.64447
3.0480614 97.32123 100.74247
4.5060616 98.30123 100.79647
32.53006 42.24323 85.49547
30.888058 40.56823 85.653465
14.458058 46.69023 83.71947
14.077058 48.38623 83.35247
