27.854387 31.176939 4.0784073
27.183388 32.97794 5.705406
28.935387 33.94694 3.5974045
28.565388 34.39094 1.4984055
22.567383 63.90694 55.15741
21.08239 65.23294 56.83041
20.352386 64.69394 59.04141
20.672386 62.77194 60.37741
24.724388 67.13694 29.429409
23.170387 65.92894 30.534409
23.298388 64.72094 33.03941
25.171387 64.43694 34.60041
48.281387 37.24294 15.237404
48.269386 36.98394 17.951406
50.70339 37.20194 19.420408
52.680386 38.72394 18.628408
46.912388 2.6909409 78.95041
48.79239 3.4209442 80.844406
50.854385 4.708946 79.70341
52.284386 3.9949417 77.77441
27.340387 5.960945 57.26241
27.542387 4.207947 59.00241
29.130388 1.9219437 58.68241
30.994387 1.4899445 57.00441
15.34539 58.47694 2.971405
14.503387 59.959938 1.047409
15.813385 59.95694 80.87541
17.419388 58.362938 80.00641
10.417389 31.47094 66.74241
12.328392 33.19094 66.707405
14.9893875 32.77394 67.72641
16.024384 30.065939 67.845406
37.573387 67.196945 2.3014069
38.05739 66.211945 4.356407
40.455387 65.906944 5.749405
42.812386 66.60994 5.07341
9.494385 31.86294 51.95641
9.726387 34.31594 52.10341
9.065392 36.02394 54.26841
7.9233856 35.68294 56.06641
71.34639 66.64794 2.408409
70.69138 65.98594 0.6634064
68.162384 64.68794 0.5124054
66.38839 65.20894 1.2284088
39.773388 38.78494 22.767408
37.996387 38.61994 24.400408
36.21539 36.93594 23.819408
35.526386 36.09294 21.849407
56.597385 31.74194 70.442406
55.784386 34.34194 71.00341
54.803387 36.11694 69.386406
53.909386 35.90894 66.96741
73.55539 58.40394 72.444405
71.547386 59.17094 72.87141
70.74638 61.14994 74.58741
71.72239 61.69794 76.736404
72.16438 38.70594 51.63241
70.01138 38.53994 52.48441
67.89439 38.15394 50.99041
67.40539 38.66394 48.48641
46.99339 33.31094 21.132408
48.386387 34.94994 20.273409
50.43839 34.79494 18.667408
51.832386 32.82794 17.98141
33.443386 8.348946 25.84941
33.392387 6.290947 26.984407
35.25039 4.452942 27.536407
37.51339 4.48394 26.837408
51.379387 7.568947 54.89541
53.03539 7.6149445 53.11041
55.427387 7.1149445 54.056408
56.207386 7.5749435 56.327408
59.544388 8.070946 13.713409
57.433388 9.393944 12.871407
56.212387 9.436943 10.425407
56.25039 7.929947 8.682404
18.327385 70.76094 48.674408
19.27639 68.27194 49.36841
19.854385 66.45394 47.26741
20.576385 66.77794 45.18641
12.3263855 1.6779404 35.47241
13.108391 2.7559433 33.660408
15.725388 3.6079407 33.31741
17.491386 2.7219467 34.47141
9.9283905 2.3439407 30.58541
10.881386 3.8059464 31.79041
10.533386 4.408943 34.52541
8.63739 3.6589432 35.932407
73.47439 66.52094 73.34341
72.52839 64.434944 73.50241
70.91739 63.00694 72.05241
68.90038 64.15094 70.77441
21.052383 5.4859467 44.09541
21.745384 4.3689423 45.695408
24.228386 4.9859467 46.474407
25.296387 6.8839417 46.855408
11.113388 38.92694 21.669409
12.5503845 38.16894 23.506409
15.003387 37.04694 23.261408
16.515388 36.88894 21.477407
59.637386 33.26594 79.05141
62.04739 32.26194 78.32541
63.80639 33.97594 79.818405
62.761387 35.57494 81.58841
2.7893906 6.2679443 37.20141
3.1903915 5.514946 35.05941
1.5713882 4.891945 33.189407
73.25139 6.014946 32.40241
6.5033875 61.44394 41.495407
7.580391 63.52494 42.619408
9.690392 63.619938 43.86841
11.560387 61.76194 44.466408
0.8793869 3.1909409 14.18441
72.52639 4.2729416 13.497406
71.77739 5.1829453 11.308411
72.71339 4.509941 8.752403
64.771385 7.641945 19.524408
65.702385 6.2379456 17.461409
67.73939 4.658943 17.617409
69.271385 4.073944 19.501408
1.9193878 34.65194 80.16141
3.7323914 35.40894 81.46441
5.759392 33.98594 0.3834076
6.3123856 31.71394 0.23440552
72.98739 7.587944 14.015404
71.855385 6.6459427 16.322409
69.45839 5.3179474 15.831406
67.99738 5.601944 14.480408
47.002388 9.621941 25.590408
48.247387 8.074944 24.265408
50.513386 6.6959457 24.604408
51.638386 6.408943 26.216408
56.108387 7.1149445 35.21141
54.225388 7.000946 35.85841
53.09839 6.5789413 37.72641
52.256386 8.301941 39.342407
41.782387 39.29894 55.68941
43.113388 37.65794 56.42841
43.419388 36.99194 59.03841
41.81939 37.48694 60.97941
33.519386 3.3589401 74.30241
31.114388 4.3079453 75.23741
30.035387 4.099945 77.34341
29.799387 2.6329422 78.956406
42.037388 67.86894 23.702408
43.782387 66.350945 24.272408
45.94539 65.81194 23.993408
47.492386 66.34794 21.784409
63.23039 59.57394 70.46341
64.245384 61.786938 70.68941
64.48539 63.77494 68.555405
64.27639 63.26694 66.111404
3.0063858 62.51694 7.039406
2.4143906 63.69994 4.825409
3.564392 63.56594 2.4724045
5.27639 62.41594 1.4984055
33.00139 31.32194 77.874405
32.372387 33.84494 77.485405
31.067387 35.08894 75.49241
28.752388 33.95894 74.37741
0.27539062 63.28394 21.670408
0.09439087 65.39994 23.118408
73.689384 65.63294 25.553408
73.59739 63.536938 27.414408
70.91939 2.4329453 69.84041
70.94839 3.139946 67.386406
72.29039 2.1449432 65.428406
72.71039 89.182945 65.03641
41.60539 39.00894 24.866407
41.41839 37.97294 27.221409
38.76539 38.21894 28.427408
37.38339 40.31794 28.407408
34.33439 36.24194 14.036407
33.081387 33.94694 14.183411
30.556387 33.32594 14.094406
28.653387 34.56994 14.929405
70.61139 67.280945 61.24341
72.020386 65.73394 62.87341
71.92039 65.87494 65.581406
71.98739 68.26894 66.93441
21.252388 35.03794 74.29741
22.932388 36.35194 74.695404
23.99839 37.61294 76.915405
23.13739 37.25794 79.36341
21.65239 37.65694 12.543404
21.94339 35.80994 13.362404
24.043388 34.51994 14.776405
26.044392 34.89994 15.118408
9.3903885 59.95194 5.57341
7.827385 61.89894 4.6824036
6.8363876 63.78094 6.1634064
5.613388 63.487938 8.426407
35.24439 70.53694 81.93141
35.267387 69.45894 79.71341
36.741386 67.15794 79.45441
38.948387 66.44494 80.97541
23.954384 30.91594 45.24841
25.157387 33.00894 45.47041
27.61839 33.52694 44.537407
29.281391 32.25794 43.765408
63.34639 7.938942 56.06941
63.67439 6.8459473 57.98741
62.870388 7.7159424 60.56641
61.84739 9.294945 61.08741
41.45139 4.2899475 2.9114075
40.238388 5.7469406 3.2374039
40.128387 6.9259415 5.650406
40.34239 5.957947 7.870407
2.865387 70.39394 53.31041
1.6503906 68.49794 54.22641
72.81638 67.93094 53.63641
71.368385 68.77594 52.02441
27.920387 5.373947 68.16941
30.076387 6.7539444 68.82241
32.51539 6.1999435 67.43441
32.90339 5.3979416 65.111404
43.95239 8.736946 25.818409
41.68739 7.4709473 26.168407
39.693386 7.5629425 24.305408
38.90239 9.930946 23.286407
11.181389 32.16194 81.80741
11.861389 33.91594 81.33541
13.712387 35.48594 0.57940674
15.136391 34.82994 2.4094086
70.27939 4.1739426 61.97741
70.94539 4.5159454 59.93741
73.75239 4.356941 59.34541
1.7373886 5.0789413 60.931408
4.844391 6.1949463 49.24441
4.4253845 5.8269424 51.86341
1.7743912 6.34494 53.20041
0.060386658 7.8309402 52.47441
55.441387 61.20494 29.509409
53.88339 60.71194 27.904408
54.094387 60.43594 25.199408
56.11839 60.40694 23.820408
21.843384 64.36894 45.38841
24.187386 64.22894 45.973408
25.289383 65.07794 48.31441
24.481384 65.70894 50.188408
66.08138 8.569946 8.792404
65.32139 6.46994 8.127403
64.26739 5.905945 5.9184036
64.311386 6.8409424 3.5264053
17.259384 34.23194 61.30141
15.670387 33.28494 63.05941
14.437386 34.31494 65.15441
13.128387 36.36194 64.986404
61.412388 64.33094 35.86541
62.852386 65.90294 36.147408
64.59438 66.26394 38.196407
64.35938 65.59094 40.33641
41.937386 38.22394 67.318405
41.519386 36.56294 68.93241
40.57039 36.29094 71.20241
39.371387 37.52594 72.46341
58.746387 4.5609436 72.18441
61.31339 3.3229446 72.02041
62.38139 2.8359451 69.430405
62.00139 4.448944 67.44641
13.380386 62.348938 9.969406
15.009392 64.34494 9.86541
15.824387 65.52694 11.844406
15.968391 64.99394 14.301407
42.40339 8.621941 14.411407
40.66639 8.277946 12.98941
38.089386 7.8089447 14.124405
37.59839 7.8169403 16.381407
64.258385 5.5939407 75.07441
66.39938 3.9069443 75.736404
68.006386 4.109947 77.609406
68.69939 6.1569443 78.916405
54.061386 39.30994 8.895409
54.718388 37.70894 7.3774033
53.44639 36.93094 4.905411
51.523388 37.16494 4.1174088
20.723389 9.477943 0.10041046
21.940384 7.2539444 1.21241
22.405388 6.648941 3.9564056
21.793388 7.8909454 5.8054047
26.497387 1.2559433 1.122406
26.688387 3.3939438 0.43540955
25.299387 4.4069443 80.53141
24.599388 3.2289429 78.46641
3.8603897 37.14694 48.015408
2.9093857 36.93494 50.32141
0.1313858 36.78294 50.71141
72.342384 36.88894 49.26941
14.883385 6.5209427 13.333405
12.309387 6.502945 12.570404
11.363388 4.6569443 10.67041
12.320389 3.6039429 8.889404
32.42439 67.50694 25.190409
34.025387 65.92694 25.420408
35.83439 65.877945 27.506409
37.031387 67.64794 28.287409
54.373386 62.62994 32.41641
52.38939 64.44094 32.494408
50.978386 65.239944 30.578407
50.95239 64.57994 28.510408
58.525387 65.32694 68.86441
59.440388 63.73994 67.028404
61.40139 63.952938 65.30741
63.170387 65.419945 64.96041
3.6873856 34.86294 26.586409
2.2103882 34.02594 26.680408
1.05439 33.01594 24.162409
1.691391 34.42894 21.898409
52.907387 88.52094 80.55641
51.41139 1.0259476 81.21041
52.20239 3.3859406 82.11441
54.22339 4.049942 0.6664047
46.659386 34.73194 47.87341
48.652386 34.47094 46.09341
50.83439 33.16094 46.45141
51.93239 32.47694 48.25341
42.145386 35.86994 1.4514084
39.714386 35.05094 1.9404068
38.491386 35.20094 4.5504074
39.398388 35.15794 6.467407
35.44639 2.787941 50.13241
37.309387 3.700943 50.72441
36.435387 5.214943 52.53341
36.11839 5.0059433 54.64041
71.61239 34.36894 58.97941
71.86439 37.01594 59.62641
72.25239 37.74494 62.39941
73.61339 36.32594 64.01941
42.226387 62.890938 15.474408
40.82739 64.87594 15.476408
39.01439 65.293945 13.410408
37.68039 63.29094 12.1144085
12.440392 1.7679443 6.429405
10.150391 2.4309464 5.6254044
8.166389 2.9739456 7.2934036
7.6363907 1.7949448 9.488403
21.903389 35.34694 38.17141
24.607384 34.78294 38.46341
26.319393 34.57794 36.53141
26.495388 35.34094 34.44941
40.31239 31.006939 5.801407
40.106388 32.53794 7.332405
37.491386 33.46194 8.120407
35.239388 31.83294 7.6544037
48.062386 3.8789444 31.137407
47.284386 4.8819427 32.82341
49.171387 5.7889404 34.834408
51.318386 5.259941 34.995407
26.760387 60.32394 49.34941
28.784388 61.459938 49.19941
29.640387 63.59094 47.15641
28.384388 63.85094 44.952408
47.88339 67.42694 24.871408
50.26439 68.82894 24.625408
51.68139 68.13094 26.899408
51.074387 67.29894 28.777409
27.99239 6.893944 53.681408
28.68639 6.73394 51.51641
27.308392 7.134941 49.56441
25.112389 8.054947 49.26841
4.5673904 7.335945 58.35341
3.1813889 5.46994 58.33741
0.5703888 5.169945 57.00441
0.087387085 6.186943 55.35541
57.977386 39.19894 76.46441
58.275387 36.67394 77.653404
59.956387 36.04394 79.31141
61.031387 37.32394 81.00341
31.560387 68.69194 66.42741
31.055387 66.43894 66.82341
28.453388 65.36294 67.44941
26.387388 66.28594 66.80041
35.435387 40.31094 47.28241
36.281387 38.57994 48.77541
38.866386 38.688942 49.67641
40.82739 39.73994 48.94441
6.363388 59.04194 76.69641
6.042389 61.29194 75.23741
4.3983917 61.83994 73.41241
2.4163895 60.54594 72.47441
70.98639 9.619942 5.200409
72.87839 8.084946 4.6634064
0.26838684 7.7829437 1.7484055
0.012390137 8.837944 0.059410095
7.5253906 29.97294 35.21441
8.795387 31.68294 34.355408
7.9263916 33.78194 32.591408
5.7553864 33.45994 31.076408
67.758385 89.00994 27.183409
66.68439 0.79094696 25.135408
64.328384 1.825943 26.128408
63.301388 1.3249435 27.746408
29.699387 38.29394 28.429409
28.385387 36.55894 29.324408
27.105387 36.51094 31.754408
27.091387 37.93594 33.55941
60.288387 32.945942 35.47941
60.59939 32.74194 33.42341
58.892387 34.23494 32.037407
56.57739 34.72394 32.31041
20.662384 37.97494 15.1804085
19.42939 35.89794 16.417408
20.646385 34.22594 18.185408
22.440384 34.54694 19.602407
34.094387 2.6559448 79.49241
32.96739 2.6679459 82.00141
34.13239 3.4259415 1.7884064
36.345387 2.3089447 2.3754044
52.981388 69.48394 48.72841
53.951385 67.25794 49.51941
55.233387 65.711945 47.820408
56.98639 66.21694 46.34041
24.844383 30.65494 15.061408
25.302383 32.41394 16.841408
24.586388 32.74894 19.287409
23.161385 31.30394 20.804407
45.316387 65.95294 74.85441
45.91739 65.34594 76.57741
47.46639 63.62094 77.50341
49.707386 63.862938 77.81441
17.01239 67.05694 0.8814087
19.153389 66.26094 2.1854095
18.31939 65.04994 4.3574066
16.991386 65.81794 5.815407
21.369385 32.556942 22.435408
19.831383 34.08594 22.549408
17.926384 34.70094 20.637407
16.852386 33.56094 19.049408
29.595387 67.00894 45.56141
31.552387 66.80694 43.54541
33.228386 64.835945 43.32341
33.804386 63.49294 45.97741
31.924387 6.617943 3.8174057
29.897387 5.646942 4.2704086
28.858387 5.1289444 6.667404
29.456387 5.801941 9.019409
71.38738 72.60694 51.320408
73.38638 73.03394 52.90141
73.09538 73.38294 55.77241
71.186386 73.93994 56.89941
51.03639 8.898941 68.16141
50.774387 7.3649445 69.88441
51.844387 6.750946 72.07341
53.238388 7.924942 73.36941
36.697388 6.2069473 63.27741
38.77239 5.492943 63.896408
40.04339 5.049942 66.00841
38.90339 4.160942 67.541405
10.837387 37.38794 73.498405
9.519386 35.89694 71.84241
6.9023895 35.11594 72.055405
5.120392 36.11594 73.35141
65.41338 33.58294 82.11141
66.72539 33.74194 79.87141
69.67139 33.59994 79.900406
70.94138 32.86594 82.10241
66.145386 67.75894 41.42241
67.26238 65.988945 42.75641
69.13738 64.28394 41.723408
70.88738 64.60794 39.626408
65.438385 3.9849472 3.311409
64.55939 3.0039444 5.5764084
61.837387 3.2429428 5.769409
60.462387 2.4829407 4.521408
46.164387 59.81194 70.708405
44.726387 61.55794 72.07441
42.919388 62.65094 70.32741
40.817387 61.41394 69.26941
68.673386 35.82694 55.08041
70.79439 36.09694 53.11641
73.34939 37.26594 53.83341
0.5483856 37.27694 55.70741
47.03639 36.49894 37.759407
45.38239 37.34994 39.19741
43.357388 36.25694 40.40941
42.422386 34.26694 40.55241
58.622387 34.17594 62.52541
57.30039 34.23994 64.678406
58.718388 34.66694 67.23041
60.856388 34.34894 67.87941
36.94539 65.10394 37.94741
35.124386 66.23094 36.78141
32.86939 65.56694 35.81241
31.844387 63.42394 35.58341
36.963387 3.259941 46.01241
38.241386 5.1919403 46.36441
40.29839 5.676941 48.08041
41.780388 4.490944 49.20841
25.070389 37.63594 29.988409
22.34639 36.98494 28.761408
20.984383 35.54094 29.743408
20.528389 34.36394 31.89441
54.114388 63.75994 12.04541
55.484386 63.97194 13.159409
55.67439 65.03994 15.56041
53.885387 65.613945 17.007406
53.942387 61.36194 0.58741
52.02239 62.79194 82.03441
51.82039 63.38594 78.986404
52.680386 62.015938 77.250404
56.489388 4.611946 55.29041
57.005386 4.978943 52.56141
59.29739 5.3629456 51.716408
61.637386 4.833946 52.51841
20.303383 43.96694 77.36941
21.127388 43.27094 79.52141
20.612389 41.12094 81.11141
18.87439 39.01194 80.23841
3.5993881 29.14794 26.069408
4.6873856 31.44594 26.466408
4.3223877 33.03094 28.218409
2.9253845 33.10494 30.152409
48.708385 4.3549423 24.007408
47.07139 6.0059433 23.187408
44.756386 6.634941 23.950409
43.318386 5.309944 24.388409
31.492388 6.98394 50.23741
33.803387 5.165947 50.10041
36.06439 5.48394 49.14941
36.393387 6.9679413 47.439407
72.71339 6.313942 44.605408
70.979385 7.144943 46.51341
70.77739 6.512947 48.96041
72.64938 5.521942 50.62241
46.843388 33.34694 29.238409
48.734386 35.24094 28.553408
50.55039 35.31194 26.817408
51.12639 33.34894 24.71741
30.173388 35.17294 66.95441
28.724388 33.76094 67.21241
25.947388 33.75294 67.694405
24.284388 35.38294 66.82741
54.10539 32.44394 72.39041
53.44539 34.87494 72.22541
51.04239 35.88894 72.00341
48.97439 35.03894 70.71141
43.553387 65.04994 35.71141
44.690388 65.01194 37.35141
43.864388 64.91794 39.72941
41.951385 64.66094 40.835407
2.3803864 37.64394 37.58841
1.1933899 36.09594 35.75641
72.46838 36.28094 34.70741
70.64039 37.53594 35.24841
19.616386 0.42394257 10.579407
20.838387 2.3099442 9.883408
23.092384 3.3549423 10.439407
24.927383 2.2559433 11.92141
59.19539 63.11894 20.565409
59.65839 63.82294 22.944408
61.880386 63.24794 24.489408
63.641388 62.04494 23.948408
47.731388 37.42994 48.146408
46.165386 37.00194 49.81441
43.45239 37.34594 49.17641
42.470387 38.46294 47.36841
5.135391 36.28394 22.853409
4.314392 34.33594 21.507408
3.7593918 33.96894 19.268408
3.1603851 35.23894 17.455408
71.03938 34.39594 66.733406
68.646385 34.98094 66.25941
66.53938 33.73094 66.91141
66.23839 31.20694 67.52441
9.142387 4.9679413 73.873405
7.3883896 3.3949432 73.11341
5.0653915 3.3599472 72.82641
3.2423859 4.9879456 73.053406
33.962387 33.42494 19.375408
35.741386 33.99194 17.956408
38.68239 34.25694 18.92241
39.43039 34.31094 20.773409
34.401386 2.7209473 14.186409
32.864388 4.21994 12.924408
31.545387 4.1409454 10.467407
32.052387 2.6739426 8.669411
22.200386 30.08194 32.348408
22.522385 29.97594 35.098408
21.92939 31.919939 36.63641
20.578384 33.86294 36.272408
18.796387 39.21594 21.125408
19.935387 37.24294 20.798409
21.758385 35.92994 21.955408
22.619385 35.65794 24.09241
5.3743896 27.94194 24.479408
7.092392 29.45294 23.741407
9.04039 30.93094 25.21041
10.134392 30.03994 27.163408
36.373386 69.641945 33.50341
38.26339 68.12094 33.16441
40.36239 68.19994 31.505407
41.67339 70.168945 31.191408
7.606392 64.87694 67.86241
5.3243866 65.02994 67.99441
3.4053879 63.452938 68.762405
3.2443848 61.25794 69.63541
7.202385 0.62794495 70.58041
8.673386 2.700943 70.46741
9.799385 3.4459457 68.261406
11.395386 2.4169464 66.82141
34.64039 61.56694 52.410408
33.671387 63.41894 53.31641
32.88339 65.53594 51.54041
32.138386 65.46894 49.37841
34.039387 29.90094 60.27941
33.11839 32.25294 59.71541
33.09739 33.68594 58.04341
34.707386 34.36794 56.15241
48.498386 8.690941 32.426407
47.88339 6.736946 31.160408
45.615387 6.4029465 29.444408
43.921387 8.051941 28.659409
54.970387 33.04894 54.17341
52.93239 33.90194 55.29041
50.615387 34.98094 53.96541
50.010387 33.82694 51.72741
64.11339 30.19894 22.429407
64.076385 32.44194 23.398409
62.37539 34.45894 23.882408
60.059387 34.69894 23.347408
29.770388 62.31394 71.85741
31.432388 64.01094 71.19641
32.964386 64.32894 68.91341
32.183388 63.94794 66.58941
39.02039 68.06794 26.044409
40.009388 67.15794 28.413408
42.429386 67.738945 29.274408
44.206387 67.61094 28.237408
8.725388 68.33494 23.158407
8.703392 65.95294 23.344408
8.545387 64.225945 21.234407
9.041389 64.82094 18.744408
0.8223877 37.11894 78.070404
2.9183884 35.92894 78.06241
4.962387 36.64494 79.52141
5.830391 38.70094 80.12041
19.907387 61.41694 26.346409
21.36139 62.79894 27.784409
21.234383 62.80394 30.416409
20.227386 61.13194 31.989408
48.004387 62.26894 45.11641
49.07139 64.46794 46.278408
51.635387 65.030945 46.26341
53.484386 63.50594 46.106407
33.291386 32.03094 5.606407
31.739388 33.46594 6.862404
29.542387 32.98594 8.133408
27.982388 31.01694 7.341408
56.22339 36.81094 10.825409
58.66639 36.56994 11.18441
60.06839 36.76794 9.151405
59.33539 38.11294 7.0574036
48.579388 64.33894 36.43641
50.108387 66.211945 36.23541
53.016388 66.059944 36.36041
54.402386 64.55294 36.162407
60.927387 61.91894 29.624409
58.608387 62.80194 29.666409
57.34839 64.13694 27.462408
58.02639 64.43894 25.160408
0.4663849 0.5209427 45.33341
0.691391 2.887947 45.93641
2.3343887 4.4479446 47.31041
4.396385 3.9139404 48.22741
58.725388 37.76394 56.16241
57.180386 35.70194 55.30041
55.57039 35.65494 53.86741
54.395386 37.41694 52.10641
65.076385 0.5649414 32.39241
65.18339 2.7399445 31.558409
65.83239 5.1319427 32.43741
66.841385 5.5909424 34.50041
55.933388 62.59294 34.70441
57.525387 64.27394 34.24841
60.15339 64.31194 33.210407
61.31939 62.48994 32.38141
7.0793915 36.00794 60.35741
4.976387 37.63594 60.959408
3.2093887 36.91594 62.86141
2.2333908 35.01794 63.48341
17.937386 9.148941 25.787409
16.835388 7.347946 24.831408
16.396385 4.8809433 25.773409
16.272385 4.087944 28.147408
48.516388 3.4689407 48.26841
48.016388 5.8289413 49.28141
49.704388 8.036942 49.31141
51.853386 8.224945 48.39741
11.744385 32.14394 56.22241
11.506386 33.931942 57.98241
12.478386 34.09294 60.27741
13.252388 32.61594 61.97041
70.56839 68.04294 16.782408
69.94739 65.96794 18.054409
67.592384 64.99894 18.754408
65.75039 64.795944 17.042408
30.479387 60.11194 79.82941
31.358387 62.57994 80.52441
33.503387 63.647938 79.92141
35.844387 62.43294 79.73241
40.46739 67.49694 46.44241
39.643387 67.35694 49.01841
39.962387 65.34294 50.41441
41.78439 63.515938 50.51741
55.377388 4.730942 39.646408
55.88939 6.3209457 41.570408
54.43839 6.716942 43.74241
52.17439 5.6549454 44.44841
46.995388 63.28394 19.350409
47.135387 65.461945 19.277409
48.11839 67.30594 17.774408
48.719387 67.03394 15.485408
50.305386 2.7609406 56.63741
49.651386 4.7099457 55.19841
50.847385 5.641945 52.95641
52.91839 4.829941 51.94041
18.238388 2.301941 27.569408
19.474388 3.7179413 26.891409
20.632385 4.153946 24.525408
20.793388 3.2019424 22.591408
32.20239 31.78594 72.67641
34.163387 32.38994 73.34941
35.492386 33.44794 71.678406
35.13239 32.73394 68.79741
58.44339 39.42794 26.819408
57.170387 37.26294 25.821407
55.283386 36.43594 25.386408
52.805386 37.29194 25.438408
7.3863907 58.99894 28.688408
8.625389 59.62794 26.662409
10.966385 61.11194 26.589409
12.447388 61.75994 28.521408
5.750389 36.99294 45.22641
3.4063873 35.97094 45.703407
3.2183914 33.78094 43.88041
4.1123886 33.51594 41.57941
52.65339 63.383938 66.07241
54.274387 62.81294 64.64041
55.72339 64.35794 62.61541
56.21039 66.462944 62.44241
35.275387 6.998947 14.833405
34.24439 7.208946 17.433409
31.579388 7.23394 17.707403
29.876387 7.2539444 15.806404
67.48438 31.74494 25.702408
66.992386 34.03094 25.995409
64.620384 35.11394 26.542408
62.351387 34.29994 26.854408
68.133385 38.12494 6.1684036
67.117386 37.14794 4.7134094
68.412384 36.47794 2.334404
70.716385 37.18794 1.6134033
46.420387 61.15394 76.373405
44.61839 62.56294 77.37641
42.04239 62.71294 76.74041
40.879387 61.45794 75.12741
58.406387 1.0819473 6.1854095
57.491386 3.0079422 4.60141
55.740387 3.3709412 3.3914032
53.29339 2.8029404 3.5484085
21.688385 31.03394 29.920408
22.451385 33.18394 29.22441
21.871384 34.56594 26.867409
20.992386 33.70994 25.122408
16.093384 63.88294 78.92441
17.482384 63.02794 80.71341
16.93039 62.06794 0.88640594
15.222389 62.15694 2.0974045
18.854385 7.341942 13.386406
18.715385 5.254944 14.078407
16.946388 4.0419464 15.92041
15.683388 4.8209457 17.835402
45.518387 5.71994 66.31641
44.372387 6.986946 67.79941
42.287388 6.436943 69.47741
40.962387 4.353943 69.60741
22.716385 67.15294 56.74941
24.468384 65.19294 56.67541
27.002392 65.365944 56.32541
28.164387 66.766945 55.54341
58.511387 5.8409424 39.452408
59.69539 7.259941 38.174408
60.10539 7.021942 35.403408
59.643387 5.134941 33.919407
46.75039 37.188942 72.10741
47.65439 35.60794 73.12941
47.143387 33.96294 75.347404
45.526386 34.19894 76.65841
1.8333893 32.18294 73.22841
0.7823868 32.24494 75.62041
72.02438 33.19094 76.235405
69.980385 32.45694 74.068405
57.191387 41.07994 44.370407
55.58539 39.01594 44.37441
55.46639 37.35694 42.362408
55.34139 38.10694 39.59041
58.135387 2.0449448 74.304405
58.96039 3.9179459 75.44741
61.481388 4.105942 76.46141
63.366386 3.299942 76.31441
48.859386 9.44194 15.066406
49.705387 7.9219437 17.406408
49.002388 7.992943 19.671408
48.051388 9.835945 20.923407
44.738388 62.14594 22.277409
43.346386 63.82594 22.327408
41.294388 64.51994 23.695408
40.22439 63.10294 25.48141
56.671387 8.328941 6.120407
56.943386 5.815941 5.903404
59.39039 4.5089417 7.1544037
61.63839 5.606941 7.028404
68.397385 39.28094 9.182404
67.83138 37.03094 10.138405
69.35139 35.41394 11.788406
71.37138 35.45694 12.549408
39.97439 35.08194 50.95841
39.67339 36.12994 48.57641
41.031387 36.08694 46.599407
42.63339 34.63394 45.69141
42.812386 70.17994 7.2764053
42.81339 67.77294 7.5974045
41.09239 66.10494 9.10041
40.288387 66.95894 11.271408
47.69639 31.64494 77.444405
47.66139 31.39594 79.97341
45.491386 32.03994 81.53241
43.53539 33.02894 80.56941
32.69439 38.25694 49.71241
32.16739 36.61194 48.83041
33.43739 35.05594 46.911407
35.34039 35.50994 45.59441
26.524387 7.3349457 44.148407
28.696388 6.4099426 44.105408
29.596388 6.109947 46.537407
29.590387 7.769943 48.42641
8.357391 63.32994 50.74641
10.439392 64.043945 51.92141
10.773392 65.52794 54.28641
9.461388 66.05394 55.89341
24.540388 1.8189468 23.693407
23.351387 3.903946 22.828407
23.217388 4.799942 20.350409
23.943388 3.7559433 18.011408
11.47139 65.252945 24.774408
10.619385 63.85694 26.109407
8.1403885 64.04794 27.578407
7.5203857 66.28494 28.570408
20.191383 5.5699463 61.21341
18.667389 6.34494 62.97741
16.059387 6.514946 62.57441
14.431389 5.139946 61.535408
49.86839 70.21694 17.701408
47.23039 69.87694 17.181408
46.555386 69.54094 14.379408
46.99439 71.17394 12.601408
29.668386 2.801941 12.00441
29.799387 4.818947 13.692406
27.483387 5.4939423 15.28241
25.693388 5.240944 14.544411
61.93939 38.05194 10.9614105
63.595387 37.58494 12.814407
66.40839 38.00194 12.325409
66.86039 40.80894 10.999405
19.931389 1.6569443 72.24641
19.164383 2.8549423 70.333405
20.703384 3.776947 68.46541
23.032387 2.8109436 67.60641
2.552391 2.1309433 7.1804047
4.8403854 3.4689407 8.303406
5.0193863 4.1639404 10.478409
4.089386 3.0859451 12.604408
5.1423874 67.378944 70.36641
5.510391 67.58494 68.06341
3.091385 66.63394 66.66141
1.1123886 67.05594 67.24241
9.574387 30.256939 1.273407
9.0533905 32.25894 1.2004089
8.681389 34.431942 3.096405
8.493385 34.53694 5.1774063
56.701385 59.44794 7.3974075
56.461388 61.89594 8.125404
56.509388 62.90694 10.382408
57.527386 62.11694 12.499405
25.450386 61.68294 2.2274094
24.630386 62.87194 4.110405
22.105385 63.68294 4.497406
20.883385 63.72694 3.033409
16.328384 6.3059464 33.452408
13.917389 6.4969406 34.91541
11.52739 6.960945 33.938408
10.937386 7.6359406 31.792408
10.852386 5.504944 22.689407
9.36039 5.1149445 24.969408
10.11039 5.375946 27.257408
12.478386 6.172943 28.166409
20.853386 60.92894 73.47441
22.184387 60.31894 75.416405
25.306389 60.72094 75.06441
26.011387 62.216938 73.86941
38.877388 33.41494 62.86441
40.68839 35.07594 61.81741
41.19539 37.11694 63.71541
40.07739 36.79394 66.06641
39.39739 65.80294 75.97941
38.04139 63.98394 74.78141
35.456387 63.17594 75.64541
34.135387 64.12194 77.069405
66.98438 62.38694 51.58941
65.12739 61.86594 53.51241
65.812386 60.42294 55.52641
67.96838 58.869938 55.94841
40.573387 10.754944 53.86341
39.725388 8.650948 53.688408
37.749386 7.780945 52.08341
35.464386 9.403946 52.01941
27.475388 2.740944 24.277409
26.553387 2.9759445 26.637407
27.801388 3.535942 28.762407
29.997387 3.37294 29.453407
0.59038544 68.28994 24.277409
1.740387 66.97394 21.900408
4.3623886 67.211945 21.226408
6.09639 68.82494 22.511408
62.65339 65.30194 52.41241
63.56339 67.47894 52.25441
66.19639 68.13094 51.99841
68.272385 66.90894 51.80941
44.024387 32.60894 30.243408
42.309387 33.93594 31.058409
41.41139 34.71994 33.54841
42.045387 33.63794 35.89541
11.301392 87.503944 70.15841
12.014389 0.20394135 71.33041
11.163391 0.950943 73.85241
12.481392 88.66695 75.806404
45.701385 38.42894 18.018408
44.949387 35.85994 18.242409
45.11839 34.11294 16.387407
44.384388 34.64594 13.940408
32.552387 8.111946 21.952408
34.25039 7.1999435 23.069408
36.59139 5.931946 22.369408
37.93839 6.4619446 20.678408
56.308388 62.51294 17.357409
57.83239 63.16694 15.769408
60.32839 62.81294 15.192409
61.726387 61.03794 16.382408
52.14639 37.20794 79.05841
49.878387 35.69894 78.99041
49.32839 34.63194 76.78041
50.060387 35.07294 74.39641
52.36139 37.97094 53.653408
51.55739 37.03894 52.08141
49.18239 36.57794 51.75041
47.25839 37.73294 53.03941
27.679388 33.22594 27.558409
25.185387 33.65294 28.799408
24.647387 33.93494 31.080408
25.475388 33.00094 33.23641
69.49039 4.6649475 53.34641
71.39139 4.7759476 54.55441
71.202385 5.5489426 57.17941
69.674385 6.948944 58.33841
30.848387 63.88494 26.845407
32.970387 63.32094 25.935408
33.671387 63.251938 23.099407
32.400387 62.68894 21.352407
10.90239 68.69294 11.2604065
9.865387 66.405945 10.807404
8.132385 65.57494 9.405411
6.510391 66.25694 7.978409
49.423386 9.294945 51.69241
48.91139 6.672943 51.97141
47.39039 5.38694 53.50141
45.770386 6.207947 55.33741
46.72439 62.56394 51.86341
47.926388 63.43994 50.438408
47.11139 65.169945 48.13441
44.886387 65.12494 47.10241
31.608387 61.56094 12.419411
31.858387 63.744938 11.00441
33.38939 65.91694 12.319405
35.72939 65.40294 13.639404
2.1493912 8.3389435 81.01841
1.2823868 5.992943 82.23541
2.450386 3.9959412 0.4914093
4.6943893 3.4189453 0.8924103
41.629387 9.746941 73.859406
41.169388 7.599945 75.46741
41.219387 5.5349426 73.847404
39.95139 5.1109467 71.929405
45.08439 60.58094 46.528408
43.712387 62.52794 46.34041
42.155388 63.41394 44.523407
41.245388 62.51194 42.31241
35.83339 2.111946 21.469408
34.665386 3.974945 22.020409
33.00739 4.653946 24.129408
33.01539 3.2429428 26.302408
57.66139 32.30494 81.74441
57.59939 33.83394 1.8534088
55.178387 34.13494 3.1314087
53.339386 33.15894 2.9434052
63.25139 33.45194 44.30341
64.67039 35.28694 44.897408
67.29439 35.70094 44.578407
68.898384 34.61894 43.42741
36.825386 33.22194 45.37941
37.207386 33.42594 42.912407
38.783386 34.92994 41.40141
40.539387 36.12394 41.862408
67.172386 7.585945 32.307407
69.40439 6.297943 33.959408
71.01639 5.1599426 31.944408
70.81839 5.809944 29.485409
73.478386 61.68394 34.44241
1.5723877 62.32894 34.73341
3.0483856 63.15094 32.363407
2.677391 62.03294 30.215408
21.092384 6.6569443 34.898407
21.048386 4.23394 34.278408
19.411385 2.8069458 32.59441
17.839386 3.3569412 30.861408
4.0293884 61.95094 36.08341
2.9633865 63.42994 37.63141
3.113388 63.46894 40.39341
3.3493881 61.60494 41.81641
16.251389 62.49694 20.676409
18.275383 63.63494 22.308409
19.594383 62.71794 23.994408
20.63839 62.80094 21.668407
59.18739 29.45294 70.664406
60.55739 31.59294 70.542404
62.238388 32.41494 68.68841
63.53439 31.22394 66.886406
18.914383 67.47294 80.77341
19.051384 65.04194 82.09641
20.928383 63.80394 0.32440948
23.38739 63.98494 0.18540955
17.41639 89.014946 11.67141
17.98539 1.1119461 12.895409
16.978386 3.2039413 13.262405
14.872391 3.5209427 14.358406
52.12639 4.0629425 67.89341
50.345387 4.6129456 66.928406
47.669388 4.6739426 67.82941
46.534386 4.1459427 69.82841
46.081387 7.7849426 62.24341
45.044388 6.3579407 63.56941
42.038387 5.98394 63.91441
40.447388 7.7209473 62.924408
62.747387 37.10394 65.638405
61.850388 37.181942 67.983406
63.337387 35.52994 69.694405
65.75239 35.07794 69.45341
4.58239 33.14194 70.08841
4.939392 32.96994 67.82541
3.1503906 34.07394 65.92041
1.1103897 34.86094 66.28041
60.97339 39.69894 5.5604095
62.606388 37.78494 4.6834106
64.61439 36.78294 5.9984055
66.08239 37.95694 7.8994064
37.727386 36.31694 11.314407
36.901386 34.00994 10.748405
34.648388 32.93494 10.190407
32.471386 34.13494 9.596405
6.841385 37.63594 16.428408
7.530388 37.40394 19.030409
10.005386 36.91294 19.908407
12.24839 37.05394 18.523409
64.12539 33.96394 6.214409
63.058388 35.13694 7.4424057
63.67239 35.931942 9.983406
65.287384 34.96594 11.495407
23.41539 32.26794 13.180405
22.303383 33.93594 11.593407
22.44339 33.60394 8.830406
22.657387 31.70294 7.5434036
62.09739 65.20494 62.58241
59.75039 64.198944 63.06141
57.844387 63.42294 61.39341
57.89539 63.63094 58.80541
30.172388 41.10194 82.21241
29.000387 39.49394 81.92741
28.108387 37.21694 1.2024078
28.050386 37.30394 4.019409
25.698387 39.10894 73.96641
23.348389 38.96594 73.63241
22.157387 38.431942 71.17041
23.231384 38.50694 68.81441
62.38139 34.27594 57.38141
61.544388 36.57394 56.37641
61.09139 36.91294 53.73641
60.97139 35.60694 52.13941
9.625389 34.82194 34.47241
8.741386 33.71994 36.140408
9.738388 33.063942 38.68741
11.55439 34.49494 40.06541
70.17939 0.014945984 25.589409
71.64239 2.4099426 25.254408
72.97639 3.0199432 23.097408
73.04539 2.0459442 20.902409
54.24439 68.18894 77.344406
52.600388 66.55394 76.39741
52.84239 64.31894 75.57341
55.177387 62.94294 74.87841
14.97139 31.10194 48.65841
13.413391 32.69094 47.28441
10.629387 33.21394 47.88041
9.135391 32.18894 49.049408
34.09139 9.617943 32.74341
32.935387 7.4419403 33.529408
30.786388 6.040947 32.01141
29.971388 6.617943 29.749409
3.7683868 70.31694 61.58241
2.8583908 68.488945 62.71341
1.4103851 68.21594 64.70041
0.51039124 69.63994 66.25441
23.009384 65.56094 42.51041
24.709389 65.98594 41.26841
25.34639 65.53594 38.67941
23.070389 64.94194 36.82341
58.06939 12.002945 19.271406
57.430386 9.900948 19.744406
56.972385 7.684944 18.200407
57.98739 7.1429443 16.188406
46.78539 62.68494 38.022408
47.205387 64.434944 40.06141
49.032387 64.61894 41.56641
50.809387 62.92694 42.71241
42.242386 63.72494 28.774408
43.43239 65.460945 30.225409
42.330387 66.69194 32.61741
40.96739 65.54994 34.22941
65.12338 66.46994 8.244408
65.312386 64.53494 7.257408
63.22139 63.48594 5.7484055
60.989388 64.57594 5.4534073
39.853386 2.3319473 54.69341
40.481388 3.762947 56.99041
41.63239 3.028946 58.99041
43.159386 1.6879425 59.05241
68.70638 1.9149475 81.16941
69.32339 3.8199463 82.22041
71.58739 4.9859467 0.9554062
73.61639 4.259941 1.3784103
60.77939 68.63994 27.404408
62.14439 67.12094 26.52641
62.005386 66.14494 23.853409
60.78539 66.865944 22.246408
18.334389 0.27894592 2.4874039
18.286385 3.0649414 3.233406
19.229385 4.9969406 1.8754044
20.709389 4.934944 82.22241
65.27639 62.78794 31.662409
67.02639 63.24894 30.145409
66.631386 64.08894 27.437408
64.98338 63.70094 26.131409
52.745388 11.74794 45.926407
51.39039 9.849945 45.97041
51.16139 7.9859467 43.780407
51.148388 8.2749405 41.772408
37.86139 60.58394 9.550407
38.74339 61.60794 7.7414093
40.899387 61.50094 6.2554092
42.407387 59.68394 5.533409
12.26339 8.486946 56.063408
13.991386 7.662941 57.21741
16.883385 8.263947 57.02341
17.689384 10.209946 55.96841
16.001389 8.082947 51.87741
15.548386 4.9919434 51.55941
13.472389 3.938942 50.90841
11.38839 4.6499405 50.01941
63.48639 4.3839417 64.457405
65.091385 5.5819473 65.27141
67.452385 4.910942 66.526405
68.772385 2.7049408 66.12741
57.109386 6.3269424 0.03640747
55.843388 4.922943 80.94241
54.977386 5.0069427 78.68541
54.34239 7.315941 77.19041
67.34939 9.268944 42.13541
68.578384 7.266945 41.487408
68.83839 4.9969406 43.134407
69.26238 5.208946 45.72141
44.857388 2.7049408 11.822411
44.57139 4.9009476 10.230408
43.726387 4.8999405 7.7654037
43.907387 3.1829453 5.9614105
24.55439 64.45194 20.867409
24.167389 65.36794 18.824408
22.189384 65.78594 17.340408
19.727386 64.87094 17.609407
66.98739 36.84794 79.083405
67.798386 36.60394 76.81341
69.87739 35.81294 75.541405
71.94539 36.11694 76.194405
50.138386 8.201942 37.530407
49.52939 8.967941 35.35741
47.06439 7.6979446 34.460407
45.003387 7.236946 35.87141
68.117386 66.754944 9.146408
69.13738 65.77794 11.05941
67.57139 64.44094 12.190407
65.495384 65.18994 12.996407
71.24939 7.609947 21.199408
71.33639 5.6269455 19.485409
73.56839 4.1339417 18.837408
1.9233856 5.0529404 18.529408
30.052387 31.71894 2.6634064
29.242388 32.36594 0.14840698
31.362387 32.90894 80.42541
33.423386 32.24894 80.53541
32.93939 7.315941 1.2544098
35.137386 6.077942 1.1794052
36.69639 5.764946 2.9094086
37.547386 7.1689453 5.1094055
5.337387 1.6839447 68.69841
2.7843857 1.5059433 68.497406
1.0173874 3.014946 67.50941
0.8563919 4.063942 65.638405
33.498386 68.09394 68.42641
31.397387 68.06894 70.52341
31.625387 67.27494 72.55141
33.33339 65.83494 73.903404
24.512388 66.754944 1.9004059
25.143387 65.95494 4.0124054
27.459387 65.01594 4.93441
29.914387 65.67594 4.112404
72.70839 32.66994 5.4044037
71.40139 34.56894 7.0674057
68.97539 34.97294 7.4134064
66.93039 34.30094 5.6944046
57.218388 38.76394 17.975409
55.691387 37.04594 17.891409
54.277386 35.96694 15.549408
54.137386 36.99194 13.576408
37.088387 60.95194 53.88541
38.67539 62.75994 53.11841
37.492386 65.02594 52.88441
35.30739 65.84194 54.28141
71.91539 65.63494 11.224403
71.06738 65.82894 13.761406
72.60239 66.25894 15.780411
1.2453918 67.18194 15.775406
47.572388 39.24094 79.19741
47.690388 38.40194 81.48741
47.03639 36.38394 0.27840424
45.892387 34.56094 82.02641
5.990387 65.72294 77.01541
6.0863876 63.14694 77.17641
8.118385 61.70494 78.263405
9.8263855 62.34594 79.85641
55.75139 10.559944 45.148407
54.687386 9.746941 43.00441
55.865387 9.061943 40.779408
58.074387 9.292946 39.820408
16.784386 61.09394 38.68641
17.737389 62.35894 40.787407
20.660385 62.84294 40.81741
22.342384 61.56694 40.00341
23.911385 61.56594 78.999405
25.341385 62.05694 81.13041
27.191387 60.88094 82.21241
28.47739 58.94094 81.78741
66.31039 7.144943 49.14141
64.078384 7.438942 49.86341
63.588387 6.7519455 52.71141
65.29139 6.825943 54.41441
55.88339 34.03394 9.816406
54.380386 35.30794 8.248405
52.55639 37.32494 9.791405
51.82739 36.91194 12.200409
11.478386 60.17694 7.5554047
11.953392 61.22194 5.8854065
14.025391 62.33894 4.592407
16.20739 62.369938 4.9964066
30.432388 68.37694 62.36841
31.022387 68.544945 60.17241
29.926388 69.016945 57.75841
28.172388 70.75694 57.17041
17.100388 67.01994 78.45141
19.22139 65.88494 77.82941
19.51339 64.46394 75.608406
17.933388 64.240944 73.54341
47.03639 69.21494 80.358406
48.113388 67.38094 81.48441
50.561386 65.87294 81.16241
52.30039 66.42994 79.59841
8.392387 66.49394 74.91341
7.7953873 66.35994 72.74041
6.611389 63.82894 71.99441
7.077385 61.72794 72.75841
10.702385 63.53394 61.21941
10.169388 65.61894 62.61441
11.668388 66.52394 64.47841
13.0503845 65.09594 66.28041
54.235386 69.100945 31.888409
52.690388 67.37094 31.72441
50.357388 66.58894 33.27441
48.781387 67.75794 33.86141
56.117386 4.776947 12.487404
57.31439 3.736946 10.778404
59.92439 4.8109436 11.237404
61.04239 5.0589447 12.808411
57.38339 39.24994 58.86041
59.14439 37.15094 58.82541
60.109386 36.15394 61.16441
60.40139 37.00794 63.13441
24.224388 36.63594 9.655411
25.06939 34.60394 9.055405
24.720383 33.60594 6.5584106
24.161385 34.77394 4.624405
36.811386 38.13594 36.26341
39.37639 37.68994 36.529408
40.650387 37.39394 38.99041
39.566387 38.45594 41.22041
66.273384 71.71794 52.584408
67.36539 70.34894 54.00541
65.480385 68.543945 55.51741
63.14039 68.56794 55.31041
25.467384 5.972946 37.33241
25.317383 4.559944 39.327408
23.779388 4.712944 41.488407
22.015388 6.0869446 42.01441
14.285385 1.0959473 50.13541
13.784386 2.5039444 48.23741
11.990387 2.9319458 46.74341
9.668388 1.4709473 46.33641
31.876387 31.322939 47.68041
31.225388 32.38694 45.60141
32.400387 32.81994 43.29741
34.530388 32.74494 42.528408
24.451387 41.80294 75.61941
23.079388 40.12994 77.02341
22.714388 40.00594 79.59341
23.395388 41.257942 81.15941
53.68239 38.71994 67.70041
51.613388 37.90394 66.77141
49.226387 38.04394 67.917404
48.569386 38.53094 70.21041
24.355385 2.141945 42.15741
23.240387 1.7989426 44.43541
20.508385 2.3649445 44.22841
19.119385 2.5399475 41.959408
69.74139 33.45694 14.619408
68.856384 35.04794 16.709402
66.33339 35.87194 17.138403
64.23739 34.54394 16.618406
8.372391 59.21294 23.613407
8.528389 61.452938 23.123407
10.592392 63.07294 22.810408
12.968391 62.76894 22.333408
3.5393906 37.27094 69.37941
3.6503906 35.72894 71.00941
1.8103867 34.98194 72.80941
0.1313858 36.14194 73.80241
45.36939 2.6269455 46.58841
44.387386 4.660942 48.22841
45.576385 5.2239456 50.542408
46.288387 3.3489456 52.37341
25.241388 8.222946 6.8544083
26.320387 6.0969467 7.3754044
26.628387 5.111946 9.746407
25.284388 5.7399445 12.002403
69.58439 63.272938 18.679409
71.67939 63.66694 20.077408
71.384384 64.89594 22.465408
69.549385 64.877945 23.913408
10.31739 64.099945 4.4044037
10.337387 63.67094 6.797409
11.059387 64.62194 8.802406
12.511391 66.29994 9.498405
65.40839 36.17694 38.86041
67.23939 35.62294 40.42241
69.03838 36.75294 41.45041
69.40038 38.95494 42.112408
17.094383 30.388939 44.342407
18.570389 31.04794 42.737408
21.020386 30.35694 42.390408
22.72239 28.86394 43.88541
52.678387 7.2749405 59.71241
51.463387 6.5229416 57.31841
49.04939 6.818947 56.70341
47.128387 7.509941 58.56541
52.80739 37.16394 21.382408
51.43839 35.38794 22.564407
49.260387 35.53194 23.836409
48.50139 37.320942 25.485409
38.155388 36.94294 75.39141
36.991386 35.47994 77.053406
34.80739 34.99594 77.53141
32.727386 36.98394 76.90441
47.38239 4.3959427 11.368408
45.856388 4.96994 13.11541
46.636387 5.5509415 15.765404
48.699387 5.5509415 16.656408
6.597389 60.01094 21.588408
8.000389 61.65894 20.325409
8.128387 61.97494 17.844408
6.969391 60.35294 15.804408
44.899387 3.8679428 17.468405
42.784386 4.4339447 17.807402
41.858387 6.0109406 16.046408
41.89039 5.7899475 13.777405
58.39439 37.12394 31.590408
58.29139 37.32294 28.942408
60.377388 36.71094 27.428408
62.91539 36.78094 28.363409
61.40139 65.379944 45.15941
62.822388 65.97994 47.613407
65.37839 67.13594 47.22541
66.64339 67.66294 45.384407
14.094391 63.09594 51.37941
14.22139 64.00894 48.96741
12.560387 63.05894 46.91341
10.791389 62.077938 46.97041
30.621387 3.3059464 22.120407
32.066387 4.669945 20.901407
33.011387 4.948944 18.540407
32.302387 4.488945 16.654408
15.626389 67.55594 36.146408
16.42939 65.62694 35.370407
16.442383 63.494938 37.17141
16.074387 63.81394 39.44941
8.61039 40.15994 51.45141
7.2373886 38.36594 52.29641
6.620392 37.75894 54.53441
7.146385 38.97794 56.98041
19.936386 7.4419403 69.027405
21.831383 6.0929413 69.49441
22.593384 5.059944 71.762405
22.601387 5.7969437 73.74541
5.283386 6.8529434 4.2564087
5.825386 6.0969467 6.0794067
4.47139 6.0439453 8.413406
2.226387 6.278946 8.950409
36.572388 6.393944 70.09941
35.080387 5.158943 68.970406
32.66039 4.1689453 69.55741
30.908388 5.38694 71.28441
49.061386 32.51094 44.09741
47.561386 34.33194 43.23341
45.018387 34.50394 44.04541
43.311386 32.49794 44.26141
52.669388 67.93794 15.909409
51.562386 66.45394 14.646408
50.95239 66.461945 12.037407
50.31339 68.003944 10.527405
27.03239 35.74094 17.748407
26.90739 34.37294 19.908407
26.31239 35.28894 22.278408
24.79039 36.82894 23.148409
9.536385 32.04694 11.704407
10.35939 34.13894 11.18541
9.584389 35.87194 9.4724045
8.12339 36.25494 7.766403
15.022385 0.7959442 4.813408
15.44339 2.2869415 3.0284042
14.241386 2.4929428 0.52640533
13.11039 0.7319412 81.594406
73.35938 62.827938 50.334408
0.6103897 65.057945 50.39241
3.3343887 65.62394 50.43941
5.353386 64.27294 50.05741
57.298386 67.78294 41.320408
56.96039 66.75994 39.57641
53.773388 66.72294 39.74841
52.520386 68.17194 39.32641
21.099388 67.476944 74.125404
21.675385 65.01194 74.34241
23.571388 63.90694 75.75641
24.183388 64.50894 78.23741
61.64439 32.41094 11.4464035
61.16039 34.84894 11.144409
61.09039 36.61594 13.452408
60.35439 36.15694 15.6094055
11.891388 35.64294 55.89341
13.555389 33.99794 55.62441
16.294388 34.12394 55.94241
17.48539 36.04794 57.69741
68.825386 31.12394 72.084404
67.36639 31.68794 69.875404
64.978386 32.56994 69.664406
63.15139 32.74494 71.469406
0.45339203 31.35094 20.200409
1.7093887 32.63994 18.117409
0.33238983 34.58294 16.883408
71.69439 34.87294 17.018408
61.995388 6.0939407 32.231407
63.68839 6.1189423 33.76141
65.256386 8.006943 35.077408
64.80839 10.171944 35.209408
1.0373917 7.6999435 16.381409
1.764389 5.490944 15.263408
2.4973907 5.1309433 12.758409
3.7443848 6.472946 11.253408
27.331387 60.94594 41.634407
25.822388 62.62394 41.10241
23.043386 62.78094 42.266407
22.159388 61.90894 44.20641
68.90839 66.16094 80.13141
71.43339 65.740944 79.831406
71.53039 64.59694 77.40741
70.38039 64.65294 75.62741
27.412388 7.238945 73.89141
28.372387 5.655945 72.08841
26.266388 5.2179413 70.35141
24.487387 6.7189407 69.678406
1.0583878 89.06494 69.59241
73.82039 0.799942 71.41341
1.2203903 1.8599472 73.70341
3.4183884 1.6129456 74.124405
7.3053894 30.83594 76.05941
7.1043854 32.79594 77.275406
5.189392 35.03194 76.525406
3.6083908 35.09394 75.416405
33.38939 68.70994 19.360409
32.767387 66.80594 21.092407
31.317387 66.61994 22.883408
29.124388 67.90094 23.560408
54.337387 65.29694 3.3714066
52.580387 64.19194 4.202408
50.109386 63.81194 3.8014069
48.583385 64.97294 2.2184067
1.8643875 88.49995 78.209404
4.1943893 88.56294 77.96741
6.0373917 0.030944824 79.89741
5.7083893 0.8049469 81.70341
46.032387 38.15894 41.640408
45.763386 37.37394 44.02441
43.134388 37.22294 44.87441
41.93239 39.07194 44.49141
26.470387 6.9079437 60.04341
23.658386 6.2569427 59.94041
22.792389 6.283943 57.25241
23.282387 7.5109406 55.46541
27.926388 30.89794 58.08341
26.85439 32.95694 58.59941
26.75639 33.63594 60.97441
25.770386 32.48894 62.94141
55.894386 8.873947 21.531408
54.102386 7.528946 21.719408
51.47339 7.8289413 21.838408
50.31439 9.325943 22.497408
8.437386 62.03394 48.41241
8.172386 63.49894 46.647408
5.7673874 64.18594 45.08741
3.816391 63.64394 45.70741
59.55639 10.476944 62.60941
59.34039 8.458946 62.16141
57.18139 7.2329407 60.99441
55.136387 7.764946 60.33041
72.98238 9.243942 79.59041
71.787384 7.865944 80.608406
71.56839 5.394943 79.888405
71.97439 4.2659454 77.39641
30.497387 31.47794 70.264404
31.105387 33.24894 68.67641
32.977386 32.89194 66.76541
33.343388 31.07994 65.20241
56.351387 38.02194 5.167404
55.553387 36.820942 2.8614044
57.759388 36.34894 0.9084091
59.697388 37.19794 1.0344086
4.09639 2.2779465 23.036407
2.0223846 2.9539413 23.620407
1.5813904 3.6619415 26.266409
3.5033875 3.5219421 28.035408
29.229387 7.9879456 27.591408
30.686388 6.6219406 26.577408
29.658388 5.0989456 24.562408
27.618387 5.639946 23.127407
25.855389 0.015945435 63.97741
27.223392 1.9479446 64.34241
27.857388 2.9799423 66.86341
26.559391 2.5229416 69.208405
10.537392 60.70694 9.951408
11.133385 62.46594 11.256409
11.801392 62.76494 13.805405
11.70639 61.32994 15.64341
50.414387 63.64194 63.00541
48.291386 63.834938 64.46841
45.712387 64.24194 63.34241
45.110386 64.64894 61.14841
23.12539 63.58094 6.9114075
25.112389 64.44994 6.5404053
26.593388 64.851944 8.950409
28.108387 63.20594 10.01741
38.79239 61.48394 71.195404
36.93939 60.40594 69.84941
34.30039 61.07194 70.54941
33.46539 62.65794 72.32741
11.205391 36.22894 62.54841
10.011391 35.49394 60.98941
9.521385 36.11294 58.19941
9.709389 37.96094 57.06441
35.06439 59.69594 49.86241
36.192387 62.30194 49.77041
38.71539 62.86494 50.459408
40.463387 61.14194 50.89341
56.461388 67.99694 23.805408
56.238388 66.23694 24.637407
55.053387 65.462944 26.827408
54.18839 66.62494 28.723408
20.155388 1.6649475 79.459404
19.205383 3.1559448 77.66241
19.491386 3.4409409 75.38041
21.447388 3.0839462 74.04341
54.705387 31.83294 80.35941
56.026386 33.91094 80.46641
56.214386 35.67394 78.88441
55.311386 36.23794 76.57741
38.483387 8.081947 43.42941
41.02239 8.429947 43.655407
42.15439 8.618942 45.96341
41.38939 9.635941 48.03841
70.632385 67.23394 48.04441
68.43239 67.293945 48.97441
66.68339 69.38294 49.24341
67.35838 71.418945 50.20541
70.52839 2.6759415 42.61841
71.13638 3.9359436 44.717407
71.700386 3.1879425 47.08641
71.38939 1.3389435 48.27341
57.818386 4.0709457 68.29841
57.038387 6.0749435 67.22441
58.037388 6.8529434 64.73141
58.92439 5.8699417 63.24541
35.83339 8.002945 31.241407
38.037388 7.204941 32.396408
40.193386 6.59494 31.363409
41.20839 7.1689453 29.024408
52.04339 3.063942 73.93341
50.422386 4.4339447 72.150406
48.023388 5.740944 73.096405
48.013386 6.1719437 75.36941
42.110386 34.08394 55.04041
40.755386 36.05794 55.81141
38.22339 36.99094 55.27341
36.60439 35.67294 54.32941
9.437386 35.74494 49.18641
8.398392 36.16594 50.89041
5.899391 35.59194 51.92341
3.903389 34.71994 50.95041
59.63339 2.5139465 22.438408
60.371387 3.6449432 23.971409
59.518387 3.8429413 26.774408
58.204388 2.6709442 27.786407
30.150387 63.84794 61.52641
31.028387 65.43094 63.084408
33.31939 65.44594 64.49441
35.609386 64.41094 63.92941
11.365387 30.94894 23.504408
12.132385 32.72694 24.398409
13.963387 33.69494 25.507408
14.529388 32.82394 27.548409
13.688385 34.34994 78.93841
11.712387 34.54694 78.25741
10.710388 34.98994 75.66241
11.70739 34.91494 73.624405
36.975388 2.3689423 70.72341
37.435387 4.309944 71.85641
38.15939 4.7159424 74.46741
37.615387 3.6719437 76.14341
68.508385 2.9659424 60.43741
67.910385 4.809944 58.827408
66.23238 6.9829407 59.83841
65.12939 7.123947 61.89741
61.559387 58.29394 8.75341
61.712387 60.68994 8.507408
63.82639 62.07394 8.286407
65.71339 61.85194 7.862404
22.372383 66.88494 27.692408
21.001389 65.476944 26.788408
18.70839 64.84394 27.507408
17.42939 65.55594 29.605408
7.299385 66.65194 46.14441
9.037392 65.98594 47.96541
8.254387 65.75094 50.19141
5.9733887 66.74794 51.181408
32.97439 37.26794 21.932407
33.412388 36.50694 20.032408
31.782387 36.36494 17.907408
29.786386 37.28694 17.399408
11.311386 61.12494 35.521408
11.215385 60.89494 38.06941
9.607391 62.14594 39.62441
7.2703857 62.90794 39.10441
