33.69218 29.61126 95.58317
17.09418 27.281258 99.03017
16.78718 25.810265 98.46917
26.20418 59.85027 3.534172
24.43818 60.860268 2.8411713
7.4931793 64.97327 8.341171
6.804179 65.63527 9.70417
20.686178 96.96627 66.87517
19.062181 96.92627 65.51517
5.0551796 97.47927 72.630165
5.30418 96.98227 71.034164
32.64118 69.40127 30.602167
32.76618 67.01127 30.919167
10.249176 67.89827 28.638166
9.369179 69.753265 28.011166
2.8801804 20.105263 25.251165
1.1381798 22.02726 26.518166
24.73518 20.327263 25.361166
23.41818 19.224266 25.255167
9.39018 78.38227 100.55917
10.16418 78.36027 102.56017
26.29618 75.54127 104.43717
27.83618 75.92627 104.85517
5.4161797 6.809265 61.449165
4.9181786 6.083267 63.529167
28.02218 9.924271 68.170166
28.18718 11.607269 68.56917
35.02618 48.87027 83.603165
35.482178 50.562267 85.26417
21.02718 49.222267 90.30617
20.46018 51.237267 90.28117
34.38418 23.286263 101.16817
35.051178 24.423271 103.55517
21.04118 31.462269 3.425171
20.25818 31.696262 4.8251724
32.59218 37.62727 55.04017
32.79918 35.390266 55.862167
9.592178 29.839268 51.511166
10.216179 31.420269 51.595165
29.01018 82.59527 108.13417
30.23818 83.92227 106.82117
8.635178 76.13727 0.97917175
8.24218 75.02027 2.6931686
9.760178 52.57227 34.06217
8.593178 52.589268 31.743166
30.15118 56.722267 31.978167
28.68618 55.94627 32.356167
28.43818 40.94827 52.091167
28.56418 42.74727 50.424168
12.0431795 40.83627 55.223167
12.14618 39.965267 56.548164
26.77518 69.99827 105.84317
27.76818 71.225266 104.40717
5.169178 68.19927 101.25017
6.2861786 67.12227 101.59417
32.09118 93.82527 8.972168
32.88818 92.85227 7.084175
8.45018 85.44427 7.326172
9.149178 86.585266 6.0391693
11.215179 91.10827 104.32517
12.91418 89.83827 106.22317
26.72918 93.67627 97.86117
28.02318 94.85527 98.15117
6.192177 13.988266 51.731167
4.6371803 12.054268 52.177166
28.76318 15.826271 58.300167
27.73218 17.184258 57.740166
31.21918 29.288269 77.30017
31.63018 31.235268 77.629166
16.79318 39.57427 78.34217
15.58618 40.626266 77.420166
19.091179 100.97427 40.593166
19.70618 101.19327 38.404167
35.12518 100.32127 31.652166
36.01618 99.42527 30.439167
25.55118 56.716267 18.556175
25.49118 58.81627 18.506172
10.42118 56.85227 25.98817
9.77718 56.93427 24.589169
34.73718 58.42727 51.58917
35.86318 59.94027 51.051167
10.964176 56.519268 43.600166
11.946178 57.654266 42.484165
18.79418 55.159267 88.26817
16.775179 55.31527 89.26317
4.5081787 61.014267 93.66817
3.011177 60.13027 93.57017
17.42018 5.5032654 5.8161697
18.61018 4.583267 7.133171
33.086178 111.09627 9.011169
32.76518 111.34527 10.895172
0.95217896 104.35427 31.014166
1.7201805 104.21027 32.716167
18.290178 101.182274 28.565166
18.86518 100.02527 29.541166
17.28118 47.84527 83.71717
16.92618 48.88627 85.81817
38.44618 52.425266 85.67717
38.12818 50.972267 84.66717
10.54118 44.700268 36.694168
10.17918 46.89927 37.372166
27.22218 45.862267 36.290165
28.01018 46.28127 37.705166
38.48518 107.23527 29.570166
36.23118 107.29727 28.720167
20.84418 108.65927 33.029167
19.83218 107.63127 31.969166
13.547176 8.415268 6.8491745
13.804176 7.4822693 8.665169
37.32118 12.43927 5.9381714
35.95618 12.766266 4.869171
24.569181 83.11227 91.15617
24.013178 83.91427 89.12617
6.9011803 89.38527 92.53117
6.3971786 90.88327 93.60017
24.75018 13.721268 42.01917
25.14018 15.00827 40.003166
2.4721794 10.070267 39.014168
3.1841774 8.822266 38.365166
5.244179 106.57827 81.80017
4.6301804 108.69127 81.12817
27.59318 105.10627 84.35817
25.68018 106.34427 83.98717
35.61618 94.13227 22.270164
37.02218 94.903275 20.274162
13.412178 89.25027 21.17817
14.421177 87.98527 21.137169
23.80818 22.005272 36.746166
22.40518 21.518272 35.37417
7.358177 24.126259 42.678165
6.702179 23.353264 41.084167
28.07118 87.62327 101.55517
26.73418 88.94027 101.19917
10.88218 84.76427 105.85317
10.58718 85.835266 107.07417
32.14918 31.453266 58.951164
32.10418 29.965267 60.534164
8.481178 23.894264 58.534164
9.169178 22.376259 58.384167
10.4511795 48.006268 28.482166
10.66018 48.71227 26.118166
26.77018 46.424267 24.873167
26.61918 44.696266 24.724167
19.32118 67.60627 64.24817
19.223179 69.62527 62.735165
34.58718 63.67027 56.711166
36.43718 64.183266 57.211166
13.24718 33.779266 64.11417
13.25918 32.180267 62.714165
31.39118 33.15527 61.686165
32.00718 34.283268 62.723167
22.84018 112.83627 48.745167
22.73118 110.640274 48.531166
38.47018 104.59527 45.412167
1.0101776 103.88727 46.11717
3.7651787 97.85927 80.561165
3.664177 98.70727 78.80717
23.53918 98.70227 78.85417
22.06218 98.48327 77.89017
31.15918 75.461266 29.646166
30.431181 75.99527 27.862165
15.738179 78.66827 31.345167
14.44018 77.48327 31.072166
16.03018 78.67027 45.563168
16.08018 78.52927 43.543167
33.88018 78.72327 43.621166
34.77718 77.47927 44.50617
9.99218 77.030266 19.257172
11.44918 76.50927 20.435173
27.95018 74.19827 15.916168
28.82518 75.82927 16.60817
28.42818 108.20727 102.12117
28.42918 110.48027 102.39817
14.033179 0.8672714 103.00917
13.35018 2.163269 103.76417
22.63018 46.30927 2.5351715
24.74418 45.527267 3.0631714
0.02217865 38.161266 107.18817
38.51418 36.556267 108.21517
30.71418 22.699272 50.67217
29.69318 22.605263 52.891167
12.68718 24.931267 52.014168
12.56718 23.423271 52.722168
20.144178 51.82827 93.81417
19.86218 51.51727 96.05217
3.7031784 55.860268 96.94617
3.3121796 56.60727 98.49017
16.26018 92.32927 34.435165
17.73118 90.63827 34.375168
35.33818 88.69227 36.632168
36.83518 89.058266 37.581165
36.926178 99.90027 14.71917
38.21018 98.95027 16.12217
11.253178 91.753265 13.841171
12.980179 91.878265 13.159172
6.79418 27.342268 37.929165
7.7691793 28.444267 36.717167
24.68918 32.749268 33.795166
25.38218 32.47427 32.134167
7.6581793 57.81727 15.0991745
8.36718 57.20527 16.89917
24.56318 57.945267 14.147171
25.88018 58.922268 14.189171
35.72818 108.42627 14.328171
34.14318 109.01727 12.656174
17.80218 112.38127 12.529175
18.119179 112.26927 10.749168
4.7101784 46.054268 8.20517
2.667179 46.304268 7.699173
28.87918 54.015266 8.578171
27.54418 52.94927 8.276169
1.3541794 65.32727 70.99817
1.9171791 64.59827 73.14117
18.783178 60.973267 70.866165
18.16318 59.66227 70.20617
16.862179 34.62927 76.59517
16.81918 33.121265 77.492165
31.28318 23.832268 77.27717
32.24418 24.877266 76.58417
17.79218 69.24127 51.952168
17.09418 67.38127 51.79717
32.69318 61.19827 49.05517
33.71218 60.076267 49.495167
4.93618 15.464272 40.60317
2.933178 16.66726 39.99817
27.98818 20.12426 43.974167
26.77118 20.28527 45.25617
3.3381767 13.81427 33.838165
5.0801773 12.726273 32.322166
22.73118 11.881271 32.626167
23.93318 12.524269 33.471165
38.24018 67.79127 68.79917
36.87418 67.42527 66.908165
21.79818 66.12927 72.684166
20.209179 65.48027 71.91217
30.30218 48.55927 36.824165
30.01718 46.367268 35.646168
8.146179 48.62727 30.380167
8.764179 50.334267 29.999166
6.653179 19.404259 54.688168
6.053177 19.715263 52.61017
28.06618 17.10427 52.695168
27.38918 16.108269 51.718166
13.167179 83.210266 21.917168
13.259178 83.80527 24.10017
34.89918 84.72127 24.92017
34.17518 83.41427 25.929165
7.442177 37.834267 33.14517
6.407177 38.023266 34.97817
28.98918 44.89227 33.708168
27.35618 45.113266 33.255165
30.108181 49.15627 41.670166
30.31618 51.138268 40.60317
8.840179 50.90627 38.739166
9.827179 49.644268 38.668167
15.160179 31.715267 80.14017
13.974178 30.043268 80.949165
38.37218 35.300266 83.82917
38.468178 34.193268 82.69017
24.30818 56.62327 102.09017
26.14318 56.557266 100.71617
1.2781792 53.23227 99.84717
2.3001785 54.431267 99.87517
38.05418 99.52627 55.596165
37.50618 101.69127 54.76217
21.49018 101.96727 59.627167
21.27418 100.12727 59.013165
32.662178 57.589268 42.028168
33.80018 58.533268 40.445168
10.633179 61.34327 41.83917
11.564178 61.097267 40.428165
23.492178 24.143272 25.486166
22.784178 22.084267 24.829166
5.431179 22.802269 26.938166
4.2931786 23.116264 25.452166
18.32018 49.855267 93.14317
17.90618 51.513268 91.85317
1.8871803 50.804268 90.59317
2.044178 52.387268 89.84417
26.19318 55.807266 22.876165
25.33618 55.563267 24.766167
11.09318 53.32127 30.953167
10.04718 54.423267 30.562166
33.44218 19.01426 81.463165
34.39118 17.58126 82.36317
8.910179 12.553268 75.66317
8.378178 12.659271 73.937164
8.113178 8.570267 80.145164
8.066177 6.502266 81.38817
30.83518 10.141266 79.17417
29.80118 10.534271 77.781166
16.32318 33.28227 73.04217
17.92618 34.328266 72.102165
30.49518 23.800268 72.67717
30.90118 23.802267 74.53717
16.46718 80.15827 52.500168
15.056179 79.30327 51.337166
0.6101799 81.22127 56.437164
37.99418 82.30727 56.034164
34.23018 35.013268 72.173164
34.79118 33.78927 70.89917
11.475178 34.500267 66.40117
12.064178 34.82427 67.94217
37.02518 40.515266 88.40317
36.09618 40.42027 86.270164
19.25918 44.478268 92.60217
19.79818 46.223267 92.32317
2.924179 11.458267 43.944168
2.1871796 9.099266 44.371166
24.16418 11.073265 42.99817
23.51318 9.832268 44.13117
33.183178 55.47527 38.191166
34.51018 55.785267 40.68017
11.511177 61.915268 37.319168
12.369179 62.557266 36.05517
12.14618 35.818268 48.518166
14.06318 34.10827 48.41517
28.35418 33.480267 47.965168
28.59618 34.81527 46.927166
4.0591774 104.501274 64.70517
4.414177 106.20327 66.351166
18.33518 102.69927 56.327168
19.97518 102.84927 56.506165
18.06518 9.487267 18.209175
17.01518 7.6622696 19.17717
1.8501778 12.048271 19.559174
2.5031776 12.42627 21.000175
26.63118 1.3452682 71.00717
26.09218 112.69027 69.73317
1.6901779 110.043274 62.469166
2.4031792 111.50627 62.488167
3.4161797 104.45527 58.750168
3.4341774 105.61527 57.009167
18.402178 98.49727 55.371166
19.416178 100.02327 55.429165
9.23018 102.41327 96.91517
9.465179 103.77127 95.79817
24.71418 102.05527 91.03817
25.42318 103.12027 89.24717
36.92718 97.42427 53.107166
36.95018 98.67627 50.618168
21.188179 103.85627 52.725166
19.90418 103.98127 53.829166
2.525177 107.50227 67.560165
1.5951805 108.89327 66.05417
27.52918 3.9552689 74.839165
27.23218 3.1322708 73.31317
34.06918 73.00927 50.926167
34.02718 73.38927 52.969166
18.84618 79.38827 56.858166
17.265179 80.47127 56.267166
26.85218 108.58227 78.17417
26.59118 106.12727 78.03517
2.6771774 106.07527 74.73617
4.1281776 106.72527 74.462166
12.964176 39.10927 75.55017
11.648178 39.203266 73.825165
38.89018 36.76727 81.49317
37.80018 37.632267 80.326164
2.039177 57.133266 3.319168
3.5331802 58.214268 4.8681717
27.66518 65.07527 2.7661743
27.39418 66.59527 3.3721695
3.6071777 12.05027 25.817165
4.1771774 13.025269 27.109167
20.556181 9.474266 27.904167
20.118181 7.6402664 28.336166
36.40818 77.55327 57.927166
37.64918 76.03227 59.447166
15.505177 78.01927 56.226166
15.743179 76.23027 56.323166
33.155178 25.60926 90.13517
31.90918 25.381264 92.28217
17.10218 32.94726 92.33717
16.21018 31.626263 93.31317
32.73418 98.86327 8.416168
32.329178 100.72927 9.345169
15.866179 100.68327 12.742172
14.96418 99.58927 12.188171
28.61218 51.02427 42.900166
27.84018 52.457268 44.217167
11.45018 53.033268 46.333168
11.144179 52.19927 44.954166
16.528181 44.314266 79.69317
16.21518 45.452267 81.406166
0.8301773 47.29527 88.92217
38.25918 47.041267 88.32117
28.63218 64.30727 9.807175
28.75018 65.78527 7.5041733
5.2361794 63.488266 8.567169
4.76318 62.009266 7.859169
34.94618 0.552269 13.609169
33.34018 0.8922653 11.995171
17.619179 4.45327 13.145172
16.48618 3.201271 12.863174
6.4061775 55.089268 16.897171
7.523178 53.424267 15.740173
25.19818 49.661266 17.866173
26.56618 48.805267 17.12117
32.61318 66.87427 52.720165
31.05218 67.39627 54.219166
17.52318 74.24627 57.756165
18.25518 75.627266 57.875168
13.976177 81.51327 40.15917
14.738178 80.70727 37.926167
35.43018 81.98427 37.357166
33.954178 81.93027 36.593166
31.44818 60.542267 26.242167
30.80718 58.65627 24.996166
8.29118 52.82327 27.273167
8.385178 51.39127 26.033167
18.51918 111.722275 16.628174
18.57918 1.0702667 17.061172
35.85518 1.5612717 18.224174
37.09718 0.5032654 17.658173
15.804179 24.403267 85.10917
16.862179 23.095268 83.62517
31.58818 17.19027 82.94217
32.12018 15.672264 83.78817
16.45218 91.53227 43.99217
16.513178 93.76127 42.668167
38.37318 94.918274 43.836166
37.75918 94.779274 42.232166
31.32418 4.7472687 89.33517
30.69518 4.215271 87.33617
6.086178 1.4832687 83.325165
6.3381767 0.08426666 82.311165
33.19618 35.064266 74.73717
32.81818 36.849266 73.94217
15.79118 36.993267 72.45817
14.51118 37.85727 73.47217
31.93218 41.360268 58.504166
32.44218 39.596268 58.625168
10.010178 36.374268 54.091167
10.746178 36.68427 52.122166
13.79818 59.79527 47.758167
13.91418 61.787266 47.396168
30.49718 58.96327 38.907166
31.72218 60.077267 38.41617
8.545177 54.582268 43.516167
9.169178 52.340267 42.558167
33.10118 53.661266 50.454166
31.56318 53.28927 49.399166
15.718178 101.23327 20.493172
15.330177 102.945274 19.403175
38.54118 100.55827 23.654171
38.32418 101.15927 22.098167
33.35618 4.330269 99.76917
33.96618 6.2142715 100.59317
9.766178 111.37427 97.00817
9.022179 111.21727 95.44717
36.176178 86.15327 56.090168
36.29018 87.76827 57.726166
18.29018 89.989265 56.184166
17.643179 90.68027 54.78317
6.523178 36.014267 23.225166
5.4931793 37.25227 24.307167
28.15318 34.285267 24.714167
27.48618 34.48327 26.203167
29.22918 44.69727 24.403172
28.858181 42.313267 24.07317
4.4531784 37.458267 15.778175
5.4341774 37.33627 14.465172
35.91418 86.794266 44.094166
35.98118 88.43127 42.907166
18.23618 87.32727 37.554165
17.893179 85.73227 37.032166
11.961178 66.38227 39.104168
10.350178 65.96227 40.761166
34.50618 63.67027 39.333168
33.74918 63.867268 37.734165
25.34518 71.95827 98.75617
26.33918 70.20627 99.75417
3.421177 69.68827 95.95617
4.398178 68.20027 95.21017
37.95718 91.26527 50.863167
37.10318 93.22827 51.338165
19.57118 91.933266 52.400166
18.54118 90.475266 52.18717
9.204178 20.367271 69.35917
8.667179 19.087273 67.73717
31.99818 23.738258 69.76617
30.59118 24.710258 69.03017
4.355179 19.434258 36.693165
3.4811783 17.181267 36.905167
25.08018 24.044258 33.292168
24.09418 22.98127 34.038166
23.438179 97.515274 71.93117
23.58618 95.19627 72.84517
2.9741783 97.89727 74.073166
3.5331802 99.043274 75.31817
17.27318 45.83527 77.199165
17.91218 46.902267 75.17517
33.829178 41.916267 74.69017
34.12018 41.347267 76.326164
35.96718 26.793266 102.24017
36.19618 26.198265 100.48517
13.94418 24.37426 94.39717
13.551178 22.776268 94.48717
23.33918 49.318268 0.8701706
23.71918 48.325268 107.52717
0.12517929 41.446266 102.05317
0.2181778 42.666267 100.77117
37.95518 104.52427 33.028168
37.88718 102.99927 34.310165
20.39618 103.320274 36.757168
19.570179 103.67227 38.37417
9.27018 74.78327 7.2731705
8.501179 74.47127 5.5111694
30.83618 78.93927 9.395172
30.50918 80.58927 9.66217
26.15918 81.11527 93.46617
27.24718 82.72127 92.37017
4.183178 85.22927 91.16317
5.6071777 84.85827 90.31317
3.8701782 89.07527 73.86117
4.44318 86.92027 74.448166
20.124178 88.10427 72.53517
21.417181 88.31127 73.81617
6.5951805 98.78027 87.56317
8.092178 98.02227 89.21217
22.13518 91.08927 82.09417
22.75818 92.30727 81.30417
37.01518 87.23227 52.376167
36.03618 85.113266 53.164165
19.869179 88.06327 50.330166
18.04418 88.13427 50.775166
1.0011787 8.246269 21.494165
0.5491791 10.446266 21.921165
23.195179 14.096268 27.379166
22.38818 13.64827 28.919167
32.90818 46.764267 61.598167
32.31818 45.590267 59.953167
16.16118 49.80227 63.028168
14.899179 49.47727 61.556168
37.01918 50.341267 70.88417
0.40417862 50.897266 71.75117
15.800179 45.201267 68.59617
16.48018 43.79627 68.186165
8.973179 70.17527 10.029175
8.348179 68.60527 11.320175
30.38618 69.18727 11.606171
31.45018 67.87527 12.305168
38.14518 93.78327 54.109165
0.08817673 92.49327 52.987167
14.325176 86.40927 48.80417
15.992176 87.00027 48.30517
1.5501785 48.117268 98.98617
38.34818 48.105267 98.79217
25.05518 54.019268 99.97417
23.60518 53.03127 100.24917
13.92818 22.48626 91.77417
14.604179 21.085258 90.38317
15.4251795 18.347267 85.19217
15.693179 17.560265 86.77217
38.64018 101.31927 17.740173
0.85517883 103.12727 17.036171
17.23018 107.65227 19.959175
17.26018 107.67127 18.182175
5.5901794 60.230267 99.11617
4.445179 62.175266 99.42817
25.77918 61.445267 103.99917
24.74818 62.801266 103.57617
26.19918 7.5012665 67.83317
26.12618 8.78627 69.45817
10.76318 10.345268 75.36017
10.24518 10.630272 76.96517
18.87018 101.49327 63.142166
18.505178 101.44327 60.767166
2.3161774 102.473274 63.810165
0.7581787 102.74827 63.173164
31.13918 62.644268 38.217167
29.95218 62.315266 36.004166
14.93018 69.90227 38.552166
16.008179 71.19927 38.831165
4.174179 40.342266 12.447174
3.2781792 39.79427 10.869171
26.81318 39.228268 20.91616
27.17318 37.554268 21.561165
13.796177 45.075268 60.739166
12.870178 46.721268 59.252167
36.586178 48.03927 64.420166
35.14518 48.47727 65.63317
22.952179 74.60627 75.59617
22.28718 73.53527 74.08117
38.05218 67.54027 71.44217
38.905178 67.864265 73.02517
21.98618 89.52027 71.269165
23.29818 91.09127 70.73817
0.8671799 88.91427 70.462166
0.8281784 88.77127 68.48417
14.750179 24.608269 81.381165
15.121178 26.352272 83.33517
35.16118 25.88227 83.642166
35.25718 24.155266 83.41617
9.48718 4.556267 74.464165
9.00118 2.6622696 72.767166
23.72818 112.61927 68.38617
24.39718 111.889275 67.02417
36.98618 93.95427 38.838165
0.22617722 93.65627 39.565166
15.255177 93.99727 38.255165
16.179176 94.93827 37.202168
29.02718 68.95427 22.69117
28.58618 67.52227 23.53217
6.2081795 62.008266 20.418175
7.8371773 61.58527 20.686165
35.00118 64.46227 42.371166
34.690178 66.42127 43.588165
11.1441765 63.48327 43.75517
11.195179 61.540268 44.605167
8.98018 95.69627 95.51417
10.30618 97.35327 94.86717
25.12518 94.85927 92.34917
26.17518 95.68627 93.79617
33.65218 95.987274 9.050171
33.41718 96.75327 6.8211746
8.72118 89.28327 3.9191742
9.903179 90.37927 4.4551697
5.9621773 48.158268 19.617165
4.4581795 47.950268 21.19117
30.00818 51.70527 21.668175
29.21918 51.326267 23.18917
20.560179 18.65226 18.75917
20.00818 18.36126 21.174171
4.2861786 20.556267 21.210167
3.556179 21.539268 19.764168
34.31618 58.436268 59.301167
32.17918 57.668266 58.592167
17.48818 63.743267 62.500168
16.70418 63.819267 63.898167
38.32018 23.627266 10.462173
38.60918 23.739265 12.711174
22.84018 27.52427 16.072174
23.51918 29.317268 16.875175
4.42218 56.35127 6.6551743
5.120178 55.22027 8.276169
28.60218 56.964268 9.661171
28.09818 58.40727 8.922173
16.241177 71.378265 55.421165
14.905178 70.07827 56.598167
38.35118 74.50427 63.773167
37.39518 74.72227 62.084167
5.167179 21.214272 48.576168
4.768177 22.416267 50.421165
26.28818 23.19526 44.778168
26.37318 24.760262 43.31117
28.28918 39.83627 32.049168
28.06218 37.923267 32.706165
5.68618 35.916267 30.956167
6.4011803 37.479267 30.535166
16.258179 111.35327 104.72317
16.65618 109.17627 105.24417
30.35518 103.00727 104.66317
30.70218 101.890274 106.15917
14.950176 32.37127 96.79617
14.202179 31.075268 98.77017
0.6481781 34.376266 97.09917
0.057178497 34.51627 98.76617
2.3541794 95.17527 70.51617
1.6031799 93.92027 69.00717
23.33518 94.98827 68.44217
22.67018 96.55927 69.34517
30.96918 19.225258 71.434166
31.22618 16.94526 70.94017
10.045177 20.531258 74.033165
11.316177 21.848259 73.77717
11.86018 59.06627 34.278168
12.87018 59.72027 36.162167
28.93718 56.765266 29.608166
29.09118 56.855267 27.864166
22.59218 67.56827 94.08817
24.09618 67.25527 95.56817
2.6121788 63.98327 94.81217
2.6681786 63.717266 92.99417
8.32218 34.390266 32.178165
8.79618 35.418266 30.147167
25.24818 39.29527 29.860167
26.10918 39.071266 28.405167
16.50018 33.306267 85.28917
17.77618 32.736267 86.66717
32.46618 29.325268 85.616165
33.02818 27.791267 85.171165
28.02118 109.46627 91.24317
28.63918 110.81227 93.07917
7.195179 112.40627 93.58417
9.02018 0.2852707 93.33817
8.966179 86.49427 1.4281693
7.997177 86.51327 3.6201706
7.5011787 77.67427 103.75117
8.51318 76.98627 104.85817
13.516178 8.687271 105.26517
11.738178 9.011269 106.34117
33.50618 10.66127 100.86517
33.26218 8.779266 101.25317
26.61918 52.644268 18.66317
24.22618 53.41927 18.354172
10.19318 53.62127 22.327171
9.16518 52.894268 23.718166
2.6531792 25.044258 11.278175
2.7311783 24.435265 13.409172
19.44018 21.169258 10.445175
20.74018 21.644264 11.144173
20.33118 2.505272 21.159172
20.34618 4.302269 19.729164
37.41718 4.6312714 20.95617
38.239178 3.2712708 21.067162
15.0311775 66.33927 60.232166
14.088177 66.14827 58.221165
38.12518 71.697266 63.458164
37.67518 70.18827 63.954166
27.69918 111.987274 90.72017
27.30418 0.29426575 92.45717
11.95918 3.3442688 91.16517
12.09918 5.030266 91.56417
12.672179 26.830269 70.517166
14.540179 28.173271 70.27317
27.66618 23.508263 62.650166
28.60618 22.436272 61.741165
38.50018 64.10427 80.11017
37.31718 63.28127 78.672165
22.21418 64.40827 77.89917
22.60618 65.98427 76.700165
4.2171783 59.11327 104.30417
5.0341797 60.874268 105.20717
21.82918 60.32327 99.67017
23.451181 61.019268 99.53517
21.38518 1.1802673 46.702168
22.78018 2.2812653 46.709167
37.62418 112.67827 43.727165
0.46717834 0.9352722 43.69317
3.1011772 7.283272 35.802166
3.2241783 6.2352676 33.971165
18.62618 3.5682678 29.658167
19.85618 3.45327 30.748167
3.940178 68.07727 92.07017
2.5031776 66.68727 93.65117
25.04218 73.01127 93.91017
25.02318 73.59227 95.46317
38.822178 48.583267 101.37217
0.6291771 50.827267 101.10617
27.24818 59.334267 105.71717
25.98118 60.00927 106.54017
6.3731804 1.7222672 73.14017
6.4691772 3.8082657 72.69217
27.63218 5.340271 71.934166
26.99418 6.49527 70.881165
22.16618 69.74727 86.49317
23.31018 71.41527 86.95417
38.69218 64.52627 83.115166
0.38817978 63.012268 83.71617
24.37518 17.610268 35.941166
25.47218 18.974266 33.925167
1.8521805 23.105263 31.097166
1.9581795 23.715263 29.558167
7.5081787 43.245266 23.851166
5.9411774 41.901268 23.525166
29.31518 47.72627 25.501165
28.07418 48.894268 25.454166
9.923176 76.64727 11.505173
8.391178 75.77527 10.645172
32.22018 80.794266 16.570175
31.07018 79.32927 16.771172
35.94518 0.8382721 0.36917114
34.607178 112.34527 1.6881714
13.320179 108.917274 1.034172
14.782177 108.001274 0.8421707
11.750179 86.43827 18.466171
11.666176 84.433266 18.194168
35.30018 89.10627 20.839165
34.83518 88.09227 22.215172
10.032177 1.113266 101.20217
10.606178 1.0542679 103.53717
34.52018 5.6342697 107.74717
33.11718 4.9282684 0.3111725
35.29818 1.6432724 10.131172
36.82618 0.2212677 11.758171
13.814178 111.94027 5.5111694
14.241177 0.7042694 5.643173
2.8961792 19.031258 19.090172
2.405178 17.092262 18.681175
18.31518 14.707268 17.687172
19.57818 16.255272 17.410172
4.9021797 87.51427 95.39617
4.22818 86.55627 93.56917
26.11618 85.99727 94.67417
26.48218 83.946266 94.69417
28.60018 50.644268 33.776165
26.81518 50.327267 32.99217
10.991179 52.53727 38.101166
10.71818 53.69627 37.064167
6.502179 62.466267 10.868172
8.087179 62.876266 12.016174
25.79018 62.80927 9.878174
25.90918 63.172268 11.725174
7.1281776 51.10227 23.201164
6.3051796 49.99827 21.669167
28.36318 56.92127 21.70716
27.05518 56.520267 20.60717
20.775179 45.902267 106.60417
21.42518 45.84327 104.32217
36.92918 38.743267 100.88617
37.329178 40.311268 100.142166
31.82518 106.486275 0.14817047
31.46718 105.93827 2.3301697
15.887179 0.6662674 0.93917084
15.05618 1.7352676 2.0931702
3.2471771 97.49627 60.485165
3.21418 95.65927 61.759167
16.80918 91.42127 59.220165
17.081179 93.28927 59.335167
6.2881775 84.30627 87.84017
6.38818 82.06427 88.44017
22.69618 80.09327 83.60617
23.589178 79.74727 82.27617
7.6401787 12.543266 68.59717
5.858177 11.963272 67.40117
9.426178 15.816261 74.16517
10.774178 16.539268 73.66717
10.81218 72.83027 5.984169
9.95218 72.32727 3.9151688
24.42218 70.61727 6.2751694
23.36318 71.53827 7.1551743
36.47418 33.835266 91.68417
36.28218 31.822268 91.84717
15.016178 34.83827 89.35417
15.805176 34.346268 87.82217
17.96218 102.74827 46.338165
17.997179 105.02327 46.972168
1.688179 104.95027 48.984165
1.657177 103.22427 48.862167
27.34918 17.742271 65.045166
26.19818 15.968269 64.09017
12.314179 24.683266 68.62517
12.15218 26.123268 67.645164
21.56618 53.915268 88.09317
21.89118 56.12227 88.91017
37.81718 54.64327 81.02517
37.54518 53.04527 80.63317
14.323179 105.515274 107.41017
14.691179 104.63827 105.31717
27.05918 107.293274 95.71217
26.59618 105.85827 94.25617
5.5271797 80.73327 100.76117
3.57518 80.39727 100.39317
30.72318 86.66027 1.5131683
31.80718 88.00927 2.5401688
29.18018 86.21527 107.32517
29.03018 87.83427 108.03417
11.90518 88.919266 0.8931732
10.66218 88.01527 0.43317413
16.761179 62.433266 66.56617
15.815178 60.665268 66.684166
0.58918 63.195267 68.76517
38.61618 61.69627 68.170166
6.976177 5.118271 69.853165
7.759178 3.002266 70.284164
24.35818 4.774269 67.27117
25.549181 4.9972687 68.40217
10.41518 72.35127 8.606171
10.59618 74.15027 9.501175
27.32618 69.34727 9.70517
28.01718 70.17927 10.868172
37.614178 95.13227 46.743168
37.00518 97.27027 45.743168
20.69018 99.67327 48.899166
20.85518 101.48027 48.210167
31.16718 85.02227 104.60017
30.54318 83.17627 103.90417
3.820179 73.29927 96.14317
4.4011803 71.946266 97.21917
19.19118 78.61727 76.46917
18.50218 80.40827 76.82117
2.8821793 76.95827 79.645164
3.1331787 78.24827 80.923164
25.491179 67.63027 106.06017
25.194181 69.19527 107.86317
8.285179 69.335266 1.987175
7.01318 69.42227 0.7431717
4.629177 26.282265 24.394169
5.678177 26.543266 22.155174
21.013178 22.893272 19.652168
21.74518 23.84327 18.17617
18.75218 24.605263 96.53017
17.05618 23.084267 96.52617
32.42318 18.465263 93.79817
32.22418 18.865273 92.34017
19.563179 49.311268 83.268166
20.45418 50.562267 85.10917
35.68018 46.772266 87.01217
36.29918 48.36527 86.52217
24.23718 107.54627 79.36817
23.09318 105.486275 79.906166
9.413179 111.22027 85.86217
8.62618 110.53827 84.26417
8.92318 58.473267 34.167168
7.4581795 56.403267 33.845165
30.69618 51.15727 36.028168
29.62018 52.47027 35.824165
6.24218 40.811268 14.17717
6.6061783 39.376266 16.03717
20.88518 32.17727 10.514175
20.51518 31.210268 9.078171
7.9301796 48.577267 24.852165
6.9911804 49.075268 26.822166
30.34418 51.751266 26.483166
29.39418 52.75327 25.466166
3.3731804 110.67727 65.23317
4.320179 110.56927 67.07717
20.006178 103.778275 61.948166
21.278181 104.390274 60.841167
17.26618 42.771267 93.96517
17.21918 41.91427 92.29317
2.2411804 48.99527 92.77617
0.54317856 48.520267 91.80917
28.54718 29.418266 46.719166
27.96918 28.91726 44.171165
5.643177 25.107262 39.45017
5.8191795 24.81327 37.80517
1.9991798 10.456268 24.261166
1.7671776 8.182266 24.248167
23.78118 7.8742676 23.705166
22.82118 6.4212723 24.634167
9.000179 59.24727 25.678165
8.847179 61.40727 25.622166
31.78418 64.72227 28.906166
30.53318 63.576267 28.908167
25.45318 102.51627 94.25517
24.77018 104.26327 93.21217
14.38818 109.31827 103.55617
12.58418 109.11527 103.21117
22.51418 62.527267 88.11417
21.90118 60.839268 86.69417
0.13517761 60.81727 82.492165
0.6841774 59.23227 82.34017
13.94418 66.55927 52.683167
13.352177 67.89927 51.126167
36.46318 72.18527 55.764168
35.62918 73.53927 55.037167
33.52718 21.890266 83.53717
35.22618 20.476265 83.311165
12.641178 20.614265 84.48017
13.955177 21.487267 85.02417
10.71118 59.617268 28.001167
11.98818 59.548267 29.894167
28.33318 59.146267 23.572166
27.89718 57.161266 24.857166
37.426178 104.39527 16.597168
38.87018 105.51327 17.518173
16.574179 107.99327 15.389175
16.907179 109.62727 16.02417
1.301178 71.31327 78.36917
2.7321777 72.74727 79.548164
18.84918 64.51027 79.23817
19.604181 63.453266 78.16117
36.76418 95.60827 55.281166
36.75618 95.42527 57.279167
22.48918 103.01027 63.647167
23.19118 103.39927 65.17717
10.21818 26.38726 54.590168
12.51618 25.698265 55.038166
27.32018 19.857262 54.615166
28.82318 20.138268 53.841167
18.01218 47.770267 69.60717
18.12518 46.19227 67.50817
31.92318 40.181267 62.949165
32.43118 40.147266 61.416164
2.5261803 82.43127 71.20617
3.6301804 81.20327 72.69117
19.289179 78.96227 66.574165
19.86918 77.26227 66.70917
2.8121796 41.916267 2.2101746
1.2791786 40.437267 2.0751724
25.02318 43.06627 11.352173
23.42618 44.01727 10.60817
5.86718 49.69027 15.560173
5.639179 51.86627 15.041168
27.81518 56.71227 15.290169
27.22118 55.28127 16.269173
3.544178 0.3082657 45.26217
5.528179 0.55726624 46.590168
18.59318 104.59527 44.181168
19.84318 104.01727 43.230167
20.43218 67.30627 79.69017
19.60118 65.96427 81.199165
4.0311775 67.55727 84.36917
4.8001785 67.56327 82.645164
26.69718 56.44827 2.3321686
27.12518 54.67727 4.083168
2.523178 53.96227 3.1721725
3.1911774 52.736267 2.2901688
21.408178 0.8612671 33.421165
19.80818 2.326271 33.31217
4.55418 2.179268 33.695168
4.5291786 3.7872696 32.691166
5.535179 1.1712723 69.39117
4.1061783 112.66127 68.949165
27.00718 4.7772675 65.01217
26.51818 3.6842651 63.882168
14.08418 15.380272 93.15317
12.98918 13.358269 93.57317
29.62918 7.2542725 94.62117
30.40918 8.672272 94.75517
26.71618 67.95227 1.1421738
26.95218 66.461266 108.00117
3.9351768 63.642265 103.57317
3.799179 63.65727 101.85117
34.73818 42.530266 71.546165
36.30018 41.76727 70.05217
13.008179 37.91327 68.84017
13.483177 39.72627 68.70717
31.76018 83.95527 16.62217
31.58618 83.22127 14.2241745
9.639179 83.16527 12.757172
10.268177 82.91827 14.433174
8.79918 100.33827 93.31417
9.41518 100.58227 91.31117
25.02218 97.21627 87.72617
24.95918 99.07727 87.17817
14.1091795 64.17727 55.319164
15.09618 62.013268 54.962166
32.308178 57.35127 52.677166
32.91318 56.45427 51.345165
28.84718 38.585266 39.822166
29.93618 37.493267 41.47117
7.7691803 32.131268 39.94317
9.0761795 31.954268 38.755165
7.36018 57.665268 10.992172
7.87218 55.41227 11.257172
25.61218 57.021267 6.0591736
25.02918 55.401268 5.9101715
23.499178 59.964268 107.20917
23.45418 61.07927 105.40917
6.3261795 64.23127 104.88017
5.1541786 63.402267 106.02317
17.187181 20.687263 6.423172
15.635178 19.504265 7.3541718
0.38817978 22.492271 5.845169
0.02217865 21.187263 4.7591705
21.16418 100.88127 28.577168
20.28518 100.12427 26.563168
34.176178 94.95027 18.994171
35.17418 93.59127 18.641174
17.71818 96.95727 45.803165
18.417181 97.92827 48.240166
1.6331787 101.38827 53.538166
38.88518 101.11527 52.522167
24.70918 44.17027 28.785166
23.41218 43.493267 30.327166
7.8521805 40.64227 29.299166
7.0781784 39.438267 28.416166
28.91518 13.086266 59.589165
28.556181 11.413269 58.100166
5.8401794 4.746269 52.802166
4.8401794 3.7842712 54.45017
15.184177 90.49127 32.672165
14.450176 88.65627 31.896166
36.47418 90.24227 29.863167
36.90218 91.91027 29.917166
24.02218 77.44827 86.505165
24.90518 75.23027 85.94417
0.18717957 71.90827 82.839165
0.47617722 71.62027 81.326164
24.20618 70.49327 91.03217
24.89318 71.92627 89.23017
2.5001793 72.18227 88.59517
2.544178 71.16627 90.08217
25.03418 26.131264 37.078167
23.24218 26.796272 36.205166
23.43118 23.975258 44.567165
22.261179 23.192268 43.544167
22.973179 15.916267 21.744164
24.49518 15.65226 22.854164
2.2201805 17.973259 21.682167
3.0291786 18.901268 22.90017
10.741179 93.92427 1.961174
12.85518 93.49527 1.5171738
28.08318 91.460266 104.02917
28.28218 90.28127 102.82717
22.82418 80.085266 79.087166
23.89618 78.599266 79.85017
1.0571785 81.62427 74.39917
1.2201805 79.95727 73.80017
20.047178 28.811272 16.34517
20.250181 28.493263 18.765175
3.8771782 30.209263 17.41217
3.9131775 31.866268 18.351173
29.05218 50.81027 38.14517
28.37218 48.631268 38.615166
11.21018 54.66227 41.550167
10.10318 53.68427 40.421165
4.29718 14.719269 24.878166
5.245178 16.579262 23.736166
21.50218 16.927269 25.357166
22.73718 16.903267 24.193167
18.54518 93.83827 65.27317
19.06518 94.42527 67.34017
3.8171768 91.65027 73.67917
3.0291786 92.753265 72.31417
38.31118 71.44827 66.86017
37.13218 70.322266 68.519165
20.81018 74.877266 67.55217
19.19818 74.27127 67.34117
36.32618 65.933266 63.402164
37.99018 67.14827 62.718166
14.3941765 63.894268 61.668167
14.2881775 63.472267 60.077168
16.76018 35.14127 96.69717
16.824179 33.881268 94.85417
33.68418 31.330269 90.18417
34.45918 30.056269 90.99017
20.05118 54.381268 70.23017
20.195179 52.695267 69.67517
36.48118 56.936268 66.823166
37.27318 58.31427 66.282166
4.372177 51.202267 4.447174
5.6981773 50.24027 5.6381683
21.71118 49.89127 3.3431702
22.907179 48.78927 3.444168
23.01718 6.3362656 43.66517
21.636179 7.934265 43.753166
7.7881775 11.2892685 48.481167
6.8381767 11.73127 49.657166
18.63318 41.203266 103.02717
20.28518 43.134266 102.60217
35.81818 38.40727 98.02517
35.82118 37.783268 96.42217
0.61117935 19.575264 13.901169
2.046177 19.832268 12.498169
14.257179 11.489265 13.109169
14.247177 11.972267 14.865173
28.50518 62.669266 11.889175
27.70818 61.061268 13.33017
6.5201797 61.797268 13.740173
7.5011787 60.26627 14.1981735
8.517178 53.554268 45.85317
8.41518 50.730267 45.90117
32.64018 51.181267 53.856167
32.01818 53.139267 53.76317
0.8151779 77.15927 77.78817
0.43517685 75.28627 78.616165
24.00318 74.74727 83.15217
22.511179 75.61527 82.52217
29.25018 71.36627 26.052166
27.68718 70.36727 25.178165
12.663179 72.19027 27.758167
11.01418 71.91227 28.079166
13.90418 60.167267 50.516167
14.446179 58.147266 51.579166
29.17318 55.805267 43.184166
29.54618 54.61327 44.886166
7.65818 107.362274 80.88417
7.9701805 109.36027 80.075165
24.20418 106.70427 76.82217
25.31318 105.78127 75.74317
33.690178 0.0052719116 4.145172
32.05818 0.3252716 3.1901703
16.16918 4.1462708 2.7261734
15.29918 5.665268 3.3141708
6.7671776 17.069267 39.031166
6.8281784 18.614265 36.670166
21.784178 8.420265 36.111168
21.136179 7.847267 37.660168
13.502178 85.30527 28.454166
14.121178 86.96227 27.021166
36.46018 87.87027 24.738167
35.89318 87.49527 26.170166
16.32618 92.76527 22.931175
16.810179 93.58227 20.76316
33.60118 92.26927 22.236168
33.593178 90.56727 22.289162
34.16018 87.33227 28.396166
34.17018 88.65127 30.055166
19.48318 97.39327 31.627167
18.53018 97.25727 30.137167
0.2691803 55.21727 73.076164
0.8671799 56.36527 74.78617
16.873178 56.279266 71.41617
18.23218 56.98227 70.84817
12.43818 30.866268 58.959167
12.91618 33.21727 58.997166
30.39718 29.619268 57.824165
29.91818 27.827269 57.330166
6.8331795 49.832268 8.620171
9.043179 48.805267 7.442169
22.77918 41.784267 6.0631714
24.000181 40.729267 6.5021744
0.42417908 101.84327 44.442165
37.74318 101.64927 43.253166
22.33118 103.63327 49.515167
22.19418 105.292274 50.164165
7.3301773 94.04527 103.77817
6.671177 93.627266 101.53917
29.85218 93.23127 100.10317
30.11918 92.07027 101.43217
12.154179 69.00527 38.677166
12.121178 71.06027 38.348167
34.00918 71.18127 43.370167
33.20518 69.61227 43.657166
2.452179 47.17027 104.73817
2.327179 48.202267 102.86517
17.382181 44.860268 96.99117
18.298178 45.876266 95.68417
5.572178 92.03427 90.09217
5.10318 90.517265 91.05017
26.31618 90.47027 91.38717
26.28518 90.78127 93.08617
28.81618 46.71927 43.428165
27.77218 47.57427 41.758167
11.47718 47.618267 46.799168
11.715179 47.917267 48.424168
22.67018 32.40727 12.921173
24.01218 31.731268 11.326172
0.1801796 30.528269 12.145172
38.66618 30.288269 10.64917
10.65718 79.09227 3.251175
10.99718 78.849266 5.590172
26.90018 74.59027 2.0671692
28.05818 73.73227 3.2281723
30.53718 101.31227 101.62217
30.10218 102.38827 99.53017
6.898178 102.04027 93.34817
7.3781776 101.959274 94.87517
33.17718 14.890266 92.69617
34.71018 14.631271 94.64617
11.247177 15.862267 93.29817
12.395176 17.076271 93.86817
12.922179 83.08127 14.615173
13.948179 84.14727 16.387169
28.62318 76.933266 9.602173
29.53918 76.03227 8.294174
6.6521797 3.6082687 58.379166
6.98518 4.1972656 60.362167
9.798176 10.832268 66.270164
10.255177 11.660271 67.589165
28.39018 105.70027 100.54017
28.65418 105.68327 102.66117
12.507179 102.60027 105.42917
10.91518 102.27527 106.26917
37.27018 49.395267 73.84517
35.86218 48.60127 72.81517
20.14018 52.89227 80.492165
19.20718 51.402267 81.269165
22.06018 92.13327 67.80217
23.37418 92.808266 66.59217
38.59818 90.64727 66.94717
1.0481796 91.47327 67.34117
34.69518 50.137268 67.69217
34.864178 48.799267 69.65017
20.00018 54.936268 73.812164
19.841179 55.44627 75.463165
29.76618 80.47727 2.6051712
30.10418 80.02427 4.5021744
6.5031776 72.13427 1.2331696
6.952179 72.46727 3.0991745
24.71918 45.783268 8.019173
24.318178 47.728268 7.3841705
7.935177 52.34227 8.234169
7.0591774 53.88027 8.950172
0.101177216 78.14427 71.212166
38.61018 77.21727 73.36317
21.834179 76.76227 74.45617
20.51918 77.92927 74.30417
8.45918 62.294266 18.07817
8.35318 62.13627 15.860168
24.84418 62.391266 17.042175
25.15818 60.598267 16.541168
26.32918 42.08027 27.806166
28.33618 41.67627 26.620167
5.162178 41.089268 28.178165
5.6911774 42.417267 26.993166
19.497179 52.853268 72.29217
18.348179 50.556267 72.48217
32.13018 43.19927 68.56917
33.65918 42.195267 68.784164
0.9871788 45.41427 99.70717
0.35417938 44.868267 97.50917
16.528181 39.08127 95.92917
17.25818 37.67627 96.66917
37.01218 15.233269 6.286171
36.88218 15.956261 8.259171
19.29718 17.49627 7.7471695
19.584179 18.29026 9.189171
14.484177 26.041267 90.54517
13.427177 25.93026 92.32717
35.468178 27.377266 92.04017
35.02718 28.485268 93.12217
33.58118 64.48327 45.646168
32.98318 66.82827 45.384167
16.46518 68.39927 49.220165
14.87618 68.44827 48.664165
37.63018 106.54627 20.20617
0.37617874 107.42127 19.683174
16.82318 105.24127 23.82217
17.62718 106.125275 25.027164
13.476177 21.243263 87.52517
12.171177 22.098259 89.16517
33.53518 22.91027 93.08617
32.42918 21.32026 93.07617
38.80918 57.777267 78.49817
1.7711792 56.430267 79.02217
19.83618 56.318268 78.46517
19.625181 54.44127 78.076164
27.78018 50.28727 12.368172
28.79118 51.584267 10.586174
6.108177 56.45627 13.084175
6.7841797 55.118267 13.76017
21.41918 94.86827 75.48117
20.75918 93.14627 74.27217
4.2201805 95.63127 78.88517
3.9291801 94.08527 79.25717
35.45018 65.88427 53.64417
37.19818 64.988266 54.434166
12.501179 57.451267 54.882168
13.966179 57.737267 54.160168
14.485176 38.730267 81.34917
13.973179 39.69127 79.42917
37.19918 43.45427 84.24717
37.01418 43.245266 86.142166
27.92518 48.550266 28.088167
29.56718 50.235268 28.728167
6.1871796 43.10227 29.474167
7.62418 43.63627 30.395166
6.072178 63.534267 18.02417
4.18618 61.959267 18.557175
28.95918 68.21727 18.019173
27.56718 67.66427 18.818169
38.80518 97.18827 49.15217
0.95417786 98.88527 49.807167
17.11918 100.27227 44.85317
17.838179 99.16927 44.058167
0.3051796 94.87727 60.900166
0.59617996 94.95227 62.914165
25.01518 99.67327 67.52917
23.69718 98.598274 68.10817
28.00218 35.51027 43.064167
26.69618 35.94027 45.022167
9.93418 35.35127 43.106167
8.52218 35.90627 43.970165
22.66618 93.93827 78.81717
24.29318 94.31027 79.865166
2.801178 91.48427 78.69517
2.7121773 90.84527 76.88217
32.14418 32.932266 71.36817
30.62918 31.440268 71.69317
15.77318 40.738266 67.66417
16.47118 41.46327 66.254166
38.68218 87.97227 59.027164
1.438179 87.51427 57.569164
15.993179 87.10127 52.718166
17.194181 87.89427 53.92317
13.06218 59.014267 39.13117
13.380179 57.014267 40.18717
29.806181 54.63427 40.20017
30.56218 56.13027 40.691166
15.40718 75.29527 47.73517
16.70518 77.20627 48.219166
33.66618 76.29727 48.184166
34.85618 75.36127 49.553165
28.21718 78.571266 104.98617
28.76518 79.63227 103.28617
6.7841797 76.67727 100.97717
6.660179 78.21627 100.63417
10.514179 100.27027 4.449173
9.371178 100.03227 3.050171
33.66018 106.67727 4.8681717
34.843178 106.82427 6.1221695
1.9231796 91.65027 46.661167
1.157177 91.94027 44.351166
14.866177 83.642265 45.684166
15.756176 84.30327 46.99217
22.88118 28.651268 7.9831696
23.02618 31.177265 8.59317
37.801178 25.05027 5.616173
38.56318 24.920265 7.185173
35.86618 85.90727 31.505167
35.99018 84.61027 30.048166
13.903179 84.60727 31.804167
14.234177 84.06427 33.585167
24.39818 111.05927 64.58417
26.14918 112.09527 64.922165
2.4321785 108.18727 58.336166
3.6091805 108.60327 57.338165
8.757179 49.478268 20.834175
8.61018 47.228268 20.256172
23.750181 45.050266 15.641174
24.32118 44.283268 14.129173
31.61318 14.971268 86.69317
30.47718 13.889267 85.32817
14.90518 15.648262 90.30717
13.809179 16.370262 88.96417
1.7221794 66.02227 76.11317
0.04417801 65.76927 74.701164
0.6461792 71.93727 74.98317
0.84817886 71.30327 73.08617
10.146179 26.256264 70.59617
10.495178 23.78727 70.33617
32.60518 28.685265 68.78017
31.28418 27.526268 69.09317
36.54618 59.31627 60.603165
37.03418 59.688267 62.733166
13.833179 58.23327 61.396168
13.654179 59.825268 60.920166
0.00017929077 81.67627 71.88617
37.64718 80.641266 70.73217
21.12018 82.044266 74.490166
20.30018 80.59827 74.88217
8.79718 80.41427 107.94817
9.438179 80.52127 1.38517
31.50518 84.76827 6.0251694
30.84218 83.78727 7.185173
3.3501778 49.658268 105.32817
2.532177 48.779266 107.23417
27.93318 57.723267 4.51017
28.15718 58.19827 6.181175
36.954178 7.5062714 17.12017
35.84918 4.7942657 17.146172
19.61718 8.047272 15.727173
18.17418 6.9562683 15.716171
33.76218 15.130272 88.93817
34.17218 15.26226 86.70317
9.625179 12.14727 79.68017
10.115177 10.529266 79.73417
15.336178 52.35227 62.180164
15.677177 53.72627 63.326164
37.76518 56.818268 62.877167
36.98518 55.744267 64.53617
37.63518 37.960266 83.46117
37.78218 38.568268 85.617165
14.425179 36.71827 79.03717
15.3071785 35.17627 78.865166
11.203178 47.624268 55.022167
11.018177 47.193268 57.073166
34.06918 45.42027 56.597168
33.02818 46.341267 55.714165
20.80818 83.42327 78.73517
20.23918 81.55227 78.81617
4.426178 80.49727 81.87417
4.389179 79.36627 83.031166
19.723179 78.61127 63.509167
21.77218 78.14827 65.05317
34.88218 71.821266 58.434166
36.38018 70.79527 58.360165
25.924181 10.997269 51.343166
26.61318 9.127266 51.025166
1.8331795 3.0532684 45.848167
3.5171776 3.3292694 46.037167
8.30118 30.820269 35.635166
9.736179 32.62227 35.859165
24.83218 34.360268 28.210167
25.70818 33.137268 28.879166
35.50718 93.29927 42.946167
35.23118 92.85727 40.764168
18.14918 92.43827 40.933167
17.025179 93.17827 40.05517
14.512179 27.59626 79.76517
16.13918 29.174263 78.673164
29.71018 21.544258 75.40417
29.29618 19.84327 75.518166
0.37817764 74.42727 68.559166
1.4011803 72.07727 68.55717
15.905178 70.06827 61.123165
16.534178 70.77127 62.667168
23.00618 2.5712662 32.224167
22.459179 3.026268 29.657166
36.20818 107.65127 25.949165
36.27018 106.41127 24.642166
30.35618 74.850266 11.043175
28.84318 75.17527 12.668175
11.274179 75.94327 14.104172
10.90418 77.77227 13.767174
15.345177 93.48027 27.019167
14.880177 93.10727 29.033167
36.80418 95.87327 30.662167
36.63218 97.23227 29.131166
1.6291771 81.23427 82.324165
0.7921791 81.41327 80.14717
23.96718 84.335266 81.08017
22.90318 83.39927 82.05717
13.915176 38.56627 65.05317
12.864178 36.60727 65.478165
35.23718 40.972267 65.19417
33.83318 41.867268 65.94017
8.48218 89.65427 101.10417
10.262179 89.48727 102.12117
24.86818 87.91327 98.96217
24.97418 89.43627 98.19717
14.90418 30.476269 83.823166
16.92718 31.818264 82.740166
31.11018 23.862267 83.740166
32.35418 25.041267 84.101166
21.31618 104.85127 32.143166
21.07318 105.67127 30.471167
35.95818 102.14227 29.140167
35.75618 103.88227 28.585167
15.301178 33.862267 98.86617
16.037178 35.425266 99.34117
38.47118 41.569267 97.74417
38.04818 42.488266 96.50017
1.7521782 110.28527 37.943165
2.4411774 109.13227 36.718166
17.41218 104.06027 34.723167
18.77318 105.14827 34.029167
34.64218 75.308266 45.967167
34.59818 73.767265 44.077168
12.623177 68.49427 43.326168
13.258179 67.75027 41.79717
32.24518 86.030266 20.08117
31.81218 83.59627 20.089165
9.273178 80.52927 14.776169
9.210178 81.37427 16.416168
8.889179 77.06127 5.8961716
8.655178 77.585266 3.9571686
31.96618 82.81027 9.299171
31.66318 82.73427 11.059174
35.52318 104.40027 11.651169
33.42118 103.154274 11.245171
17.428179 106.20727 11.605171
16.65518 107.25227 10.509171
9.47118 95.99327 104.11217
11.29018 96.45527 105.67917
27.41918 95.05227 104.08017
26.81618 96.167274 105.64817
5.9581795 82.12227 97.97917
5.303177 79.69527 97.96317
22.296179 74.79027 95.52117
22.80918 74.00527 96.84317
38.33518 68.95227 59.496166
38.54518 68.960266 57.099167
12.475178 62.369267 58.470165
12.6631775 63.919266 57.671165
5.65818 43.32327 16.07917
4.475178 44.250267 18.721169
27.87318 49.890266 19.296173
27.67918 50.819267 20.595161
6.8941803 63.850266 96.83617
7.3261795 62.56027 98.56717
21.89818 58.28827 95.01017
22.180178 57.089268 93.91917
4.014179 64.29527 96.94217
2.6841774 64.36027 98.93917
27.86118 68.29027 104.17217
26.63718 67.12227 103.74317
25.36418 0.53227234 79.462166
25.14818 112.49027 80.97917
8.193179 1.7222672 79.23917
7.32918 2.1242676 80.559166
17.53118 101.55527 36.786167
16.73718 103.99527 37.66617
1.1021805 105.18527 42.102165
38.66118 104.16427 42.51217
26.53818 108.264275 87.11117
25.95118 108.876274 84.781166
9.28418 108.91527 90.71617
8.86218 109.19127 92.37817
30.72118 25.269264 54.122166
32.09218 24.182259 53.640167
9.475178 27.237267 50.468166
10.360176 26.78727 52.01217
35.99218 2.8722687 12.650169
37.50718 2.7342682 14.414169
14.438179 2.403267 10.501175
15.009178 0.6832657 10.422173
27.49218 100.31027 100.54217
27.20418 101.85927 98.99917
9.93118 105.334274 99.77617
11.57318 106.20227 99.41817
25.30018 41.874268 31.148167
25.43618 39.953266 32.962166
8.26518 43.769268 34.35317
7.2511797 44.166267 33.06217
18.799181 87.32727 70.13817
18.715181 85.905266 71.756165
3.3511772 83.37227 74.490166
2.2261772 83.74227 75.63417
32.794178 18.782265 101.91017
30.85518 18.324272 100.56017
17.76018 26.59127 101.47817
17.10718 27.066261 102.96917
12.999176 91.753265 20.21917
11.624176 90.66727 18.66217
36.52718 95.445274 16.96717
36.00818 97.40527 16.59317
36.475178 45.869267 75.85917
35.50018 46.603268 78.11417
18.560179 50.47027 77.31717
18.01318 49.451267 75.91617
24.30518 36.02427 14.825172
25.42718 35.847267 16.651169
1.4091797 32.57327 15.45517
2.3501778 32.55127 13.932175
5.053177 102.96327 76.894165
5.351177 101.23927 75.86117
19.964178 93.26027 69.755165
20.610178 91.878265 70.35917
31.02118 59.401268 33.135166
31.71218 59.30127 31.001167
8.725178 56.78127 30.597166
10.131176 57.194267 29.608166
33.73418 10.654266 106.93217
35.40918 8.803268 107.34417
10.5761795 3.6122665 102.74317
11.934177 4.5552673 102.15017
31.32718 58.784267 35.920166
33.18518 59.897266 34.829166
10.411179 62.28827 32.364166
10.056179 60.85027 33.314167
16.64918 5.0372696 16.882172
15.331177 6.6862717 16.294174
1.7031784 3.2682724 24.292171
1.202179 4.298271 25.82217
13.759178 97.69727 15.054169
13.991177 100.12727 14.824173
0.061180115 98.62027 21.631172
37.51918 97.29827 21.201164
31.66318 14.070267 95.65817
29.70618 12.894272 96.70017
15.43718 14.261269 100.65317
15.257179 14.27327 102.28317
8.35918 28.77227 48.844166
6.9161797 30.874264 47.663166
32.34918 26.36126 50.000168
31.46318 25.427269 51.127167
27.58818 32.79427 21.715172
28.02218 34.99127 21.24717
4.5921783 36.269268 19.22017
3.3521805 35.439266 18.000175
13.707176 93.43427 23.806166
12.353176 93.87027 21.962166
35.121178 95.23527 27.291166
36.06418 96.38027 26.546165
36.27818 80.42727 54.149166
35.44218 80.20327 51.628166
18.261179 82.74927 52.507168
16.60618 83.14027 51.563168
15.37918 21.911263 101.64317
16.47818 19.95327 101.19917
30.69118 12.320267 99.44717
32.03018 13.252266 100.17917
23.952179 75.73327 93.68817
24.27818 76.25027 91.58517
1.5161781 76.63227 88.82417
1.7971802 76.87227 90.65917
18.49518 44.966267 100.63717
19.09218 45.56527 102.75817
4.877178 50.90527 107.58517
5.1681786 52.46227 0.3401718
4.1261787 104.19727 71.22517
3.0341797 102.81927 69.797165
27.82018 110.36427 75.379166
27.38418 110.99227 76.91317
20.26718 106.44927 52.473167
19.46618 106.54827 50.788166
3.3071785 107.473274 51.864166
2.5541801 106.39827 53.098167
4.7431793 23.955269 29.575167
5.1521797 21.791267 29.383167
23.71118 22.242271 31.158167
23.845179 20.85627 29.971167
28.00818 82.67527 102.92017
28.23618 82.08427 105.02417
10.840179 80.52927 104.31117
10.57018 82.21227 105.68817
25.49518 3.8372726 71.05417
24.13118 2.2992706 70.77917
9.18318 5.757271 78.68317
7.8661795 4.510269 78.81517
15.006176 18.830269 99.13017
13.749176 19.88726 100.75417
36.676178 20.20626 102.09917
36.15718 19.339272 100.86117
31.57418 68.419266 35.35317
30.76618 70.13727 34.29117
14.61218 71.70427 36.194168
13.4181795 72.99727 36.417168
21.366179 97.55527 80.603165
21.818178 95.54027 81.075165
5.2381783 96.02627 83.047165
4.36718 95.56027 81.58217
26.52518 101.38127 87.28217
27.57818 99.347275 86.79917
2.2621803 101.75227 81.94317
3.2101784 102.39727 80.268166
34.45318 90.14827 18.105171
