14.586296 0.73332596 6.0437775
17.547295 23.158329 46.673775
19.855293 23.121328 46.619774
27.772293 26.732328 36.882774
26.995293 25.441328 35.061775
83.4153 17.212326 11.890778
84.767296 17.988327 14.150772
79.6503 9.102326 20.836775
77.560295 8.821328 21.58077
72.6693 34.021328 62.302776
73.781296 31.823328 61.979774
80.0543 35.24833 51.773777
79.601295 35.54433 49.446777
60.7913 4.1383286 29.890776
59.7083 4.474327 28.10777
66.7193 11.733327 19.53977
67.2583 13.572328 19.27777
34.2893 15.727326 37.686775
32.0673 15.37433 37.005775
28.462296 10.520329 46.812775
27.225296 11.562329 48.551777
69.4023 54.80533 67.27677
67.920296 53.581326 66.01478
62.847298 51.98633 8.52877
61.704296 50.328327 7.694771
91.087296 23.509329 1.1667709
91.964294 21.992329 2.313774
88.0153 19.18033 13.476776
87.185295 16.98933 14.678772
14.977295 20.40033 45.986774
14.881294 22.881329 45.985775
7.1423035 21.62533 55.858776
8.2603 23.31033 57.233776
26.598297 44.99933 24.313772
25.680298 46.725327 25.30277
17.158295 41.070328 33.030773
16.291298 39.16933 32.85777
90.836296 30.523329 20.161772
90.60729 29.458328 17.995771
94.99529 34.37433 8.496773
94.32929 35.62833 6.655777
91.92629 53.106327 29.464773
92.8073 51.508327 30.957773
84.545296 45.154327 36.591774
82.4713 44.903328 35.803772
38.3823 29.169329 24.464773
39.7293 30.238329 25.48377
44.596302 32.42733 13.474777
42.428303 32.82133 13.563774
48.4343 11.755326 24.494772
46.7553 13.091329 23.20677
51.4343 14.941327 13.963776
53.9623 15.010327 15.011772
70.3743 36.55333 47.153774
69.6523 38.66133 46.909775
65.6483 31.021328 57.165775
67.4713 31.14733 58.600777
13.0752945 38.00633 13.986771
11.876297 38.02233 12.091774
17.158295 41.835327 2.291771
17.9133 40.02633 0.6767731
16.669296 47.044327 52.713776
18.888298 47.93033 53.157776
23.1913 53.76333 43.544773
25.391296 52.97233 43.182774
30.157295 13.654328 67.96877
28.781296 12.090329 0.24377441
35.921303 13.773328 2.4327774
37.4253 12.252328 2.8667755
65.158295 14.203328 2.2907715
63.0853 14.503327 1.3837738
59.3923 11.238328 12.989777
60.457302 13.116326 13.564774
39.092308 4.3503265 67.131775
39.749306 6.0193253 68.144775
44.442303 10.936326 57.776775
45.2663 12.708329 58.297775
48.187305 14.296327 42.107773
47.720303 14.026326 39.819775
53.0143 21.713327 33.946774
53.8493 20.56333 32.623775
45.551304 46.31933 1.2097778
44.707302 44.36633 1.8787766
40.2893 40.496326 12.043777
42.0273 40.88733 13.138771
94.572296 15.150327 35.911774
0.7792969 13.380326 36.525772
92.8313 11.865327 47.318775
94.60629 10.3693285 47.922775
29.493294 14.951329 51.010777
27.120293 14.885327 51.580776
20.749298 9.693326 61.388775
22.394295 9.777329 62.874775
34.138298 7.2513275 15.632774
34.071297 9.275327 16.269773
39.861305 14.033326 5.587776
42.3893 14.578328 5.7417755
48.943302 34.90433 14.379776
50.2553 36.56933 14.343773
57.582302 37.07933 5.6847763
57.203304 35.83833 3.393776
94.44129 26.113329 21.338774
1.4403 26.785328 20.40077
3.0302963 30.98733 9.705772
1.5852966 31.957329 8.673775
64.3143 41.210327 24.489775
63.209297 43.20533 25.42777
67.2353 46.97733 12.816772
66.3053 48.514328 12.928772
27.559296 51.196327 59.663776
27.828293 49.36833 60.856777
21.211296 49.168327 3.355774
21.7473 47.08733 4.105774
58.8893 51.82633 45.560776
56.623302 52.211327 44.948772
50.4643 46.01233 53.281776
49.6163 47.53333 55.345776
33.682304 12.960328 51.957775
35.699303 12.536328 51.930775
40.93731 15.792329 40.842773
40.3863 15.3883295 38.437775
41.234306 30.370329 61.942776
41.0523 28.346329 62.485775
35.5223 30.353329 5.299774
33.885307 28.813328 5.305771
7.299301 10.652329 20.509771
8.364304 9.75633 18.682775
14.186295 15.370328 9.984772
15.423294 16.854332 10.808777
43.994305 48.55533 1.0317764
44.868305 49.690327 3.0487747
40.736305 49.03933 14.558777
41.283302 49.086327 16.865774
32.238297 1.7413254 64.48778
31.405296 0.19132614 65.783775
25.822296 55.74333 6.365776
25.773293 53.43033 7.037773
24.619293 43.913326 3.3527756
25.392296 45.74833 1.7107773
34.682304 47.15233 64.063774
35.377296 46.607327 61.973774
22.811295 27.606329 51.043774
23.478294 29.778328 51.975777
28.339294 33.41433 41.340775
27.068298 34.85233 40.093773
24.834297 8.522328 63.830776
23.206299 7.0573273 63.652775
16.797295 2.936325 4.992775
17.312294 4.6443253 6.1357727
10.3423 17.654327 41.459774
10.678299 19.15933 43.307774
7.020302 15.906327 55.243774
7.6492996 17.084328 56.676777
1.1412964 47.49233 62.435776
1.3432999 49.29833 64.131775
90.7613 42.848328 4.551773
90.5303 40.912327 3.6007767
25.106293 2.372326 7.8617706
27.161293 1.318325 7.7677765
30.942299 7.828331 67.01578
31.865295 6.1283264 65.91177
2.2202988 31.750328 24.432774
0.8833008 29.950329 24.433773
94.6123 27.143328 36.920773
92.6793 25.846329 36.565773
70.99329 48.586327 14.598778
71.1223 50.612328 15.16777
63.015297 49.02033 25.600775
63.038296 46.607327 26.578772
20.374298 55.817326 23.338774
20.627296 54.769325 25.668774
15.119293 52.824326 34.378773
14.654297 52.697327 36.792774
1.4062958 37.73833 8.316772
3.4613037 38.29033 7.159775
8.976303 43.072327 67.48477
10.7642975 41.74233 66.506775
56.234303 15.564329 29.265776
54.022305 14.81133 28.42777
61.4763 21.16333 19.918776
61.8523 23.41733 20.519773
20.439293 35.03433 2.3767776
21.262299 36.12833 3.478775
17.4973 34.11733 15.313774
18.153297 31.787329 14.628777
25.211296 4.1713257 63.577778
22.8303 4.721325 62.351776
24.285294 1.113327 4.6067734
22.585297 1.839325 5.678772
79.340294 30.809328 15.782776
77.3603 32.21833 16.242773
73.7483 28.242329 25.48277
73.9463 27.127329 27.772772
88.70229 0.3023262 63.98678
87.2353 1.8733253 65.15177
78.2233 4.6763268 3.1677704
76.9563 6.221325 3.4357758
42.230305 51.63833 2.0367737
44.1033 52.53433 2.5827713
35.8133 48.370327 12.211777
35.919304 50.616325 12.566772
25.532295 28.67133 19.757772
24.736298 30.044329 20.73277
25.193298 25.655329 32.93977
25.137299 27.569328 33.95377
83.24629 43.015327 18.037771
85.63529 43.20033 19.520773
93.559296 46.18033 10.679771
93.05029 46.475327 8.763771
26.409294 24.81033 17.833769
28.9693 24.95233 17.778769
34.141304 25.25133 6.4047775
34.676308 23.45633 7.2377777
77.615295 31.562328 48.648777
75.7493 32.61933 49.880775
69.839294 30.410328 59.634777
69.4413 28.226328 60.648777
37.7293 35.95733 28.909773
36.56431 37.28333 29.521772
32.557297 32.841328 38.687775
30.465294 33.31233 39.666775
79.4833 1.9463272 37.466774
78.269295 1.1153259 36.576775
82.197296 8.142327 28.500772
82.4863 7.842331 26.413773
9.472298 28.69933 47.349773
10.450302 30.245329 48.664776
1.7873001 23.770329 54.568775
95.0143 25.538328 53.312775
40.41131 5.3833275 51.596775
40.211296 6.651325 53.243774
33.721306 6.849327 63.961777
34.763298 5.5053253 64.43977
6.220299 14.586328 39.865772
4.2043 15.360326 39.524773
3.6412964 7.3833275 49.382774
4.476303 4.990326 49.645775
84.628296 6.7013283 29.244774
86.574295 7.6733284 30.169773
82.2223 2.978325 41.571774
83.088295 4.5883255 42.592773
49.4313 5.707325 58.486774
48.424305 3.5603256 58.050777
41.742302 55.122326 66.87678
42.6683 55.30433 0.21177673
35.928307 47.724327 48.012775
35.46531 49.427326 49.613777
26.375298 49.59633 58.155777
26.353294 47.545326 59.420776
57.1293 26.419329 54.011776
54.7773 25.277328 53.526775
48.6263 24.77533 62.828777
46.688305 23.659328 63.234776
34.806297 26.07433 57.167774
36.726295 26.243328 58.757774
33.187294 18.072329 68.26177
31.391296 17.64433 68.55377
91.99429 4.655327 66.435776
93.6113 4.429325 68.271774
84.840294 55.55533 6.081772
83.7913 53.90833 4.9607773
10.0142975 4.502327 2.4307709
9.493301 3.6913261 0.67477417
11.936295 6.5843277 57.017776
13.834297 6.877327 57.510777
28.9823 51.905327 9.839775
28.664299 52.517326 11.763771
18.5523 48.544327 18.05477
19.255295 46.60233 19.020773
89.867294 31.815329 0.12477112
91.35529 33.37033 0.315773
93.8463 38.97233 59.511776
95.1523 40.81633 60.428776
92.128296 19.92833 35.066772
93.269295 20.43233 36.693775
88.5953 18.61233 47.686775
89.05229 16.520329 47.813774
91.5673 17.461329 16.253775
93.5693 18.31633 15.862776
5.119301 19.67433 7.089775
3.428299 19.98933 5.758774
19.314293 14.697328 10.721771
20.180298 13.584329 8.732773
25.6353 16.01233 68.20878
27.401299 14.204328 67.87477
51.0313 39.33133 52.443775
50.2263 37.55233 52.861774
47.719303 32.59933 64.31577
45.6263 32.60433 65.382774
91.9593 53.29133 10.598778
92.43829 51.97833 8.957771
5.4533005 54.08233 1.0757751
4.539299 53.97133 67.923775
3.601303 10.970326 35.753773
1.1583023 9.920327 36.093773
92.82729 2.8693275 43.936775
91.3353 2.5193253 45.628773
88.78829 37.62633 20.184774
88.394295 40.03433 20.06777
1.2792969 45.74233 13.074776
3.8383026 45.19233 12.958771
70.866295 42.329327 47.191772
69.0143 43.18533 48.308777
65.7793 39.04133 57.465775
64.2093 40.81633 57.067776
14.3713 3.7743263 40.530773
15.928299 2.6233253 42.015774
16.877296 1.7503281 54.431774
14.321297 2.4023285 54.860775
63.698296 2.1113281 11.524773
63.863297 4.511326 11.774773
71.353294 6.0843277 2.6367722
71.3703 7.8463287 1.7207718
65.1223 13.655328 17.299772
63.893295 13.986329 15.385773
68.561295 16.213326 5.4087753
69.947296 14.995328 3.968773
94.0113 5.009327 64.63377
0.8232956 3.622326 63.777775
7.9933014 6.703327 53.750774
8.226303 8.989327 54.137775
88.06429 26.599329 50.886776
86.0253 25.75533 50.255775
82.979294 19.172329 61.149776
81.16229 20.66833 61.506775
44.5023 47.787327 53.544777
42.4303 48.59433 53.580776
40.124306 41.280327 64.88877
39.17431 42.598328 65.92977
50.2913 6.5793266 9.410774
49.798306 8.419328 10.4157715
47.6163 5.8333282 21.81877
46.090305 4.4773254 22.37277
89.51029 7.488327 12.840775
90.6553 5.4663277 11.660774
3.4343033 9.940328 3.617775
2.5692978 11.212327 2.0207748
9.844299 54.671326 0.61977386
11.826294 55.494328 1.0257721
15.439293 4.757328 58.196777
17.259293 3.846325 57.244774
66.963295 41.55333 27.550774
64.6203 41.524326 28.228773
61.318302 34.43033 38.000774
59.957302 35.56333 39.320774
64.6803 6.186325 31.85477
66.628296 7.660328 31.140774
70.25829 15.459329 24.104773
71.534294 14.4493265 22.16377
17.193298 28.473328 48.884777
18.362297 27.180328 47.211773
23.282295 32.22933 37.664772
21.627296 32.18633 36.209774
81.491295 7.8013306 8.805771
81.79929 5.8243256 10.190773
78.96629 4.261326 21.115774
76.77129 3.0933266 21.33177
31.932297 26.833328 55.337776
32.186295 28.598328 55.153774
35.639305 32.46233 43.313774
34.668297 34.03233 43.932774
93.34129 35.31233 58.283775
91.7223 34.09333 57.033775
85.99629 32.67833 67.119774
84.045296 31.888329 67.091774
54.6943 31.430328 18.61077
53.966305 30.964329 16.770773
61.940304 34.73533 6.895775
63.855305 34.13333 7.883774
72.170296 42.45533 63.25078
74.0133 42.223328 64.34277
78.5293 47.426327 54.352776
79.4433 49.579327 54.093777
1.0932999 13.215329 51.795776
1.8052979 12.338326 53.421776
91.0113 9.296327 63.154778
91.66329 9.159329 65.34377
70.6273 31.312328 43.027775
72.50829 31.863329 43.289776
80.1933 34.195328 33.827774
78.9283 34.30033 31.697773
84.269295 5.6383286 26.426771
85.21729 3.8053284 25.685774
93.0833 5.9513283 15.238777
91.98029 4.368328 13.784775
59.189304 43.369328 22.186773
58.4593 44.76333 21.35877
62.426304 48.83833 10.298775
63.5833 46.355328 9.648773
87.824295 21.85533 68.438774
88.38429 23.947329 0.440773
85.114296 19.57333 11.597771
85.36929 20.58033 13.18177
81.9143 48.26933 53.961777
82.53629 50.09033 54.687775
87.393295 51.449326 42.667774
88.3213 53.793327 42.863773
54.437305 7.1173286 41.902775
53.7693 5.919327 40.210773
57.2803 11.713326 31.351772
56.5023 13.376328 30.792772
90.92729 18.088326 51.529774
91.6103 17.994331 53.752777
83.41229 16.084328 62.535778
84.340294 14.616326 64.30477
79.7213 9.321328 25.225775
81.656296 9.498326 23.659773
89.795296 15.300328 17.226774
88.728294 17.31633 16.903769
69.951294 22.780329 57.464775
70.2493 24.75433 57.711777
73.9393 27.56033 47.177773
74.1633 29.457329 48.140774
47.5153 55.759327 38.002773
46.3753 1.3203278 36.553772
51.2783 5.811325 26.680773
52.800304 7.082325 26.138773
46.385303 8.681329 6.3337708
44.4313 9.224328 7.0077744
38.387306 4.0013275 15.011772
39.31431 2.955326 16.297773
85.9463 10.305329 29.138777
84.11929 10.295327 27.535772
91.463295 12.455327 17.796774
93.447296 12.011327 16.739775
20.895294 31.25533 52.038776
20.166298 29.409328 52.952774
13.976295 25.656328 60.811775
13.194298 27.827328 60.949776
38.247307 44.60833 12.249771
37.527306 44.94133 10.357773
40.331306 46.03433 67.66377
40.028297 47.348328 65.55978
84.645294 0.34132767 58.777775
84.69129 54.627327 59.757774
78.450294 48.231327 0.58377075
80.033295 46.21533 1.004776
38.430305 25.78633 9.032776
40.38331 27.153328 8.301773
44.262302 30.05033 65.24777
42.9503 29.325329 64.10677
37.227303 30.18933 7.6167755
39.096306 29.25133 9.013771
35.297295 26.721329 19.634771
36.8993 26.398329 21.90077
64.9873 0.4253273 13.199776
63.872303 54.955326 13.562775
59.6833 51.870327 25.630774
58.801304 50.59033 24.648771
12.250298 12.750329 41.711773
10.682297 11.192327 41.149773
7.2833023 9.808328 51.388775
5.5233 11.027329 53.005775
23.920296 23.679329 34.179775
23.264297 25.211329 35.258774
14.1353 22.70633 43.375774
13.676292 20.23933 43.831776
34.811302 30.537329 58.869774
35.96531 30.91133 60.596775
32.013298 28.075329 3.3957748
30.130295 26.424328 2.7017746
62.594296 20.669329 17.58077
64.4173 20.35533 18.436773
69.1523 18.84033 8.664772
71.3283 18.183329 7.997772
56.7273 26.31033 16.640776
56.493305 24.253328 17.745771
49.3333 21.318329 26.220778
47.623302 20.92433 24.820776
25.366295 46.48533 40.654774
27.4823 45.980328 41.018776
30.658295 46.49333 30.124773
32.545296 47.62333 29.570774
84.339294 44.710327 55.782776
82.116295 44.424328 55.868774
77.9573 38.30533 65.28977
76.381294 38.63733 67.01177
22.851295 5.174328 10.129776
23.383293 6.3743286 11.694771
17.645294 54.33333 19.695776
16.790298 55.46533 21.286772
50.6813 26.410328 65.39278
53.220303 26.355328 66.17777
57.246304 31.242329 54.331776
59.980305 31.67533 54.998775
78.032295 16.58333 25.12377
78.8873 14.614329 24.099775
84.1523 20.197329 15.8307705
84.02429 22.00533 15.250771
56.232304 38.35333 1.1807709
58.4723 37.83233 2.0057755
65.1543 40.65133 59.817776
66.713295 39.31733 60.167774
25.428299 55.577328 45.632774
27.076294 0.46732712 46.617775
25.8023 54.754326 58.173775
23.956299 53.759327 58.877777
47.4893 42.08133 1.6887741
48.8773 40.68733 2.6637726
44.7413 37.84833 12.256775
45.452305 36.28433 13.050774
19.551292 49.038326 55.555775
17.411293 48.919327 55.643776
13.483299 43.586327 66.006775
11.612297 43.778328 65.05577
83.9423 38.47333 19.01277
84.437294 36.91033 17.77677
89.3743 43.18033 7.9877777
89.0963 45.003326 6.4917755
64.6233 5.596325 66.297775
63.816303 7.224327 67.727776
58.664303 0.93032837 9.126778
57.0023 2.099327 9.260773
59.498302 26.94933 16.856771
61.8093 25.920328 17.08177
67.574295 27.132328 6.8897705
69.6653 26.467329 7.8927765
55.4733 41.82333 56.025776
56.6003 43.80533 56.551777
61.092304 48.03433 44.759773
58.881306 48.23433 43.418774
89.395294 25.218328 34.776775
89.64629 22.75133 35.331776
86.5993 15.10633 43.364773
85.45429 16.169329 45.162773
76.20329 30.148329 30.221777
75.380295 31.889328 28.250776
80.6663 35.70333 17.334776
82.1553 34.71133 17.731771
3.4243011 43.69933 43.153774
3.6492996 42.02633 41.732773
9.1073 42.042328 30.628773
10.750298 43.800327 30.560774
69.267296 22.93833 37.326775
68.5503 22.27533 35.568775
76.2633 19.66633 25.758774
74.5163 19.245329 24.561773
72.2773 2.4723282 56.168774
71.84129 0.5083275 55.080776
70.0513 50.260326 63.923775
69.5393 51.320328 65.62377
43.5573 32.264328 28.648771
43.441303 34.49833 28.759771
50.4483 36.79533 20.533773
50.4203 37.73833 18.51177
3.464302 2.7903252 67.52477
5.808296 3.0493279 67.16778
12.013298 1.1213264 55.660774
11.267296 3.634327 54.969776
14.698296 35.90333 67.26277
14.934296 34.84933 65.68478
22.861298 38.54133 56.253777
21.7603 37.20933 54.865776
74.30129 39.10333 48.937775
76.131294 37.93833 49.917774
73.378296 39.65333 63.438778
71.031296 39.23833 63.198776
15.198296 9.478326 56.793774
15.527298 11.613328 57.922775
20.584297 13.879327 48.015774
22.366295 15.241326 47.711773
49.8673 16.673332 45.625774
50.2773 15.973329 47.607773
49.206303 10.747327 56.862774
47.235302 11.213326 56.929775
66.614296 50.26333 29.85777
67.4853 48.785328 28.912771
71.9593 51.934326 17.695776
70.7803 53.323326 16.861769
40.377296 21.18733 40.109776
38.8993 20.922329 38.975773
40.672295 22.30033 27.189774
38.2873 22.35933 26.407774
43.2963 39.39433 31.622774
42.761303 41.59633 32.459774
33.125298 37.07033 40.664776
33.375298 38.51933 42.599773
37.1753 8.793328 68.73377
36.2033 10.553327 0.7567749
28.852295 6.198326 10.136772
29.063293 3.7773285 10.711777
13.051292 37.47233 65.76678
11.003296 36.56733 65.68977
5.015297 36.03933 7.8367767
2.7882996 35.45533 8.658775
37.1733 33.28933 8.520775
38.7983 32.83133 7.921776
39.900307 32.60033 64.50977
42.384304 31.885328 64.01077
51.039303 16.95433 28.923773
51.301304 14.580327 29.092773
50.9303 10.034329 40.631775
51.9493 8.216329 40.997772
69.337296 32.89533 27.958773
69.211296 30.722328 27.879774
63.983295 30.916328 38.944775
64.2383 31.663328 41.263775
37.975304 46.92133 62.985775
38.9143 49.05333 63.350777
40.5073 54.570328 53.103775
40.989296 0.111328125 53.027775
38.99331 38.92933 63.887775
40.4683 37.87133 62.629776
43.6673 41.58033 51.454777
45.3393 42.74233 51.531776
68.769295 0.9673271 67.46777
68.5703 2.9153252 68.64877
62.2353 0.5393257 9.487778
62.864296 55.79833 11.060776
4.4452972 35.15333 45.369774
4.712303 32.80333 45.189774
92.5153 29.23433 53.273777
90.503296 28.79333 52.864777
50.8933 16.185326 9.7647705
51.5753 14.399327 9.186775
55.938305 20.488329 1.1817703
55.344303 19.84733 67.62177
32.185295 9.276326 49.568775
31.198296 11.056329 50.692776
24.601295 6.9753265 60.558777
26.534294 5.747326 61.660774
34.366295 51.633327 29.912773
33.865303 52.831326 31.873774
29.294296 51.952328 43.017773
28.289299 50.365326 42.214775
45.8533 46.35233 31.905773
45.246304 48.411327 32.31577
53.1703 54.33333 25.355772
54.080303 53.10433 23.361769
71.0853 1.5553284 35.528774
69.7203 55.991325 35.273773
64.5783 52.022327 43.384773
62.667297 50.292328 43.954773
45.910305 16.308329 24.852774
48.0603 15.463329 23.325773
52.8473 22.43433 15.373772
55.2653 22.304329 14.231773
16.756294 14.721326 26.011774
15.680298 15.547326 27.670773
8.644302 11.010327 35.425774
7.5623016 12.063329 36.993774
61.278297 9.483327 12.929771
63.046295 8.221326 14.900772
71.1263 9.774327 3.9777756
72.7183 7.851326 4.258774
40.545296 20.86933 59.414776
39.987297 18.92333 60.489777
34.9943 14.909329 68.55878
32.628296 15.211328 68.21078
11.6073 14.940328 56.988777
10.493301 17.130325 56.360775
15.350296 14.067327 45.451775
14.2603 16.168327 44.144775
24.373299 17.65033 66.44477
25.586296 17.17433 64.27878
24.267296 24.25133 53.917774
26.489296 24.350328 54.102776
83.61829 25.916328 48.298775
81.4423 26.107328 48.449776
78.5843 22.58033 59.465775
77.20229 22.756329 61.186775
16.3163 50.15033 17.380774
16.335297 52.55533 18.23577
20.620293 1.377327 7.4757767
19.051292 1.3873253 5.5667725
26.877296 37.61333 40.564774
27.3863 37.23933 42.619774
23.300293 35.15833 53.587776
21.367294 33.56933 53.118774
52.4483 35.80933 34.645775
52.7383 33.67233 36.032772
46.245304 35.87333 46.692772
47.732304 36.81933 47.717773
11.158295 21.096329 7.7077713
11.958298 22.94833 6.766777
15.013298 26.158329 63.248775
16.4003 24.221329 62.803776
20.059296 14.632329 30.233772
20.3293 13.0813265 31.605774
14.728294 6.429325 40.017773
14.822296 4.965328 37.944775
43.4883 14.687329 41.782776
45.2693 13.893327 42.507774
40.666298 11.237329 52.149776
39.060295 10.106328 52.353775
73.0963 21.18733 9.4537735
71.116295 20.96933 8.883774
64.117294 23.01233 18.729773
64.9443 23.898329 20.625769
83.34129 25.50533 0.06277466
84.020294 26.709328 1.6817703
80.448296 21.593328 10.990776
78.587296 23.01033 12.0407715
40.876305 25.26533 10.929771
42.3523 24.429329 11.739777
33.686302 20.87633 18.58077
33.189293 21.745329 20.592772
45.735302 11.772328 5.7907715
45.0423 13.909329 5.502777
51.9443 15.401326 64.21877
53.538303 17.348328 63.38278
32.459297 42.13833 62.976776
33.025307 40.36533 64.326775
26.717293 40.22133 5.9847717
27.811295 38.90133 6.9577713
39.82731 26.96333 42.687775
41.100304 26.042328 43.940773
38.614296 21.141329 54.986774
37.568306 18.76833 55.679775
50.8883 49.59633 21.325773
49.923306 47.65833 21.726774
41.4143 47.88833 30.353771
42.632305 48.35833 31.846775
45.9223 52.844326 37.812775
46.3343 53.487328 39.639774
40.02131 50.203327 48.772774
37.698296 50.350327 47.564774
12.2002945 43.23333 15.856771
11.503296 44.96333 16.86077
5.765297 36.91833 25.036772
5.712303 37.82533 27.228773
1.077301 53.101326 65.16577
94.2923 53.084328 64.26478
89.6363 48.12333 5.0597763
89.350296 49.410328 7.372772
26.238297 39.57133 22.30377
27.364296 41.61633 21.718771
35.959297 45.76933 12.943771
34.170296 46.149326 12.160774
63.018295 42.549328 8.865776
62.424297 42.439327 6.4727707
70.9683 44.97733 66.740776
69.254295 45.170326 65.297775
23.1913 30.297329 18.351774
21.853294 30.346329 16.472769
23.949295 32.389328 4.905777
26.3583 32.64933 4.5577774
14.7743 27.676329 46.996773
15.540298 26.287329 45.626774
21.724297 28.443329 35.854774
22.960297 29.597328 37.483772
74.0153 34.17733 47.189774
73.3913 33.91633 45.050774
79.755295 38.21633 35.274773
80.3623 40.06233 36.408775
4.212303 45.93533 64.895775
5.5903015 44.188328 64.602776
1.7122955 37.20333 59.590775
1.1822968 39.46733 58.242775
77.323296 18.37533 61.571777
77.686295 20.12633 60.403774
81.80029 20.86933 49.168774
81.81429 22.78933 48.085777
60.369305 23.120329 55.666775
58.7673 24.715328 55.800777
49.510303 20.988329 61.893776
50.841305 22.561329 62.903778
94.3493 3.3553276 13.9157715
94.908295 5.627327 12.987778
0.9953003 5.544327 1.4947739
0.21630096 7.219326 0.38477325
17.244293 35.26633 17.730772
18.409294 34.66433 19.741774
11.368294 28.66133 27.475775
9.270302 28.945328 26.113775
50.562305 36.60233 66.38877
48.442303 36.41833 64.865776
53.926304 44.40933 56.727776
52.1983 45.119328 55.427776
34.0113 2.0633278 47.619774
35.766304 3.474327 46.524773
37.544304 2.8103256 35.780773
39.60531 3.7843285 34.996773
62.759304 38.51633 57.533775
60.856304 37.07033 57.242775
57.1173 32.42733 68.43378
57.568302 33.653328 1.6947708
49.354305 24.08133 14.437775
51.4483 24.530329 13.375771
55.884304 29.947329 3.815773
57.034306 28.587328 3.2377777
78.0693 43.252327 30.768772
78.95329 45.38133 31.613773
89.0693 44.148327 23.169775
89.0713 41.850327 21.87377
62.823296 3.1233253 63.070778
61.786297 4.722328 62.824776
68.951294 10.637326 55.627777
69.381294 9.365327 53.992775
80.46629 52.052326 57.016777
80.89729 53.796326 58.475777
72.242294 48.76833 64.713776
72.3023 46.584328 65.13677
54.400303 26.45633 34.008774
54.674305 28.110329 35.835773
49.646305 28.179329 46.715775
51.6703 27.610329 48.098774
76.5523 27.72733 47.892776
77.3623 26.030329 46.889774
72.836296 19.86533 55.565777
73.3993 20.22333 57.757774
75.6083 0.79532623 36.914772
74.657295 54.671326 36.488773
72.2633 51.36833 48.589775
73.7903 50.550327 47.918774
30.7743 41.149326 9.084778
32.349297 43.000328 9.852776
35.9103 43.549328 65.95777
36.638298 45.195328 65.17078
73.5963 43.36633 67.14178
71.4983 42.45533 67.02777
68.5803 36.03733 8.127777
69.7653 34.25433 8.375771
62.689297 48.403328 60.809776
64.16129 49.440327 61.492775
72.364296 53.69333 52.291775
72.1943 55.730328 52.396774
82.784294 51.924328 58.381775
83.5113 49.757328 57.363777
76.048294 44.87933 66.97578
77.1133 43.029327 68.004776
66.28529 23.17833 4.0057755
64.699295 23.24133 2.730774
71.4993 28.385328 62.531776
70.322296 30.67833 62.145775
92.020294 7.481327 29.153776
91.3073 9.715329 29.745771
6.6082993 14.607327 24.711775
8.210297 13.060327 23.981771
76.13429 13.653329 42.276775
75.7613 11.566327 42.460773
70.8903 7.7023277 51.234776
69.2943 6.2773285 50.623775
73.019295 14.183328 19.875769
72.075294 16.222328 19.044775
78.256294 15.271329 9.287773
80.46629 14.539327 9.412773
65.4673 46.668327 46.102776
65.3023 47.703327 48.048775
61.716305 43.75633 58.478775
61.8493 41.84033 59.044777
31.3583 26.221329 5.849777
29.032295 26.63333 5.1847763
28.196297 21.43233 16.200773
28.256294 19.84533 17.52677
87.1123 43.60233 5.6147766
85.6383 42.903328 4.224777
79.64829 37.04933 15.069771
79.322296 38.32933 16.745771
56.940304 13.400327 63.484776
55.6663 13.099328 61.778774
58.6003 18.085327 50.949776
58.0413 17.170326 48.599777
43.7953 23.49133 62.101776
43.1543 21.49033 62.048775
37.85531 20.103329 4.002777
36.625298 22.25333 5.520775
42.689304 6.014328 22.265776
43.4493 4.0013275 22.952772
38.50631 1.5803261 33.19177
36.337303 2.0553284 33.373775
70.9693 53.71533 34.446774
72.1813 54.004326 35.952774
66.25829 50.484325 45.287773
66.0443 52.174328 46.412773
19.978294 42.300327 35.931774
19.8293 42.772327 33.532772
27.518295 39.64133 24.975775
29.187294 40.883327 23.847769
60.8673 47.787327 62.819775
59.332302 47.01833 61.718777
53.7083 42.536327 2.027771
55.287304 42.709328 3.5147705
60.841305 19.11833 50.090775
62.5323 20.18733 50.960777
67.353294 24.981329 40.494774
67.4413 25.15433 38.039772
56.0583 18.955328 32.867775
57.774303 17.784332 33.33177
51.9743 19.766329 44.370773
51.985302 18.087326 45.815773
9.920303 29.445328 61.004776
11.983299 30.142328 60.949776
19.350296 35.08933 54.230774
18.598297 35.18033 52.134777
65.311295 2.2323265 32.158775
63.137302 1.9923286 32.237774
57.856304 50.184326 41.305775
58.133305 51.011326 42.896774
75.17529 31.281328 46.557774
76.7323 30.01233 46.798775
83.212296 35.48733 35.921772
85.615295 34.62233 36.903774
11.870293 34.63233 63.517776
10.609299 35.21133 61.903774
12.9882965 36.53233 50.486774
13.7992935 34.86133 49.779774
32.948296 48.26233 27.016775
32.753296 50.514328 27.725775
40.81231 52.842327 18.987776
40.094307 51.17233 18.19177
43.3523 3.0503273 54.025776
42.0333 4.420326 53.866776
37.641304 53.682327 64.436775
38.742302 52.566326 65.79177
25.314293 9.547326 28.891775
24.592293 11.4683275 27.966772
27.031296 3.5913277 27.877775
26.590294 2.8803253 26.073774
56.6573 39.60333 57.573776
55.6973 41.22633 58.642776
50.440304 41.585327 68.645775
51.468304 40.649326 1.7657776
67.086296 34.26833 7.194771
67.2513 31.754328 6.8287735
74.03629 32.10933 67.04278
74.4853 32.21133 65.105774
38.626305 34.13733 62.804775
38.921303 35.89433 63.849777
33.083305 31.746328 4.683777
32.577293 33.15433 7.011772
2.9953003 33.202328 59.850777
4.1772995 31.37333 58.693775
9.008301 36.41033 48.074776
10.959297 35.44133 48.489777
54.969303 51.210327 42.325775
53.6703 49.84733 41.131775
48.354305 46.95633 51.489777
47.937305 44.76933 51.807777
51.719303 43.93733 0.61577606
52.8113 45.120327 1.9907761
54.443302 51.619328 59.353775
53.494305 53.727325 59.823776
21.863297 48.58733 40.209774
21.472298 46.73333 40.432774
13.589294 48.63833 47.717773
13.206299 46.378326 47.725773
74.2743 43.70733 15.504776
74.2663 42.460327 17.312773
65.9293 38.97533 24.213774
66.1113 39.19933 26.459776
6.4533005 5.639328 51.508774
6.3162994 7.5863266 49.721775
8.3703 8.88133 39.875774
7.2723007 9.564328 37.922775
29.730293 29.313328 55.628777
28.283295 30.410328 56.300777
22.312294 30.111328 67.07977
24.606293 29.398329 67.36278
92.2763 39.11733 57.436775
93.21829 38.81933 54.925777
2.7413025 44.779327 45.672775
2.5812988 46.545326 45.754776
23.155296 33.94433 2.3547745
24.665298 32.79333 2.0267715
27.253296 38.34133 59.352776
27.626297 40.453327 59.718777
17.281296 44.54633 2.6017761
16.763298 46.001328 1.2207718
21.4003 49.162327 58.950775
23.479294 49.162327 59.062775
36.9103 41.272327 66.090775
36.028297 39.73433 65.17078
31.193298 38.34033 7.720772
32.321297 38.93333 9.663773
18.684296 34.86633 68.52477
20.345299 33.63733 68.700775
24.701294 37.33733 59.476776
24.609299 36.79533 57.234776
33.81431 5.127327 49.277775
33.2443 3.1263275 50.082775
30.542297 3.7183266 63.564777
29.521294 1.6563263 62.797775
93.9143 48.18633 25.129774
92.256294 47.10133 24.16477
2.0712967 47.90233 14.54277
3.2212982 49.65033 14.037773
69.824295 24.542328 40.798775
70.4963 26.82133 41.088776
72.6783 31.514328 29.524773
73.533295 29.559328 29.459774
33.612297 18.65733 21.132772
35.114296 19.384329 22.633772
26.791298 18.91033 31.96777
24.842293 18.12133 30.725773
46.7123 49.56933 1.303772
48.897305 49.579327 0.7127762
56.329304 55.79133 62.60478
56.6413 1.2403259 61.200775
30.4683 41.83933 12.0177765
31.961296 39.81833 12.157776
30.092293 35.81633 23.481771
29.720299 37.92233 24.542768
14.4683 55.535328 37.063774
16.9273 0.64232635 37.220776
19.397293 3.6383286 25.666773
19.229294 6.044327 25.550774
88.5013 35.23533 54.063774
86.86829 33.47033 54.067776
82.49629 29.172329 64.171776
81.82729 31.087328 64.921776
70.145294 46.03433 12.722771
72.0823 45.670326 12.749771
78.46629 47.285328 3.4377747
78.49429 49.572327 2.8127747
15.562294 19.878328 11.320778
16.546295 18.51433 13.004776
8.056297 15.055329 21.935774
7.0903015 16.737328 22.430769
94.79929 19.73733 18.098776
93.7093 21.78633 18.711775
4.6112976 27.21333 9.613777
3.9933014 26.073328 7.478775
90.9423 24.354328 16.990774
91.64829 26.781328 17.83177
94.4433 28.62333 5.436775
92.9433 26.899328 4.301773
17.476295 0.58732605 59.125774
19.5943 0.13032532 59.978775
15.205299 54.169327 2.280777
16.081299 54.981327 4.3757706
85.35629 31.125328 51.925777
84.4183 31.947329 54.045776
81.061295 23.49733 61.783775
80.728294 24.698328 63.559776
59.7823 8.342328 30.877773
59.997303 9.557328 32.832775
61.6813 6.0013275 44.852776
60.121304 4.4233284 45.354774
30.546295 37.05233 41.787773
30.244293 37.20633 44.133774
28.797295 32.396328 54.620777
26.680298 32.36433 55.176777
67.9873 4.0863266 51.118774
69.3023 4.2703285 52.645775
63.076298 0.64032745 61.812775
61.056297 55.66533 62.808777
43.385303 26.406328 29.765774
45.813305 26.479328 30.307774
44.578304 24.634329 41.515774
43.8803 22.37633 42.427773
34.379295 42.932327 43.745773
33.628304 44.507328 42.664776
39.5263 45.114326 32.066772
41.803307 45.57633 31.554773
32.459297 27.450329 57.989777
32.4403 29.278328 59.328777
27.819298 22.32833 68.25278
28.105293 20.14233 68.491776
11.706299 50.15733 49.145775
9.944298 51.370327 48.500774
12.275299 0.32232666 38.184772
12.576294 2.1703262 38.753773
59.2253 14.816327 65.90478
61.663303 14.767327 66.27277
67.9703 21.24933 58.903774
69.4273 20.07833 57.811775
87.4853 2.6943283 27.257772
88.4713 2.8203278 29.094772
87.7753 52.198326 39.791775
85.9443 51.204327 39.223774
16.814293 11.710328 7.7677765
15.259293 10.270329 7.284775
10.130302 5.150326 18.74877
8.946297 3.5553284 18.407774
83.951294 52.771328 40.026775
82.436295 54.05433 41.461773
76.2743 49.01833 49.995777
78.032295 48.33933 51.594776
6.4633026 22.780329 42.896774
7.296303 23.669329 45.058773
2.166298 20.002329 54.767776
2.7453003 21.575329 55.788776
89.7243 50.441326 59.538776
92.2343 50.26333 59.282776
3.268303 53.06833 48.501774
1.3973007 52.97133 47.524773
13.875298 53.49233 52.475777
15.018295 51.871326 51.599777
20.335297 52.77733 41.693775
19.3723 52.605328 39.534775
56.951305 28.125328 51.941776
56.631306 30.72733 51.455776
63.661304 34.46433 42.223774
62.2373 33.83033 40.647774
84.39729 24.749329 66.46178
85.17729 26.722328 66.95978
88.2613 29.518328 54.566776
88.8473 31.342329 54.521774
19.128296 54.461327 58.270775
17.6773 52.90233 57.769775
12.018295 51.218327 66.869774
12.185295 49.529327 68.11278
11.280296 46.96933 50.745777
12.477295 46.682327 52.614777
10.848297 40.83333 62.282776
9.195297 39.72433 61.970776
44.2393 40.24133 14.553772
43.913303 38.02633 15.02877
40.2333 33.19233 25.868773
42.497303 32.65633 26.23277
62.063305 50.175327 47.060772
64.3063 50.035328 47.868774
53.8533 47.30433 55.641777
54.827305 46.95733 57.737774
79.713295 13.703328 63.541775
79.130295 15.655328 62.256775
71.3623 13.425328 1.6667709
70.3913 12.176328 1.1657715
7.1952972 26.292328 60.046776
8.798302 27.500328 59.042774
6.1903 34.81033 61.478775
7.077301 33.160328 62.414776
30.803299 4.6903267 32.092773
29.684296 2.9913254 33.922775
26.349297 6.292328 44.370773
25.003296 7.7703323 45.638775
25.779297 42.398327 39.601772
27.016296 41.17133 38.535774
28.005295 46.619328 27.984774
29.665298 45.38733 27.787773
90.7633 32.24133 36.944775
92.1523 33.72933 37.557774
2.9113007 37.38933 28.013773
3.7253036 39.29533 27.972773
70.8293 29.95633 9.548775
71.476295 31.980328 8.422775
75.574295 34.46233 66.97578
76.908295 35.80933 66.01478
71.0953 18.013329 56.803776
69.88329 18.242329 55.110775
79.23029 19.20533 47.800777
80.450294 20.93933 46.69977
65.6063 8.677327 16.19377
65.7753 7.4683266 18.062773
56.4593 4.1523285 25.875776
56.1563 3.247326 23.625769
7.416298 43.752327 59.651775
6.4513016 45.51333 59.152775
5.1532974 49.81133 48.201775
6.8243027 49.08933 46.220776
36.553307 19.87633 58.959774
35.926308 17.533325 57.393776
31.373299 10.159329 65.62177
33.163307 9.359326 64.77577
46.3893 19.98733 27.155773
47.0593 17.60733 26.560774
43.1683 15.697328 39.073772
45.327305 14.929326 39.714775
22.970299 9.915326 43.539776
21.763298 11.309327 42.052773
25.763298 11.810327 32.330772
27.271294 13.110326 33.369774
92.699295 31.54633 56.695774
94.895294 31.035328 56.662777
2.6423035 37.07733 45.400776
1.3362961 37.20633 43.119774
66.0243 21.52933 56.065777
63.968304 21.18433 56.716774
59.910305 19.20533 67.37177
58.5193 20.26533 0.0827713
71.437294 11.723329 54.230774
72.979294 13.257329 54.289776
77.04929 13.998326 44.817776
76.573296 16.06733 44.644775
44.096302 12.595326 24.036774
43.8393 14.876328 24.984774
42.2383 9.424329 36.505775
40.773308 9.829328 38.363773
83.28629 28.301329 68.257774
81.462296 29.204329 67.17577
74.27329 23.877329 9.132774
72.142296 24.957329 8.1777725
61.941296 40.28233 23.764769
62.212296 38.40433 22.862776
68.5543 40.731327 13.008774
70.978294 40.75533 13.626778
8.931297 1.6633263 53.556774
7.5053024 0.97732544 52.227776
0.38430023 0.8233261 62.960777
1.0382996 55.799328 64.437775
73.574295 53.213326 49.641777
74.601295 54.198326 50.678776
79.283295 55.975327 39.039776
81.3473 55.738327 39.681774
74.0833 7.5573273 40.379776
76.0833 6.4803276 41.411774
67.7623 5.271328 48.565777
67.57729 3.2273254 48.503777
9.790298 48.79733 67.256775
8.072304 49.910328 65.56777
15.881294 50.59633 54.126774
14.693298 48.988327 53.025776
48.6263 11.965329 59.177776
50.3063 10.651326 59.859776
45.049305 4.9823265 0.9957733
46.886303 3.5713272 1.6717758
92.755295 11.252328 33.304775
92.878296 12.524327 35.137775
89.73229 8.489327 45.670773
87.27129 8.528329 46.417774
13.533295 5.066326 55.369774
15.676292 5.0013275 55.175777
20.142296 4.4843254 45.089775
20.439293 6.7393265 44.031773
65.8463 29.401329 6.138771
64.3343 31.17533 6.997772
55.6703 24.88033 14.372772
54.2143 24.60933 13.217773
61.3663 39.97133 6.849777
62.8223 39.73933 8.832771
53.192303 33.37833 16.322775
52.6403 35.25033 17.283773
57.1403 37.08833 56.651775
56.3063 35.23533 55.679775
54.845303 30.370329 67.60677
57.1803 29.677328 68.73978
81.19129 55.447327 2.1197739
80.1243 53.073326 1.4807739
89.45229 2.4273262 67.005775
90.8323 2.4463272 65.616776
69.742294 17.586329 22.405775
72.2503 17.47033 21.569769
75.6643 23.548328 11.757774
75.739296 26.14433 11.856773
7.501297 26.846329 43.800774
7.8582993 26.22733 46.129776
93.0963 22.16733 53.121777
92.41129 24.330328 52.622776
63.107304 29.827328 55.696777
61.0593 29.136328 54.234776
67.9423 30.730328 43.380775
68.2863 28.64433 41.703773
37.588295 23.62333 39.512775
37.1063 25.870329 40.193775
47.5853 29.151329 32.675774
45.813305 29.101328 30.748774
23.147293 40.31133 54.376774
23.074295 42.232327 54.316776
27.492294 45.934326 44.142773
29.140297 46.77733 43.451775
73.0503 36.02133 48.845776
74.3773 35.56233 50.579777
67.019295 36.26833 60.450775
65.5503 36.58833 58.841774
52.4723 19.88033 13.112778
52.939304 22.197329 12.590775
58.381306 26.04633 3.5297775
59.2683 27.843328 4.4817734
42.7383 8.006332 2.2697754
44.7093 7.283325 2.2477722
53.7273 11.144326 64.66978
53.0553 12.685327 62.876778
63.1583 26.31333 39.503773
65.533295 27.063328 40.292774
57.4463 23.86133 50.242775
57.318302 24.462328 52.068775
68.3213 7.6123276 19.270773
68.4163 9.861329 20.647772
65.8433 0.7663269 29.578772
63.622295 0.07832718 29.445776
69.46629 42.841328 64.103775
70.2183 41.113327 64.61178
62.067295 37.98933 5.246773
60.292297 36.83633 5.9867706
18.9963 20.67733 63.899776
19.1903 18.70333 62.61878
24.158295 19.99733 51.374775
22.100296 19.72533 50.053776
4.3042984 2.9613266 32.49377
2.7113037 4.3623276 31.99377
9.737297 10.783326 24.329771
9.220299 9.910329 22.267775
79.2513 5.5933266 59.051777
78.354294 7.250328 58.607777
68.200294 4.797325 65.700775
69.811295 5.268326 67.535774
66.588295 45.20533 63.348778
65.2713 46.028328 65.117775
57.702305 40.836327 3.1707764
57.437305 41.94333 4.8737717
41.4553 37.21533 45.089775
43.234303 38.46633 45.660774
51.3113 41.702328 36.884773
52.6683 39.54933 37.408775
83.34329 25.03633 33.549774
84.461296 23.23033 33.885773
79.91229 19.551329 44.554775
78.6123 17.78633 44.191772
61.624302 5.096325 13.070778
59.826305 4.0103264 13.525772
54.428303 55.809326 22.930769
55.9903 55.70133 24.529776
78.548294 39.33833 48.375774
80.366295 37.88233 48.019775
84.5393 42.61133 37.229774
85.825294 41.473328 38.090775
52.6563 2.592327 43.981773
51.7553 0.38232803 43.685776
44.954304 0.5793266 53.601776
43.757305 55.11733 54.098774
60.343304 7.0383263 64.11278
61.604305 6.896328 65.837776
54.9753 3.0673256 6.473778
55.4363 1.0673256 7.1857758
66.144295 40.488327 10.093773
66.9133 42.308327 11.148773
58.881306 39.56833 19.541769
56.275303 39.95433 20.684774
15.016296 42.18533 14.723778
13.791298 43.12433 13.442772
22.537292 38.90133 3.6777725
24.425293 39.97533 4.2987747
86.878296 26.84533 1.8067703
87.70429 26.22333 68.28977
0.61730194 31.75833 59.323776
0.5233002 34.05533 59.652775
67.7153 35.36233 44.121773
66.241295 37.18733 44.155773
60.7663 34.15733 54.648777
62.1993 34.80833 56.638775
82.7233 10.635327 61.932777
80.9863 11.571328 62.631775
73.7353 10.378327 3.3647766
75.3893 11.385327 4.180771
1.6443024 40.766327 26.299772
2.6993027 39.32133 25.397772
6.105301 45.86533 14.807777
7.9373016 45.65133 15.250771
59.7823 21.20333 53.585777
61.732304 20.95933 54.422775
57.0413 17.09333 64.782776
55.217304 18.35533 65.34878
31.821297 17.287329 52.578777
34.178307 17.22333 53.065777
39.16131 23.100328 41.481773
41.402306 23.408329 43.079773
56.189304 55.498325 43.133774
54.997303 1.0923271 42.806774
60.2913 4.2893257 32.886772
62.622303 4.5703278 32.709774
28.917297 23.20933 2.1877747
28.710297 21.06933 2.070778
25.131294 16.59733 12.761772
23.083298 17.11133 13.266777
40.374306 11.153329 55.012775
42.0593 10.056329 55.868774
37.376305 3.6313286 65.37177
38.78431 1.5623283 66.02477
8.893303 23.07333 41.866776
8.165298 21.412329 40.898773
17.379295 24.12533 32.392773
18.7473 22.00433 32.066772
2.2662964 44.36133 61.530777
0.8703003 43.71433 59.245777
9.0093 43.739326 49.584774
7.8872986 42.884327 48.317776
75.7343 5.441326 56.209774
74.576294 4.544327 54.980774
79.2613 12.108327 45.509773
78.39829 11.302327 43.849773
58.984303 9.151326 63.020775
58.609303 11.37433 61.642776
67.2523 17.793327 56.681774
67.2713 17.058327 54.860775
29.324295 28.017328 18.852774
27.5113 29.961329 18.612776
33.847298 30.76933 9.673775
34.471306 33.195328 9.233772
25.531296 12.476327 13.7677765
26.984299 11.251328 12.421776
34.03431 16.195328 3.7477722
33.444298 14.641328 2.0717773
32.444298 55.316326 63.614777
32.620293 55.369328 61.534775
35.714302 1.7093277 50.564777
38.1083 1.4823265 49.982777
32.519295 53.738327 29.206774
30.604294 52.205326 28.938774
23.576294 50.217327 38.269775
22.669296 51.292328 40.115772
0.952301 12.783326 0.046775818
0.86229706 10.533326 68.45978
3.7052994 11.768327 55.292774
5.7342987 13.229329 55.849777
60.256306 12.305329 66.61478
58.3083 11.149327 65.34677
52.065304 6.7983284 7.2907715
52.702305 4.8673286 7.1397705
29.4413 14.935327 34.832775
27.189293 14.643327 35.455772
22.355293 12.639329 44.618774
23.772293 13.039327 46.818775
90.8353 1.5863266 29.364773
92.56529 0.73132706 30.515774
90.086296 56.058327 42.677773
90.81529 1.1593285 43.268776
58.4893 53.093327 59.607777
58.758305 51.632328 60.954777
55.940304 49.683327 3.5887756
55.137302 48.01233 4.4317703
90.2803 50.54033 9.80677
89.156296 53.00633 10.015778
85.05129 47.54033 20.701773
83.31629 48.162327 19.989775
40.5633 31.49433 9.463776
40.867302 30.674328 7.643776
44.525303 34.82733 66.574776
46.4023 35.82833 66.56877
7.921303 46.71333 30.906773
7.1632996 48.62333 30.492771
9.457298 51.328327 19.132772
9.869301 53.403328 18.329771
69.228294 15.748329 19.02477
68.561295 17.75833 19.972769
68.5533 21.72233 22.935774
66.5993 22.957329 24.217772
48.786304 2.2873268 40.897774
47.816303 3.4393272 42.570774
42.299305 54.877327 51.081776
43.2963 52.862328 51.305775
61.919296 32.62733 5.5147705
62.960297 31.083328 4.4557724
68.77229 37.50133 64.79578
70.2803 35.62633 63.804775
82.67429 36.65733 47.703773
83.77329 38.19533 49.740776
88.71829 44.35933 40.375774
89.908295 42.681328 40.502773
54.980305 8.700326 64.547775
54.318302 6.8803253 63.726776
48.606304 4.2413254 3.8127747
48.3523 4.427326 5.7787704
74.6933 17.133331 23.037771
73.0403 16.814331 24.091772
67.0943 10.284329 31.46577
65.354294 11.114327 32.918774
86.6373 32.82933 17.064772
86.062294 34.74633 16.546774
91.5843 41.884327 8.870773
92.5993 43.72733 9.374771
30.800293 3.6613274 13.073776
32.050293 4.0773277 15.004776
26.720299 55.896328 25.667776
26.8723 53.787327 25.45777
12.782295 48.20833 18.978773
11.400299 50.057327 20.181768
5.1873016 45.07633 28.568777
3.004303 43.68733 28.589773
84.672295 48.670326 23.198774
86.3483 48.79633 24.382772
78.3753 47.57333 33.820774
78.1133 47.529327 36.15977
62.133305 27.773329 36.927773
60.7383 27.072329 35.351772
64.1253 35.00833 26.202774
65.1783 33.51633 24.592773
31.809296 18.80533 35.543774
32.199295 20.76533 34.818775
38.462303 19.54833 26.363775
38.219307 19.20633 24.196775
2.8843002 10.870328 19.91477
3.8582993 8.985326 20.742773
1.1412964 3.877327 29.655775
94.5993 2.9093285 30.110777
81.7613 13.378327 44.602776
80.798294 12.351327 42.921776
86.66129 17.48233 33.568775
87.7663 19.559328 33.024773
55.4463 38.31833 53.918774
53.939304 39.75433 55.087776
49.8233 34.06133 65.34878
50.271305 32.37033 66.94678
40.242302 44.62333 29.308775
39.995308 43.07533 28.361776
46.177303 45.48533 18.881773
48.5883 45.67233 19.397772
64.6763 3.9983253 49.242775
62.6443 3.9183273 48.992775
56.7833 54.240326 58.006775
55.582302 55.549328 59.468777
24.439293 42.599327 57.541775
25.640297 41.806328 58.545776
20.3853 39.41333 68.409775
20.810295 37.80233 0.6207733
46.345303 22.77233 10.086777
47.0703 24.892328 10.073776
53.3923 28.68933 0.83477783
52.843304 28.742329 67.41377
69.7333 33.96533 45.816772
71.2603 33.82233 47.288773
64.59129 27.230328 55.227776
64.8713 28.493328 57.113777
28.787292 18.80533 51.175777
28.585297 16.848328 52.979774
22.988297 16.002327 63.499775
21.476295 17.367332 62.784775
5.962303 45.022327 44.409775
4.325302 46.29133 43.479774
11.476295 55.191326 35.906773
10.226303 54.53433 33.901775
85.0293 7.2773285 44.790775
84.0153 8.982327 45.959774
78.489296 5.6943283 56.628777
78.850296 3.740326 56.545776
68.117294 19.88733 6.6167755
66.0133 20.41833 6.4497757
60.2223 21.79233 16.432775
58.998302 23.56633 16.94377
16.471298 34.61133 1.0007706
13.969299 35.05633 1.0627747
10.112297 30.017328 9.618774
10.7642975 27.598328 10.568771
55.119305 45.549328 5.4317703
54.690304 46.37233 7.8247757
50.411304 44.48633 16.370771
48.2093 45.211327 15.634773
30.824295 49.01933 42.628773
31.592293 47.384327 41.338776
39.726295 48.508327 32.494774
37.766304 49.646328 32.321774
49.0133 39.02833 15.152771
51.2973 38.38133 15.99777
58.5033 42.77033 9.469772
60.5143 43.385326 9.951775
26.998299 19.648329 34.415775
24.7463 21.05033 34.501774
17.640297 15.83233 44.902775
16.139297 17.912329 44.641773
88.1233 14.657327 30.56377
88.102295 12.214326 30.394772
92.9743 14.195329 19.381773
92.38429 15.714326 18.014769
41.898308 12.984326 56.640774
44.2803 13.226327 55.616776
50.230305 18.656328 48.097775
51.631306 20.55633 47.240772
80.5983 54.661327 4.603775
78.8343 53.90833 3.8217773
74.465294 46.848328 12.685776
74.42529 46.294327 14.885773
79.6803 16.156326 6.8927765
77.66029 17.071327 7.5227737
81.39829 15.120328 65.188774
81.1683 16.868332 63.827778
92.0433 1.7683258 26.534773
90.282295 2.856327 26.943777
94.8343 8.959329 19.089773
1.7273026 8.767327 18.718771
81.89829 3.3663254 5.7787704
82.9733 1.9483261 5.581772
88.796295 4.170326 64.98377
88.6403 4.8243256 62.858776
92.7373 11.649327 65.45878
91.673294 11.906327 63.25778
1.8923035 19.544329 57.436775
2.3963013 17.665329 56.142776
77.2513 12.126328 56.703777
77.754295 10.213326 55.869774
83.9843 13.311326 45.773773
86.076294 12.396329 44.611774
94.6933 6.040325 33.017773
0.88430023 5.0013275 34.582775
85.5273 4.188328 43.205772
85.96629 4.4703255 45.404774
40.597298 41.676327 45.936775
43.298306 41.38133 46.374775
48.817303 45.134327 36.623775
49.6413 47.12933 36.446774
81.0283 45.571327 53.337776
80.463295 47.09533 51.586777
84.770294 49.02633 41.078773
86.822296 47.661327 40.891773
86.726295 18.97233 63.857777
87.2643 21.02933 64.451775
91.949295 23.88633 55.479774
92.7633 26.481329 55.359776
56.8483 43.64333 60.445774
55.3203 43.68733 59.424774
47.4883 41.72633 67.69778
45.8233 43.47933 68.23177
87.99529 32.59733 37.930775
89.5543 32.41933 39.430775
79.75829 27.56033 46.736774
79.9303 25.729328 45.669773
89.712296 45.529327 56.660774
91.409294 44.51933 56.739777
0.6542969 48.459328 46.305775
94.4733 49.26133 44.624775
24.754295 48.425327 21.826773
23.526299 49.489326 20.47177
31.786293 55.357327 11.999771
33.836296 54.212326 12.378777
10.770294 34.09533 12.1777725
9.141296 33.202328 10.929771
3.9412994 30.548328 22.12477
4.910301 29.148329 23.479773
8.915298 27.106329 8.156776
10.805298 25.967329 7.985771
13.949295 31.401329 67.22077
13.791298 33.396328 67.813774
7.230301 21.84433 59.007774
6.8383026 23.506329 60.463776
0.21129608 20.08733 67.46877
94.2203 18.245329 68.19477
25.893295 33.966328 37.527775
27.626297 32.73533 37.288773
34.206306 38.54233 27.700773
32.844307 38.90833 25.699774
90.0303 11.227326 12.581772
88.4743 12.923329 12.841774
81.2243 6.257328 20.183775
80.67629 7.250328 22.148771
1.7202988 21.37133 21.660772
94.9333 21.138329 21.16577
90.2333 17.842329 30.631771
90.66129 19.006329 32.832775
69.7493 39.18733 10.620773
68.5693 39.93633 9.280777
74.631294 45.392326 0.70677185
76.101295 46.835327 68.68178
50.8933 22.863329 46.443775
48.303303 22.52533 46.543774
42.1273 18.27533 56.574776
40.571297 19.89733 56.752777
69.7053 13.247327 56.233776
68.14629 14.927327 56.976776
64.1273 12.704328 65.50278
65.6253 12.409329 67.49777
73.48029 35.40633 29.052773
72.7493 37.19933 30.035772
68.9743 32.03033 41.104774
68.0783 30.62333 39.918774
49.6523 54.086327 4.204773
48.826305 55.210327 6.152771
39.766304 54.000328 14.6427765
40.890297 53.682327 16.361769
5.6512985 25.542328 5.4677734
3.827301 26.253328 4.1237717
12.865295 27.774328 63.612778
11.993294 25.662329 62.529778
56.562305 33.945328 53.198776
58.4353 35.09333 53.520775
63.623302 39.34133 42.315773
62.660305 38.20833 40.560776
83.13229 13.170327 61.055775
81.1123 14.649327 60.738777
87.0853 18.546328 51.899776
86.77129 19.87433 49.691776
70.284294 52.954327 13.457771
69.5553 52.009327 11.867775
77.0583 56.250328 3.756775
77.6513 2.1243286 3.820778
18.850296 50.12933 37.694775
20.8853 51.19333 37.106773
25.285294 55.927326 27.777773
24.153297 1.2113266 26.833773
36.74331 36.12033 44.814774
34.839302 36.84033 44.529774
30.654297 37.46733 57.393776
31.445297 37.14133 58.853775
95.104294 31.48433 37.505775
1.4503021 33.36033 37.204773
8.277298 39.47933 31.101772
8.603302 37.38033 30.313774
87.42729 16.903328 65.26177
85.0403 16.87033 66.00977
80.25929 11.373326 5.9347763
80.8023 10.198327 7.7817764
72.0373 4.3263283 36.115772
71.504295 5.714325 34.31577
78.79929 6.696327 24.522772
78.143295 6.3663254 22.367773
46.9223 24.958328 27.695776
46.9643 27.100328 27.809774
52.054302 32.063328 19.738775
50.5983 32.89433 17.947775
62.9893 15.259328 36.319775
