3.3996582 6.6806564 19.444666
10.235649 12.736656 19.396666
10.547653 15.054657 18.394665
22.711649 30.292648 31.429667
21.613657 30.268661 33.014664
13.272652 23.565659 32.457664
14.544655 21.782654 31.460667
32.702656 99.55466 3.963665
32.052654 99.80366 5.979664
27.142649 98.13566 13.167665
24.900652 99.26166 12.597665
12.023651 70.155655 23.359665
10.768654 70.08166 25.224667
3.3586578 70.45466 30.056665
1.4106522 69.84266 30.116667
70.30265 71.99566 16.186666
70.364655 73.27166 18.014666
4.9286575 77.15066 14.314664
4.846657 79.40865 14.700665
11.458649 16.356659 20.585665
11.139648 18.373657 21.188665
18.796656 23.28865 16.813665
19.893656 25.099655 16.500666
46.39965 83.30266 12.9056635
46.21665 83.586655 10.268666
56.23865 84.57766 11.580667
56.86465 83.767654 9.580667
16.681648 40.17566 32.222664
18.335657 39.712646 33.033665
25.508654 44.94165 28.575666
26.803652 44.575653 26.610666
11.687653 83.56866 38.347664
12.570648 84.043655 39.952663
21.771654 85.84466 39.106663
21.370653 88.169655 37.791664
5.146652 16.227661 38.812664
5.7606583 16.345657 36.838665
13.8526535 20.598656 38.666664
15.365654 19.39666 40.321663
62.39365 55.07465 22.067665
63.75565 55.688656 23.199665
70.153656 60.15865 15.390665
71.74565 61.21065 16.603664
12.528648 70.89566 27.403666
10.754654 72.059654 27.118666
5.594658 64.41066 31.195665
5.172653 63.98965 33.235664
6.823654 100.462654 17.640665
7.280655 101.70166 19.992664
72.306656 98.22865 23.613667
70.53665 99.08865 22.544664
70.24365 0.2026596 33.962666
68.29865 0.9126587 34.821663
62.29665 102.24466 0.8256645
62.45165 100.73266 40.254665
58.38065 101.91066 38.123665
58.99865 99.48066 37.556664
49.64165 94.556656 39.930664
50.619648 93.614655 1.3656616
11.676651 74.82966 27.802666
12.269653 74.38065 25.890665
21.080652 76.49966 24.481667
22.753649 77.70266 23.093666
62.20165 9.694656 34.298664
60.98365 11.152657 33.340664
51.10365 9.802658 35.218666
50.56665 10.294662 33.410664
14.58165 2.6026611 0.71266174
14.365654 1.6846542 39.659664
21.84865 7.8456573 38.847664
23.122652 6.4766617 40.428665
65.10765 22.543655 13.858666
66.695656 23.87265 14.431664
73.21865 25.34665 9.597665
72.77465 26.45366 7.2616615
36.38965 98.99366 12.733666
36.08865 99.44166 15.046666
28.22765 96.82766 20.183662
28.07465 94.725655 19.011665
6.8716583 51.608658 17.663668
6.200653 53.388653 16.165667
15.318649 53.37665 9.605664
16.896652 52.537655 10.909665
12.668655 65.61966 21.500666
13.287651 63.93565 22.507666
3.6736526 60.567654 23.385666
2.302658 62.395657 23.429667
60.10165 77.018654 4.847664
58.50965 77.51766 6.192665
52.55965 71.640656 9.845666
51.44465 70.48666 8.241666
28.329653 62.342655 16.424665
28.893648 60.679653 17.397665
18.258652 56.785656 17.882666
18.940653 54.94665 19.423664
34.50465 18.835655 4.828663
32.42165 18.635658 5.5046616
28.48665 10.99366 10.100667
27.57865 9.439659 9.001664
43.64065 11.935661 18.548664
44.96265 13.36866 19.034664
54.47465 13.023659 15.323667
55.82765 11.262657 15.671666
42.31165 103.835655 36.938663
40.77565 102.93966 35.843666
32.33765 101.11066 37.986664
30.85265 100.295654 36.337666
61.33865 88.06966 25.320665
59.88065 89.81866 25.080666
54.17265 83.44466 29.318666
53.15665 83.67365 27.314667
22.345652 53.103657 26.284666
23.95865 54.758656 26.561666
33.046658 56.413654 24.096666
33.847652 56.340656 21.919664
58.09165 72.06766 29.447666
58.87865 73.85667 30.053665
67.27165 76.26766 25.418665
66.86165 76.97166 23.372665
35.83065 22.449661 20.813665
35.07665 20.974655 19.656666
26.801651 19.56166 22.334665
25.76165 17.491661 21.777664
57.147648 61.388653 11.420667
55.38765 62.01565 11.203664
50.17765 58.37965 18.547665
48.56265 59.484653 19.412663
21.782648 94.05566 4.0446625
22.048655 95.08066 6.307663
11.398651 93.27766 9.777665
11.76165 91.53766 11.351666
63.20765 23.49266 8.658666
64.12265 24.677658 9.983666
69.820656 29.851654 3.3066635
68.81765 31.56366 1.9986649
28.76365 12.519661 23.763666
27.935656 10.511658 23.544666
18.05365 12.683662 25.884666
17.629654 11.068657 24.769665
15.9396515 66.83066 29.820665
14.135651 68.26965 29.028666
5.990654 65.71666 35.685665
5.5836563 67.710655 37.070663
24.70865 29.52266 0.86766434
23.40365 30.852661 1.4356651
15.02565 25.230652 2.524662
15.09565 22.77565 2.234665
15.336655 19.20366 35.976665
16.98465 19.127655 37.097664
24.44665 23.640656 32.883663
24.124651 25.274658 30.943666
53.13765 56.455654 34.108665
53.612648 58.46365 34.145664
60.057648 64.61766 31.640665
62.26765 63.937656 33.138664
15.605652 20.91066 4.220665
16.953651 19.989662 2.6666641
11.30265 13.554657 4.038662
11.458649 11.149658 3.8276634
42.69065 38.36165 20.546665
44.86065 37.888657 21.233665
51.939648 41.927658 15.038667
51.31865 44.018646 13.6936655
31.55465 59.93565 17.454668
31.90465 62.360653 17.310667
40.39965 65.36665 16.221666
42.62865 65.78866 16.767668
37.01965 73.66267 20.092665
37.01765 74.667656 22.461666
32.48265 67.309654 27.955666
30.96165 66.35366 27.076666
14.929649 95.30266 29.267666
13.603653 96.51366 30.231667
5.141655 90.821655 30.672667
3.3386536 91.39565 32.405666
5.0396576 99.54066 4.7046623
7.645653 99.475655 4.9126625
15.644653 104.95566 2.045662
14.97065 106.50866 1.076664
59.62365 24.123657 4.9266624
58.97565 22.13266 4.1366615
49.60365 22.67865 5.9716644
48.57065 20.983658 5.6586647
30.566652 39.960648 30.660666
28.66865 39.52765 31.537666
22.975649 32.378662 34.680664
21.836649 33.22165 36.196663
63.82365 16.61766 2.2616615
64.28965 18.601662 2.6186638
71.656654 23.31166 39.497665
72.09465 22.996658 37.520664
35.134655 93.03866 3.1936646
34.706654 93.22965 5.7506638
24.843653 97.41066 4.956665
23.173655 96.35265 3.8686638
40.51065 99.98166 29.264666
41.82365 98.51066 29.721666
34.98665 93.92365 33.237663
34.619648 92.293655 34.852665
32.50165 99.04765 1.1896629
34.03665 100.49466 1.793663
43.67065 102.045654 1.0036621
44.40965 104.043655 0.21666336
10.281654 85.294655 0.07266235
8.610657 86.02666 1.3956642
0.34065247 85.876656 2.0126648
72.653656 84.05566 2.1576653
2.865654 50.69066 1.8246651
2.8126526 50.532654 40.407665
11.186653 55.095654 39.804665
12.911652 55.542652 38.065666
53.67665 82.72765 38.779663
52.58865 82.405655 36.871666
45.23165 76.53866 0.27266312
46.50565 75.11466 0.8046646
31.585651 92.18565 30.734667
29.925653 92.004654 30.871666
22.094652 88.63366 35.299664
21.57065 90.09065 34.037666
56.33265 19.11766 36.859665
57.973648 20.347656 36.078663
59.41465 12.464661 29.869665
59.20665 9.621658 30.289665
39.99565 47.80165 29.157665
41.50465 47.12166 30.555666
51.09765 48.68866 29.150665
51.529648 50.513657 27.921665
2.9636536 52.99065 16.769665
4.2326584 52.000652 17.552666
70.13865 49.077652 23.745667
69.04765 47.434647 22.740665
69.004654 78.07765 27.077665
68.66065 78.460655 25.045666
4.399658 83.809654 24.338665
3.5736542 85.668655 23.391666
32.67165 6.983658 23.108665
34.36665 6.084656 23.272665
43.42165 8.04966 19.104666
45.00865 7.406662 20.323666
51.27465 23.199661 19.263664
50.19765 21.613647 20.005665
42.96765 16.457657 21.739666
43.67565 17.329659 23.749666
36.96165 94.74766 10.480664
38.66365 93.948654 11.5686655
31.20165 88.49666 12.020665
29.77065 88.68565 13.836667
11.737656 83.80166 2.0276642
12.1286545 81.821655 1.076664
2.214653 79.586655 4.225662
2.0066528 78.17465 2.9536629
22.276651 36.78366 37.638664
21.980654 39.31865 38.471664
29.985651 43.28665 39.222664
31.964657 43.791656 39.829666
40.80665 50.91365 34.086666
42.14065 51.452652 32.314667
51.09965 52.022655 31.884666
52.522648 54.02965 32.681664
13.392654 89.237656 15.758664
13.724655 87.84266 17.416666
7.054657 80.22166 15.789666
6.068657 81.351654 17.381666
71.33165 39.32866 12.289666
71.56865 38.05565 10.907666
4.6686554 42.51265 5.222664
5.742653 44.254654 6.031662
57.04465 2.8596573 2.8016624
54.85365 3.85466 1.338665
47.29265 106.170654 5.312664
48.730648 104.362656 5.4336624
13.266655 80.18865 4.830662
14.1286545 80.07865 2.548664
24.45865 83.38566 2.1236649
25.243654 82.94366 40.547665
35.22565 65.41466 37.591663
35.87365 65.240654 39.511665
28.60465 57.605656 0.98766327
28.12065 55.577656 40.707664
27.66765 42.51265 24.223665
28.95765 43.81465 25.172667
37.14665 49.73065 23.851665
38.39665 48.39766 25.361666
51.32065 99.40066 11.839665
49.37265 100.81165 11.663667
44.48765 94.77065 16.490667
44.66365 95.433655 19.300663
71.44365 11.763657 15.694665
70.32565 13.302658 14.976666
5.334656 19.207657 10.194665
6.6486588 17.443657 10.741666
26.477655 66.04866 11.078664
27.051653 64.099655 11.993665
17.297653 64.02166 12.235665
16.527649 61.305653 12.955667
7.797653 24.305649 23.009665
6.2986526 22.060654 22.021666
72.500656 18.113655 23.529665
71.33165 17.611656 25.630665
52.50665 67.74966 10.6746645
52.04765 68.34266 12.316667
41.36565 65.139656 12.098664
41.46065 63.90765 13.995664
12.810654 44.626648 20.458664
13.141655 46.78766 22.137665
18.13565 51.567657 16.788668
18.360651 51.215652 15.052667
60.64365 36.659653 19.726665
60.85365 35.51065 17.420668
70.90265 38.340652 15.9056635
70.518654 37.297653 13.755666
16.033653 25.210648 9.623666
15.694649 25.238647 12.139665
8.229652 19.293655 9.536664
9.635651 17.141663 10.686666
61.95465 10.655663 30.921665
62.966652 12.726662 30.477667
72.11065 11.2426605 28.242666
0.23765564 12.502655 29.260666
4.9636536 31.91066 22.057665
6.6286545 33.61766 22.683664
14.771652 33.42566 18.540665
14.800652 33.532654 16.485664
47.70265 35.81166 27.190666
45.973648 35.516663 28.959665
37.44365 30.929657 28.221666
36.28365 31.57866 30.131666
16.147652 73.11866 36.570663
16.641655 75.15766 36.505665
23.68165 80.473656 31.433666
24.274652 80.07667 33.769665
71.20365 30.434662 9.617665
71.73465 31.442657 11.839665
63.25565 31.90065 15.864667
61.21765 33.202652 15.502664
58.30965 94.20566 30.914665
56.59265 93.66666 30.888666
56.54865 94.44466 23.598665
58.01265 95.82565 25.461666
13.721649 54.62765 0.45566177
14.838654 56.04565 39.644665
18.842653 64.58166 4.133663
18.775652 66.726654 2.9736633
60.53465 63.274654 21.987665
60.95765 62.94965 19.867664
67.08865 68.334656 15.159665
69.15765 69.64666 16.231665
32.72365 32.88365 24.500666
31.014652 32.483658 23.194666
23.393648 28.614655 26.497665
24.157648 26.644653 26.769667
70.93665 53.855656 34.250664
72.53665 52.55765 34.172665
4.509659 58.486652 28.559666
6.625656 57.48765 28.226665
56.52365 31.93666 4.8376617
58.31965 30.985657 4.833664
66.376656 27.80365 40.339664
67.14765 29.31166 38.696663
35.390648 79.65066 22.564665
35.09065 77.955666 24.129665
28.69965 73.899666 29.291666
26.43765 75.143654 28.996666
8.482658 54.44965 29.086666
7.4406586 55.134655 31.142666
0.81565857 49.21466 35.290665
0.0986557 47.60965 34.676666
71.83265 56.97565 1.7856636
72.09165 56.358654 40.360664
7.7516556 60.139652 40.129665
8.808655 59.07365 38.388664
14.371651 25.698654 5.191662
13.73465 23.791656 4.3656616
7.226654 16.370659 2.6226616
8.936653 15.439659 1.5396652
26.14465 17.68866 16.768667
27.53465 18.217659 15.480664
35.772648 22.70665 14.221665
35.05865 23.49466 12.147664
68.515656 15.114662 19.027664
68.60865 15.383659 16.994665
58.994648 11.684662 17.694666
59.86465 10.046661 19.648663
1.8376541 1.8336563 9.139665
2.1996536 2.71566 11.377664
65.84465 105.740654 15.654664
64.35265 0.7456589 15.838666
71.612656 59.75465 5.6086617
72.82565 61.478657 4.5616646
6.3076553 64.93665 38.811665
6.3886566 63.440655 37.127663
43.62665 82.558655 1.6976624
43.68765 82.94266 40.327663
51.43865 87.08366 37.113663
51.93065 88.545654 38.541664
42.44265 86.16466 6.2496643
41.87665 88.31566 5.5636635
52.251648 89.821655 2.5606651
53.779648 88.46365 2.331665
40.14465 8.47966 2.7116623
39.29965 9.18766 4.633663
30.90265 4.5866547 3.4176636
29.66265 6.2446594 2.109665
60.62365 95.195656 29.188665
60.67965 97.37066 28.070665
70.00765 101.419655 31.048666
70.78565 101.63466 28.464666
19.288652 3.1456604 17.924665
18.155655 5.082657 17.954668
26.066652 10.5156555 16.547667
26.060656 12.52066 17.511667
32.908657 0.9376602 13.185666
30.221651 0.96665955 13.547666
23.228655 102.02566 15.589665
22.54465 103.53966 17.008665
0.7916565 94.83965 29.413666
73.00765 96.80266 29.179667
65.40065 92.045654 34.335663
66.88765 91.31366 35.840664
6.832657 101.53866 8.8986635
5.919655 102.95065 7.309662
12.117653 4.4846573 9.363664
12.902649 6.054657 11.070664
21.270655 46.68866 9.643666
19.160654 46.29265 9.233663
11.354652 40.671646 13.192666
12.370651 39.40065 14.880666
17.27465 85.126656 23.208666
16.37265 86.876656 23.569666
7.936653 82.70566 24.242666
6.584656 83.57565 25.634666
28.17965 39.53566 21.480665
30.07865 38.603653 22.672665
38.05465 44.170654 19.849665
37.56165 46.299652 21.077665
60.64165 53.315655 20.187666
60.43665 55.537655 19.704664
51.43065 54.50565 18.798666
50.34765 54.03165 21.103664
36.91965 4.4496613 26.995667
38.279648 2.9226608 27.589666
46.83665 7.709656 29.933666
48.723648 6.8746567 30.250666
45.12865 23.271652 39.599663
43.53865 21.85965 0.39966202
38.67165 13.932655 38.927666
38.00665 13.887657 40.654663
67.307655 94.61166 8.6296625
69.434654 93.34266 9.096665
4.2186584 98.990654 7.550664
3.4726562 101.23166 6.8466644
31.55365 55.814655 9.371663
33.64565 57.430653 10.325665
36.46865 65.75666 6.7046623
36.43465 68.084656 7.0946617
48.66265 30.31665 15.281667
48.22265 32.37166 16.042665
55.37365 34.24765 10.039666
57.26165 34.722656 9.907666
30.546656 12.944656 33.688663
31.057652 11.475662 31.882666
23.75065 7.774658 36.702663
23.216654 9.63166 36.765663
56.54565 80.70866 35.491665
55.11565 81.474655 33.852665
64.34665 83.65166 27.501665
63.19665 85.128654 26.223665
37.07865 98.892654 9.810666
38.17465 97.432655 11.131665
46.90365 102.654655 6.781662
47.29965 104.46866 7.923665
62.710648 93.18866 34.058666
60.82765 92.85465 33.232666
54.28465 89.92466 38.921665
52.60865 90.350655 40.709663
25.16765 45.291656 18.333666
25.635653 43.095657 17.287664
16.38665 40.033646 22.820665
15.674652 38.52066 21.594666
42.97765 30.218658 9.361665
41.97765 28.34465 9.406667
32.97165 24.228653 8.534665
31.93565 24.972656 7.187664
40.68065 20.510658 29.433666
39.79965 22.015656 27.914665
30.73965 16.99366 30.797667
30.59465 15.306656 32.114666
2.0696564 36.75566 28.619665
1.5356522 37.37465 26.716665
66.919655 31.350662 30.689667
68.33165 29.309662 31.007666
63.209652 73.516655 5.234665
60.64865 74.01566 5.034664
55.51265 71.23466 12.319665
54.03765 69.82766 11.504666
47.95765 41.27565 37.999664
46.16065 40.12465 38.839664
37.15565 36.920654 37.676666
36.730648 34.987656 38.107666
35.21665 15.815659 38.614666
37.17365 16.32766 39.795666
41.93065 22.904648 35.789665
41.00965 24.76265 36.891663
56.76865 53.59965 0.89466476
58.40365 53.771656 2.4576645
65.612656 61.271656 0.6456642
65.11065 63.18265 0.09666443
7.184654 61.027653 4.323662
4.896652 61.138653 4.1436615
0.3316574 54.651653 2.0236626
0.7256546 53.041653 0.6096649
13.196655 47.09166 30.738667
14.902649 45.475647 29.948666
22.426653 52.33565 29.251665
22.940653 53.64465 30.774666
42.53465 35.879654 19.945665
42.66665 34.390656 18.762665
32.91265 30.36766 18.917665
31.12165 30.317657 18.003666
60.34765 70.41266 39.646664
60.46965 68.350655 39.661663
51.34365 65.06766 40.723663
50.78565 64.48566 2.1596642
30.128649 3.790657 15.781665
30.677652 4.960655 17.178665
23.093653 3.3856583 23.542665
20.947657 4.3246613 23.375666
16.731651 86.63366 15.076665
17.698654 85.18866 15.984666
24.493654 91.654655 12.678666
25.742655 90.823654 11.265664
47.76065 71.56866 0.21666336
49.38865 70.65865 38.909664
53.730648 80.17367 35.973663
53.71865 78.794655 34.217663
64.67165 27.891663 23.688665
65.518654 26.417648 24.736666
55.946648 24.08966 28.341665
54.22065 23.643661 27.388666
54.07465 17.57666 18.818665
52.723648 19.462662 20.016665
44.91365 14.633659 21.350664
44.14565 13.858658 23.469666
17.55265 32.575653 19.303665
19.707651 32.07065 19.980665
26.255655 38.83365 19.291666
27.630655 37.39366 19.899666
41.68665 35.836655 9.759664
40.84665 37.63765 10.732667
49.44065 43.446655 9.855664
48.33665 45.138657 11.010667
36.88765 52.22565 19.874664
35.81865 51.185654 21.926664
26.40865 48.96666 25.307665
25.46365 50.46765 23.119665
9.043655 52.524654 26.170666
9.94265 53.83765 24.505665
19.059656 58.801655 25.074665
19.443651 59.619656 26.981667
15.148651 70.807655 36.173664
13.791649 71.53766 37.843666
7.346657 66.19965 2.3516617
5.5076523 67.23166 3.2316628
27.83865 78.707664 34.579666
29.36665 79.61666 36.333664
35.88965 81.54665 31.700666
38.390648 80.483665 31.816666
36.01665 35.595657 30.569666
36.03465 37.388657 32.140663
45.35065 39.93065 32.824665
46.53265 41.52066 32.269665
67.42765 10.337662 1.3886642
65.09665 11.181656 0.33566284
57.19265 7.3976593 3.9596634
55.76165 7.186661 2.6086617
39.02765 102.63165 28.058666
38.96865 100.63666 27.207666
30.57065 94.640656 26.911665
30.48965 93.94965 28.744665
20.957651 37.202652 0.15466309
19.381655 38.304657 1.6346626
13.196655 32.46266 6.4906616
11.51265 31.532654 5.003662
57.50765 76.00967 29.471666
56.99065 77.31666 30.941666
66.83965 80.85467 31.210667
66.79065 81.15966 29.141666
28.46065 28.427658 14.018666
27.323648 29.386658 12.480664
20.95965 24.361649 14.002664
19.790651 22.84665 12.741666
70.129654 24.121658 30.741667
72.03265 24.384659 32.204666
4.2676544 31.412659 28.176666
5.832657 29.755661 29.278666
44.26765 94.93665 21.873665
45.30565 93.60766 23.111666
52.49365 97.223656 17.216665
52.39865 98.20166 14.780664
27.572649 26.66066 1.5406647
26.40465 27.91565 2.543663
19.663652 22.099655 6.5216637
19.612658 20.259659 6.8516617
39.90665 30.630661 4.303665
40.32365 28.864655 4.010662
33.88865 21.429657 5.489662
32.03565 22.702652 5.569664
0.91165924 104.63866 38.997665
73.21365 103.66566 37.235664
6.490654 4.568657 32.044666
8.091652 2.84066 31.897665
5.453659 3.6566544 14.249665
6.264656 3.4046555 16.809668
15.598648 3.8236542 14.888665
14.815651 4.8196564 12.6746645
34.667652 38.710648 1.3106651
34.07365 40.14966 2.932663
24.162653 38.556656 2.845665
23.775652 38.351654 5.022663
18.06665 68.599655 37.929665
19.151651 66.765656 38.886665
10.341652 62.278652 40.574665
8.402657 62.93465 40.034664
67.02665 27.168655 31.778666
66.58265 26.05365 30.071667
57.13565 24.152649 31.955666
55.76965 22.21666 31.704666
3.205658 73.95866 2.9366646
4.837654 73.179665 3.7486649
13.281654 77.37766 2.067665
15.055649 76.54566 2.2056618
10.517654 38.896652 10.029664
12.527649 38.82065 11.334664
21.634653 42.98166 9.204663
22.323648 41.55365 7.7876635
50.99965 22.30365 14.020665
49.69165 22.96466 15.617665
40.12165 18.943657 15.980664
40.01165 18.913658 17.906668
71.78365 94.78566 22.738665
71.37165 93.238655 24.595665
65.226654 86.809654 26.637667
63.69965 88.113655 28.073666
69.042656 27.141663 39.514664
69.56665 25.259659 39.555664
62.13765 22.075653 4.830662
61.16365 20.621658 3.3016624
26.471651 96.77065 16.885668
28.08165 96.63666 15.264665
34.56065 102.31866 10.966664
34.94265 101.95766 9.058663
18.186653 67.21365 31.339666
18.044655 68.96766 30.507666
27.90565 70.27466 29.817665
27.851648 71.41266 28.218666
61.10465 13.580658 33.976665
63.39765 13.429657 33.207664
68.36065 20.056656 28.012667
68.864655 22.185654 28.975666
27.031649 7.0296555 3.0276642
26.33565 5.0396576 3.4476624
17.74765 0.5356598 7.2386627
16.695648 0.41965485 5.288662
2.6646576 105.89666 10.024667
0.6306534 105.47765 9.872666
67.59165 99.12266 10.614667
65.667656 100.140656 10.956666
57.21765 77.35966 0.7406616
56.13465 78.02067 39.442665
47.87865 75.06567 3.1676636
47.23365 73.17466 2.6596642
32.662655 62.250652 22.692665
32.653652 60.34965 23.220665
24.060656 56.117657 22.945665
21.934649 56.832653 22.738665
56.93465 43.312653 27.020666
58.47165 42.13965 28.190666
51.36565 35.254654 31.181665
49.807648 35.157654 32.942665
38.64565 27.279648 25.547667
40.23665 26.56166 24.199665
45.95465 33.72766 23.720665
45.01265 35.78865 23.226665
28.171656 85.33166 8.310666
26.648653 84.42365 10.157666
19.51365 79.295654 14.386666
18.33465 80.266655 12.893666
7.861656 45.42566 19.736666
10.088654 44.927658 19.600666
4.981659 35.53766 20.386665
4.5366592 35.544662 22.118666
53.83665 52.152653 34.618664
55.20165 53.702656 33.379665
65.05065 54.854656 33.384666
64.712654 55.722652 31.515665
8.409653 15.149658 7.092663
10.315651 15.573662 8.626664
16.910652 22.674652 7.175663
18.041649 23.407654 9.217664
57.62765 49.66765 33.957664
59.59465 47.993652 33.635666
69.19165 52.30865 35.829666
68.738655 54.858654 36.783665
51.12765 53.215656 25.657665
49.85965 54.964657 25.810665
59.89965 56.316654 25.571665
61.83465 57.139652 24.283667
53.42065 64.36966 6.295662
51.50765 65.31766 6.911663
42.49965 63.11365 10.790666
41.93265 63.48765 8.628663
43.65765 57.208652 14.448667
43.53165 57.717655 17.191668
37.73665 50.20366 18.484665
38.84565 48.05565 19.327663
48.883648 80.96365 16.860666
49.98265 82.183655 18.853664
58.86165 85.20266 14.304666
59.03165 87.16166 14.993665
41.75865 9.796661 13.999665
41.84565 11.028656 11.941667
52.36365 14.196655 12.422666
52.26665 16.20166 13.599664
63.84465 105.681656 22.260666
62.98665 105.19965 20.699665
55.39965 98.57866 19.514666
55.43865 97.52466 17.553665
43.51265 4.804657 7.1156616
45.35065 3.8246613 7.6226625
52.230648 7.7566605 1.8686638
53.52865 6.1336594 1.4056625
27.992655 24.461655 38.218666
25.983652 25.03865 37.287666
17.879654 20.14766 39.886665
18.76365 18.600662 0.7346649
39.19365 24.493652 29.366667
37.93265 25.559662 30.068666
31.23065 19.713661 32.335667
28.97365 19.72966 31.630667
29.37865 104.695656 40.373665
30.08565 104.59466 38.356663
37.654648 2.6406555 36.209663
38.94765 3.651657 37.739666
66.33065 7.8796616 33.040665
64.739655 7.0466614 35.140663
55.69565 3.6686554 34.667664
55.21465 5.7496567 35.390663
42.17665 98.96666 26.731667
43.15565 100.79866 25.537666
51.60665 102.55466 19.606665
52.31365 103.08066 21.804665
71.14865 50.702652 35.494663
70.53665 49.63765 33.569664
60.83865 45.29065 37.453663
60.57065 43.34366 36.404663
11.231651 78.69266 31.276667
11.63665 81.18765 31.637667
20.468653 80.90166 25.209665
20.239656 82.73666 24.327665
21.336657 48.276657 17.819666
19.796656 49.26465 16.341665
10.676651 45.876648 17.301664
9.606651 44.907654 16.072668
22.537653 2.6016617 29.895666
22.533655 1.0096588 28.931665
13.492653 103.85265 31.386665
11.88765 104.030655 29.698666
17.55265 15.095657 35.242664
18.138649 17.00766 35.716663
26.05765 21.340652 29.829666
27.22465 18.96666 29.453667
44.46265 79.267654 38.525665
43.80065 79.40765 36.591663
51.04265 87.69266 34.361664
50.44165 88.77366 32.176666
9.633652 60.149654 7.8446627
7.7156525 60.705654 7.109665
71.63065 58.41865 8.462663
71.61765 56.551655 9.195664
42.81065 101.28966 36.279663
43.18865 99.08865 35.571663
32.92865 95.780655 38.319664
31.00365 96.26266 36.874664
62.08265 1.9586563 13.676663
61.65865 2.116661 11.588666
71.003654 7.2116623 10.304666
71.43865 5.11866 11.270665
7.059654 9.240662 36.892666
9.106651 8.838661 35.576664
16.361649 12.52166 33.685665
15.966652 13.09066 35.802666
30.41265 56.220654 5.4106636
28.89965 57.50365 5.088665
37.25365 64.71966 3.927662
38.75465 63.89465 3.3166618
64.92165 92.42766 37.925663
64.85465 90.33865 38.726665
55.29065 87.587654 40.487663
55.168648 85.53666 39.842663
0.58465576 69.558655 32.887665
0.27365875 67.87466 32.193665
64.253654 65.879654 35.828663
65.39665 63.759655 36.793663
48.60865 52.804653 22.920666
48.99765 52.03165 24.589666
38.43265 52.951656 27.581665
37.86465 51.307648 26.033667
33.443653 38.955658 34.203663
33.735653 36.183655 34.052666
25.483652 32.08766 38.868664
23.721651 32.28766 37.529663
63.31265 39.71866 35.328663
64.698654 39.322647 36.868664
72.34665 44.179657 34.053665
72.48465 42.28566 34.701664
68.47065 52.495655 28.997665
70.531654 52.353657 29.460667
3.3436584 57.67065 23.793665
1.7136536 58.64065 22.665665
55.49565 37.194656 14.223664
55.21965 39.256653 15.163667
47.31165 36.177658 20.634663
45.09965 35.795654 19.344666
67.391655 21.883652 18.223665
67.51365 23.995651 16.867664
4.1406555 24.151657 17.394665
3.379654 21.634659 17.697664
24.336649 39.52266 10.855664
24.604654 40.868652 8.920663
34.816654 40.475647 8.495664
35.47365 41.457657 6.402664
36.85265 12.031662 38.783665
35.57665 10.233658 39.644665
27.73265 9.516663 3.378662
27.88765 9.600662 6.0896645
3.1956558 7.031662 23.465666
5.0726547 7.559662 24.243666
14.519653 11.664658 22.862665
13.450653 12.4546585 20.868666
2.681656 93.96365 33.829666
4.689659 93.94066 32.480663
11.104652 100.62066 34.256664
12.857651 101.946655 33.487663
28.55065 53.575657 37.689663
30.06765 52.10065 36.708664
38.50465 56.272655 32.736664
39.69065 55.813656 34.158665
21.562654 64.71365 32.926666
22.895655 66.182655 34.194664
31.008656 68.542656 33.308666
31.914654 67.23166 31.779665
72.96565 79.81367 3.2486649
71.53365 80.281654 2.1886635
63.66265 77.753654 6.8276634
64.37065 75.649666 7.059662
11.491653 80.212654 35.309666
13.949654 80.26266 36.598663
19.769655 83.76965 28.892666
22.272654 83.003654 29.369665
5.1286545 0.23765564 11.015664
5.818657 104.808655 12.293664
14.034653 2.219658 11.525666
16.169655 0.93065643 11.017667
6.044655 58.703655 23.471666
5.700653 57.940655 21.681665
14.699654 60.57265 19.818665
16.53865 60.53265 21.215666
59.77165 54.146656 8.678666
61.95865 53.445652 7.7456636
66.70165 59.58865 3.2616615
68.17165 58.14165 3.2116623
44.71065 47.697647 0.2646637
42.78665 48.251648 1.0856628
36.82865 40.059647 0.11866379
37.56465 38.83966 39.498665
60.12065 106.65865 4.571663
59.35965 105.05166 3.427662
51.42165 100.41466 6.9456635
49.473648 101.350655 7.053665
19.007654 38.455658 36.196663
20.335657 40.102646 36.470665
28.942652 39.366653 34.246666
29.039652 37.99466 36.222664
4.9126587 98.58965 1.8256645
4.7986526 98.294655 40.199665
12.41465 106.292656 39.103664
10.884651 0.8756561 38.051666
42.28865 3.1096573 2.5186615
42.40665 1.1126556 2.8476639
34.06065 105.58366 6.7476616
34.01265 104.11765 8.337663
44.92865 79.05466 4.227665
45.79065 80.94166 2.7526627
55.06165 83.500656 1.5906639
56.84565 82.91566 3.0936623
2.0316544 41.23065 39.044666
0.34065247 40.294647 40.349663
65.34265 39.77765 2.4976616
64.518654 40.858658 0.5676651
26.562654 100.75866 29.548666
24.207651 101.23366 29.731667
20.16765 92.183655 32.832664
18.737658 93.67966 34.226665
61.72865 105.98166 12.185666
61.723648 104.49165 13.6936655
54.64665 98.56866 9.901666
54.64465 100.07866 7.8486643
37.10765 92.667656 8.745664
39.81065 93.307655 9.157666
44.43765 99.20666 3.7646637
46.51565 98.37066 4.559662
14.533653 72.77766 30.358665
14.971649 70.889656 29.085667
25.247652 74.56567 26.621666
26.199656 72.488655 25.908667
50.20965 83.628654 25.193666
52.31265 82.76965 24.552666
60.13765 86.28966 20.022665
59.59065 88.377655 19.584665
72.34465 55.57265 36.782665
0.34065247 54.90465 35.172665
9.195648 54.954655 33.298664
8.432655 57.038654 32.497665
29.895655 21.334656 39.678665
28.483652 20.940659 38.390663
23.545649 15.800659 5.3636627
22.62565 14.27066 3.878662
24.839655 100.90865 20.927666
26.55865 99.26066 21.456665
35.291653 102.73666 17.591665
34.695652 102.20065 15.403665
37.38765 70.43565 8.631665
37.56665 72.28365 7.1136627
47.21865 74.69366 7.527665
46.44265 75.279655 5.6506615
69.70365 22.039658 21.777664
70.126656 22.842651 24.133665
5.334656 28.308655 21.839664
5.6906586 29.564651 24.016666
35.78165 48.140656 13.222665
34.077656 49.638657 12.407666
24.897654 46.771652 16.176664
25.07165 44.54265 15.231664
57.78065 23.64766 34.826664
59.23865 22.84166 36.413666
61.07065 27.10765 2.9746628
61.85965 26.532654 5.265663
67.764656 65.46466 7.425664
65.96865 65.43966 8.846665
61.43865 57.632656 12.895665
59.31265 58.192654 13.560666
44.07765 27.916656 0.93466187
42.91665 27.837662 3.1956635
38.45565 17.516663 3.3486633
36.45965 17.975662 2.8586617
36.85965 73.891655 9.334664
36.96465 75.89767 10.697667
42.83165 80.89465 5.406662
42.81565 83.153656 5.296665
6.313652 13.099655 40.121666
8.9166565 13.03566 40.653664
15.58165 17.61966 38.280666
17.12165 15.586662 38.049664
2.3036575 78.27566 8.553666
2.8866577 78.69067 6.6136627
11.529655 81.86166 6.2096634
13.10965 82.06266 8.332665
42.51565 55.08765 2.5986633
43.58665 56.805653 3.569664
51.58265 59.42265 38.932663
52.60065 57.347652 38.072666
47.25765 65.64866 28.886665
47.71865 66.21466 27.241667
55.63265 71.61166 25.254665
57.43165 70.83865 24.337666
44.93365 101.58865 38.084663
44.77065 104.00565 38.217663
52.08765 2.4746552 35.060665
54.14465 1.9736557 33.638664
49.40565 102.641655 9.456666
49.758648 105.00565 9.161664
57.14465 3.502655 8.659665
59.04765 2.5136566 9.485665
60.425648 87.30366 17.229666
62.37965 85.63466 17.715666
70.52365 91.28766 14.628667
69.571655 91.919655 13.054666
55.54165 61.082653 8.1746645
56.27165 61.64265 5.951664
64.517654 67.74366 8.108663
64.01065 67.02566 5.991665
20.471651 84.932655 21.720665
19.673655 86.518654 23.029665
28.150652 90.87466 19.600666
29.707651 91.15865 17.773664
8.825653 6.1826553 34.932663
7.252655 6.3536606 36.783665
70.765656 4.519661 37.181664
70.585655 3.0046616 39.553665
40.50765 86.59166 9.925664
40.47065 87.919655 11.717664
33.03165 82.70365 14.711667
32.73965 84.02065 16.790667
42.95865 60.303654 7.5996637
42.08865 58.88065 9.060666
34.96465 52.249653 10.407666
36.47565 51.57666 11.894666
24.799654 86.768654 4.031662
23.372652 88.28866 4.4456635
16.80265 79.47765 7.802663
15.6026535 80.28465 9.028665
41.28665 39.613647 14.937665
41.56665 37.807648 16.718668
32.35165 35.394653 18.743664
31.26365 37.640656 18.883663
21.05665 67.02766 36.026665
20.11165 68.91166 36.025665
28.211649 73.85366 35.450665
28.521654 75.09266 37.707664
36.05365 64.766655 32.707664
35.97665 67.05466 33.328667
39.07865 75.12066 29.801666
41.14265 75.06165 31.047667
21.275652 29.210648 19.325665
20.851656 30.94365 17.723665
29.589655 35.062653 18.035666
29.34765 37.19066 17.174665
4.3836594 21.07866 15.367665
5.4846573 19.219658 15.698667
72.53365 11.950661 19.944664
71.24165 13.872658 19.218666
18.172653 90.96565 31.477667
17.725655 91.320656 33.360664
9.665649 87.85265 36.018665
8.737656 88.751656 37.397663
38.24065 63.673656 0.7056618
40.63865 63.35265 0.569664
48.80265 68.98666 1.081665
49.29965 66.947655 40.455666
1.578659 62.23865 25.886665
2.3726578 60.178654 26.866667
66.95565 56.07465 29.643665
66.947655 57.37865 31.299665
70.14665 79.17466 39.213665
69.697655 80.677666 40.736664
59.564648 78.268654 40.331665
59.91965 76.56466 0.774662
49.57465 44.431656 6.932663
51.32065 45.13765 8.223664
58.33665 48.66565 4.8186646
59.244648 50.776657 5.6976624
69.38765 97.73366 17.025667
69.84565 99.79966 18.268665
4.8106537 101.584656 12.944665
6.596657 102.27466 13.935666
12.870651 42.240646 21.948666
15.44265 42.129654 21.134665
23.608652 48.836655 22.400665
24.982653 47.50766 23.382666
60.24265 56.424656 9.708665
58.84965 57.650654 8.515664
64.85665 65.250656 3.6666641
66.05565 63.888653 2.321663
59.42265 55.510654 12.487664
59.25065 53.534657 11.286664
50.73465 48.625656 11.373666
50.647648 46.386658 11.9246645
68.42765 91.65765 4.4976616
69.655655 91.710655 2.826664
2.5956573 99.281654 3.9456635
2.3966522 98.961655 1.5136642
32.691654 64.04765 29.489666
30.749651 65.19166 29.356667
23.178652 60.386654 32.960667
23.772654 59.89165 35.372665
39.50765 40.20665 11.606664
38.390648 38.94165 9.823667
30.90765 35.072662 11.668664
30.46365 32.62166 12.340665
33.634655 23.194656 18.263664
33.301655 23.657654 20.626665
25.579653 22.51065 25.555666
25.688654 24.399658 26.878666
62.99665 32.875656 18.543663
64.05365 31.044662 18.491665
0.56365204 34.30165 17.167665
72.043655 35.914658 16.368666
70.77365 63.22365 15.284665
72.683655 64.92966 15.577664
8.592659 68.68665 14.232667
9.649651 67.459656 12.346665
51.27365 38.001648 40.648666
51.58965 36.04866 39.318665
60.258648 40.49965 35.208664
61.25265 39.54866 37.027664
11.042648 58.066654 37.133663
12.501656 57.288654 36.143665
20.296656 64.45066 37.271664
22.108652 64.07666 35.750664
72.73665 90.70866 19.520664
71.682655 89.42666 17.733665
63.02065 86.35265 22.848665
63.83265 83.97865 23.907665
1.0176544 40.473648 27.156666
1.5566559 42.327652 25.429667
8.513657 48.944656 26.505667
7.5466537 50.64566 27.922667
16.725655 25.493652 6.4926643
16.48465 27.308655 7.430665
23.868654 32.21266 3.8396645
26.299654 32.794662 3.6066628
28.221651 35.641663 11.620664
27.748652 36.782654 13.542665
19.830652 30.586655 15.090665
17.449654 30.100662 15.319665
48.44565 9.070656 32.258663
48.71365 8.36866 34.074665
40.11565 4.455658 35.348663
38.91665 3.3616562 34.001663
67.65865 57.71165 39.026665
66.266655 58.17265 36.664665
59.40165 50.961655 38.547665
57.03065 51.558655 38.167664
8.104652 40.115646 4.795662
9.565651 38.30066 4.732662
18.48665 41.771652 2.1326637
19.534655 44.20865 1.3016624
68.753654 87.417656 5.425663
69.78965 85.35265 5.5966644
59.571648 82.56165 6.9336624
58.80865 82.52366 8.533666
10.784653 87.97966 2.0616646
12.838654 87.07766 2.1716652
20.025652 90.60666 38.808666
19.824656 90.224655 36.870663
33.99165 95.97865 2.7106628
35.24865 97.849655 3.9736633
44.83465 99.97066 40.359665
45.61865 98.86765 1.1936646
18.382654 44.431656 39.372665
19.281656 42.283646 39.812664
29.206652 43.61966 36.587666
29.719652 46.043655 36.541664
63.389652 37.653656 38.594666
62.47565 39.54065 40.263664
64.392654 34.10765 39.377663
65.83865 34.802658 0.5466652
57.89265 32.310654 7.295662
56.63765 34.44565 7.217663
63.76265 40.851654 4.774662
63.06665 42.81566 4.6206627
71.17865 54.04365 0.3176651
69.95665 54.645657 39.232666
62.98165 46.935654 40.438663
61.39465 48.32965 39.886665
45.40065 10.613655 25.524666
47.22865 10.956657 25.974667
53.54865 12.540657 20.004665
51.35965 13.45166 20.088665
8.062653 82.83865 28.137667
9.174652 84.43066 29.309666
17.723648 88.42365 29.900665
18.692652 89.11665 27.947666
72.073654 58.716656 14.239667
72.514656 58.76665 12.154664
5.6716537 63.318653 6.395664
4.3196564 64.32666 4.314663
51.258648 77.600655 13.228665
51.24965 75.52366 12.759664
59.67865 78.71166 9.691667
61.04965 78.212654 7.6976633
67.68565 60.27965 39.757664
68.13365 62.681652 39.926666
3.089653 66.27266 36.273666
1.8336563 67.68866 34.423664
59.19265 12.250656 21.218664
60.82065 11.197662 22.637665
69.892654 14.913658 23.685665
70.35465 16.502655 22.710665
44.63565 16.709656 29.055666
44.12065 14.455658 28.949665
36.71265 10.261658 32.824665
37.06365 9.8676605 35.163666
57.58365 46.15265 26.545666
59.11865 44.821655 27.111666
67.43865 48.23265 24.772665
68.92265 50.067657 25.873665
32.838657 8.972656 25.730665
30.73865 8.70166 24.723665
22.47265 7.323662 28.804667
22.07165 7.9726562 31.186666
63.77665 76.84266 11.834664
64.684654 78.483665 13.447667
71.66065 82.057655 8.680665
0.05165863 81.98666 11.230664
14.949654 94.88065 26.448666
16.90165 93.74365 26.083666
22.01665 100.738655 19.594666
21.98765 103.057655 19.695665
24.204653 82.418655 37.108665
23.383654 84.40266 37.297665
15.97065 76.684654 38.499664
15.260651 78.05566 40.440666
7.646652 71.903656 10.992665
6.589653 73.74267 10.461667
14.737656 78.613655 6.5026627
14.621651 77.57766 4.774662
52.49665 95.514656 6.546665
54.56365 95.67365 6.935665
62.83265 99.25665 2.3906631
64.016655 97.502655 1.2396622
28.97065 82.72865 11.0236635
30.82965 82.63566 9.274663
34.76765 90.100655 5.975662
34.37565 91.586655 7.5516634
41.89965 41.784653 25.930666
44.21765 41.021652 26.369665
52.703648 45.084656 26.058666
53.35165 45.33966 24.013666
33.15965 11.477661 29.347666
34.46065 11.337662 27.379665
41.86865 17.262657 26.641666
44.11365 16.168655 26.419666
55.432648 25.669662 30.450666
54.03365 23.697662 30.164665
44.27865 24.116653 33.943665
44.66865 23.402649 35.825665
31.58765 20.056656 2.6956635
30.066652 21.652649 3.3626633
23.288652 17.475662 7.5116625
22.614649 15.783661 7.9056635
7.2866592 6.5586624 30.106667
8.936653 4.8746567 30.145666
17.687653 9.4806595 30.575666
18.68165 10.485657 28.330666
42.69465 75.78466 35.644665
43.33065 76.69366 37.318665
34.765648 73.21766 2.5756645
34.88565 70.88266 2.6716652
16.52565 47.463654 39.442665
18.929651 47.360657 39.753666
26.411654 51.15265 36.153664
28.934649 49.86165 35.967663
55.90265 25.352661 36.594666
55.99165 23.376648 36.690666
47.87265 16.805656 36.963665
46.79365 18.412659 38.489666
50.633648 28.478653 27.711666
50.24565 27.641663 25.867666
42.48265 24.881653 31.507666
42.24965 22.588654 32.157665
60.487648 81.56366 12.940667
59.25665 79.91566 12.305665
51.51665 76.17266 15.877664
50.68165 78.03466 17.144667
61.48365 1.391655 8.597665
62.10265 106.52266 6.3226624
70.81365 6.1616592 6.8796616
72.06365 4.538658 5.9716644
51.95265 32.567657 30.217667
53.18665 31.380661 29.386665
59.89965 36.62265 28.071667
61.51065 36.27066 26.447666
54.348648 11.8906555 11.734666
52.14865 11.456657 11.473664
45.48465 7.750656 17.407667
47.06865 5.677658 17.325666
23.75265 98.00665 7.635663
22.756655 99.58865 7.133663
30.024652 104.55266 2.3866615
31.189655 103.043655 1.2396622
30.050653 101.933655 39.411663
28.643648 101.43866 37.335663
19.572657 99.420654 35.759663
18.139648 97.94066 33.875664
50.40065 103.336655 30.125666
51.35765 103.946655 32.056664
42.86265 99.31366 32.517666
43.64865 97.474655 32.464664
36.93465 6.755661 33.978664
39.41265 6.6526566 34.549664
45.71065 13.824661 35.375664
44.11565 15.551659 36.589664
1.7386551 82.18565 16.243666
0.055656433 83.28265 15.024667
65.85565 78.01266 18.521664
64.12365 77.93366 17.230665
12.555649 96.56065 15.399667
11.70665 98.49265 15.191667
18.630655 102.64866 9.295663
19.20965 104.88666 10.182664
32.047657 52.90665 9.920667
30.173655 51.854656 9.351663
21.742655 47.511658 13.718667
22.624651 48.131653 15.636666
1.1576538 77.10766 5.133663
1.0316544 75.96966 7.0636635
66.94165 69.806656 7.437665
65.07465 70.74766 7.835664
13.876656 61.71065 13.202664
11.569649 61.33665 13.167665
4.7866592 56.50365 19.313663
6.1486588 55.55865 20.204666
58.53065 9.168655 16.346666
56.60065 8.907661 14.391664
49.11465 3.4126587 16.095667
48.13565 1.8606567 17.917665
34.01965 14.70266 35.986664
35.02065 14.810661 33.864666
43.63965 18.371658 32.702663
43.52365 20.305656 33.094666
37.63665 2.530655 23.349667
39.23765 2.7846603 24.857666
46.69465 6.6456604 22.495665
46.82865 5.0746613 21.004665
66.697655 14.232658 7.296665
65.181656 15.22966 8.181664
58.265648 9.681656 12.3376665
57.487648 11.999657 12.283666
65.987656 52.47765 28.083666
65.43965 53.675655 29.584665
58.01065 47.38466 31.293667
56.01865 47.24765 30.654665
10.391655 100.05066 22.559666
8.445656 99.738655 22.447664
2.7626572 91.86865 23.333666
0.73765564 92.56466 24.526665
51.68565 37.36966 3.8816643
51.37065 36.30565 2.1056633
41.35365 34.52066 6.8916626
42.08265 33.49066 8.442666
42.21465 4.6176605 40.383663
42.28265 5.5086594 1.583664
51.01065 8.814659 40.466663
50.20865 11.261658 40.393665
18.242653 83.195656 12.164666
20.18065 82.72266 12.378667
26.697649 87.45165 7.184662
25.437654 89.500656 6.2336617
48.75465 83.946655 20.448666
47.56565 82.00565 20.642666
37.86165 79.46966 24.353666
38.34065 80.59165 26.081665
12.903648 101.80366 24.929667
14.321655 100.58366 26.082666
23.114649 102.15765 25.573666
23.135653 102.59266 27.749666
69.656654 10.458656 6.921665
67.68065 11.158661 5.925663
59.89365 5.512657 6.069664
60.58365 3.8466568 7.782666
12.214653 64.474655 13.362664
12.068649 66.42265 13.157666
19.294657 69.961655 9.4696665
21.51365 69.93066 10.787663
69.490654 57.719654 10.584664
69.99265 57.63065 13.047666
63.21765 56.969654 15.376664
61.12865 55.96165 15.976666
24.230654 105.06966 28.816666
25.996653 103.74966 28.324665
35.01565 1.5036545 31.036665
35.71265 3.5716553 31.780666
35.32665 8.899658 26.658667
36.17065 9.232658 28.347666
45.48165 9.779655 28.392666
46.38665 11.609657 29.628666
27.08465 100.61066 32.057667
25.189653 102.46566 31.865665
17.338654 102.17966 35.831665
16.586655 100.20466 34.004665
64.35765 73.723656 9.117665
63.58765 71.639656 10.017667
56.33665 70.83865 15.036664
54.92965 71.99366 17.173666
52.15265 29.61966 25.563665
52.01665 29.60466 23.389666
59.70665 35.735657 23.818666
60.640648 37.681656 24.087666
38.41765 100.250656 22.739666
39.92165 101.92966 23.845665
47.51265 103.94066 18.106665
47.70065 105.27166 16.216665
5.224655 85.31366 21.382666
6.4266586 84.573654 20.327665
13.42765 91.69266 20.171665
14.772652 90.03766 20.397665
67.52265 89.253654 37.958664
67.89765 91.35866 38.582664
2.9606552 96.001656 40.064663
4.535652 96.22066 38.290665
5.1876526 44.947647 9.998666
5.381653 46.047653 12.130666
69.06465 44.947647 14.239667
66.99765 45.22165 13.209664
68.45765 66.475655 13.0306635
68.78565 65.26266 14.533666
59.814648 62.04365 17.633665
58.69265 63.647655 18.236664
54.29865 104.68565 31.538666
54.83765 102.20166 31.202665
55.09165 102.376656 24.588665
54.51965 101.391655 22.860664
12.582649 45.462646 28.005667
14.299652 44.52565 27.346666
19.794657 49.56366 20.819666
18.585657 51.363647 19.677666
54.77165 95.48466 12.627664
53.57465 93.62266 12.373666
46.14465 90.127655 15.703664
44.76465 88.46966 14.173665
34.245655 26.24965 21.878666
33.190655 28.388657 21.485664
24.108652 27.629654 21.159664
22.41665 25.735657 21.527664
5.7916565 20.582657 18.102665
5.0866547 20.941658 19.927666
0.8356552 13.656662 24.037666
0.86265564 13.545662 26.431665
47.57265 24.605652 4.8066635
48.196648 25.968658 6.654663
58.20965 26.843658 5.949665
58.44065 26.213654 3.9896622
38.95865 103.07966 32.704666
38.10665 102.69166 30.656666
32.91865 95.31165 33.935665
30.81565 95.70766 33.896664
55.71565 28.97165 33.875664
57.32065 27.916656 34.795666
64.83165 31.28566 35.340664
65.81365 29.273651 35.842663
47.49265 22.353653 40.640663
48.07265 24.113647 39.417664
57.33165 25.491653 0.9556618
58.67765 24.28366 2.1156616
71.40965 103.13466 34.997665
71.54165 100.768654 34.934666
61.62365 98.07866 35.049664
62.14665 99.17766 33.241665
45.17065 0.18365479 3.0046616
46.17565 105.584656 1.5726624
52.689648 4.4496613 36.682663
52.29265 6.547661 35.701664
48.38165 13.255661 35.176666
50.20165 12.404655 35.673664
54.92065 17.77066 28.213665
56.97965 16.620659 28.080666
28.552652 54.635654 2.510662
26.796656 56.695652 3.064663
19.465654 49.335648 3.958664
16.880653 49.138657 4.055664
35.84165 96.529655 6.732662
35.55465 96.668655 8.944665
26.53465 96.38466 10.673665
26.46065 95.56866 12.507665
31.537655 20.600662 7.104664
33.15765 20.148659 8.634664
22.859652 18.46666 12.966664
23.53065 16.477661 12.892667
24.586649 72.418655 18.722664
26.80565 73.473656 18.640663
34.222652 75.99566 12.154664
35.318653 74.83166 13.999665
19.392656 59.899654 21.469666
19.374651 61.013653 23.232666
28.323648 66.07866 19.759665
29.082651 63.812656 19.306665
29.743654 72.767654 38.554665
29.703653 70.81566 39.325665
20.808657 67.06666 0.23366165
20.260653 64.99766 1.102665
70.85565 41.202652 14.200665
72.17265 40.599655 15.872666
6.568657 42.79265 10.771665
8.134659 44.61966 11.886666
64.45165 105.05066 13.316667
64.94465 103.19066 11.637666
73.10265 105.75665 5.7766647
0.6596527 1.1786575 4.6516647
18.887651 36.02365 28.739666
20.665651 34.78566 28.904665
29.413652 41.446655 27.423666
28.716654 43.363647 27.819666
31.22165 11.237656 23.502666
32.73765 11.786659 25.115665
40.80165 15.27066 22.925665
40.48465 15.353661 20.805666
47.36865 2.4266586 14.335664
45.79365 2.3936615 12.750665
39.97465 101.53566 18.211666
38.02865 102.56366 17.536665
6.9376526 7.323662 27.723665
5.582657 9.233658 28.408667
15.793655 13.695656 28.417665
15.27565 15.293655 30.036665
35.423656 71.54866 5.4616623
33.772655 73.40566 5.164665
25.71065 69.13366 10.332665
23.86265 68.78866 9.2996645
53.69265 20.943657 26.733665
51.68365 22.26065 27.168667
45.93765 18.679657 33.787666
45.81865 16.64666 33.667664
63.40265 25.551651 12.544663
62.161648 26.470657 11.235665
69.72165 31.779648 7.687665
70.14965 32.409653 4.9616623
10.116653 3.2106552 38.694664
8.988655 4.84066 38.333664
73.24765 106.63266 0.3746643
0.11765289 104.475655 1.2426643
6.8666534 72.87466 14.446664
6.2866592 73.99366 16.172667
72.57765 70.751656 20.544662
71.00865 70.49766 19.159664
47.70065 96.01965 32.071667
47.543648 96.51965 30.328667
52.06065 99.06366 23.805666
52.78765 100.31866 25.305666
35.29865 61.356655 28.809666
35.33565 60.648655 27.014666
44.75965 64.212654 25.868666
46.69165 63.632656 27.120667
2.2856522 96.156654 32.151665
2.9066544 97.31466 33.947666
10.401649 101.88065 28.141666
12.110649 100.668655 28.816666
65.501656 106.42666 25.883665
63.16365 0.08065796 25.031666
57.87965 105.97765 34.203663
56.60365 0.37665558 33.484665
25.027649 51.806656 30.374666
26.86165 51.97765 31.714666
37.01765 55.317654 30.273666
36.88065 57.222652 30.977667
35.12565 29.830658 22.869665
37.29065 28.99965 23.160666
40.92065 39.386658 22.402666
42.91965 38.76065 23.510666
3.856659 68.79765 4.5516624
1.7196579 68.04066 3.4016647
71.559654 61.29665 7.949666
71.13265 60.980656 10.197667
50.10365 86.09166 26.732666
49.53165 86.85866 24.246666
56.05365 91.79066 18.861666
56.95065 93.544655 20.165665
23.27865 58.44865 31.316666
25.355654 58.438656 32.414665
32.358654 58.708652 25.308666
34.166653 58.15665 26.530666
69.59565 70.31666 30.065666
67.59365 71.34566 29.251665
62.53365 66.55566 33.742664
60.86665 68.087654 34.630665
35.50365 93.19266 0.53266525
35.98565 92.698654 38.955666
44.88665 96.27065 34.742664
45.05865 97.71465 36.793663
46.15265 103.04066 2.5426636
47.54265 103.88366 3.1886635
56.72765 105.16166 40.630665
56.81065 106.22966 39.031666
17.73365 82.46866 15.651665
16.168655 81.06366 14.544664
10.703651 75.77566 20.476665
10.171654 74.309654 22.247665
31.45465 53.30765 6.8606644
31.40865 53.414654 4.251663
40.973648 57.591656 4.4506645
40.26465 59.65465 3.3016624
51.57765 33.114655 36.045666
50.189648 32.850662 34.504665
40.54465 31.886658 37.681664
40.30965 30.720657 39.566666
23.32165 81.08865 25.456665
23.660654 81.94166 27.192665
31.412655 86.69965 25.396666
33.329655 86.07866 25.435665
66.225655 96.403656 10.627664
65.97065 96.10265 12.452664
59.272648 92.10265 19.279663
58.46665 90.28465 18.003668
70.28465 43.47966 20.422665
69.29065 44.028656 18.713665
2.2416534 50.250656 13.932664
3.9236526 51.41565 14.417665
45.74165 84.99566 16.979666
46.01765 87.209656 16.454668
54.33765 87.823654 10.685666
55.61665 86.99265 11.978665
66.11765 48.840652 22.659666
65.75665 47.59166 20.684666
56.23265 45.615646 19.601665
56.23465 44.254654 21.503666
13.575653 9.4806595 7.7626657
11.643654 9.614662 6.546665
4.129654 3.8996582 9.680665
3.9136581 2.427658 7.310665
2.2686539 105.89766 6.9436646
2.601654 105.95566 4.779663
13.186653 3.2336578 3.4356651
12.528648 5.130661 1.9886627
12.300652 39.84166 23.445665
13.847649 38.586655 23.440666
8.228653 30.07666 26.273666
6.6196594 32.37265 27.175667
35.82165 76.570656 16.348665
37.35865 75.809654 15.576665
45.66765 80.41267 12.245664
47.08365 80.22967 10.321664
34.857655 84.97865 30.496666
34.206654 83.66266 32.150665
23.228655 85.43066 30.733665
24.054651 83.292656 31.416666
72.49365 53.86365 7.066662
70.66465 54.25565 8.453664
63.19265 51.080658 13.538667
63.95865 48.76065 13.552667
32.124653 76.511665 7.404664
32.042652 76.17666 9.560666
23.423655 72.04066 11.455667
23.859652 71.98666 13.723664
18.008652 33.655655 25.091665
19.471651 35.60266 25.212666
26.365648 40.280655 24.356667
25.48865 39.91266 21.733665
48.69765 40.94066 4.765663
47.56765 42.215652 3.8876648
37.79565 39.975647 7.2456627
37.96565 37.77565 7.0616646
66.57465 67.903656 5.746662
67.22765 65.794655 4.677662
1.4266586 70.68766 2.4106636
1.1496582 72.11066 4.5046616
31.01765 63.75365 25.527666
29.69565 64.77366 25.015665
21.992655 58.535656 25.009666
22.343653 56.72765 25.803665
22.068651 98.59266 3.9246635
21.085657 98.42866 2.1446648
31.771656 96.765656 40.641663
32.00465 94.781654 1.1046638
73.20365 20.459656 32.541664
73.16465 22.268661 31.133665
8.3526535 28.299652 31.410666
9.975655 26.85765 31.103666
28.50465 48.05565 33.882664
28.38765 49.36165 31.728666
38.64465 51.823654 33.109665
39.57165 53.639652 31.829666
39.95565 15.27066 13.438664
40.13565 15.8556595 11.259664
50.62965 19.373657 10.229665
51.59165 17.295662 9.088666
52.71465 31.662659 33.815666
54.14965 31.542648 32.225666
61.90665 34.95166 30.892666
64.445656 34.13765 30.554667
70.31665 72.87266 24.789665
68.072655 72.54866 23.426666
59.57665 67.46365 27.380667
59.46365 68.43866 25.417665
