21.90933 72.56548 50.024117
8.46033 15.045486 1.7681198
10.59233 15.161484 2.849121
13.12133 14.421486 1.7341232
13.62433 13.293488 82.997116
33.49133 43.184483 54.292114
34.71233 43.416485 56.220116
35.98733 41.902485 57.999115
35.33733 39.591484 58.704117
21.93733 42.71448 61.129116
21.23133 43.982483 63.020115
19.82733 46.372482 62.922115
17.26233 46.065483 61.656116
0.8073273 47.01248 21.042116
73.38733 45.725483 23.136116
72.395325 46.618484 25.227116
71.93233 49.280483 25.765116
60.68133 49.98448 8.579114
60.95733 48.236485 6.9281235
61.68533 48.053482 4.613121
63.12933 49.175484 3.3611221
38.12233 48.91548 69.70112
36.20433 48.819485 70.55012
34.22233 47.832485 68.484116
34.67633 47.684483 66.51812
12.82333 40.147484 29.768116
11.88333 42.368484 30.290115
9.68633 43.767483 29.492115
7.9763293 43.063484 28.198116
42.80833 51.38048 26.326117
43.99633 49.427483 26.940115
45.88933 48.210484 25.677116
47.87633 49.200485 24.163116
28.20333 77.47548 53.646114
27.29633 75.88948 55.144115
28.99533 75.202484 57.086117
31.07433 75.99848 58.175117
59.40933 51.294483 13.029117
58.58633 49.016483 13.378117
57.98133 47.166485 11.444117
58.01333 47.180485 9.118116
26.21533 11.359482 14.313116
25.66233 13.739487 12.983116
26.50133 14.608482 10.893116
28.408329 13.831482 9.183116
62.42133 82.23248 64.73912
62.22133 80.437485 66.237114
60.28033 79.55048 67.611115
57.83533 80.48148 67.63412
67.09733 50.740482 3.5681229
65.23033 49.219482 5.1261215
65.56333 48.799484 7.5321198
67.101326 49.929485 9.361119
47.73533 73.87948 45.782116
49.63433 74.11148 47.039116
49.86033 75.105484 49.498116
48.13333 75.98648 50.982117
10.37933 45.474483 50.226116
11.70633 47.01948 49.492115
13.02333 46.656483 47.096115
13.37533 45.022484 45.826115
63.70133 21.887482 56.155117
61.35333 20.793488 57.166115
59.34933 21.263489 57.702114
58.07833 23.800484 57.712116
48.01833 45.982483 41.453117
49.85333 47.732483 40.641117
52.51733 47.493484 40.431114
53.96233 45.702484 40.925117
66.30033 76.47448 52.358116
67.949326 75.15148 51.592117
69.29033 75.03848 49.307117
69.423325 76.45348 47.354115
21.59433 74.632484 55.159115
19.467329 75.39348 55.002117
17.20533 74.728485 55.760117
16.50433 72.91748 57.291115
27.83233 48.828484 35.395115
25.37533 48.021484 34.226116
23.38633 49.499485 34.143116
23.39533 52.10248 34.20112
9.49033 49.933483 24.488115
7.7613297 47.840485 24.173117
8.206329 45.414482 25.871117
9.77833 45.077484 27.069117
19.47233 78.42848 25.241116
21.54333 78.20348 24.653116
23.24133 76.36248 25.489117
23.32433 75.019485 27.677116
63.15233 16.272484 56.568115
62.13633 17.684486 57.883114
59.62933 18.531487 58.396114
57.64333 17.568481 57.416115
5.95033 46.115482 34.789116
7.14133 46.087482 36.824116
9.298329 47.333485 37.559116
9.94833 49.786484 36.522118
54.58133 76.47348 62.999115
54.55333 78.603485 61.450115
53.67233 78.67948 58.847115
52.79333 76.755486 57.388115
63.60233 50.85248 75.47012
65.07733 49.27648 76.386116
64.13333 46.590485 75.92412
62.02733 46.09548 74.87912
28.51933 15.108482 80.983116
27.42433 16.661484 78.79312
25.13433 17.985489 78.84712
23.35133 16.729485 80.26312
37.43533 46.979485 35.720116
37.49533 45.84548 37.600117
37.92733 46.377483 40.195118
37.28933 48.46348 41.382114
59.44033 15.399483 50.895115
58.72433 15.385483 53.168118
55.73533 15.369484 53.820114
53.82633 14.963486 52.382114
45.29533 47.778484 57.605114
43.84433 47.003483 59.247116
41.78033 45.014484 58.673115
40.74833 44.589485 56.720116
47.56733 46.690483 22.989117
46.39733 46.763485 20.791117
43.91933 46.046482 19.974115
42.17133 45.154484 21.295116
14.47433 46.362484 23.982117
12.49533 45.865482 25.340117
11.74033 43.427483 26.187117
12.53833 41.268482 25.419115
44.94533 47.570484 53.763115
44.38933 48.061485 51.202114
45.78633 46.928482 49.285114
47.87333 45.872482 49.230114
10.01933 74.48948 26.118116
10.66033 73.55848 24.376116
13.26933 72.05348 24.685116
14.82033 72.48348 26.714115
24.55833 77.52948 5.4931183
25.76033 75.36148 5.4411163
27.17833 74.06448 7.2391205
28.54633 75.11048 9.260114
54.43133 43.476482 11.002116
55.62133 45.321484 10.630116
55.26833 46.378483 12.950116
55.60633 46.259483 15.137116
65.06833 77.98548 31.525116
63.93633 75.965485 31.013115
61.71633 75.43048 29.312117
60.13733 76.73748 28.744116
5.3953295 70.80348 44.502117
5.1863294 72.81948 43.268116
7.2673297 73.99648 41.841114
9.41433 73.43148 41.530117
37.64233 75.674484 66.35312
36.14133 75.24748 64.65812
36.38733 75.74548 61.890118
37.88833 76.59648 60.756115
72.99532 76.80348 51.341114
72.60632 74.68048 50.116116
73.020325 74.04348 47.511116
73.02332 75.14348 45.583115
22.43933 79.39948 35.806118
20.74633 77.966484 35.299118
18.228329 78.05348 34.888115
16.627329 79.66448 35.678116
60.507328 20.496483 76.16912
60.19933 19.977486 78.09712
57.83633 19.409485 79.23512
55.69233 19.638489 78.20312
30.26133 16.928482 21.902117
31.93633 17.245483 23.281116
34.75533 17.606483 22.244116
35.34633 17.830482 20.016117
49.76833 11.974487 28.601116
49.44233 13.744484 30.362116
48.71133 13.610489 32.655117
49.08533 12.048485 34.353115
63.632328 15.337486 13.759116
64.76533 16.683487 12.365116
63.94433 18.841484 10.9981165
61.97333 19.241486 10.169116
8.76933 11.637482 56.592117
11.34033 12.535484 56.579117
12.65333 12.793488 59.078117
12.91633 11.364487 60.698116
22.93233 14.725487 48.564117
23.52133 16.664482 46.864117
22.14633 17.343483 44.631115
20.47833 16.215485 43.474117
44.41333 46.164482 77.51212
43.19233 46.646484 75.41212
40.44333 45.902485 75.40112
39.05033 45.49148 76.93512
0.6163295 19.374489 59.138115
1.5573294 18.194489 60.456116
4.1033297 16.955482 60.232117
5.9003296 17.578484 59.175117
11.67333 49.467484 12.079117
9.02633 48.798485 11.131116
8.8223295 48.310482 8.601116
10.21533 48.29048 6.9551163
30.31533 75.18348 25.751116
28.44633 77.15048 25.298117
27.21833 78.30848 27.579115
28.86833 78.46848 29.835115
36.32433 78.077484 14.006117
35.11533 76.01648 13.015117
34.49833 75.44248 10.726116
35.57833 75.910484 8.639116
34.99533 20.302483 70.63412
35.54533 18.684486 72.57812
37.09333 18.896484 74.87812
38.43333 20.930489 75.79012
45.59033 17.225487 16.153116
43.66933 17.927483 15.234117
41.81733 19.458488 16.773117
42.16633 21.143486 18.231115
31.77033 18.748482 62.952114
31.96833 17.204483 64.46812
32.56933 17.303482 67.361115
32.70433 18.890488 68.67312
73.71933 70.07348 54.867115
1.3953323 71.59848 56.064117
2.090332 71.602486 58.785114
2.0933304 69.92848 60.479115
72.146324 76.03648 4.9211197
72.255325 76.688484 3.1471176
69.93932 76.744484 1.6071167
67.713326 77.547485 2.5431213
12.58733 47.010483 76.89412
12.29933 46.425484 78.90712
13.80633 44.458485 79.94812
16.07133 43.981483 79.21812
9.56533 50.641483 48.831116
9.20733 48.249485 49.287117
8.49533 47.181484 51.395115
8.161329 47.74148 53.488117
17.46033 73.78048 22.135117
15.45633 74.07848 21.758116
14.62333 74.72348 19.430117
15.47233 74.56848 17.274117
48.07433 43.992485 8.551116
47.80433 43.593483 10.937117
49.63133 43.626484 12.894116
51.73733 44.337482 12.949117
60.23133 73.11248 51.367115
59.41433 73.49648 49.051117
57.53333 75.298485 48.533115
55.61933 75.97248 49.650116
45.70533 75.91548 3.113121
46.98933 75.88848 4.9631195
48.56033 74.01848 6.0191193
49.72933 72.41248 5.0151215
39.59633 40.441483 33.14612
39.14433 42.389484 32.455116
40.19433 44.243484 30.857117
42.47333 44.685482 30.632116
23.40733 42.289482 75.29112
24.43633 43.66548 74.358116
24.07433 44.557484 71.69612
22.60633 43.594482 70.08912
14.87333 19.290482 51.307117
17.426329 17.974487 50.978115
19.47633 19.089485 50.187115
20.48433 20.391487 52.094116
19.28233 21.041489 22.804115
17.217329 19.484482 22.848116
16.395329 19.173485 25.464115
15.97133 20.906487 27.221115
62.65233 41.771484 32.20112
62.53733 44.333485 32.338116
61.73533 46.12348 31.126116
59.48533 46.154484 29.893116
57.43733 14.266487 39.022118
57.99333 16.039482 40.618114
58.28733 15.975487 43.087116
59.74733 14.373482 44.502117
73.56733 13.560486 16.722116
72.380325 13.806488 18.600117
73.13633 14.169487 21.046116
0.8763275 12.960487 22.364117
32.32633 21.256485 41.314117
34.02733 19.879486 40.838116
35.44433 18.908485 43.047115
35.33933 19.477486 45.197117
3.9833295 49.045483 54.807117
5.6493297 47.832485 53.850117
5.7613297 46.742485 51.453117
3.9463296 46.687485 50.048115
0.8773294 74.867485 59.696117
0.10432938 72.71848 60.555115
0.7393294 71.56848 62.367115
2.9063294 71.895485 64.05912
26.47833 75.82148 44.055115
28.16933 76.01748 42.863117
30.58833 75.93448 44.364117
30.75233 76.26648 46.832115
23.17233 75.95548 56.838116
21.77533 75.505486 58.315117
22.85033 74.56848 60.931114
25.17533 75.01748 61.723114
68.85532 76.46748 65.81312
70.77533 76.88748 67.27912
70.88933 77.62248 69.70412
69.19333 78.25048 71.29412
24.83633 21.181488 37.536118
23.11733 19.261482 36.280117
20.70733 18.765488 36.947117
19.55833 19.724487 38.966118
46.87933 73.05548 25.359116
48.31733 74.36348 26.361116
50.71133 75.033485 25.250116
52.01933 74.14148 24.155117
71.38633 74.76548 55.167114
72.922325 75.37648 53.785114
0.70233154 73.96048 51.959114
1.0293274 71.74948 51.846115
61.71533 40.855484 19.410116
62.97733 42.492485 20.831116
65.44133 43.302483 20.496117
67.72533 41.756485 19.825117
20.50733 51.000484 33.620117
18.172329 49.978485 34.364117
17.28533 48.195484 32.670116
16.99633 48.181484 30.411116
45.34833 78.743484 27.629116
42.84933 78.47348 28.047115
41.52933 77.98248 30.058115
41.99333 78.28148 32.47912
62.41233 14.003487 44.939117
62.80533 16.469482 45.260117
62.76333 17.996483 47.459114
63.05433 17.266487 49.845116
63.19933 21.554482 78.30212
65.368324 20.236488 78.47812
67.51633 20.179482 76.76712
68.05333 21.848488 74.83012
70.327324 13.164482 28.560116
72.685326 14.174484 28.860115
1.0893326 12.786484 29.871117
1.5433273 10.947487 30.898115
57.36433 47.733482 1.5481186
59.12433 47.451485 3.648117
58.34733 47.143482 6.1911163
56.25533 47.467484 7.181122
67.673325 42.427483 68.14812
67.754326 44.407482 68.164116
69.85532 46.309483 68.36612
71.907326 46.228485 68.41812
24.68033 17.574486 70.067116
23.092329 16.984482 68.22612
20.57733 16.667488 69.35012
19.62133 17.548485 71.03612
42.30233 72.32248 56.203117
44.07933 72.521484 57.779118
44.09033 74.00448 59.931114
42.33233 74.21148 61.487114
5.7823296 19.175484 70.54312
4.3723297 16.997482 69.72412
1.7013295 16.652489 69.80912
0.1553295 18.128487 69.75212
40.43233 47.013485 61.769115
41.37233 48.569485 63.531116
43.82933 47.055485 64.292114
44.68733 45.298485 63.069115
34.62333 12.863487 33.580116
32.90533 14.413483 32.73612
31.09633 15.441483 33.788116
30.15533 14.909485 36.581116
51.91733 78.727486 55.210117
52.65933 78.34948 52.893116
52.60733 75.82048 51.619114
50.89733 73.94448 51.871117
36.64533 48.307484 74.50512
37.97433 46.237484 73.56512
39.71633 46.243484 71.67412
41.89233 47.638485 71.48012
44.80933 18.414482 26.513115
43.22233 16.655487 27.453115
42.96033 16.138489 30.036116
43.78233 16.625488 31.892117
8.838329 50.428482 72.09912
7.1263294 48.856483 72.98912
4.3713293 48.99148 73.18612
3.0843296 50.553482 72.747116
41.85833 53.747482 47.647118
41.07233 52.45748 49.057117
39.94033 50.417484 48.125114
38.71333 50.124485 45.974117
18.211329 51.126484 61.118114
17.21633 48.97748 60.004116
14.994329 47.888485 60.465115
13.29033 48.178482 62.186115
51.01533 9.805481 41.353115
53.17233 9.941483 40.300117
54.25633 11.968483 41.577114
53.47333 12.963486 43.614117
22.87433 43.983482 7.607116
21.48633 45.344482 9.376117
19.440329 46.681484 8.904117
17.52533 46.367485 7.1851163
19.211329 18.976486 66.652115
18.41033 17.071487 67.874115
15.79233 16.322487 68.35612
13.96233 17.579483 68.126114
19.71933 15.699486 54.728115
20.95133 17.158485 53.438114
21.44333 17.578484 51.122116
20.58733 16.119484 48.910114
72.212326 73.35848 58.479115
71.26733 75.119484 57.952114
68.80232 76.33148 58.439117
66.882324 75.39848 59.056114
27.18933 49.475483 60.367115
25.36433 48.076485 58.940117
24.41433 48.52648 56.641117
24.78233 50.49148 55.034115
24.75633 16.265488 64.360115
22.91233 17.352486 64.90812
20.33433 16.623482 65.48812
19.51933 14.106483 66.23112
21.24133 49.525482 4.776123
21.42933 47.097485 4.7741165
23.81933 45.629482 5.5621185
26.04233 46.54048 5.766121
37.70833 44.709484 10.768116
38.36933 46.557484 12.121117
38.95233 46.861485 14.451117
38.91533 45.63048 16.057116
70.059326 75.74648 34.184116
72.101326 75.72548 35.408115
0.55233 77.41248 34.490116
0.89232635 78.30348 32.269115
54.93433 73.61348 28.863115
52.68533 74.23448 28.390116
52.98333 75.839485 26.405115
55.14633 76.48348 25.371117
38.40233 39.765484 53.526115
39.56133 41.969482 54.151115
39.18133 44.357483 53.271114
37.38033 45.375484 51.877117
34.97933 50.069485 14.103116
37.52133 49.150482 14.375116
38.91833 48.786484 16.853117
37.69333 48.426483 18.968117
26.59433 42.546482 13.887116
28.58333 43.177483 12.972116
30.11933 45.307484 13.676117
30.34533 46.135483 16.422115
39.96833 48.805485 20.388117
41.46133 47.26948 20.002117
42.55233 46.705482 17.205116
42.74533 48.199482 15.408116
71.93333 73.98148 67.04712
73.19032 75.883484 68.334114
1.4923325 76.12248 69.11912
3.58633 74.86348 68.97812
6.9313297 14.532486 34.823116
4.5523295 14.986488 34.57612
3.1323295 14.140488 36.887115
2.7563295 11.786484 37.649117
45.83733 79.72048 69.31512
45.95033 77.72148 67.81312
45.70633 75.090485 68.456116
44.84833 73.992485 70.11612
20.28633 72.616486 76.10112
21.44533 74.99848 75.20612
20.67633 76.46948 73.14712
19.47733 76.035484 71.178116
59.28033 46.197483 79.53012
58.92333 43.780483 80.35912
56.70633 42.396484 80.53312
54.59533 42.586483 79.30912
64.741325 16.500488 80.12012
65.34333 17.011482 82.22412
63.51033 16.549484 1.0761185
61.73233 15.377487 1.0961227
25.17233 45.572483 34.806118
27.36433 46.037483 35.763115
28.43033 45.356483 37.851116
27.91433 44.15148 39.698116
25.22133 41.723484 2.1231232
24.55033 44.094482 2.72612
22.18133 44.995483 3.5531235
20.02033 43.572483 4.0811234
48.76933 67.97448 42.610115
49.75433 69.94348 43.419117
52.38533 70.93048 43.328117
54.33033 69.55448 43.216114
27.67433 18.325485 74.43712
25.81033 18.549484 73.00012
23.36233 17.581482 73.18912
22.03433 16.872482 74.97212
3.0053253 43.393482 80.56512
2.3703308 45.63748 79.96612
0.9443283 46.606483 78.03112
0.5613251 45.298485 75.65912
13.38633 15.261482 20.905117
12.06833 16.573486 21.764116
12.28233 18.079483 24.149117
13.96833 18.118484 25.621117
38.05433 72.34848 74.80812
36.24733 72.61048 73.04512
33.81133 72.10848 73.22612
33.06633 69.784485 74.60512
7.3183293 45.343483 20.848116
8.06633 47.214485 21.468117
10.33433 48.159485 22.292116
12.8883295 46.832485 22.033115
61.94433 72.938484 26.668116
63.79733 74.54048 27.693115
65.144325 76.36048 25.698116
65.71833 75.75948 23.395117
57.36033 11.192482 17.809116
57.18333 13.559486 18.270117
58.58633 15.623482 17.730116
60.19833 15.741486 15.245116
63.22533 43.967484 49.611115
61.37333 45.13048 48.964115
58.99733 44.193485 47.353115
59.17533 42.14448 46.326115
5.9753294 15.053482 39.255116
8.51633 15.122482 39.669117
9.7303295 15.571487 41.891117
8.826329 16.269485 43.633114
63.47333 17.645485 35.20112
66.17433 16.629486 35.024117
67.94733 16.883484 36.953117
67.741325 17.459488 39.04812
1.415329 78.68348 28.005116
2.4113312 78.90348 25.961115
1.0303268 78.631485 23.457117
72.241325 78.74948 23.178116
50.66133 13.7174835 73.86812
51.89733 13.758484 72.011116
51.36633 13.731483 69.261116
49.32933 14.522484 68.361115
64.796326 48.217484 81.59812
65.79233 46.777485 79.68612
66.90633 47.268482 77.48912
68.325325 48.84548 76.71112
31.40933 52.542484 68.09412
31.02733 50.327484 67.54512
31.33733 48.000484 69.14612
30.90733 48.256485 71.75712
63.75133 76.41148 46.253117
61.67933 75.76248 47.119114
59.60533 76.67748 48.062115
59.31233 79.24048 49.199116
42.43833 50.551483 13.489117
41.11833 48.740482 13.093117
40.76033 47.525482 10.782116
41.08933 48.16548 8.581117
73.560326 68.713486 4.2421165
0.27632904 70.54648 4.8921165
1.8823318 71.561485 7.0771165
2.8613281 70.75148 8.685117
70.02833 45.388485 40.533115
68.76533 44.989483 42.237114
66.143326 45.070484 42.727116
64.30533 45.38748 40.671116
7.1993294 71.90748 82.33312
6.3103294 74.006485 82.54412
5.2713294 75.72548 80.55912
4.3213296 75.12348 78.61112
47.86633 17.088486 29.452116
50.34733 16.276482 30.559116
50.70433 16.012482 32.855118
49.21533 17.039482 35.174118
8.12333 49.895485 21.005116
5.8943295 50.228485 20.672115
3.8623295 49.90848 22.040115
3.5163295 49.830482 24.694117
42.45733 75.034485 48.520115
41.81533 73.99748 46.338116
42.80933 73.44748 44.225117
43.80433 74.33648 42.789116
31.415329 71.87448 21.202116
30.42833 73.145485 19.443117
28.44633 73.241486 17.886116
26.77233 72.21748 17.611116
20.10333 47.323483 19.250116
18.006329 46.959484 17.491116
16.499329 48.683483 16.629116
15.84333 50.490482 17.378117
20.77733 77.46248 50.841114
20.69433 75.438484 51.973114
22.77333 74.30748 52.555115
25.11233 75.576485 52.903114
35.82133 77.47548 79.48512
37.45833 76.227486 79.48512
39.95733 76.313484 79.76012
41.38333 78.035484 80.64612
56.19333 47.83848 69.68612
56.76933 45.511482 70.025116
58.44533 44.531483 72.20912
58.93033 45.406483 74.37312
29.06333 72.02948 55.884117
28.48833 73.715485 54.327114
30.09433 74.451485 52.050117
32.03933 74.00048 51.477116
29.78733 72.69448 47.457115
31.00933 73.97248 48.749115
33.99333 74.310486 48.886116
35.37833 72.54248 48.352116
2.3313293 13.572487 48.226116
1.5613251 14.922485 45.923115
2.6303253 15.329483 44.066116
4.7173343 14.723488 43.207115
16.72733 78.41548 65.84312
17.263329 78.01448 63.170116
15.44933 77.631485 61.490116
12.90533 77.38448 61.882114
53.85533 15.879486 14.238116
56.43333 14.920486 14.310117
58.57233 16.308487 13.051117
58.09733 17.354485 11.4321165
60.79133 40.756485 38.769115
62.09933 41.279484 36.77112
60.98033 41.960484 34.454117
59.35133 41.235485 33.27812
61.24333 14.698486 36.63912
59.14933 15.302483 37.38212
56.96133 15.480484 35.592117
56.45733 13.908485 34.019115
51.86533 50.943485 3.613121
52.16533 48.708485 4.1571198
53.55633 46.435482 2.6961212
53.67933 46.047485 0.57611847
44.62933 44.872482 17.390116
46.71333 44.517483 18.785116
49.19733 45.679485 18.202116
50.12733 46.205482 16.269115
47.02233 80.38448 10.289116
46.54733 78.090485 11.462116
46.14733 77.50948 13.895117
46.79033 78.68048 16.155117
43.29633 73.994484 67.47412
41.757328 74.10648 65.87912
41.23633 72.547485 63.694115
43.12333 71.87348 62.341114
20.18333 13.566483 13.323116
22.20333 14.757484 13.723117
23.60733 15.341484 11.810117
23.92033 14.176483 9.416117
38.46433 72.80148 38.989117
37.39833 72.882484 40.728115
34.591328 72.74548 41.181114
32.799328 72.158485 39.631115
53.37133 19.275482 43.870117
54.13833 16.620483 44.132114
55.15233 15.168488 42.263115
55.13533 15.072487 39.989117
45.04133 13.908485 44.906116
45.54933 16.056488 44.033115
44.21633 18.287483 44.036118
42.48433 18.841484 45.982117
0.2583313 42.70748 18.258116
0.3833313 44.822483 18.327116
1.377327 46.590485 16.144117
1.8853302 46.055485 14.1561165
52.96533 12.862488 7.1941223
54.52633 13.852486 8.422116
54.23833 14.070488 11.099118
52.27233 12.968483 12.297116
31.31733 23.401482 27.686115
30.97033 22.766487 25.228115
31.93233 20.609482 24.343115
33.92833 19.209488 24.545116
5.7223296 45.921482 43.390118
7.3563294 44.518482 42.163116
7.0563297 43.35248 39.674118
5.5583296 44.154484 37.922115
63.48933 73.644485 70.46612
62.01533 75.547485 71.208115
59.55133 75.83448 71.73012
57.63933 74.25048 71.610115
11.57033 75.10048 12.296117
10.72633 73.83448 10.293117
8.581329 74.39848 8.653116
7.3523297 76.30148 8.370116
43.20233 22.285484 13.612117
42.07433 20.063484 14.100117
41.06433 18.146484 12.876117
40.33733 17.811485 10.550117
38.83433 49.308483 26.707115
39.53833 46.624485 25.974115
40.01733 45.770485 24.028116
39.30933 46.458485 21.456116
40.95033 41.612484 74.80112
41.91933 43.916485 74.72412
42.80633 45.356483 73.02312
43.03333 44.736485 70.39012
18.85833 18.377487 34.49312
19.03233 17.149483 32.255116
17.91033 17.425484 29.975115
16.78133 19.084488 28.863115
62.91933 20.581482 59.530117
64.31533 18.502487 60.296116
65.91733 18.253487 62.458115
67.29033 19.604485 63.255116
4.8863297 42.292484 3.6351166
3.8933294 44.613483 2.8781204
2.0943296 45.009483 1.4801178
0.9593294 43.940483 82.44312
2.828331 71.58748 44.119114
2.290329 73.90648 45.145115
2.6703262 74.26148 47.906116
2.891327 72.90048 49.611115
7.2363296 75.50148 19.764116
8.51433 73.88448 20.827116
11.12433 74.05248 21.893116
12.67633 76.131485 21.874117
23.45933 48.62348 9.160116
22.30033 46.925484 11.549116
23.96033 46.11648 13.514116
26.25033 47.464485 14.152117
29.31733 13.791489 78.25812
26.77133 13.689484 77.58712
25.88033 13.512482 75.11112
25.95333 11.478485 74.41012
2.7413294 17.133484 51.015118
2.3233294 17.742485 53.488117
4.3403296 17.621483 55.415115
6.7253294 17.875488 55.235115
70.16733 74.088486 73.96812
71.08533 76.40448 73.64612
73.549324 77.08648 73.08912
1.5083313 75.80648 71.833115
58.30733 44.153484 63.013115
59.84633 45.398483 64.098114
59.68733 45.797485 66.93812
58.95233 44.410484 68.69912
22.38833 79.91148 76.16512
23.55233 77.75348 76.88712
23.95233 75.65748 75.12012
24.86233 75.799484 73.01212
56.26833 44.134483 48.217117
54.72233 45.763485 48.578117
51.96433 45.63048 48.793118
51.92333 45.946484 50.921116
53.42633 79.730484 73.74912
53.74733 78.34548 71.70412
52.125328 76.49548 70.569115
49.85633 75.883484 71.417114
12.33733 49.74848 19.611116
10.34633 49.186485 19.592115
9.43633 47.014484 18.040115
10.23533 46.568485 15.778116
27.09333 38.858482 67.18512
27.00733 40.073483 64.70412
28.32233 41.744484 63.872116
29.73133 43.49848 64.69812
53.62333 77.07248 67.817116
54.77533 78.810486 68.970116
57.44833 78.966484 69.92512
59.30033 77.396484 69.61512
39.76233 50.281483 41.984116
42.44233 50.568485 40.996117
43.61433 51.254482 43.073116
42.50933 52.63848 45.268116
21.33633 44.813484 17.130116
20.39233 46.663483 15.570116
20.10833 46.552483 12.950116
20.06133 44.318485 11.375116
7.7583294 20.504486 16.595116
7.6673293 18.934486 18.479116
8.053329 19.295486 21.247116
8.97433 20.740486 22.425116
27.74333 19.564484 44.786118
28.38033 18.443481 46.947117
30.80533 17.281487 47.388115
33.02333 17.865486 46.755116
34.89933 17.895485 5.1181183
33.26633 18.533485 6.375122
30.53533 17.974487 6.0151215
29.25433 17.923485 3.83712
2.417328 79.771484 34.995117
4.6273303 78.57048 35.205116
5.8473315 77.383484 32.97212
5.8873324 78.133484 30.831116
62.50333 14.848488 28.620115
64.69233 15.629486 28.828115
66.82833 14.7174835 28.860115
67.86233 12.539482 29.549116
58.97433 13.370483 21.135117
59.94133 14.987488 23.084116
59.07233 15.635483 25.095116
57.60233 14.610489 26.794115
52.89733 82.79448 62.136116
54.32133 81.522484 63.821117
53.89133 79.16948 64.555115
52.03833 77.980484 64.737114
69.563324 19.459488 39.801117
71.020325 17.520485 40.364117
73.296326 17.162483 41.286118
0.9193268 19.121483 42.118114
64.963326 45.765484 19.125116
62.69233 45.465485 17.873116
60.61833 44.218483 19.287117
59.97333 44.907482 21.779116
34.835327 42.723484 76.75712
37.32733 42.754482 75.51212
39.61033 42.883484 76.98212
39.86933 42.406483 79.58812
51.81233 16.659485 28.076117
50.94533 15.502487 26.685116
49.20233 15.878487 24.563116
48.30233 17.827484 23.325117
60.01633 71.576485 35.219116
60.34633 73.21148 33.707115
62.875328 74.59548 32.95812
64.61333 74.40048 34.197117
46.53633 14.5574875 82.50312
47.09233 16.221489 0.54711914
47.56633 16.446487 2.9721222
46.86033 14.891487 4.648117
36.00633 20.366486 5.9161224
37.73533 19.006485 4.139122
40.33833 17.948486 4.9551163
40.85733 18.325485 7.506119
46.92433 42.22048 68.612114
46.23233 44.002483 69.65712
48.16733 45.633484 70.87012
50.15933 45.376484 71.62112
43.97533 17.969482 6.2371216
42.70533 16.889488 4.2631226
42.98533 16.728485 1.9281235
44.42733 17.873482 0.13511658
31.06633 23.613487 22.781116
31.24633 21.419487 21.815117
32.716328 20.419487 19.994116
34.89433 21.090485 19.019115
27.96033 20.835487 30.605116
27.92033 20.577484 28.488115
25.86633 19.710487 27.257116
23.55433 19.503487 28.082115
19.304329 49.420483 52.393116
20.12433 49.535484 54.304115
18.888329 49.606483 56.292114
16.70833 50.296482 57.053116
10.772329 14.897484 62.949116
10.81133 16.720482 64.78012
11.67033 16.360489 67.250114
13.33533 14.917488 68.15812
26.39633 77.41748 13.376117
28.20933 75.83048 13.315117
30.95033 76.05548 12.616117
31.87833 77.23948 11.191116
47.89133 76.09848 61.302116
46.44833 77.39048 59.828117
46.12133 77.39948 57.317116
46.91533 75.867485 55.484116
59.71133 73.964485 77.62612
59.73633 76.13648 76.21712
61.53533 76.897484 74.275116
63.40933 75.83048 73.74812
9.75433 44.634483 72.65512
8.88233 44.754482 70.581116
6.5573297 46.267483 70.567116
4.9603295 46.551483 72.77112
62.31833 73.83048 12.5241165
61.27633 75.29548 13.181116
60.52233 75.978485 15.786117
60.56133 74.89248 17.747116
48.85933 10.969482 62.401115
47.41933 13.261482 61.824116
48.56733 14.985489 59.903114
50.01633 14.148483 58.007114
15.98633 50.612484 20.489117
15.31833 49.420483 22.776115
13.34733 49.732483 24.310116
11.77633 51.988483 24.261116
3.1683295 47.85248 10.621117
3.5603294 46.722485 12.237117
5.1633296 46.176483 14.168117
7.16733 46.557484 14.457116
51.32933 81.647484 55.595116
52.81233 82.019485 57.669117
52.63533 80.93348 59.916115
50.87833 79.35048 60.962116
72.004326 46.481483 75.46912
70.49733 45.082485 76.95912
67.98633 44.869484 76.95612
66.83133 45.199482 74.42212
69.85632 49.949482 5.4811172
70.19633 47.181484 6.3221207
71.868324 46.286484 7.5081177
0.47732544 47.138485 8.169121
65.948326 73.48348 79.38012
64.13733 73.75448 78.18212
61.79333 75.022484 79.05912
60.94333 75.339485 81.37612
22.97933 79.05248 69.625114
21.40533 78.60748 71.53012
18.52833 78.797485 71.35612
17.54533 79.090485 69.36512
6.7983294 39.60948 42.910114
5.4463296 40.962482 41.015118
2.9993296 41.821484 41.391117
1.5003295 41.56848 43.015118
44.10033 17.361488 49.646114
42.54033 16.559486 51.240116
40.13533 15.253487 50.816116
38.66233 15.695488 49.114117
23.67133 11.614487 72.92312
22.48533 13.562485 73.24312
20.18133 14.267487 74.22712
18.29333 12.646484 75.122116
57.88733 77.96148 45.297115
60.72233 78.575485 43.987114
61.45733 76.685486 42.270115
60.40833 75.103485 41.332115
11.82833 18.520485 56.950115
11.01133 16.706482 55.640118
9.324329 14.652489 56.452114
8.09633 14.337486 58.446117
18.610329 22.189484 14.224116
17.485329 20.802483 15.670116
14.97233 20.496483 16.280117
13.17433 22.057487 16.196117
63.43433 44.495483 82.46912
63.05433 46.04048 80.78012
62.47333 45.64448 78.21112
62.23133 43.941483 76.84412
50.03033 21.675484 46.030117
49.08233 19.461487 45.930115
47.98733 17.944489 47.631115
46.71233 18.121483 49.504116
51.09633 25.720482 45.668118
52.41033 23.991486 47.207115
54.36133 22.287483 46.383114
54.98533 21.603485 44.535114
41.26033 68.89348 18.838116
40.25833 70.93948 20.121117
40.56733 73.34648 19.392117
41.27733 74.452484 17.343117
1.6453323 74.93148 33.11812
3.9763293 75.39248 33.089115
5.471332 75.50948 35.587116
5.265331 74.40248 37.534115
41.37733 21.164482 78.11012
40.73133 18.775482 78.54012
38.16433 17.929482 79.24012
36.01933 18.892487 78.26412
63.07233 49.96348 58.493114
61.26933 48.365482 58.760117
59.29833 48.240482 56.601116
59.30533 49.603485 54.843117
43.57133 72.31948 28.551115
43.98233 74.08248 27.222116
45.72533 76.12448 27.163116
47.17533 76.772484 28.808115
18.68133 50.16548 63.609116
17.599329 48.108482 63.811115
17.52133 46.515484 66.05912
18.31333 46.538483 67.95012
36.07933 18.757484 68.43212
38.28733 18.942482 68.88212
40.57333 18.137482 67.21512
40.65833 17.456482 65.25812
72.69433 74.20748 82.25212
73.51233 74.43248 1.5231171
72.94733 73.62148 3.7571182
71.27733 71.591484 4.3401184
15.12533 17.833488 3.3781204
14.19533 16.778488 5.526123
12.74133 17.694489 7.3721237
12.2303295 19.961487 8.067123
46.81833 19.360489 64.387115
47.12833 17.804482 66.692116
45.02133 16.240486 67.82212
42.66633 16.225487 66.96312
28.55533 48.103485 5.2741165
27.74733 46.777485 3.5301208
28.78633 46.656483 0.8491211
30.48233 47.183483 0.0021209717
72.84733 19.206482 75.36512
70.43333 20.338486 75.64812
69.94633 22.505486 77.02912
71.090324 24.614487 77.14512
71.62032 13.661484 73.35712
0.25733185 15.251488 73.50512
2.2563324 15.2054825 72.09412
2.8563309 14.212486 70.345116
50.87733 49.36648 42.658115
49.25633 48.363483 43.563114
46.56433 48.971485 43.080116
45.78733 50.874485 41.889114
61.92933 20.045486 80.28812
63.67033 19.760483 81.99512
63.41433 19.130486 1.4731216
61.89533 18.839485 2.5451202
19.419329 79.19048 18.570116
19.00133 76.39848 18.460115
17.73433 75.381485 16.369116
18.138329 75.95548 13.981116
35.88433 71.94848 23.106115
33.83933 73.47048 21.661116
34.48633 74.63548 19.329117
36.19733 74.05448 17.505116
39.13933 78.105484 58.243114
41.21033 76.936485 58.429115
43.22633 77.49848 60.307117
43.99233 79.62648 61.300117
51.20233 48.346485 22.052116
49.40133 47.392483 21.005116
47.90733 48.426483 18.789116
48.93333 50.555485 17.384117
23.52433 10.337486 76.56012
22.474329 12.739487 77.03612
23.61433 14.224487 79.10012
24.53433 13.732483 80.94512
24.52833 41.789482 40.726116
26.32133 43.045483 42.278114
25.74233 43.315483 44.999115
24.82733 40.994484 46.483116
17.47033 43.451485 82.97512
19.31333 43.854485 1.0611191
21.63333 43.781483 0.06712341
21.37733 41.868484 82.23512
11.75433 14.361488 45.417114
11.081329 14.412483 47.852116
8.5463295 13.825485 48.958115
6.51633 12.737488 47.441116
42.93233 40.041485 54.719116
42.55033 42.315483 55.310116
43.89233 44.615482 54.528114
46.06233 45.074482 54.065117
27.09533 71.21748 71.553116
28.07533 72.66948 73.36712
26.32833 73.68348 75.26912
24.32733 72.30648 76.20712
59.04733 15.894485 81.50712
57.89633 16.581482 79.48912
55.23333 16.604485 79.08212
53.54933 14.540482 80.63012
73.61233 46.885483 35.353115
72.01032 45.004482 34.269115
70.66132 43.120483 35.745117
70.28033 43.416485 38.356117
17.589329 42.698483 3.0271225
14.98533 43.467484 1.7511215
13.09733 42.094482 1.3921204
12.16133 39.766483 2.0391235
25.47033 15.652489 20.823116
25.14433 18.018486 21.448116
22.87133 18.857483 23.229116
23.22533 18.407486 25.471115
7.1143293 72.84548 38.866116
9.17633 74.32248 38.61812
10.17633 75.10148 36.524117
9.647329 74.91348 34.05512
31.12933 77.76248 15.537116
32.77033 76.62748 14.989117
35.424328 76.43048 15.967116
36.20333 76.78048 17.786116
2.3053284 18.868484 48.623116
2.7083282 18.748482 46.069115
1.4453278 17.657486 44.271114
72.74632 17.029488 44.150116
56.94433 20.563484 49.174114
55.78833 18.874489 50.358116
53.38533 17.699486 49.321117
52.97133 17.815483 47.373116
30.77533 49.210484 74.28312
30.50833 48.051483 76.48612
32.06733 45.854485 77.31512
34.51333 45.482483 76.38812
11.9543295 75.58748 52.261116
11.317329 75.36548 54.316116
8.98133 74.69548 54.928116
6.9523296 74.93048 53.634117
18.783329 48.013485 43.716114
17.06933 48.226482 45.219116
14.40433 47.819485 44.334114
13.37833 48.520485 42.274117
62.99133 77.38748 64.01612
61.66033 77.28048 66.012115
62.34833 76.63448 68.68312
64.54133 76.104485 69.53812
43.25133 19.227486 77.99812
43.16333 17.165482 78.90712
45.12233 15.466484 79.69612
47.54133 16.367485 80.45812
53.01433 44.272484 29.673117
53.47133 45.303482 32.117115
55.75233 45.15848 33.411118
57.59633 43.557484 33.130116
45.13033 13.9934845 16.811117
44.82533 15.924484 18.599115
42.61433 16.742485 19.535116
40.56433 15.360489 20.247116
6.193332 47.706482 28.388115
4.900333 47.145485 26.330116
2.4993286 46.751484 25.834116
0.56433105 46.303482 27.176115
34.13433 43.736485 25.267117
32.59333 43.576485 23.398117
30.16933 44.678482 23.385117
28.63633 44.586483 24.878117
71.60732 52.008484 12.074117
72.05533 49.714485 10.827116
69.992325 47.593483 11.102117
67.82033 47.597485 11.950116
14.98233 14.2434845 72.21912
17.46233 14.505486 73.20612
19.53733 14.748482 71.47512
19.78433 14.261482 68.971115
31.93833 78.797485 36.176117
33.10233 76.94748 36.961117
35.50933 76.798485 38.09012
36.27133 78.699486 39.185116
0.4613266 40.35948 12.769116
73.54133 42.013485 13.409117
73.51233 44.649483 12.325116
73.12533 45.147484 10.191116
32.508327 76.201485 64.30012
33.83833 76.422485 61.977116
32.202328 75.02348 60.474117
29.62433 74.55748 61.262115
0.76932526 77.382484 78.56812
0.25332642 76.97448 75.76412
2.2603302 76.146484 74.97812
4.846332 76.466484 76.16512
68.409325 41.994484 12.860116
68.171326 44.287483 13.0311165
66.73533 46.037483 14.626117
64.407326 45.280483 15.653116
11.45833 77.92048 34.836117
12.80733 76.16748 33.738117
15.47233 75.25048 34.246117
16.846329 76.00948 36.130116
7.1653295 18.047485 75.09412
6.8503294 17.430489 77.33512
8.12233 17.558487 79.58312
10.55833 17.948486 79.75112
52.28633 78.08148 49.929115
51.92233 76.49048 48.265118
53.81133 76.56748 46.015118
55.01933 78.310486 45.239117
34.99533 19.544487 56.683117
34.03333 17.379486 55.426117
32.196327 15.700485 56.625114
30.11633 16.384483 57.944115
13.19933 18.467484 54.734116
15.13133 17.796486 53.432117
17.49633 17.635483 54.133114
17.79833 16.559486 56.501114
56.10633 49.951485 67.973114
57.26033 48.00548 66.21412
56.15233 47.584484 63.544117
54.20533 48.937485 62.734116
45.02533 41.599483 75.05512
47.07933 42.863483 74.33612
48.91733 44.261482 75.803116
49.33433 43.949482 78.18012
50.17133 76.78648 27.569117
49.83233 77.70348 24.930117
49.56433 80.104485 24.055117
47.49233 80.92848 24.437117
43.95433 13.663483 81.68312
42.61933 15.803482 81.37612
40.54733 16.418488 80.50812
38.60833 15.036484 80.13812
27.58433 70.94648 60.472115
27.11433 73.47648 60.196117
26.49633 74.90548 58.410114
25.52333 74.242485 55.988117
42.43333 42.640484 46.053116
43.65933 44.510483 46.796116
43.60333 45.65148 49.335117
43.40733 44.646484 51.655117
22.73433 44.627483 31.985115
21.82133 47.043484 32.650116
19.84733 47.46348 34.592117
18.63733 46.108482 36.225117
32.23833 43.222485 61.436115
31.75133 44.689484 63.196117
33.383327 45.828484 64.96012
35.53733 45.700485 65.23012
17.95333 74.005486 30.220116
18.478329 75.630486 28.544115
18.329329 75.48948 26.005116
18.81433 73.284485 24.617115
11.43233 13.424484 41.786118
12.41733 15.206482 40.881115
14.994329 15.768486 40.242115
17.09133 15.425484 41.791115
69.78832 47.176483 26.013115
68.90033 44.698483 26.485115
69.86433 43.209484 28.582115
70.90333 44.092484 30.720116
37.55933 72.938484 7.966118
38.04633 75.04248 8.40112
39.98233 76.52748 7.250122
41.66733 75.741486 5.8101196
34.46233 71.924484 66.76712
36.40933 72.466484 64.80012
38.98533 72.75448 65.387115
40.10233 72.28848 67.081116
30.54933 14.387482 42.521114
31.75633 15.572487 44.181114
31.99833 15.145485 46.679115
31.84333 13.353485 47.870117
64.47233 49.853485 73.01612
65.04133 48.453484 71.36512
67.451324 47.13748 70.55712
69.646324 47.703484 71.17512
53.41133 44.159485 23.180117
54.09233 46.451485 24.632116
51.77533 47.982483 25.118116
49.33133 47.022484 25.620115
25.48133 12.348488 16.762115
23.86933 13.597488 15.7481165
21.91233 15.039482 16.743116
21.34433 15.718483 19.251116
2.8103256 19.544487 37.656116
3.761333 17.427483 38.667118
4.1563296 16.838486 41.350117
3.9953341 18.190483 43.370117
44.86333 18.792488 36.268116
45.77233 17.271484 38.121117
47.80833 17.084488 39.553116
49.80733 18.396484 39.904118
21.01933 43.312485 24.931116
23.24733 43.25548 23.748116
23.55033 44.254482 21.143116
22.18733 44.971485 19.589117
71.76333 49.048485 64.98112
72.38933 48.282482 67.098114
71.671326 49.377483 69.66212
69.59633 50.910484 69.96612
25.94533 43.358482 66.49212
25.45433 45.600483 65.70412
23.31633 47.013485 65.61412
21.151329 46.712482 65.28412
28.53733 72.22048 26.605116
28.88733 73.658485 28.647116
26.89333 73.79048 30.657116
24.90433 72.19348 30.859116
47.06133 48.98448 31.508116
47.03333 49.757484 29.583117
45.71033 51.800484 28.239117
43.89633 53.176483 29.080116
70.28133 16.174484 82.66512
71.921326 17.746483 82.39312
0.36532593 18.033485 0.8321228
1.5833282 16.617485 2.1401215
43.14033 73.492485 12.113116
44.18433 73.73648 14.818116
46.67833 74.715485 15.098117
48.59833 74.686485 13.002116
20.92233 48.063484 48.317116
19.82733 47.475483 46.396114
20.89033 45.131485 45.344116
22.93133 44.245483 45.726116
53.68633 49.715485 17.386116
53.22633 47.53348 16.556116
52.31133 46.640484 14.245116
51.64633 47.803482 12.291117
37.69833 39.052483 55.905117
38.31133 41.066483 56.790115
40.24033 42.067482 58.089115
42.56033 41.492485 58.144115
57.18333 18.690483 68.54512
56.80033 16.375488 67.09312
56.71333 15.996483 64.569115
56.45833 17.411484 62.678116
9.989329 43.445484 17.190117
7.9773293 44.756485 18.238115
5.6883297 45.156483 16.596117
4.7043295 43.08848 15.298117
10.944329 14.619484 79.54312
10.185329 15.497482 77.26712
11.78333 15.968483 75.53412
13.95233 15.146484 75.10612
73.157326 40.77648 28.134115
1.2443314 41.355484 29.412115
1.0703278 42.404484 32.100117
73.83033 42.459484 33.75012
70.548325 45.695484 22.296116
69.70633 44.299484 20.550116
68.14033 44.314484 18.744116
67.10833 46.407482 17.477116
59.25233 40.760483 22.752117
60.35433 42.146484 24.992115
58.98333 44.580482 25.675116
57.13033 45.292484 24.650116
19.308329 80.381485 23.602116
19.97233 78.37448 22.253117
21.58733 78.09848 20.424116
23.74133 79.51148 20.068117
62.71033 71.810486 57.968117
61.18433 74.16648 57.355114
61.79633 76.43348 58.189117
62.88633 77.145485 60.426117
59.09433 14.930489 65.00312
60.17633 17.173485 64.525116
61.48433 17.985489 62.508114
62.40333 16.760483 60.526115
12.87433 74.505486 42.456116
10.60133 76.12248 42.217117
10.66333 78.104485 40.662117
11.42933 78.15348 38.025116
5.4913297 44.242485 56.690117
7.3193297 45.786484 57.062115
9.534329 46.10248 55.174114
10.07833 45.171482 53.604115
23.54333 20.183487 20.591116
22.13733 19.076485 19.278116
19.66433 19.254486 18.364117
18.193329 20.954483 18.133116
29.82433 44.009483 52.377117
28.08833 45.849483 51.663116
28.01433 46.854485 49.251114
28.01033 44.862484 47.037117
34.91933 43.867485 17.133116
33.181328 45.261482 16.669117
32.85633 47.340485 14.684116
34.064327 47.819485 12.902117
9.79733 70.69348 59.357117
11.57833 72.298485 60.527115
13.94533 72.33548 60.495117
15.83433 71.355484 59.321117
29.25233 76.68248 17.136116
27.31433 77.85748 15.877116
24.78133 77.007484 15.968117
23.71833 75.285484 17.357117
65.421326 77.69448 6.7861176
65.632324 77.71248 4.521118
63.78633 78.255486 2.7091217
61.40133 78.92548 2.6681213
49.51333 49.822483 72.62312
48.87033 48.26248 70.61612
50.55433 48.316483 68.07512
52.64633 49.118484 68.34212
2.1123276 71.715485 14.841117
1.4023285 73.616486 16.199116
72.993324 74.52448 17.292116
70.79433 72.98548 17.419117
31.04533 73.77948 37.631115
30.84633 74.910484 34.950115
29.48233 74.17748 32.902115
28.21433 72.15148 32.650116
8.911329 42.048485 82.803116
10.52333 42.737484 0.86711884
10.25633 44.028484 2.9271164
9.26633 43.35948 5.1541214
37.80533 47.567482 5.1451187
38.15133 45.850483 3.2291183
36.06633 44.779484 1.9161224
34.181328 45.817482 0.8931198
35.18433 75.48748 29.565115
34.74033 77.117485 27.802116
35.34333 77.12548 25.227116
35.56233 75.521484 23.830116
45.21733 73.42148 21.882116
43.20033 74.271484 20.412117
43.14533 75.980484 18.290115
45.29533 76.57848 17.124117
46.46433 12.488487 36.560116
47.96333 14.671486 36.047115
49.47133 15.594482 37.670116
50.74533 14.569489 39.483116
29.13733 49.203484 53.499115
28.40733 48.775482 51.372116
30.467329 48.698483 49.193115
32.52633 49.822483 49.240116
40.88933 14.078484 27.123116
39.21733 15.772484 26.948116
37.87233 17.123482 25.155115
38.00333 17.041489 22.741116
38.73333 72.74948 23.761116
40.58333 74.449486 24.430117
43.05433 74.33548 24.636116
44.65133 72.07348 24.140116
47.60133 44.996483 56.427116
48.63533 47.211483 56.535114
51.03833 48.062485 56.102116
53.07133 47.119484 55.236115
66.24833 18.533485 18.195116
65.83433 16.390488 18.957117
67.27133 14.747482 20.460115
69.27332 14.942482 20.568117
26.342329 15.258484 39.192116
27.19033 16.410484 36.754116
28.03433 15.227486 34.654118
27.59133 12.934486 33.807117
54.87433 46.504482 53.666115
57.04233 47.701485 54.849117
59.81633 46.33848 54.482117
60.12133 44.117485 53.482117
54.89233 77.71948 10.084116
53.71933 75.91748 10.903116
51.24733 75.55748 11.823116
49.40333 76.93048 11.467116
15.22133 73.05948 70.35012
14.55633 74.866486 68.903114
15.38133 75.659485 66.40912
17.32833 75.338486 65.39712
26.10733 77.92648 38.556118
23.74133 77.646484 37.185116
21.49633 77.18248 38.308117
20.50433 77.82248 40.370117
31.20133 16.165482 29.250116
29.83033 16.470482 31.534115
27.217329 16.024483 31.964115
25.85533 14.037483 31.201117
30.00333 73.30348 6.4651165
31.91433 73.618484 5.9261165
34.092327 73.56448 7.655116
34.12233 71.97248 9.761116
25.43833 13.272484 41.262115
27.52133 15.153488 41.553116
28.12233 16.299484 43.940117
26.93033 16.717484 45.558117
70.38633 13.433487 16.759117
70.22033 15.867485 16.730116
71.587326 17.534485 14.667116
71.37132 16.449486 12.080116
8.74233 42.216484 69.26712
7.6703296 43.863483 68.17712
8.1383295 45.092484 65.67112
10.093329 45.134483 64.77312
33.66333 49.758484 18.972116
31.60233 49.336483 16.582117
29.18933 48.60948 17.295116
28.66033 47.792484 19.535116
68.882324 72.366486 19.858116
67.145325 73.647484 20.484116
65.312325 74.67948 18.677116
64.62033 74.39348 16.601116
54.00433 49.648483 41.488117
55.79133 47.780483 40.871117
57.18133 47.528484 38.821117
57.92133 48.740482 37.372116
34.36033 75.40348 56.073116
36.21733 74.01648 56.539116
38.65033 74.25948 56.118114
39.94133 76.55148 55.619114
8.199329 20.796486 3.6331177
9.97133 19.520485 3.4861221
10.270329 17.599487 1.4741211
9.44333 17.183487 82.79912
42.14233 43.704483 17.149117
40.70133 44.969482 18.361116
38.46633 44.562485 19.683117
37.42933 42.608482 20.366116
47.90033 47.757484 1.4361191
46.62733 45.739483 0.30912018
47.17633 45.186485 80.76612
47.80733 46.351482 79.01212
28.08833 71.45548 63.108116
27.592329 73.950485 64.18712
24.89133 74.95448 64.27212
22.97233 73.88748 63.975117
31.651329 13.958488 80.07012
31.14333 15.742485 81.38512
32.38033 16.841484 0.42411804
33.18633 15.465485 2.523117
70.269325 39.89448 26.880116
71.12032 42.223484 26.227116
69.92632 43.804485 24.101116
68.240326 43.363483 22.684116
71.06933 80.41148 69.831116
73.15433 79.257484 70.34212
0.82032776 79.41848 72.44512
0.6613312 80.93348 74.70612
71.866325 20.530487 1.4361191
72.393326 18.708488 3.2211227
71.50233 18.193481 5.4331207
70.67532 19.845482 7.202118
22.97333 13.287483 56.774117
22.17833 15.443481 56.752117
20.34833 16.728485 58.300117
18.41833 15.933487 59.001114
1.6003265 77.69048 51.018116
2.3503265 75.89148 52.025116
4.22533 74.19648 51.622116
6.3003345 74.65448 50.206116
35.56633 16.520485 29.948116
36.19833 17.226486 27.341116
34.883327 16.455482 25.210115
32.54433 15.633484 25.131115
21.40933 49.478485 65.056114
21.35333 49.256485 62.569115
23.81233 48.659485 61.245117
25.95533 48.200485 62.486115
43.81233 41.849483 60.624115
44.32033 43.550484 59.043118
46.29433 45.132484 58.606117
48.00533 45.582485 59.773117
31.89333 46.47048 30.952116
30.38633 46.849483 32.752117
31.78033 46.383484 35.244118
34.03233 46.65148 35.524117
33.51633 14.298485 66.458115
35.75133 15.240486 65.07812
37.81633 13.738487 64.167114
37.85633 11.492485 63.571117
21.80933 18.884483 10.925117
23.43533 17.763489 12.644116
22.78933 17.077484 15.012116
21.69733 17.698486 16.643116
28.51233 72.25348 10.718117
27.30933 73.950485 11.477117
25.83233 74.41748 13.593117
24.62933 72.299484 15.078116
29.09333 17.860489 77.03312
30.48133 16.043488 77.43512
32.96833 15.880486 78.68012
34.35233 17.450485 79.63712
49.26033 47.702484 4.344124
48.96933 46.499485 6.472122
47.12033 46.597485 8.2931185
45.21233 48.35248 8.864118
18.91433 43.350483 44.651115
16.27733 43.473484 44.385117
16.06333 45.808483 45.797115
17.13233 46.72748 47.509117
21.08733 78.771484 2.5811234
20.23133 77.12248 4.0381165
20.13933 76.521484 6.452118
21.75933 77.465485 8.427114
20.54833 42.067482 73.30512
21.11333 43.270485 75.58812
18.83533 44.171482 76.98112
16.38233 43.524483 76.414116
11.90833 48.905483 45.299114
10.65733 46.725483 44.964115
10.02533 45.675484 42.183117
9.4473295 46.933483 40.473114
0.7553253 18.168488 36.568115
72.30232 18.992485 37.758118
69.87233 18.526482 36.820118
69.33333 17.525482 34.183117
67.241325 73.088486 43.334114
65.68133 74.24948 44.893116
62.85133 74.53748 44.324116
61.57533 73.73648 43.118114
0.6183296 15.708488 15.434116
0.2823296 17.974487 14.280116
2.4173295 19.371483 12.6561165
4.7473297 18.640488 12.721116
1.3963294 78.575485 20.261116
0.6853295 77.53648 18.152117
2.3103294 76.894485 15.922116
4.4843297 77.63948 15.398116
65.32833 15.244484 50.738117
65.80433 15.779488 52.852116
63.85133 16.832489 53.919117
61.28933 16.644485 53.134117
32.82333 77.381485 3.4841232
34.250328 77.65048 5.9851227
32.86033 77.17548 8.367116
30.40233 77.41848 8.626119
4.3803296 15.373482 2.391121
4.3053293 17.275482 0.31011963
5.8433294 17.073486 81.51412
7.0153294 15.2814865 80.52812
39.64633 50.781483 5.228119
40.28933 48.305485 5.6731186
42.13833 47.218483 4.391121
44.69333 48.500484 3.7221222
70.05833 14.822487 60.206116
71.83333 15.270485 58.541115
0.5463257 15.688484 58.897118
2.2203293 15.489487 61.171116
50.96333 15.866486 2.6521225
52.11233 16.341484 4.9131165
54.15533 15.651482 6.108124
56.12933 14.466484 5.158119
62.22233 81.16348 62.225117
63.89933 79.964485 63.107117
66.338326 79.00348 61.839115
66.81433 78.56448 59.659115
60.93033 42.872482 3.349121
59.35333 44.809483 2.9921188
56.91833 44.905483 1.6141205
56.07633 43.683483 0.040122986
39.47933 73.60048 80.96812
39.13533 75.25348 82.32812
41.21833 76.60848 0.008117676
43.84333 75.54148 82.95312
10.18433 74.12448 78.58212
11.29733 75.23648 76.79512
9.78733 76.811485 74.87512
7.2773294 76.12348 73.90512
61.28733 18.492485 22.762115
62.29833 16.516487 23.305117
63.78933 15.714485 25.357117
65.12233 17.602486 26.723116
63.95633 18.005486 15.879116
62.45533 16.512482 16.644115
60.88933 16.670486 18.960115
60.51633 18.597488 20.250116
7.0403295 70.67048 64.52912
5.3713293 72.409485 63.000114
4.6513295 72.15648 60.711117
4.4843297 70.28648 59.013115
11.79733 45.718483 57.934116
13.25733 47.253483 58.492115
15.98633 47.582485 57.650116
17.30933 45.474483 57.038116
20.74333 76.521484 61.520115
20.21433 75.46948 63.775116
19.74833 76.855484 66.123116
19.60733 79.15048 66.59312
46.25633 65.32349 41.783115
46.37333 66.94248 40.245117
44.96133 69.04548 39.429115
42.60033 69.36248 39.707115
10.14133 21.020485 46.677116
10.38933 18.435486 47.107117
11.71833 16.910484 45.821117
11.89933 16.677483 43.178116
6.3813295 17.036484 16.784117
3.8713295 17.626488 17.147116
2.6123295 17.516487 19.645117
3.5843296 16.846489 21.655117
64.519325 78.33648 13.975117
62.40833 77.868484 13.687117
61.03133 77.395485 11.175117
61.87833 77.64348 9.191116
46.84733 70.03048 41.410114
45.69933 72.118484 42.310116
47.02433 74.52848 43.035114
49.20933 75.394485 42.393116
16.54833 41.54048 27.818115
15.85733 43.431484 27.601116
17.065329 46.046482 28.234116
18.62333 46.600483 28.855116
61.32033 15.903488 66.680115
59.49733 16.106483 68.165115
59.46433 16.108482 70.70312
60.84133 15.102486 72.07612
17.23933 47.633484 13.930117
15.369329 47.836483 13.640117
13.80033 48.072483 11.203116
14.01733 48.79048 9.269116
9.99533 20.908485 9.476117
8.55833 20.049484 7.7051163
7.0273294 21.102486 6.056122
6.7603297 23.441483 5.358124
42.17333 72.507484 7.797119
43.59733 74.03148 6.818123
46.20233 74.84248 7.506119
47.55733 73.602486 9.213117
19.93433 47.389484 72.48512
20.13033 46.045483 70.487114
22.31633 45.88048 68.650116
24.06933 47.292484 68.47612
30.02333 48.545483 44.768116
29.45833 48.168484 42.281116
27.30433 47.296482 41.054115
25.58033 45.978485 42.159115
73.07932 43.223484 24.726116
0.15032959 43.775482 26.697115
2.3743286 43.226482 27.971115
4.751331 42.381485 26.946115
47.72033 21.322487 43.949116
46.12733 20.212486 45.326115
44.02433 21.458488 46.155117
42.54733 22.839485 45.351116
11.12333 71.22648 13.955116
12.87733 71.74948 15.604116
15.58233 71.71848 14.941116
16.67333 71.18048 13.143116
70.699326 75.98448 82.07312
68.31733 75.230484 81.23112
66.519325 76.28148 80.01012
65.99833 78.62948 79.15712
