26.353146 56.33208 44.249718
25.104145 54.41408 44.903725
10.133144 58.50508 44.85473
9.064145 59.67108 45.88372
16.503145 67.47008 75.89472
16.539145 65.445076 75.70872
34.441143 66.710075 75.03872
34.560146 68.17208 73.80072
3.9111443 49.21408 27.806725
4.6231422 51.36908 27.065727
21.085146 48.89308 25.975716
20.792143 47.00208 25.512718
29.420145 92.86708 23.698723
28.222145 93.143074 22.29673
15.219145 99.739075 23.336723
15.647144 99.45007 24.89872
18.463144 17.750078 33.73472
19.438145 15.905079 34.37272
35.060146 9.6990795 29.931725
35.346146 8.122079 29.904716
23.399145 98.81107 98.51772
24.145145 100.43808 97.02272
8.403145 102.78908 97.56172
7.7991447 103.29108 96.251724
20.989145 32.99908 20.387718
20.792145 33.04208 22.444725
7.0511446 36.48208 28.97773
5.3691444 36.99508 29.037727
14.824144 59.30008 65.50572
15.652144 61.28708 65.49372
28.943146 55.718082 63.17372
28.652145 54.29108 62.18372
34.951145 104.87108 33.21473
36.466145 103.613075 34.16172
9.784142 97.96708 28.882729
11.16814 98.23008 30.269722
5.167145 23.68208 46.278725
6.113145 23.29908 48.433723
22.059145 25.79008 45.78472
21.773146 24.107079 45.276726
8.436145 46.62308 40.09272
8.960145 47.24708 38.015724
24.028145 48.30508 32.87272
25.462145 47.59608 32.981728
29.963146 81.05308 26.280724
28.282145 79.64808 25.969719
11.820145 83.78408 29.101723
10.756145 84.37408 28.050728
5.215145 32.54608 31.340721
5.047142 30.68908 31.236717
27.116146 29.391079 37.85273
25.859144 28.80008 38.820717
36.077145 35.28508 110.96672
36.916145 37.11608 111.05872
13.713143 36.25308 108.87772
14.332143 37.35208 110.01872
8.028145 12.708078 83.37372
8.725145 12.633074 85.26372
24.634146 6.468071 87.23072
25.177145 8.181076 86.95072
9.930144 39.39408 78.26572
11.660145 38.98808 76.18572
28.927145 40.23508 75.08072
29.250145 41.66408 73.98372
4.122143 6.737076 65.68572
3.5201416 8.614075 66.14372
24.006145 5.8630753 63.48072
24.285145 4.990074 64.76072
5.226143 8.002075 69.75172
5.8851433 7.877075 67.39372
19.652143 106.61808 65.54072
20.266146 0.75907135 65.69372
35.899143 44.51108 1.9217224
35.241146 42.84008 0.9127197
20.089146 46.176083 112.681725
18.677145 46.38708 111.918724
30.361145 35.44808 78.03172
30.777145 33.86708 77.21472
9.297142 29.920078 75.69472
10.0221405 31.14408 76.61872
37.385143 96.81608 64.74972
36.446144 97.50908 63.09672
21.761145 104.350075 65.34772
20.432144 104.38508 64.13672
9.458141 75.641075 40.100716
9.568142 73.43008 40.042717
32.127144 73.13108 41.79673
31.054146 72.60208 40.100716
9.058144 29.07808 67.79572
8.040142 29.09908 69.86972
30.888145 28.281078 72.85472
29.715145 29.601078 72.97172
35.851143 59.239082 78.38972
34.071144 59.01208 76.64672
13.198143 58.30508 73.26372
14.148145 58.753082 71.96272
12.246143 20.85908 104.24172
9.700142 20.752079 104.61572
33.373146 23.03608 106.76872
32.120144 22.11908 107.20272
22.867146 49.712082 29.594719
24.063145 47.75708 30.22773
1.665142 49.413082 26.302727
1.8821449 48.12608 25.093727
1.6891441 92.10207 92.99472
2.3151436 93.32908 94.51872
25.320145 96.60307 90.45472
25.095144 95.448074 91.47072
32.451145 48.996082 76.05172
32.958145 47.29408 76.83872
11.561142 47.06908 73.09772
12.598141 48.19508 72.01872
18.366144 101.68008 64.37872
18.350145 102.69308 62.73072
5.7301445 5.0940704 63.39972
4.559143 4.440071 64.48072
16.753145 40.89608 10.2797165
16.650145 41.93008 8.6287155
37.324146 45.76308 9.6927185
36.934143 45.21508 11.183716
27.865145 43.67408 54.33472
26.340145 42.26208 54.07072
11.922145 48.68708 54.31772
10.259145 47.962082 54.01272
28.550144 15.097079 88.279724
28.990145 13.287079 88.14272
5.9141426 12.61208 81.38072
7.1851425 12.821079 80.44072
37.872143 82.85307 91.445724
37.614143 82.808075 94.31172
22.785145 80.365074 100.41472
21.286144 81.28908 100.890724
15.034144 8.097076 16.593727
16.125145 6.945076 18.415718
31.173145 12.0400715 13.700722
32.552143 12.990076 14.289726
17.544146 77.94308 78.97372
16.226145 77.80408 77.26372
0.24814224 77.44108 79.87272
0.18714142 77.53307 81.54972
29.544146 101.710075 113.37372
30.392145 99.70608 112.78672
5.4611435 96.781075 110.80172
5.4191437 95.903076 109.18772
31.840145 25.15808 6.3367157
31.125145 24.37508 8.374718
15.479145 26.31008 6.1527176
13.9541445 25.503078 6.70372
34.066143 98.115074 44.02073
33.165146 100.085075 43.82473
17.902145 103.17408 52.95372
18.024145 105.06408 53.208717
27.115145 34.35608 61.311718
28.311146 35.57008 60.52672
5.5201416 34.365078 56.83772
6.2681427 36.36408 56.49972
13.075145 24.517078 90.91372
14.965145 25.728079 91.61072
26.638145 16.864079 88.56772
25.949144 15.587079 87.31772
1.4421425 88.63007 89.94272
2.981144 90.16408 89.25972
17.285143 83.91108 83.72872
18.597143 83.807076 82.42372
17.313143 101.042076 55.31672
16.813143 100.89708 57.77272
2.1171417 106.63608 64.01972
1.3131447 106.75608 65.38172
22.594145 81.75608 104.91072
23.650145 82.489075 106.57572
0.7401428 81.23308 102.89272
0.31614304 80.89908 101.31772
2.6101418 96.16108 75.59272
3.415142 97.695076 74.35672
19.499144 98.058075 70.39772
19.159143 99.93808 70.36972
6.0981445 94.50808 3.5387192
6.226145 92.556076 3.1367188
20.795145 83.073074 0.74272156
21.294146 83.68908 113.31272
0.17314148 97.17808 73.22672
0.91314316 99.10908 73.57072
24.422146 103.86808 78.98972
23.752146 102.38808 77.86672
37.110146 80.184074 77.67472
36.592144 78.55008 78.92072
20.486145 74.09308 83.86972
19.801146 75.44308 84.585724
35.059143 65.33908 86.07372
34.623146 66.83308 87.79472
18.787146 69.766075 88.09172
17.498144 69.13108 87.08072
22.254145 63.31708 5.413719
23.663145 64.51208 4.4567184
36.115143 54.68508 1.4987183
37.114143 56.21408 1.9127197
9.983143 10.104079 109.57972
10.4161415 11.860079 109.77772
32.209145 16.27908 112.74972
31.598146 16.750078 0.24272156
6.028145 34.02408 37.12272
4.5461426 32.59808 37.86573
27.681145 36.33108 43.889717
27.149145 37.16308 45.11773
1.000145 0.40707397 50.85672
1.5341415 1.0680771 48.194725
16.025145 106.38708 44.96473
16.106146 106.77308 43.40873
35.684143 64.29108 75.50372
36.346146 61.933083 76.87272
13.874143 63.82608 73.26872
14.608144 62.767082 72.21572
31.551146 14.279079 4.8887177
31.029146 12.315079 4.044716
14.346145 15.530079 11.415718
14.337145 17.26108 11.740723
29.837145 56.670082 54.88672
30.681145 57.26908 57.31172
14.125145 59.809082 60.66272
13.627145 58.63208 59.64972
28.841145 30.16508 81.93472
27.610146 28.423079 80.57872
12.808145 27.36208 89.612724
11.400145 28.184078 89.51172
9.365143 10.75108 99.88472
7.269142 10.726079 99.460724
32.201145 11.339079 100.34372
31.329145 12.650079 100.68772
24.673145 39.89608 29.173729
25.599146 38.80108 30.305717
3.2091446 41.69908 31.78872
4.085144 42.44208 30.274727
35.534145 96.157074 56.44872
35.050144 94.56408 56.00372
21.561146 99.79707 63.03972
20.558146 101.142075 62.38072
9.201145 35.26608 60.55772
10.4541445 33.90208 61.73672
24.762146 26.625078 62.13472
24.798145 27.621078 63.85472
31.256145 55.09408 77.92872
31.639145 53.46508 78.779724
16.447145 54.51508 86.96472
15.666144 52.73508 86.43072
6.434143 45.70808 47.03672
5.894142 43.718082 47.87372
30.555145 47.12208 55.19072
30.115145 45.79608 56.61872
29.760145 36.71608 71.92972
30.021145 38.45708 70.13072
7.945141 38.42708 68.14872
7.5861435 38.90908 66.38472
14.639145 80.23008 51.19872
15.830145 78.31708 51.56472
29.243145 72.81308 51.59872
30.792145 73.66508 52.20772
10.020144 103.18607 110.83072
10.460145 103.198074 113.10072
27.072145 102.75507 112.05072
28.139145 103.80508 112.95772
11.373142 65.39908 58.15572
10.841141 64.49408 56.29172
32.775146 63.51408 56.77972
31.927145 62.20908 57.27272
27.086145 98.879074 2.794716
28.294146 99.38508 4.309723
3.5621414 91.50008 113.50772
4.726143 92.23408 0.3857193
26.489145 101.78508 92.27472
24.701145 103.22008 91.73372
8.800145 106.27508 93.27372
7.7991447 104.87008 93.75672
30.379145 21.44908 84.56772
30.059145 20.94208 86.50772
7.6521416 19.01408 81.029724
8.605141 20.266079 81.904724
17.000145 46.07608 95.278725
16.804144 43.822083 95.35272
32.069145 42.59608 87.70072
31.699146 41.55308 86.39372
10.256142 26.26208 76.20172
8.9421425 24.32308 76.54772
29.651146 25.95208 77.78672
28.352144 26.60508 78.46772
4.6921425 61.184082 33.614723
4.495144 62.753082 31.871727
26.798145 64.848076 33.627724
25.598145 64.794075 32.49273
37.033146 8.30307 19.231728
37.902145 6.964073 20.753716
12.165142 106.24308 22.07772
12.5861435 105.89508 20.460716
38.190144 63.55008 104.404724
37.101143 64.51808 102.70072
20.220144 62.830082 103.793724
19.137144 63.03308 102.48472
5.191143 28.233078 37.558723
3.9241447 27.235079 39.085716
26.791145 34.05008 40.098717
26.749146 34.90908 41.779716
26.113146 42.01508 47.13572
26.664145 42.74208 45.318718
5.1991425 34.92908 46.16172
5.785145 36.35208 46.415718
36.698143 85.487076 75.41572
36.194145 87.12408 76.82372
18.595144 88.39708 73.41972
18.127146 89.49208 74.48072
8.320141 34.00208 63.48272
7.443142 35.97308 62.62972
33.642143 42.77808 72.02772
33.868145 41.33308 72.93672
24.781145 59.96308 22.545723
26.250145 60.91708 21.599724
3.948143 58.59908 23.83773
4.0621414 57.68708 22.07772
35.196144 75.61708 80.64972
33.323143 75.365074 82.64172
19.383144 70.88208 82.68872
18.771145 72.07308 83.821724
7.962143 6.8580704 92.60572
6.7441406 6.098076 91.12272
29.088144 8.597076 92.59072
28.004145 7.2240753 92.792725
37.285145 5.4320755 43.621727
36.766144 3.945076 42.38572
20.258144 7.315071 47.42173
20.417145 7.492073 49.29972
21.721146 57.712082 5.6717224
22.211145 56.26208 7.088722
38.355145 57.84108 3.479721
0.8741417 57.93608 4.7487183
12.316145 20.71008 106.92972
12.551145 18.55308 106.94372
28.995146 15.307079 108.78772
29.895145 13.780079 108.74872
32.989143 17.87908 2.4457169
33.382145 16.10908 2.9727173
10.485142 12.220079 112.792725
10.564144 13.649079 111.931725
11.707145 11.651079 101.04572
13.713144 11.788079 101.54672
28.395145 11.422079 97.65072
29.860146 11.728079 98.65072
33.271145 93.599075 43.28472
33.151146 93.63208 45.447716
16.630144 99.49408 45.833717
16.718145 100.35608 44.28472
1.2751427 47.86908 20.91172
38.141144 48.336082 19.94172
24.441145 43.35908 25.884727
23.128145 42.62408 26.601723
20.532145 59.580082 110.47972
21.098145 58.98508 112.48472
37.997143 54.62008 110.56872
37.812145 53.114082 111.29572
36.616146 54.02608 94.88772
36.060146 53.03608 96.92072
14.059144 55.13808 95.09172
14.491143 53.86708 93.99372
0.6391449 63.20608 100.98172
1.1761436 64.24008 98.76272
15.767144 57.88808 97.458725
15.234143 57.43508 95.751724
34.659145 75.032074 73.63972
34.239143 75.94907 72.00772
19.544146 75.42207 77.35372
18.193146 73.95708 76.98672
32.055145 88.878075 43.45672
31.678146 90.92508 42.078728
17.012144 95.45108 49.848717
17.064144 96.41008 51.37272
28.519146 28.193079 90.66372
29.530146 28.694078 92.72872
12.217145 29.436079 96.56472
11.809145 27.989079 95.74372
33.610146 27.49408 1.9977188
34.429146 28.031078 114.197716
9.231144 17.73708 112.54472
10.428143 17.669079 114.22272
9.190144 59.02308 48.51372
8.242142 60.27808 50.21672
33.300144 56.170082 57.55772
32.364143 55.642082 58.72272
37.956146 81.740074 80.31672
0.6411438 80.266075 81.78272
16.702143 80.404076 77.51972
17.905146 81.68008 77.52672
34.690144 31.67808 11.721718
34.183144 32.40808 9.928719
18.903145 38.08008 10.1927185
18.854145 39.03308 8.879723
10.354141 0.9820709 4.838722
10.583141 106.38708 3.2777176
7.425144 99.06208 111.41272
6.8261414 101.02308 110.98472
33.394146 73.376076 48.498726
33.933144 73.76908 46.378716
11.392143 70.266075 46.81173
12.186142 69.10108 47.735725
3.4101448 66.82708 21.354729
2.7631416 67.93508 20.081718
27.116146 72.09008 25.36573
27.316145 73.75308 25.160728
21.360144 93.99208 82.75672
19.854143 92.86607 81.47072
5.6951447 98.74208 86.30472
4.0761414 98.778076 85.86672
17.426146 92.81107 71.27272
17.441145 90.72108 72.23372
1.080143 93.10307 79.47172
1.0321426 94.598076 80.44372
30.328146 48.07408 74.50972
30.846146 45.99208 74.19072
15.118145 49.62008 80.49672
14.543145 50.461082 79.11772
0.36514282 16.923079 34.099724
37.324146 16.552078 35.65072
22.131145 21.55008 37.440727
21.103146 22.61508 35.92872
11.199142 23.280079 101.598724
9.587143 22.23408 100.58872
34.009144 26.05608 104.44272
33.968143 25.54208 106.27172
18.150145 51.58508 93.25572
18.129145 50.371082 94.32572
33.014145 47.343082 87.89772
33.973145 47.73708 86.16672
20.129145 61.31808 100.66672
20.610146 59.21708 101.57372
37.291145 56.35308 101.57372
38.027145 55.15508 100.74472
6.0411415 3.4780731 83.61972
4.1711426 4.3190765 82.85572
28.654144 107.296074 88.55272
28.034145 106.50008 87.334724
7.3081446 94.46508 110.64172
7.3611445 92.98408 112.36772
22.079145 91.87508 103.82872
21.670145 91.68008 105.333725
37.951145 83.27208 76.86372
37.635143 82.96608 74.86072
17.091143 79.546074 73.63072
17.915144 79.543076 75.19872
28.054146 37.61208 55.83672
28.645145 35.73708 56.10372
4.9161415 31.068079 53.69772
6.3951416 31.65808 52.75972
29.431145 41.13208 66.73372
30.395145 41.76908 68.932724
8.330143 42.55208 61.61372
9.723141 43.676083 61.71372
6.1901445 88.93008 3.3677216
6.0531445 86.82908 3.969719
22.048145 79.29908 113.06572
21.866146 80.54808 114.20872
28.938145 80.28307 23.517723
29.518147 80.76308 21.733727
7.0511436 79.93607 20.511726
7.184143 79.86708 18.802727
3.8911438 23.09208 39.345726
2.8151436 22.34108 41.266716
24.569145 27.417078 43.99273
24.332146 27.44908 45.864723
17.244143 1.6780701 52.408722
17.658144 2.683075 54.09172
5.273144 6.162071 59.97872
4.913143 6.98407 61.34372
35.417145 37.05408 7.62072
34.851143 37.80408 5.391716
19.148146 46.27808 5.52372
19.294146 46.64808 3.7427216
26.927145 87.11607 18.476723
27.787146 87.417076 20.382729
11.347145 89.28307 26.958717
10.507145 89.01008 28.39373
36.399143 27.520079 13.014717
35.120144 27.426079 14.736717
21.371145 30.167078 20.721718
20.636145 28.635078 21.08973
12.659142 41.95908 89.09372
11.016144 40.82708 87.73972
34.142143 42.27108 90.26272
33.868145 43.72108 89.529724
6.6941414 22.39308 64.44972
7.707142 23.06608 65.62472
29.148146 23.78908 69.279724
27.937145 22.739079 68.80572
27.717146 18.07408 76.58072
29.108145 17.16708 78.16772
6.3031425 18.71208 73.73672
6.3741417 18.55008 71.66972
10.849145 84.79008 25.047722
10.667145 86.44907 22.74273
24.698145 85.93008 15.511726
24.627146 84.19008 15.728722
18.247145 24.562078 18.114723
18.763144 25.03808 19.833717
2.446144 24.59208 26.379723
1.4711418 23.12208 27.05973
36.577145 72.36808 101.30372
36.276146 70.02408 100.03372
21.146145 69.94908 108.14172
20.482145 68.62908 108.81572
26.859144 96.54008 113.92572
27.322145 94.683075 113.28372
3.1741447 93.515076 106.87172
4.0691414 93.71808 108.47672
12.670145 27.298079 75.49672
12.225144 29.48108 75.682724
27.566145 27.50508 74.36772
27.026146 26.33108 73.42272
23.923145 66.460075 9.948723
24.143145 65.24408 11.543716
1.354145 63.56308 5.344719
0.73114395 64.04708 3.84272
11.070145 21.16708 82.98872
11.413145 20.93908 81.01972
26.478146 24.294079 75.61172
27.707146 24.333078 77.18972
9.944145 105.834076 102.53072
10.409144 104.79908 100.38872
23.986145 97.02608 102.30572
24.148146 95.52508 103.24972
31.288145 97.560074 13.804726
30.643147 99.029076 12.554718
7.695141 98.50708 7.0067215
8.697144 99.73208 6.618721
7.4371414 62.54608 29.45272
8.081142 60.80308 28.925728
6.4371414 60.99908 23.02172
6.4111443 61.39108 21.31173
10.622143 3.3350754 3.1857224
10.450142 5.6460724 2.7287216
31.205145 5.8640747 0.7587204
29.888145 6.5620728 1.7047195
27.024145 33.68808 68.11172
27.051146 32.00008 66.76772
11.357144 36.52608 68.18072
10.344145 35.16708 68.39472
1.8991432 10.169075 49.58973
2.9301414 9.634071 51.70372
17.195143 5.181076 45.180717
17.645144 6.607071 46.233727
17.128145 79.70808 61.32472
17.907145 81.42708 62.71072
32.844143 79.81508 57.06472
33.119144 79.504074 55.37272
11.219143 41.24108 82.31872
10.686142 42.36208 80.14572
32.564144 45.49408 80.54472
31.380146 46.06108 79.04672
23.164145 74.28808 13.06572
21.916145 74.655075 14.132729
5.5601444 77.197075 13.55172
5.4731445 75.920074 14.42672
10.055144 0.40106964 95.31772
10.106145 1.3870697 93.33172
25.598145 106.07908 92.69172
26.683146 105.100075 91.67872
37.471146 76.38308 98.16672
36.462143 75.16108 96.21872
21.887146 78.879074 95.67672
21.185144 80.23008 94.37472
0.51514435 48.85308 13.391716
1.3911438 47.10608 14.468727
17.773146 45.50808 11.992722
18.107145 46.04208 13.44072
19.864145 92.76408 70.18072
21.200146 91.65208 71.932724
36.154144 88.10808 67.91672
37.490143 89.143074 68.30172
0.0181427 3.6380768 45.045723
2.2991447 4.5290756 45.121727
15.059144 103.98408 43.82473
15.414144 102.66308 44.475716
7.0411415 71.32708 28.249718
5.441143 70.36908 29.03173
27.526146 73.81908 33.457726
26.471146 72.49008 33.052727
3.8291435 46.43208 27.350716
1.4441414 46.11008 26.627724
27.662146 50.698082 35.744728
26.694145 49.78908 36.71673
6.3731422 99.66408 106.85372
5.6051445 100.84508 108.28572
27.044146 100.76108 109.61972
27.606146 100.05008 111.25372
22.182146 56.61908 17.845726
23.921144 57.09908 16.637718
0.8191414 56.41008 11.39772
2.2061424 57.38808 11.538719
19.006145 1.0830765 46.82772
19.993145 1.7840729 48.343727
34.456146 105.612076 40.106728
34.308144 106.46407 42.027718
5.6211433 29.28308 47.11472
3.9731445 30.806078 48.05272
29.072145 31.337078 54.49772
27.173145 31.04608 54.55972
5.9311447 39.21308 46.110725
5.1331444 41.20608 46.46673
28.144146 47.94208 47.02372
29.059145 48.92908 48.056725
35.649143 95.51907 41.808723
35.221146 93.587074 41.246727
11.358143 91.391075 37.746727
12.828144 92.42708 37.28373
4.8901443 64.05308 29.17472
5.0201416 62.34908 27.94973
26.365145 63.03208 26.961723
24.710146 63.30408 26.694725
9.693142 96.905075 11.319717
8.125141 96.542076 13.086716
33.262146 105.67408 18.29673
32.653145 106.753075 17.372719
27.085146 92.47707 14.173729
28.509146 93.04008 15.417717
5.0601425 90.421074 11.715721
5.615143 91.350075 10.308716
35.760143 1.8820724 31.75872
36.124146 3.0520706 29.51072
13.908143 105.61808 28.114723
13.381142 103.974075 27.251717
2.9681435 66.21708 12.854721
3.1521416 64.07408 13.099716
24.345144 64.60308 17.859718
23.301146 64.59108 16.668724
26.974146 39.96808 62.90272
26.651146 41.64408 63.92372
13.3551445 46.19208 67.65672
12.706144 47.82008 67.94472
13.017145 53.183083 65.89972
14.387145 52.72008 68.04872
30.422146 47.75608 63.94172
31.844145 48.16708 64.79672
37.283146 13.1400795 32.847725
36.293144 14.786079 33.616722
20.733145 18.16408 35.442726
20.496145 19.878078 35.463722
15.187144 30.798079 107.33772
16.730145 32.240078 108.50672
30.269146 25.31708 109.15072
31.770145 24.760078 108.34472
25.389145 75.529076 33.830727
25.010145 74.544075 31.28173
10.437145 81.37308 37.48472
9.211144 80.99408 36.524727
38.776146 79.321075 85.82972
1.3071442 77.53808 86.03072
19.378145 78.348076 82.74772
19.340143 79.18008 80.81772
6.639145 62.82008 25.180717
7.4111447 62.33208 26.70472
23.192144 64.02508 21.310722
23.875145 62.697083 22.142723
27.386145 4.8040695 102.00372
29.285145 4.7690735 100.334724
7.2371407 107.281075 95.543724
7.7841415 0.81007385 96.97572
5.8691444 29.745079 28.469719
5.399145 27.850079 29.77372
21.446146 29.860079 28.833717
22.809145 29.728079 27.823723
36.816143 34.27908 11.868721
38.332146 35.865078 10.890717
14.655145 32.17908 5.24572
15.211144 30.621078 5.8127213
12.179142 94.515076 45.901726
11.061142 91.95408 45.930717
35.756145 95.71808 46.38273
35.529144 95.30008 44.606728
25.924145 103.76408 87.18472
23.222145 103.251076 87.81172
8.5721445 0.0050735474 85.36972
6.963145 107.09108 85.34472
19.809145 39.20708 19.086723
21.463144 39.61108 20.159721
36.842144 33.636078 20.400719
38.006145 32.87308 21.40673
9.949144 89.09208 18.828728
11.540145 90.67408 19.101723
23.824144 82.81107 11.950722
24.725145 84.140076 12.964722
11.696144 88.60307 41.711723
11.148144 88.877075 39.40072
33.381145 84.79908 44.63772
32.376144 86.278076 45.03672
24.738146 80.115074 18.78672
23.500145 82.06308 18.817726
7.4851446 78.90908 16.151726
6.2601447 77.80308 15.946724
13.748143 32.08408 101.12272
13.057144 33.74308 100.01972
34.832146 37.20808 99.78672
33.668144 36.93508 98.30272
3.9111443 88.712074 99.34272
3.962143 89.542076 97.42872
20.168142 91.18708 98.05472
20.632143 90.20308 96.69372
9.270144 39.504078 54.445717
8.849145 40.09208 52.47972
24.746145 33.30908 45.15873
25.573145 34.79608 45.440727
2.3481445 102.04108 75.89472
1.604145 103.557076 76.38672
23.958145 104.35207 72.30572
24.159145 105.571075 70.918724
25.939146 82.26208 16.873726
27.354145 80.74908 18.12072
4.4771423 77.13508 18.047722
4.3601418 75.72908 19.200722
19.391146 56.322083 8.213722
17.762144 56.18708 9.895721
5.946144 57.63708 15.331718
4.7991447 57.01808 16.501717
20.780146 42.44408 22.118721
21.756145 42.05208 24.277718
7.093145 47.27208 31.586723
6.2631445 48.71408 31.854729
1.0761414 10.621073 40.731728
1.9921417 12.454073 40.041725
15.789144 5.9100723 36.236717
17.106146 4.987076 35.70173
14.453145 8.700073 11.958717
14.237144 6.645073 10.799721
29.048145 1.8450699 11.225716
29.513145 0.68907166 12.263718
21.830145 28.364079 24.38372
21.162146 26.69908 22.92672
37.100143 21.32808 22.683723
37.473145 20.19808 23.935722
24.112144 96.24808 109.237724
23.472145 97.21608 110.85972
8.275145 95.99107 108.77772
7.4641447 96.934074 107.74472
9.238144 40.594078 73.10372
8.312141 39.47708 70.74172
31.923145 38.20908 76.41672
31.107145 39.35208 77.74972
0.5051422 10.51107 35.931725
2.8961449 10.849077 34.539726
16.064146 0.14507294 36.504723
16.334143 105.82407 36.487724
4.474144 22.48108 62.30772
3.4991417 20.56408 60.92772
27.900145 22.027079 64.81272
26.620146 22.954079 65.29372
2.4091415 80.82708 98.67072
3.2041435 80.66308 100.611725
20.676146 83.279076 96.87472
21.294146 82.642075 98.52372
12.307144 13.591079 9.774719
12.452141 13.679079 12.2797165
34.865143 17.742079 14.6087265
33.899143 17.909079 15.723717
25.874146 5.4360733 54.37872
25.620146 6.3610764 56.47072
0.5431442 106.28307 58.18572
0.87114334 106.01408 59.83972
31.407146 93.29008 33.99073
30.719145 91.655075 35.15972
14.360145 90.23208 34.157722
13.707145 89.78408 35.91172
3.9001427 25.11608 52.97772
2.6631432 26.24008 51.61972
26.678144 29.197079 59.37672
25.685144 30.561079 59.13472
28.100145 67.65708 39.22773
26.569145 67.37308 37.537727
11.027144 73.25408 36.377724
11.043145 73.96108 37.726723
15.801145 52.34908 97.04772
18.183146 52.15108 96.13272
32.694145 50.54308 94.95372
33.556145 52.36608 95.473724
18.279142 69.29908 92.95772
16.461145 67.92208 92.36372
0.19714355 71.98008 91.89772
0.058143616 70.52708 92.62172
27.419146 104.52308 96.11372
27.166145 103.99708 94.112724
3.7491417 100.60908 88.06172
4.5861435 102.07407 89.02272
10.504145 39.44108 67.40572
11.981145 39.12808 68.84072
26.601145 37.08008 64.21372
27.566145 35.94608 63.35172
0.51114273 91.09508 67.38372
0.554142 89.65807 66.29272
16.098143 86.28908 65.44572
17.360144 85.94108 66.54272
0.8401451 56.24408 103.14972
1.5201416 56.80508 105.07472
17.604143 58.24508 104.09572
17.310144 59.857082 104.68872
38.360146 94.11607 84.53072
38.202145 92.88708 82.58872
24.453146 93.20007 90.53772
22.960146 92.24107 90.91172
8.630145 6.280075 84.10672
10.149145 6.6110764 85.04072
25.690145 3.0520706 86.34572
26.409145 4.417076 87.16172
16.794146 36.36208 110.61972
16.172144 35.47408 112.71572
31.086145 27.57808 111.46272
32.172146 27.86608 112.69072
35.887146 46.24508 87.52772
35.003143 46.038082 89.63072
12.658142 44.11308 91.63772
13.443143 45.69308 92.458725
5.179142 45.67508 33.84272
4.2801437 43.90308 33.78472
28.028145 42.21808 34.322716
28.470144 40.51208 34.552727
3.7891426 23.64608 43.851723
3.236145 25.59708 44.192726
26.151146 28.27508 49.67372
25.203146 29.278078 50.755722
6.4741445 7.7470703 75.84672
8.651145 6.3860703 75.40272
24.470144 5.7290726 76.65972
24.640144 7.0870743 77.52472
22.102144 45.92108 19.929726
20.538145 47.34008 19.475716
4.415142 48.54808 22.070717
3.2671432 47.21508 22.650719
19.365145 22.031078 19.465721
19.440145 21.59508 21.70272
34.978146 17.37208 20.978722
36.029144 18.51808 19.975716
15.781144 83.70608 69.07972
14.524144 84.61808 67.17472
38.520145 87.78508 70.67072
38.332146 88.63908 72.15172
0.47014236 86.42408 87.014725
38.759144 88.13708 87.81472
22.870146 88.09608 92.89372
22.166145 88.685074 91.571724
14.800145 2.3390732 17.73072
14.217145 3.5410767 15.860725
29.165146 6.502075 12.486717
29.868145 4.9550705 12.706718
27.903145 48.34008 43.058723
29.546146 47.920082 44.321724
6.6381416 45.13208 38.34472
6.0671425 44.50608 36.74572
35.789146 36.33908 108.34272
37.176144 36.94808 106.78172
12.360142 28.037079 108.33872
12.593143 29.63708 109.18472
26.863146 46.558083 36.11773
26.767145 47.66208 38.20173
3.3771439 50.83808 36.10772
4.0931435 49.82408 35.065727
3.611145 81.448074 112.639725
5.8481445 82.74308 113.11872
20.684145 77.06808 109.37972
20.209143 75.42508 109.31472
16.775145 42.77308 110.973724
17.531145 40.91708 110.96572
34.289146 38.07108 106.694725
34.179146 39.39808 105.78372
22.929146 11.381075 51.00172
24.042145 9.523071 52.42172
38.035145 4.4200745 55.18972
38.518147 5.888077 54.84072
8.076145 37.26008 49.554726
8.241145 37.49608 46.787727
24.443146 30.812078 40.338722
24.826145 29.417078 41.170723
19.973143 51.462082 20.668724
19.123144 52.830082 21.613716
4.8851433 54.19508 22.541725
3.1191444 54.823082 22.254723
15.256143 103.65908 52.73872
15.811143 105.142075 55.02572
1.1241417 105.48608 54.408722
0.47314453 106.82507 53.51772
7.2201447 49.41808 38.918724
8.305145 49.60208 40.861717
24.243145 47.06408 39.415718
23.929146 45.59608 40.315727
19.433146 78.849075 88.71772
17.331144 78.44108 89.792725
1.1821442 79.59208 89.99972
1.2611427 80.779076 91.18472
27.975145 24.884079 85.99072
26.813145 26.818079 84.67672
14.319145 31.840078 93.208725
12.919145 32.62608 91.72672
23.987144 99.823074 76.45772
26.029144 99.63208 76.89872
37.799145 93.64608 69.58072
37.613144 93.72707 67.83172
11.572144 69.682076 51.48172
11.670143 71.05008 49.72472
33.973145 73.86808 51.06972
33.409145 73.23208 52.64272
16.485146 40.12808 5.1387177
17.859144 39.79708 3.0127182
32.901146 34.58308 113.60872
33.683144 34.91808 0.99272156
19.386145 45.45108 15.497719
20.695145 47.087082 16.375725
36.075146 42.75708 13.198723
34.811146 42.16908 11.989716
11.985142 103.52608 18.392723
10.301144 104.432076 17.322716
12.109142 2.2010727 19.60772
13.092144 3.6280746 19.672722
18.386145 103.335075 44.015724
19.115145 105.627075 45.50872
35.751144 102.612076 46.60772
35.037144 101.629074 45.349724
11.586144 76.74208 41.515724
11.312145 78.12008 39.886726
27.011145 77.279076 35.474724
28.557146 78.01308 35.777718
19.864145 73.49608 95.85872
20.949144 75.10307 97.71372
37.394146 69.682076 96.112724
37.883144 69.09008 94.60472
17.971144 10.643079 41.93473
18.061144 12.729079 42.140724
2.995144 16.95908 42.713722
2.4011421 17.21208 41.10572
31.753145 39.115078 84.68872
30.856146 37.34008 85.43572
13.283145 42.129078 83.87372
12.117145 41.61408 85.19072
34.315144 90.85908 41.653725
34.017143 91.196075 43.88372
12.509144 87.253075 46.541725
13.295143 88.114075 45.40673
15.335145 56.02508 92.460724
14.176145 55.35908 90.42172
0.986145 57.41908 99.82972
0.63614273 59.25608 100.12272
27.709145 33.09208 90.62372
28.211145 31.34508 92.69372
13.768145 39.96508 93.92972
12.315145 39.98108 92.45072
37.750145 45.96908 99.16672
38.309143 47.57808 97.710724
15.660142 51.66208 101.00572
14.831143 52.00608 102.50572
12.336144 11.939079 107.792725
13.489144 12.106079 106.06472
29.563145 11.056079 101.90072
29.303144 9.512079 102.99872
21.244144 49.72008 1.2287216
20.774145 47.66808 1.693718
35.608143 41.32208 3.07872
36.427143 39.78308 3.6907196
3.7391434 30.707079 27.093727
3.8841438 31.31408 25.177727
18.897142 25.978079 24.38372
19.687143 24.406078 24.20272
16.137144 92.85708 63.82572
16.808146 95.47108 63.83172
0.43214417 98.06408 61.85672
0.9101448 97.44308 60.52872
11.386145 5.9180756 5.309723
13.350144 5.2710724 3.5697174
29.264145 3.8590698 3.5007172
30.843145 2.6760712 3.8727188
38.007145 78.003075 66.95472
0.72014236 78.155075 68.76972
15.115144 72.82408 62.818718
15.965142 73.28308 61.53772
26.196146 30.798079 44.83973
27.207146 32.68208 43.892723
3.2751427 29.445078 45.399727
4.5011444 28.117079 44.89872
12.544144 35.07408 90.472725
11.263142 34.43308 88.86972
32.778145 33.81308 88.37972
31.481146 32.74408 87.37372
32.085144 58.49708 73.26472
31.783146 57.49108 75.53972
16.494144 56.27308 79.81472
16.126144 57.14708 78.45772
29.492146 51.28608 72.02872
28.911144 49.03508 72.19172
14.290145 53.27208 75.91572
13.941145 54.59108 74.83472
16.423145 38.07708 113.18072
18.141146 38.52308 111.41372
34.895145 39.61808 112.29172
35.973145 40.76208 111.83272
2.1351433 68.62808 107.001724
4.1091423 69.42208 107.51072
16.655146 65.98308 102.55372
16.292143 64.32908 102.94372
31.317146 84.03408 31.42672
31.916145 85.086075 32.82572
13.781145 87.877075 38.35972
12.533145 86.66508 38.955727
36.799145 81.542076 64.55172
37.723145 83.240074 64.40272
15.118142 81.68808 60.24072
16.553144 81.65108 59.13372
5.6761436 57.07508 42.95472
6.931141 57.489082 44.749718
29.335146 59.184082 48.873726
29.169146 59.96008 47.20672
18.311146 82.93008 69.08972
17.922146 83.405075 66.69572
35.395145 85.82608 64.95772
35.385143 85.653076 62.98572
25.617146 36.82208 57.96372
24.916145 35.67608 59.94072
10.795145 41.73008 64.85972
10.611145 43.406082 64.17172
36.334145 40.30308 95.57572
36.789146 40.06308 93.69372
12.945141 35.24308 97.74272
12.313141 33.96108 96.66372
11.438145 21.48608 98.33972
12.820145 21.76808 96.63472
28.413145 20.93508 94.87472
28.748146 20.04908 93.59172
8.547145 34.22408 29.932716
7.5001445 31.707079 29.907722
21.514145 35.47908 26.19973
22.236145 34.35708 24.97773
38.149143 91.37208 63.318718
37.113144 92.90008 65.23072
21.586145 94.642075 71.63172
20.789145 96.00008 72.38372
5.918144 74.029076 22.188728
3.684143 73.74808 21.687721
29.094145 76.51108 26.183723
28.634146 77.279076 27.65673
8.301144 35.969078 76.64972
8.3171425 37.43108 78.23372
32.614143 37.68708 82.37272
31.748146 37.86808 80.87272
2.6531448 27.35508 25.173729
4.6611443 28.572079 25.51873
20.275145 30.89408 17.509727
21.718145 32.39208 17.91172
2.1361427 54.81408 19.554726
0.29214478 53.88308 18.575722
22.703146 53.98708 22.72773
21.680145 52.926083 22.28173
33.061146 32.82308 100.24372
33.124146 34.94408 100.81872
18.597145 43.14108 103.97872
18.962145 44.86208 104.10172
19.990145 1.8070755 56.38672
20.331144 2.5350723 54.41172
36.952145 0.5460739 50.73372
37.622143 0.3830719 49.17872
7.1021447 55.43808 30.984718
8.742145 55.53208 33.26873
25.562145 56.99308 30.696724
25.139145 55.36208 30.604729
23.768145 58.70008 12.149719
24.150145 58.69408 14.278725
1.9071426 61.725082 10.81472
2.620144 63.44908 10.670723
26.118145 99.80208 103.76172
27.322145 101.04908 102.41472
2.212143 93.04908 97.458725
2.976143 94.81808 97.93772
6.093145 55.336082 19.600716
7.417145 56.100082 17.888725
22.690145 58.04208 22.512718
22.381145 59.051083 24.039726
8.755142 4.2080765 91.82472
7.8571434 3.7100754 89.62172
9.954144 3.3890762 85.37172
10.167141 1.9810715 86.334724
31.862146 95.08108 38.25573
30.479145 94.154076 36.669716
15.281145 95.738075 45.138725
14.471145 94.11008 44.253716
27.698145 8.818077 94.81872
26.652145 10.448074 95.639725
10.030145 7.888077 93.89372
9.4801445 9.160072 92.98572
18.986145 72.363075 87.32672
20.056145 72.14408 89.41972
36.271145 74.766075 84.97172
37.049145 73.33108 85.069725
35.203144 56.13408 95.67472
33.976143 54.56108 97.28172
19.029144 57.66008 98.11872
18.553144 58.80008 99.75772
23.105145 32.35408 29.11573
24.649145 33.46308 28.73272
0.93914413 35.87808 25.486717
1.9491425 34.72908 24.777718
24.054146 37.88208 32.891716
24.187145 35.29908 33.765724
7.7311444 33.90608 32.60473
6.7071447 35.09808 31.618721
35.409145 43.12708 105.60872
36.255146 43.40408 107.78172
18.653145 46.82408 107.85172
17.858145 46.316082 109.39572
6.3521447 34.63308 53.24272
7.5301447 33.87408 51.49872
23.828146 31.976078 51.72572
24.780146 31.291079 52.92872
22.725145 20.520079 57.43372
24.305145 18.906078 57.91772
1.5621414 17.934078 54.61872
3.097145 19.21008 54.35372
11.544145 0.50707245 9.736717
12.308145 2.282074 10.099716
28.321146 105.59108 5.669716
28.602144 106.51208 7.35672
34.488144 22.249079 16.028725
35.419144 24.75708 15.385719
13.129143 21.374079 8.96772
13.470143 22.21308 7.3477173
30.305145 89.948074 30.739723
30.141146 90.056076 28.347725
13.941145 97.41208 29.319725
13.223145 96.50908 30.821724
11.844143 5.3200793 10.923721
11.719143 7.4900794 11.403717
34.102146 15.438079 7.0937195
33.300144 16.57808 8.111717
31.622145 57.024082 66.904724
31.546146 58.64808 68.52272
14.358145 55.683083 69.01772
13.781145 55.08208 70.73872
37.920143 98.32608 55.61172
37.862144 95.95208 55.57372
14.388143 91.434074 54.39272
15.7041445 91.61708 55.36372
9.815144 107.101074 13.609718
8.757141 105.36108 13.601723
35.442146 6.516075 17.644722
35.463146 8.006073 16.957726
0.32714462 51.36708 8.338722
0.063144684 49.08408 7.658722
16.232145 43.66208 5.030716
16.125143 43.99008 6.7547226
28.524145 31.89008 69.37472
29.455145 30.288078 70.37572
7.703144 30.41508 65.03372
8.058144 31.149078 63.58072
17.741144 62.20008 99.35272
16.713144 64.07508 99.98972
0.20914459 66.33708 103.585724
0.7951431 68.210075 104.13872
29.870146 31.80308 90.29672
30.514145 32.68508 92.26372
8.852142 30.247078 88.75272
10.329144 29.89308 87.84372
13.645143 28.763079 6.566719
11.610142 26.997078 7.71772
38.692146 30.79708 19.243721
38.064144 29.240078 18.929726
24.475145 10.174079 66.90872
25.303144 9.999079 69.09872
3.5561447 12.828079 64.48772
4.9001427 11.646079 63.82872
4.4801445 40.43808 44.011726
5.3051414 41.33208 42.369728
27.646145 45.73308 42.98472
26.443146 44.475082 43.36872
2.0571442 84.96608 84.98972
1.0431442 85.643074 82.81572
16.946146 84.09708 76.39872
18.054144 85.684074 76.18972
0.31614304 66.59508 93.46872
37.676144 67.46808 92.48072
21.081144 71.11808 91.820724
20.468145 71.27708 93.36072
20.213144 16.271078 48.37772
18.901144 18.58808 48.16072
4.380142 21.66408 52.04472
4.0881424 22.02808 53.68072
19.858145 56.996082 103.36772
20.016146 57.55008 105.28272
36.001144 52.670082 106.42272
37.117146 53.933083 106.32372
26.601145 18.32408 80.74872
25.782145 16.412079 79.79072
12.209145 24.22708 84.32272
11.813145 22.82408 85.04072
0.37314224 75.126076 85.23172
1.3461418 75.96608 83.66272
17.887144 72.37008 81.03672
18.177145 72.41508 79.34872
12.363145 31.91808 88.96472
12.257145 31.49408 86.67672
28.282145 33.35908 83.15672
29.337145 33.983078 84.66472
12.899145 65.93708 55.55272
14.005145 63.76308 56.37472
29.349146 61.163082 54.67272
29.588146 59.52908 54.46972
25.243145 42.52308 39.13172
25.516146 41.14108 39.99572
4.0761414 37.52308 39.46273
5.108143 36.75108 40.817726
11.496143 73.52708 44.170723
11.5861435 75.71407 43.96273
33.384144 77.06908 45.901726
32.717144 78.504074 45.16172
36.977146 77.72707 71.37072
37.086143 75.917076 72.49572
13.900144 75.962074 66.13372
14.598142 74.42908 66.02672
20.882145 23.99108 26.834724
21.235146 22.700079 28.330727
38.201145 19.992079 27.423729
38.744144 18.65708 26.386726
32.666145 57.982082 55.50872
33.082146 58.58408 53.58672
11.2721405 56.17108 54.41072
11.432144 57.72908 53.42272
22.675144 87.03608 103.91272
23.948145 88.20608 102.72172
38.500145 79.90908 98.49472
38.427143 81.62508 98.376724
5.165145 34.18308 40.711723
7.0161448 33.07608 39.431725
24.052145 27.89408 37.030724
23.220144 27.23708 35.80973
25.535145 90.75008 5.459717
25.170145 92.917076 5.191719
10.930144 99.74808 11.482719
10.528145 99.08807 12.905716
33.138145 45.72908 92.10472
32.021145 46.99408 93.09272
34.776146 41.42608 98.41272
35.554146 42.53708 97.42072
5.3311424 102.53608 95.55272
4.4611435 100.88908 96.93072
28.283146 103.376076 98.27172
29.203146 103.656075 99.611725
36.995144 41.16408 113.92172
38.331146 42.59808 0.7037201
13.1851425 35.57308 112.18772
13.726144 34.37108 113.432724
36.196144 71.77408 91.33872
36.322144 71.653076 89.09072
20.625145 76.30408 92.58172
20.463144 77.252075 93.81572
38.652145 35.64608 20.106728
36.675144 36.45508 19.77372
21.996145 39.344078 23.619728
21.475145 37.69308 23.54673
32.892143 24.037079 113.361725
30.964146 25.041079 112.29072
16.672144 31.214079 1.9447174
15.541144 30.78908 3.207718
28.274145 88.142075 27.69172
27.446146 86.95007 26.64672
13.692144 90.445076 31.53872
12.565145 91.63108 31.276726
30.619146 105.18708 112.00572
31.472145 103.959076 113.63172
6.8811417 106.112076 106.390724
7.304142 106.16308 104.67972
18.380144 50.295082 1.6167221
17.539145 49.56808 3.6747208
0.7851448 50.76408 5.0277176
0.35314178 51.97708 4.1367188
37.389145 37.67208 13.239716
37.553146 38.40108 11.490723
16.726145 36.66408 10.913719
17.311144 35.94308 12.41272
9.290142 16.715078 96.28272
9.014141 16.260078 94.02372
30.668146 15.671079 98.71672
30.943146 15.213079 100.55972
16.491144 62.74408 92.79772
15.2841425 63.54308 91.49472
0.19314194 60.85908 96.34372
37.871143 59.70108 95.85672
13.820145 42.21008 80.654724
14.308145 44.03708 82.01972
31.955145 40.45108 80.45072
32.158146 41.81508 79.28972
25.193146 7.28907 70.03572
26.639145 8.377075 70.97372
3.0791435 3.6650696 71.06372
4.137142 4.4630737 69.92172
7.2761445 30.704079 37.72773
7.8191447 28.715078 38.62072
20.169146 24.353079 31.491722
21.818146 24.73008 31.70472
33.514145 63.12208 64.64672
32.108143 64.53208 65.10472
16.236145 65.41608 66.12272
14.983145 64.70808 67.23872
6.818145 2.9490738 80.97672
7.5111446 5.183075 80.30272
22.472145 106.683075 79.59772
24.151146 106.600075 79.42772
37.576145 45.98608 107.36872
37.223145 45.47608 105.03472
15.774144 47.427082 102.04972
16.296144 48.97108 102.014725
18.465145 97.58008 55.95572
18.584145 98.80108 54.09972
34.304146 91.348076 49.26372
34.430145 92.27308 47.68072
24.099146 40.49608 37.585716
23.514145 38.78208 36.28672
6.2161446 42.45708 39.20173
6.0821447 40.60308 39.054726
10.958141 84.94408 37.36573
10.952141 83.50808 36.032722
32.661144 87.933075 32.04772
32.499146 89.84708 32.567726
37.657146 39.73208 17.503716
36.482143 38.09208 17.509727
20.135145 40.54008 16.21473
18.902145 39.16308 16.071724
10.061142 20.402079 93.27072
8.984142 18.95208 93.51072
32.279144 20.895079 97.80972
30.867146 21.892078 97.61772
4.9121437 66.07408 14.957726
5.7481422 66.70208 16.970726
20.766146 64.04608 14.180717
21.904142 62.753082 15.135719
9.594145 5.7610703 103.22672
11.137145 6.612076 105.21572
25.895145 3.9480743 99.89472
25.157145 4.193077 98.35172
13.839145 77.141075 44.904716
15.135145 76.239075 46.82473
31.678146 75.225075 44.636726
31.846146 73.530075 44.517723
12.071144 21.30408 3.5437164
11.135143 19.686079 2.679718
35.214146 18.815079 11.99472
35.182144 20.634079 12.762718
37.728146 77.88108 74.81372
0.06814194 78.20508 76.99772
17.155146 76.62208 74.335724
17.718145 75.41508 72.98172
35.786144 62.89008 72.71372
36.078144 62.95208 70.61372
12.275143 57.420082 66.87472
13.3101425 56.05408 66.35572
26.848145 64.932076 36.737724
27.988146 62.78208 36.00672
5.691143 67.88908 38.621727
5.4241447 69.36608 39.460716
38.774143 38.68508 24.999718
0.7741432 40.21108 26.78173
25.276146 44.69208 32.42173
24.204145 43.753082 31.375725
32.160145 104.29008 33.27073
32.352146 102.34308 33.87272
15.249145 100.86108 35.78573
14.143145 101.934074 35.10772
7.7861447 75.58008 28.02372
8.856145 74.92408 29.808723
23.167145 72.07608 27.524727
24.242146 72.06408 29.055717
11.434145 72.19208 41.912727
12.156145 74.33208 40.877724
29.230145 70.02208 42.623726
30.640146 70.973076 42.861717
38.097145 49.64308 109.15772
0.34314346 50.56008 111.01272
16.166143 44.57808 108.86372
16.140142 43.03908 108.49572
38.303146 12.174079 38.28373
38.062145 13.98708 37.36573
22.417145 20.15008 41.211723
20.938145 19.339079 41.12272
6.2031446 66.62008 28.639717
7.5371447 68.64508 28.361717
24.145145 67.223076 28.381721
24.562145 66.195076 27.082726
1.1731415 74.09208 2.3357162
38.665146 72.54608 2.4667206
26.026146 73.792076 12.249718
25.038145 72.446075 12.173721
22.902145 92.99708 112.27172
24.203146 93.16208 114.14572
10.231145 95.37008 6.323723
9.809145 96.89608 6.5017166
12.454144 67.95708 58.93072
11.683144 66.76208 60.64372
36.083145 76.05108 61.58172
35.415146 76.295074 63.31972
22.456144 86.61808 2.9587173
23.305145 86.806076 4.707718
9.115145 92.72807 11.681717
7.2731447 93.01208 11.361717
26.868145 10.919077 82.48572
27.629145 12.014078 83.80272
5.6361427 7.4160767 81.91572
6.3601418 6.1250763 82.62972
34.381145 79.61607 43.51272
36.487144 79.306076 43.889717
9.186142 75.293076 35.68473
8.933144 75.90008 34.17672
23.277145 83.613075 8.9807205
21.764145 84.76308 8.20472
6.600145 90.01108 7.9027176
6.0231447 89.57608 6.4737167
22.897144 12.660079 60.08072
21.802145 13.999079 61.69472
6.554145 19.19908 60.39472
5.1951447 18.68108 61.52872
15.729142 62.69408 78.49172
14.605142 61.239082 80.14472
35.894146 63.29008 79.90772
34.503143 62.66908 79.24572
33.956146 2.169075 24.831718
32.398144 1.183075 23.790718
18.351145 6.393074 32.21572
18.102144 6.7510757 34.02073
5.3031425 63.37408 37.165718
3.6521416 61.670082 35.99572
27.649145 59.40208 39.14573
27.416145 59.24908 40.73472
29.439146 18.271078 102.36872
28.233145 16.61908 101.49772
13.106145 14.552079 105.31572
13.395144 16.27808 105.75572
18.520145 3.6040726 43.291725
17.602144 5.0590744 42.124718
31.551146 107.11708 33.88273
32.521145 106.38608 35.093727
0.9541435 77.55008 98.91972
2.5951424 78.22008 99.599724
19.075144 76.96407 96.29672
19.918142 77.80208 97.53572
28.583145 22.66008 79.21472
29.456146 20.777079 80.75772
8.833141 21.16708 79.29972
9.261143 20.985079 77.39372
29.943146 104.94408 9.06572
30.560146 103.76907 10.8557205
8.979141 104.75708 4.4967194
9.988144 105.156075 5.9097214
28.083145 33.58208 64.65172
27.808146 31.530079 63.68172
6.090145 30.86908 61.21972
6.8691406 31.747078 59.76372
5.5361443 66.69308 41.42872
6.7371407 66.50708 42.93673
29.251144 67.67708 44.892723
28.466145 66.30408 45.752724
11.156143 62.76808 58.63672
12.030144 62.920082 61.04672
34.085144 70.168076 61.13772
34.327145 70.49308 59.49372
29.993145 99.10708 16.216728
28.630146 98.445076 14.405724
12.137145 103.879074 15.39872
10.458145 103.52708 14.612724
2.2791443 14.983079 55.76472
0.16114426 16.22608 56.47772
23.534145 14.580079 57.93772
22.349146 15.4560795 56.91072
19.379145 12.468073 36.67272
19.899145 12.169077 38.73272
36.457146 8.287071 37.585716
38.107143 8.603073 37.15673
7.8101425 53.25408 51.51672
7.0301437 51.198082 50.50072
29.746145 50.62408 55.10472
29.103146 49.34708 55.75672
38.127144 64.445076 96.612724
37.615143 62.87508 97.89972
21.140144 70.334076 101.75772
20.037146 69.48408 101.12372
13.718144 21.29008 11.798721
15.161144 19.90808 10.889717
31.317146 14.552079 7.741722
31.233145 12.781079 7.403717
24.932146 66.23308 20.009727
26.025145 64.25008 21.072716
4.208145 59.22808 19.68972
4.8851433 59.11508 18.177727
19.288145 51.72108 8.431717
17.037146 51.86108 8.139717
1.6591415 55.36108 9.000717
2.0701447 55.704082 7.3057175
0.96214294 75.96908 107.53072
37.740143 75.530075 106.49972
23.855145 78.38108 0.60672
24.202145 76.906075 1.3227158
22.420145 98.101074 73.98772
21.228146 97.057076 76.32972
5.2391443 104.03408 78.27772
3.8011446 103.26408 77.90872
35.235146 106.10908 35.67872
37.690144 106.05308 35.897728
12.402142 100.043076 33.983727
12.346142 98.640076 32.819725
25.337145 57.71908 40.10473
24.392145 59.32508 38.57473
8.552145 66.20308 38.41172
7.2281446 65.655075 37.56173
21.809145 96.02508 89.74072
21.543142 97.195076 87.96172
4.5391426 96.54908 92.36772
3.2681427 97.615074 92.26372
16.517145 0.87107086 40.92472
16.676146 2.8620758 40.308723
38.264145 5.0000763 40.203728
38.300144 4.8820724 38.623726
25.233145 36.719078 53.82872
25.591145 38.59808 53.39372
10.863145 40.70408 59.34572
9.960145 42.37408 59.01072
18.090143 67.56908 100.13372
15.7581415 66.87208 99.474724
0.198143 72.69708 102.45272
38.468143 70.78508 103.36872
23.124146 77.63708 5.9237213
22.804146 75.63808 4.808716
38.356144 76.88608 111.49672
38.715145 75.99708 110.24572
34.453144 73.63908 63.89472
33.367146 72.65208 65.69972
17.842144 71.84608 66.17872
18.242146 71.23908 64.56072
28.927145 107.05408 105.168724
28.758144 107.42207 103.11472
2.446144 95.99808 101.53072
3.5461426 96.001076 102.71172
12.735145 54.42908 61.53972
13.824144 56.246082 62.11072
29.454145 53.13208 64.60872
30.250145 51.60908 64.92772
11.724145 84.08008 31.675728
12.627145 81.85608 31.081718
25.388145 75.059074 27.08973
26.411144 76.10608 26.46273
29.999146 66.92008 50.44072
30.039146 65.49208 52.06872
8.125141 62.10908 52.73172
9.228142 62.580082 53.82172
20.456144 51.73808 109.91972
20.718145 52.09708 112.14872
36.195145 49.04408 2.943718
37.807144 49.54308 3.389717
28.347145 51.93208 52.06672
28.715145 53.39508 53.85872
13.386145 57.691082 55.35872
14.043145 58.79408 56.45372
35.579144 101.59008 55.30172
36.665146 102.55308 56.66272
23.045145 4.7360764 60.19472
21.954145 5.891075 59.35772
37.943146 71.280075 98.49372
38.517143 72.68608 96.56672
17.498144 71.10308 95.03072
17.397142 71.03208 97.02572
16.337145 13.078079 24.688728
14.461144 14.412079 24.75872
1.1831436 12.381079 33.435722
0.30314255 12.973079 34.67373
25.627146 59.61908 32.834724
27.607145 60.704082 32.843727
26.342146 56.00708 36.628716
25.143145 56.78608 37.623726
25.192144 16.29908 63.32472
23.259146 16.311079 62.80572
10.361145 23.38608 68.80972
9.200145 22.60208 67.82372
25.240145 13.301079 82.61672
24.617146 14.833079 81.84672
9.238145 16.753078 85.02072
8.658145 15.3310795 83.986725
16.606144 52.260082 90.54572
17.306145 53.892082 92.08172
33.085144 49.52908 89.88572
33.221146 47.97608 90.73072
33.892143 21.211079 8.196716
32.051144 21.57308 6.8957214
18.166145 24.93108 12.612717
18.629145 25.24308 14.362724
9.357143 106.542076 8.778717
8.741142 0.00907135 11.126717
31.656145 2.0030746 6.5717163
30.658146 0.70207214 5.8297195
10.151145 42.913082 73.88772
10.126144 43.33908 71.682724
26.533146 40.07808 66.46472
27.272144 39.22308 67.95272
4.2821426 77.21708 107.432724
3.946144 78.54707 109.13572
18.268145 70.92708 105.17472
19.267145 70.30808 103.83672
11.815145 16.03508 108.03372
13.045145 17.200079 110.00572
29.029144 11.189079 108.27572
29.834146 9.648079 108.93572
1.9401436 94.627075 83.10272
3.3171425 95.50908 84.31872
16.765142 90.49808 77.05672
17.813143 88.96407 77.17472
34.717144 98.41408 51.17172
33.211143 98.99408 49.533722
21.054146 106.01008 56.86972
19.412146 106.38708 56.26272
38.606144 34.90808 17.528725
0.3211441 37.226078 16.817726
16.654142 30.097078 10.743721
16.047144 28.816078 9.740723
5.4341445 32.67708 48.959724
6.2501445 32.45508 46.79673
23.722145 30.857079 48.74073
24.094145 30.464079 46.568718
14.734143 67.91108 72.30372
13.9091425 66.63808 74.168724
36.495144 74.59108 77.79972
35.967144 73.293076 77.01772
34.279144 41.14708 93.37972
32.763145 40.03508 92.09672
16.536144 40.58408 97.474724
15.141145 39.68608 98.083725
2.3141441 72.849075 0.32071686
3.4491425 70.93908 114.19072
20.199144 68.93708 1.9357224
21.663145 68.570076 2.906723
30.996145 5.070076 5.1157227
32.871143 6.90007 4.4787216
8.275143 1.8510742 8.4427185
8.53614 1.0110703 6.9427185
9.795145 98.89508 4.2087173
9.646145 101.01408 4.1007156
26.003145 97.36808 6.340721
26.527145 97.13508 7.9267197
15.146142 37.75008 6.1317215
13.799142 37.27308 4.7237167
36.120144 39.42208 8.788719
36.295143 40.44308 9.999718
38.157146 10.698079 47.517723
37.158146 9.06008 46.804726
21.234144 14.283079 41.657722
20.144144 14.014079 40.509727
15.733145 88.34208 51.24972
15.909144 86.10408 52.06472
32.717144 80.13208 50.74072
32.945145 78.431076 50.70972
2.0241432 44.91208 23.627724
3.3521423 44.29308 21.989723
17.013144 37.18508 17.465721
16.191145 35.45608 17.486717
4.5131416 94.49208 93.94872
5.1541443 93.09408 92.46772
20.934145 90.81308 89.92072
22.027143 90.00608 89.19072
1.5841446 79.572075 113.18572
0.55514145 78.38108 0.2647171
23.510145 82.49408 2.8987198
23.924145 84.29808 2.9127197
7.184143 73.473076 31.257729
5.8951416 74.49008 30.091728
30.630146 80.17408 37.63372
30.723146 79.66208 36.097725
30.452147 48.07508 68.10672
30.115145 50.00608 68.88972
14.062144 51.33308 70.72872
