26.769058 72.58125 38.51947
27.024055 72.440254 41.19047
20.135056 65.14326 2.2464714
19.258057 64.36226 0.61047363
23.733055 24.889252 39.057472
24.023056 25.644257 41.105473
16.55706 18.948257 41.703472
16.50206 19.861252 1.9494705
36.423058 62.653255 14.897472
36.146057 64.17126 16.621471
31.435059 55.955257 20.239471
30.022057 56.89726 21.525473
3.6320572 68.51326 14.293472
1.6690598 68.20926 12.939472
69.56105 61.512257 17.681473
69.289055 62.39026 19.642471
40.119053 75.42825 39.458473
41.86605 74.648254 37.943474
49.744053 80.90626 35.63047
49.673054 82.661255 37.090473
37.645058 91.635254 19.580473
38.660057 90.34625 20.786472
29.347054 87.19926 25.647472
29.868057 85.399254 26.912472
58.383053 15.338257 33.14947
57.36405 13.183258 34.363472
47.836052 11.965256 36.314472
47.529053 10.034256 34.870472
67.692055 92.13926 17.833473
66.78405 89.968254 17.657473
57.049053 88.77525 16.758472
56.193054 86.97426 16.389473
20.486061 48.042255 21.281471
21.583061 48.025257 23.024471
30.442055 51.498257 19.902472
31.332054 53.268257 20.858473
27.705055 92.67925 0.24947357
26.936058 94.048256 1.4594727
23.438057 88.131256 8.624474
21.606056 87.85126 7.323471
51.176052 40.655254 18.310474
51.40005 41.261257 15.857471
59.001053 46.178257 11.5134735
58.617054 48.424255 11.243473
34.24605 87.46426 40.147472
35.700054 88.95725 39.73947
43.94205 92.08326 34.29547
44.53105 90.496254 35.55247
23.672058 39.443256 14.606472
22.761055 40.885258 15.449474
32.096054 43.394257 16.250473
33.385056 44.931255 16.950474
72.136055 51.311256 6.9844704
0.5860596 49.722256 7.061474
8.726059 52.308258 4.3784714
11.063057 52.139256 5.241474
70.98705 82.606255 12.849472
71.370056 84.675255 12.962475
8.008057 87.35226 13.240475
7.9090576 89.21026 12.598473
53.87105 97.33326 26.743473
54.317055 98.121254 29.024473
60.12205 0.97125244 29.099472
62.065052 1.6252518 29.446472
25.90406 84.68226 11.713474
25.950058 84.11226 9.265472
34.256058 87.58726 4.4024734
34.126053 85.79226 3.1624718
9.788055 28.515259 5.3394737
7.9210587 29.271255 4.9574738
0.28905487 25.446259 9.515472
0.9810562 25.38826 11.283474
27.113052 37.167255 27.886473
29.735054 37.860256 28.375473
37.732056 39.814255 23.812471
37.361053 41.106255 22.210472
58.280052 52.647255 14.845474
58.676052 52.686256 12.495472
65.73006 59.345257 11.277473
67.412056 59.704258 9.663475
44.58705 35.964264 39.722473
45.367054 35.354263 41.613472
39.05205 32.951263 4.667473
38.805054 32.214264 2.5754738
43.44905 4.3842545 15.822472
44.728054 3.2122574 14.5324745
52.845055 6.5752563 10.493473
53.697052 7.1462555 8.702473
29.666054 2.822258 12.877472
31.085052 2.8662567 14.588474
38.591057 7.8582535 19.157475
38.64406 9.854256 18.454472
1.4790573 3.5152512 22.682472
0.5640564 1.8142548 21.519472
64.440056 103.38026 22.607471
63.203053 0.116256714 20.890472
57.820053 61.59826 22.832472
58.856052 62.427258 24.639473
68.44605 60.628258 21.267473
69.37805 59.565258 22.889473
11.556061 9.8702545 17.164474
11.616058 11.251251 15.543472
20.471054 14.391258 13.449474
22.498055 13.810257 14.5204735
40.843052 35.866257 20.247473
40.091053 33.837265 20.630472
31.839052 29.247253 21.476473
30.745052 31.237259 21.552473
56.067055 59.636257 20.495472
55.988052 59.507256 18.388474
63.363052 60.469257 12.604473
64.14305 61.26526 10.760471
54.569054 73.93226 34.599472
55.282055 75.60825 36.44747
64.57005 76.80826 34.563473
66.22605 78.38725 35.34447
58.734055 59.743256 25.023472
60.243053 58.115257 25.773472
63.054054 61.867256 15.429472
65.56105 62.012257 16.428473
63.310055 87.52525 40.131474
63.798054 86.174255 38.515472
70.79605 94.06625 34.717472
70.87605 93.12425 32.77447
15.630058 86.076256 33.042473
17.243057 84.870255 32.28047
9.776054 79.368256 36.28847
7.981056 78.65826 35.346474
51.311054 55.25126 38.377472
51.16405 56.214256 40.33047
61.812054 57.972256 38.181473
62.554054 60.124256 39.66347
8.926056 23.714256 36.542473
7.396057 24.068253 37.589474
1.7740555 16.873253 40.125473
0.49105835 17.562256 41.590473
29.646053 39.790257 38.561474
31.697052 40.129257 37.506474
41.30305 40.644257 38.952473
42.126053 40.412254 37.05147
36.334053 85.93426 5.4714737
37.904053 87.49126 6.7074738
43.763054 87.965256 40.022472
43.655052 89.76225 38.153473
20.913055 30.553253 37.507473
19.03006 30.514252 39.120472
12.7510605 24.354263 41.916473
13.713058 24.014252 2.115471
56.459053 69.97726 5.4304733
56.60105 70.33326 2.8314705
47.784054 70.91325 2.448471
46.873055 72.94526 2.8094711
54.06605 34.656265 16.579472
53.340054 34.80426 14.440472
47.77405 28.425262 19.913475
46.738052 27.058258 20.176472
50.686054 95.715256 21.857471
51.24605 93.51125 21.381472
43.16305 87.29025 24.226473
44.479053 87.19926 26.234472
49.718052 43.289257 15.670475
47.592052 42.76626 14.663475
39.41505 36.272255 15.697472
38.662052 36.625256 13.625473
46.769054 60.417255 34.90647
45.999054 59.027256 36.29747
37.48205 54.034256 37.88747
36.341053 53.433258 36.10747
28.236053 69.59525 36.619473
28.988052 70.855255 38.18447
35.704056 74.46326 32.084473
37.854057 73.73325 32.682472
13.857056 84.160255 24.259472
14.584061 82.383255 24.401472
6.333061 75.828255 24.878471
4.5220566 76.35026 23.814472
14.014061 39.43826 37.01847
13.512054 37.554256 37.293472
6.410057 33.06526 40.64247
7.1710587 30.733261 40.529472
35.65606 7.4602585 1.7654724
33.485054 6.925255 0.40947342
27.990059 3.8942566 9.566475
27.648056 2.1622543 8.493473
21.548058 6.7732544 41.106472
24.038055 6.091255 41.474472
33.50406 4.6342545 38.390472
33.431053 2.6182556 37.19047
59.103054 46.837257 4.129471
60.743053 46.295258 5.2184715
69.093056 50.639256 4.1684723
70.260056 49.607258 6.004471
27.405052 59.387257 21.544472
26.19806 60.545258 20.136473
33.621056 67.52525 16.155472
33.747055 68.15726 18.304472
7.528061 42.699257 20.586472
5.611061 44.538258 21.482471
69.89706 40.090256 21.921473
69.46205 39.073257 20.320473
71.58405 60.14726 28.042473
71.43005 58.743256 26.063473
63.224052 58.354256 30.928473
61.079052 58.568256 29.674473
70.85506 72.425255 0.72647095
69.165054 71.37626 41.501472
62.551052 65.272255 4.099472
61.995052 66.25426 5.8134727
68.55705 85.04726 14.720474
68.03205 83.54726 12.702473
62.172054 78.42026 19.914474
61.974052 79.90526 21.307472
53.578053 8.181252 12.847473
52.61505 10.170258 13.795475
46.258053 4.463257 19.705475
44.826054 5.1082535 21.336472
65.025055 29.183258 26.492472
64.623055 29.718262 29.000473
72.34805 36.521255 28.858473
71.58705 37.78226 30.075472
31.782053 44.826256 10.072472
33.270054 45.949257 8.365475
41.425053 47.492256 5.0504723
41.016052 46.743256 3.3184738
13.91806 62.400257 35.03047
14.237061 60.297256 35.687473
8.068054 54.319256 38.56747
8.714058 52.063255 38.522472
48.026054 82.301254 33.85947
45.687054 83.17925 34.41347
39.134052 80.523254 38.67747
38.251053 80.56825 40.967472
34.73906 12.749252 10.541473
33.996056 13.232254 12.357471
26.488052 6.909256 13.715473
25.052055 7.446251 12.106472
37.437057 98.29426 35.74047
39.071053 97.980255 37.620472
31.65606 94.396255 2.351471
29.510056 94.131256 2.297474
64.957054 71.76926 25.796473
66.44905 73.15426 26.501472
1.6290588 75.202255 23.645472
3.3000565 74.03126 24.050472
71.440056 96.190254 40.43547
69.66705 96.27625 38.869473
64.262054 91.97726 1.4974709
63.027054 90.271255 0.30847168
39.11605 6.645256 6.026474
39.29705 8.740257 6.243473
43.758053 15.759254 2.884472
45.33705 15.571251 1.4494705
27.61406 75.76626 4.757473
27.769058 75.34425 2.6334724
38.469055 78.44826 1.1124725
38.313057 76.855255 41.055473
65.31406 83.398254 0.16447067
63.784054 84.05926 40.29047
53.259052 83.57526 41.49747
53.416054 84.98826 1.5954704
52.867054 77.159256 37.806473
51.824055 78.16425 39.883472
53.380054 78.715256 0.844471
55.73205 78.020256 2.0784721
23.429054 58.76626 1.6644707
24.55906 57.899258 3.7074738
34.061058 61.09226 4.9844704
35.606056 59.813255 3.1644707
17.04506 26.355255 26.041471
17.134056 25.984253 24.202473
7.9940567 26.684265 28.086472
8.33506 27.339264 30.063473
66.97705 94.98826 22.477472
65.11805 96.01926 22.001472
57.820053 88.065254 23.588472
56.561054 89.83626 22.619473
53.819054 49.279255 39.617474
53.993053 50.069256 41.293472
62.717052 55.097256 40.911472
63.62805 56.157257 39.353474
47.773052 45.612255 9.623474
46.591053 45.361256 7.7674713
53.138054 50.687256 3.790474
53.598053 51.380257 1.6664734
4.3900604 89.88725 39.54547
6.775055 90.66626 39.44747
11.186058 97.549255 34.76047
10.456055 99.42725 35.196472
24.712059 18.752258 32.37247
22.311058 19.403252 32.30147
12.838058 15.165253 34.13647
13.292061 13.888252 36.377472
69.079056 67.91826 27.409472
71.27106 67.22726 27.056473
6.931061 70.04726 24.632473
6.962059 71.80626 23.978472
30.131058 91.65125 38.54547
32.038055 91.35126 39.160473
38.349052 95.90526 34.79747
40.26806 96.36426 36.070473
31.641052 83.81026 35.375473
31.394058 82.92026 37.82447
21.162056 84.23826 39.51247
21.47406 82.48926 41.000473
16.962059 88.01426 4.179474
17.854057 88.15326 6.8084717
11.295059 85.37225 9.237473
10.6230545 86.08025 6.842472
65.818054 74.66626 30.295473
65.02206 73.27726 29.164473
62.082054 66.357254 31.096472
59.553055 64.951256 31.400473
44.926052 67.23826 9.315472
46.666054 65.759254 9.687473
45.94205 57.688255 15.328472
43.64205 56.85526 14.802475
57.110054 92.06026 31.079472
57.386055 93.91626 29.739473
64.652054 98.04025 24.060472
66.57806 96.953255 24.935472
0.86405945 87.61626 32.077473
73.122055 86.884254 30.031473
65.74005 81.45625 35.28047
64.705055 80.40426 33.910473
1.9580612 36.77925 40.19947
1.3660583 35.38626 41.877472
66.36205 31.885254 1.2374725
64.60005 32.553253 0.13747406
68.61205 53.001255 39.08647
70.18706 52.022255 39.995472
5.007057 57.403255 40.632473
6.40506 55.844257 40.21347
3.0410614 24.887253 15.024475
2.653061 26.841263 14.830475
9.90406 32.25026 11.833473
10.012054 31.94226 9.698475
25.962059 90.19826 22.299473
27.46106 89.04126 23.508472
36.382057 94.01125 19.055471
37.011055 93.68326 21.159472
20.166061 97.18426 18.326473
18.575058 98.87225 18.462473
7.978058 98.550255 20.379473
7.3850555 96.579254 19.891472
17.764061 71.17925 12.894474
19.840057 72.52726 13.871471
25.869057 76.75126 6.7114716
27.122055 77.87626 8.221474
9.356056 18.631256 37.300472
8.08506 17.155258 36.63547
72.32405 18.135254 32.237473
70.193054 18.370255 33.092472
70.84805 42.703255 34.39847
72.817055 41.547256 34.743473
7.1910553 46.682255 31.808472
8.930061 45.968258 29.924473
11.492058 102.10026 36.632473
12.218056 101.548256 34.958473
22.633057 103.01726 34.62947
23.597061 0.7102585 36.430473
29.101059 27.378265 8.245472
28.710052 28.255264 5.8624725
36.275055 33.92926 5.516472
37.46206 34.581253 3.387474
56.591053 4.393257 15.000473
56.971054 5.0372543 16.866474
46.84505 2.2762527 15.836472
47.404053 0.036254883 16.243473
34.069054 28.093262 33.096474
32.363052 29.176254 32.438473
40.085052 34.782257 27.240473
41.53105 33.105255 28.857473
51.007053 34.23526 2.0814705
51.637054 31.977264 2.0174713
59.859055 35.134262 39.08647
60.806053 32.923264 39.453472
41.82405 87.53825 22.055471
41.94105 85.69626 20.883472
33.571053 80.75026 20.598473
32.64305 79.924255 18.579472
64.164055 62.402256 6.1764717
64.09905 60.197258 5.729473
55.784054 55.304256 6.773472
53.817055 56.57126 5.245472
43.284054 57.193256 17.803473
45.676052 57.000256 17.795473
53.172054 60.234257 18.569473
54.197052 57.82826 19.938473
32.370056 81.46126 26.733473
31.495056 80.51526 28.269472
22.965057 78.45826 29.992472
20.773056 78.84425 30.354473
42.124054 8.260254 26.753473
43.05905 6.951256 28.380472
33.328053 7.0372543 29.701473
31.673052 6.2492523 31.668472
54.824055 9.740257 19.056473
52.96205 11.287254 19.290472
44.072052 9.667252 25.556473
42.902054 8.392258 23.413473
58.540054 49.354256 16.918472
56.859055 51.223255 16.853472
48.51805 50.888256 19.892473
46.929054 52.749256 20.458473
31.396057 13.030258 5.236473
31.090057 14.799255 6.099472
25.774055 10.220253 12.705475
23.867058 9.874252 11.745472
63.423054 34.482258 39.81547
64.25505 35.278255 0.20247269
61.73305 43.987255 3.4264717
61.463055 43.387257 5.3484726
70.90805 90.078255 27.525473
71.57305 89.218254 29.548473
64.898056 86.59625 29.399473
62.958054 85.47125 30.502472
65.19905 2.2532578 38.222473
65.47805 1.845253 40.89447
57.488052 100.13026 0.59747314
55.36405 99.84525 41.606472
58.193054 11.149254 26.366472
59.176052 10.353256 27.981472
69.25105 11.470253 28.848473
70.275055 13.438255 27.733473
50.12205 87.093254 2.4254723
48.76705 85.843254 1.5914726
42.381054 79.577255 5.8744736
42.919052 78.701256 7.9974747
3.851059 45.252254 15.158474
4.3310547 43.553257 13.637474
69.87505 38.593258 17.721474
67.40305 37.693256 17.679474
39.98205 37.333252 24.150473
38.259052 37.116257 23.020472
31.279053 30.840256 24.284472
31.337053 29.489258 26.146473
55.430054 27.01326 7.3604736
54.069054 26.397263 9.093472
46.76005 20.114258 7.875473
45.17705 21.218254 7.1804733
23.235054 95.96326 26.572472
21.407059 97.42725 26.387472
13.102058 94.813255 30.119473
12.396057 92.71925 30.614473
34.528053 0.57725525 36.112473
33.842056 103.12425 34.730473
27.077057 100.53026 41.87847
27.027054 100.08726 1.5844727
44.37905 61.795258 27.066473
46.327053 62.48726 27.375473
52.265053 62.948257 19.300472
52.534054 65.01426 20.812471
36.03105 99.28226 24.359472
37.78105 98.28326 23.714472
46.08805 102.72425 22.007473
46.894054 0.45425415 21.132473
44.366055 95.20725 34.88747
45.329052 96.523254 36.26847
54.513054 99.410255 34.91447
54.741055 99.631256 37.068474
26.276054 15.659256 37.13047
27.224052 17.655258 37.354473
18.221054 15.845253 39.992474
16.722061 14.942253 38.83647
65.15705 88.954254 6.7204704
67.259056 88.84726 7.658474
0.53305817 96.63826 5.580471
1.9090576 96.537254 7.405472
22.275055 99.63026 33.76947
23.147057 100.66325 35.583473
12.892059 101.29226 40.13047
13.826057 101.43626 0.3254738
0.75006104 15.256256 37.53147
72.97405 13.9952545 39.256474
6.178055 8.222252 40.318474
8.296059 7.730255 41.53747
53.731052 58.796257 14.3504715
52.581055 60.982258 13.283474
61.361053 64.286255 12.803474
60.53105 66.438255 12.792473
23.396057 84.62726 5.474472
24.811058 83.69726 4.2864723
29.747055 90.551254 0.77147293
32.17106 89.78925 2.5104713
60.653053 89.80526 37.577473
59.345055 91.70926 37.015472
67.773056 98.11326 34.94847
66.53405 98.16726 32.85747
15.362061 66.61126 38.826473
17.189056 66.11126 37.271473
26.05606 68.85825 35.03347
26.470055 70.97726 34.07347
61.188053 83.96226 29.159472
61.252052 83.15326 31.610472
54.755054 78.48525 33.882473
52.238052 78.31625 34.60947
38.424053 27.20726 35.12847
39.85905 26.186264 33.215473
48.12905 29.897263 34.47547
50.28205 29.41626 34.214474
8.769058 78.38926 38.51747
8.258057 76.29626 38.118473
73.082054 70.99825 39.443474
71.11706 72.12926 39.583473
4.3220596 73.88026 21.288473
6.059059 74.15426 22.763472
13.923058 79.96226 19.979473
14.991058 78.18326 19.043472
31.62806 80.65626 22.437471
31.460052 78.44426 21.526472
23.69806 75.133255 26.662472
23.588058 73.66726 28.689472
59.541054 27.120255 17.239471
57.761055 27.217255 16.189472
53.282055 20.650253 23.722471
52.919052 19.151253 22.125473
0.7100601 6.625252 20.781473
0.85105896 8.694252 20.819471
10.080055 9.126251 20.869473
11.157059 10.563255 19.920473
9.375061 79.785255 2.3574715
11.28006 79.34425 3.7474709
18.938057 83.54426 41.01147
19.133057 85.60126 41.09447
45.882053 52.551258 24.743473
43.78205 51.539257 24.946472
36.58105 48.080257 23.720472
35.131054 48.83526 21.960472
59.91305 17.047256 2.316471
61.255054 15.311256 2.948471
69.43205 20.583252 39.83647
69.46506 21.299255 41.806473
19.125061 19.409256 11.502472
19.50106 21.642258 11.605473
23.527061 25.882263 4.330471
24.745056 25.383255 2.2704735
2.6140594 48.985256 15.667473
4.0060577 48.168255 14.159473
12.89106 54.75826 16.986473
14.098061 54.381256 14.644474
46.583054 64.27525 2.8914719
46.715054 62.389256 3.7004738
37.35205 59.854256 5.7744713
35.912052 61.012257 7.1124725
32.26905 76.18326 18.716473
33.38005 77.84926 17.069473
42.33005 83.57126 16.235472
43.008053 83.522255 18.639473
60.263054 60.364258 31.700472
62.425053 60.929256 32.651474
66.860054 69.024254 31.171473
66.65705 69.37526 28.179472
72.89405 94.15226 36.23347
1.1070557 93.81725 34.27347
8.853058 99.162254 30.910473
10.031059 97.43426 30.739473
37.089058 10.229256 7.4194717
36.646057 9.105255 5.879471
25.815056 9.078255 8.190472
24.796059 9.614258 5.9074707
46.29505 6.9452515 26.949472
47.716053 6.845253 28.484472
56.091053 9.511253 27.049473
57.652054 8.683258 29.168472
34.382053 30.856262 35.696472
35.17805 32.920258 34.76647
43.637054 37.623257 35.986473
42.876053 37.931255 38.339474
49.991055 42.53726 20.059473
47.951054 44.118256 20.406473
41.964054 38.811256 25.621473
42.363052 36.899258 26.030472
44.583054 65.840256 5.9754715
42.785053 66.716255 7.601475
38.099052 64.23626 13.627472
36.882053 64.07026 11.686474
5.9790573 66.12626 7.8864746
6.664055 65.83526 5.511471
12.3120575 72.26326 1.5214729
10.902061 73.72125 0.14747238
60.374054 22.080254 17.158474
60.043053 22.716255 15.518475
52.831055 18.861252 19.152473
51.772053 17.419258 20.422474
20.465057 69.76826 15.431473
22.634056 69.51125 15.394474
29.427055 73.76926 11.017471
31.286057 72.97726 11.872475
61.172054 4.9342575 25.898472
62.07305 3.7502518 24.225471
68.78506 9.594254 23.205473
68.65605 11.000252 21.126472
36.971054 43.841255 22.015472
36.071053 43.861256 20.071472
43.882053 48.199257 15.959473
43.440052 50.082256 14.920472
52.58005 13.886253 13.221474
51.603054 15.829254 13.409473
59.304054 19.519257 8.939472
60.402054 21.367256 8.613472
13.056061 66.31926 29.916471
12.397057 65.83726 32.131474
3.2940598 59.858257 29.442472
3.452057 58.58526 31.781473
66.56306 102.703255 34.235474
67.178055 100.96226 33.15647
72.56306 3.433258 30.077473
1.5830612 2.8112564 30.489473
69.70306 54.923256 10.326473
67.76905 55.896255 8.841473
61.241055 47.533257 10.190472
60.613052 47.740257 7.894474
26.454056 47.289257 41.424473
25.72306 47.401257 1.4774704
20.26506 40.796257 3.262474
17.512054 41.032257 2.731472
15.581055 93.55926 40.140472
15.914055 95.315254 38.96147
26.234055 96.57326 0.16447067
27.356056 95.77625 40.111473
15.063057 43.972256 38.256474
14.091057 45.79426 39.21247
19.952057 53.671257 38.25347
21.29206 51.860256 39.38047
46.037052 24.732254 25.276472
47.708054 23.502258 24.648472
39.410053 17.163254 27.035473
38.61405 18.662254 27.995472
12.840057 93.45026 35.909473
13.276054 94.01626 37.69047
7.5290604 87.27826 40.53147
6.8400574 84.76225 40.784473
48.06705 30.87526 29.159472
50.005054 30.824265 30.763472
54.784054 38.86926 27.057472
54.145054 40.45226 25.835472
16.661057 81.06026 23.176472
17.318054 82.506256 24.551472
24.865059 86.33526 18.534472
25.726059 84.40526 19.121473
56.998055 63.538258 28.327473
56.923054 64.14026 30.403473
48.196053 61.829258 32.82247
47.583054 63.310257 34.520473
10.09906 94.65626 30.553473
11.034058 94.06725 32.93447
2.624054 90.13625 36.620472
0.799057 90.75126 35.15747
34.62805 69.96226 7.170471
36.133053 68.89426 7.8814735
43.658054 71.79226 4.1504707
45.05905 73.37325 4.830471
23.995056 21.195251 30.491472
24.00206 23.753258 31.082472
34.342056 25.305252 28.877472
34.21206 27.19426 30.270472
26.97506 65.83426 31.231472
27.011055 65.96126 29.033472
35.81006 68.94826 25.445473
36.932053 67.952255 23.801472
4.75206 84.953255 37.30847
5.6040573 86.022255 38.76647
11.569061 90.26626 33.354473
14.259056 90.76826 32.078472
3.4180603 21.812256 15.9614725
3.11306 23.113258 17.231472
68.05505 20.761253 21.228472
65.96505 20.729256 21.904472
40.925053 12.923256 27.382473
39.293053 11.084251 27.081472
32.74705 5.6982574 25.157473
32.65805 4.7412567 26.910473
45.81605 82.742256 24.852472
44.418053 84.676254 24.653473
37.110054 78.81026 29.014473
35.819054 78.11025 27.835472
35.507053 12.653252 7.792473
37.902054 12.453255 8.566475
45.917053 17.538254 8.328472
46.634052 15.346252 7.7144737
33.442055 2.6672516 34.119473
32.064056 4.197258 34.55347
26.460052 103.48926 39.863472
25.935059 101.61225 39.04447
64.303055 70.050255 18.008472
66.16005 68.94726 17.413475
72.94605 71.72626 12.642471
0.28905487 71.63026 10.661472
54.303055 75.787254 40.61647
54.66305 78.25426 40.58747
62.741055 81.89026 37.328472
62.703053 82.132256 34.98447
47.599052 49.076256 25.462473
49.049053 49.213257 27.287472
41.071053 41.492256 27.762472
41.58805 41.535255 29.789473
17.36306 72.507256 8.523472
16.750061 74.26626 8.383472
14.913055 80.33025 11.927475
14.816055 77.90226 11.957474
51.62105 10.882256 11.185474
50.22005 12.778252 12.399475
41.01005 7.789253 15.790474
39.51005 9.322258 14.780472
19.831055 58.275257 39.92247
21.59906 59.653255 40.646473
29.677055 64.482254 37.32347
31.026054 62.10626 36.65747
72.870056 69.05726 10.842472
71.79906 69.716255 9.610474
65.91705 64.58826 15.9944725
63.575054 64.54626 15.027473
14.43206 86.44225 25.832472
16.298058 86.46226 27.422472
24.922058 89.590256 24.875473
25.66906 89.273254 27.047472
24.816055 55.336258 3.0864716
22.469055 54.881256 3.7724724
16.854057 48.534256 8.505474
16.40306 47.604256 6.540474
40.161053 2.824257 6.8274727
42.563053 2.4632568 7.7824745
48.711052 9.023254 3.233471
48.023052 10.275253 1.495472
16.01706 11.426254 31.984472
15.000061 11.011253 29.757473
24.329056 14.366257 28.217472
25.484055 14.892258 30.132473
41.936054 50.371258 5.552471
43.980053 49.328255 5.127472
48.993053 57.91926 5.0744705
50.468052 58.812256 6.328472
42.450054 73.66926 2.7864723
41.12205 74.732254 1.9514732
31.814053 70.48626 2.2164726
32.81005 69.32026 3.851471
40.867054 58.409256 17.434473
40.173054 57.970257 19.447472
31.205053 53.559258 18.050472
30.629053 53.459255 16.251472
28.415054 40.697258 35.362473
30.231056 42.106255 36.397472
39.354057 46.218258 34.12247
39.678055 44.728256 35.765472
12.86306 102.64025 4.412472
11.578056 103.13825 2.8784714
3.0410614 97.161255 4.042473
2.2660599 94.94225 3.8694725
25.200058 62.466255 13.956474
26.67006 61.923256 15.620472
33.328056 68.41325 12.993473
35.528053 67.64326 12.820473
28.65606 34.13626 25.883472
30.126053 33.037262 25.234472
34.44706 38.319256 16.974472
36.955055 37.85326 16.889473
66.955055 71.47626 30.349472
68.11205 72.260254 28.271473
2.486061 80.08326 28.942472
2.3360596 79.21226 26.888472
24.587059 49.575256 0.010471344
24.450058 51.373257 0.8334732
18.163055 45.760258 2.250473
17.296059 45.561256 4.2134705
61.525055 4.3252563 19.459473
62.567055 4.807251 21.024473
71.32505 7.6362534 21.489471
70.749054 7.468254 23.776472
34.933052 6.2812576 39.953472
36.16305 7.3442535 41.313473
45.179054 12.179253 37.981472
45.877052 10.564255 38.242474
34.043053 39.174255 1.7114716
35.848053 37.589256 1.2064705
44.259052 37.546257 0.9864731
45.930054 39.082256 1.0544739
4.4440613 16.451256 9.380474
5.39106 16.431252 6.9284706
13.733055 23.026253 6.915474
14.375061 22.766258 4.6694717
11.637054 92.659256 21.712473
11.3730545 92.55926 19.547472
20.397057 93.74126 15.740473
21.41906 92.493256 18.053473
0.57805634 42.732258 41.174473
73.09705 44.734257 41.869473
8.040054 49.21026 4.366474
9.844055 50.050255 2.6864738
54.07305 21.835258 30.948473
54.52405 23.654251 32.50447
62.10705 28.647263 28.491472
61.847054 30.394257 29.565472
41.992054 17.630257 31.559473
43.00305 16.397255 33.51847
51.890053 22.129257 29.640472
52.179054 20.802254 28.341473
31.978052 3.9032516 22.583471
34.050053 4.4152527 23.005472
42.168053 5.500252 20.718472
41.522053 5.1672516 18.837473
28.700058 37.51926 37.870472
29.432053 35.687256 37.389473
23.345055 28.270264 39.118473
24.145058 26.749252 37.42847
67.05705 97.773254 28.608473
68.85005 96.88926 28.703472
2.4390564 1.2392578 26.059473
2.3540573 1.9372559 27.938473
63.24705 31.465256 36.214474
62.400055 30.945251 38.360474
53.255054 29.224258 39.14147
52.634052 28.113266 40.849472
11.999054 58.998257 15.356472
13.942055 58.357258 15.701473
18.226059 64.981255 9.572472
21.039055 64.08726 9.599472
29.36406 72.76926 6.434471
27.280052 73.120255 6.0034714
20.16706 67.45826 8.711472
19.291061 67.55326 10.608475
62.633053 99.37526 17.253473
64.47605 99.73525 15.859472
72.00305 1.9152527 17.086472
71.98006 4.282257 18.149473
21.971054 75.82026 29.632473
21.110054 75.52826 27.726473
10.8760605 72.91425 32.234474
9.511055 73.33926 30.350471
38.599052 97.15125 28.571472
41.10105 97.54025 28.912472
48.38605 102.617256 25.282473
46.814053 0.42825317 24.390472
27.17006 69.48525 31.903473
29.236053 67.994255 32.988472
35.718056 71.40426 27.064472
37.524055 72.33125 27.870472
28.672058 62.59826 24.634472
28.818054 64.69326 25.729473
24.249054 69.798256 23.216473
22.563057 68.56826 23.195473
19.896057 96.63725 15.189472
21.229057 98.32426 15.860474
28.543053 100.897255 10.376472
28.11406 102.92925 10.842472
1.7280579 25.923264 17.462475
2.8900604 25.91426 19.362473
10.855057 30.978256 16.379475
11.1490555 32.68225 16.966473
26.022057 88.86226 18.320473
26.702057 88.424255 16.138474
33.747055 92.882256 10.393475
35.328056 92.62726 12.027473
0.06906128 42.685257 37.08847
0.32505798 43.413258 38.661472
8.50206 47.78726 38.44047
7.6420593 49.689255 39.500473
67.22705 59.186256 19.427473
68.48605 57.62626 21.164473
62.158054 53.636257 26.089472
60.73205 53.343258 25.012472
19.533058 17.954254 24.436472
20.940056 15.821251 24.581472
12.18306 11.8702545 24.012472
9.939056 13.374252 24.725471
9.298058 25.912262 41.34547
8.703056 27.450256 39.70647
16.52806 32.948257 36.145473
17.875061 32.684265 37.625473
55.954052 96.690254 39.214474
54.89205 94.660255 40.23247
46.582054 90.92925 39.103474
46.536053 88.88926 40.27647
12.1260605 100.01926 32.856472
12.121056 99.44426 30.528473
20.562057 100.912254 26.432472
20.047058 103.01125 26.161472
62.919052 0.64725494 33.15047
64.14305 102.34825 32.63647
57.958054 98.61326 40.12347
56.572052 100.17825 39.215473
36.912056 86.134254 8.801472
37.196053 83.97426 7.573475
29.580055 79.90626 12.126472
27.90606 79.86526 11.298473
49.444054 90.730255 4.799473
50.73205 88.66826 4.655472
56.729053 84.314255 4.101471
54.893055 84.29326 6.097473
64.79805 34.34526 35.11647
65.56105 32.86026 36.821472
72.11405 39.455257 39.521473
72.902054 40.057255 41.72547
13.651054 29.736252 16.489471
13.264061 31.658264 15.472473
22.98806 34.156265 14.272472
23.482056 36.253265 14.934475
54.454052 23.781258 4.2234726
54.593052 23.695251 1.9864731
63.775055 29.702255 0.6244736
64.554054 28.764252 40.715473
59.662052 76.33326 15.159473
61.58705 77.17026 15.959473
67.91605 80.340256 9.008472
69.152054 78.79626 8.027473
30.284058 77.715256 13.528473
28.837059 77.12926 11.738472
21.879059 71.242256 18.379475
20.80606 73.15826 19.438473
69.204056 54.40426 6.6264725
68.78205 55.096256 4.662472
6.6280594 56.624256 3.5104713
7.059059 57.490257 5.337471
13.700058 29.128265 11.745472
15.848061 28.344254 10.702473
22.956055 33.943253 11.147472
25.512054 33.01425 11.398472
36.48205 59.53626 37.521473
37.666054 59.04426 36.12247
44.347054 63.819256 32.236473
44.993053 64.80326 33.93347
25.718056 73.92925 3.9214706
24.768059 73.992256 2.0374718
17.910057 66.54526 4.6954727
15.916061 67.38826 4.840473
51.64205 70.341255 19.339474
52.755054 69.67226 17.859474
60.258053 73.97426 14.416473
60.87105 72.980255 12.492474
29.740059 90.74925 30.981472
28.44806 89.244255 30.830473
25.205055 95.30626 36.082474
23.939056 96.94125 37.16447
49.741055 67.592255 12.799473
51.836052 68.14226 11.696472
57.565052 76.02525 12.018475
57.061054 76.65526 9.819473
59.474052 34.827255 22.343472
58.140053 36.506256 22.493473
63.002052 42.373257 16.416471
64.624054 42.192257 14.789473
14.68206 47.831257 11.965473
14.147057 47.723255 9.819473
8.574059 43.327255 16.684475
6.2150574 43.583256 15.713474
56.227055 91.85126 24.556473
54.80205 93.62526 24.671473
61.49705 101.020256 22.019472
63.78105 100.63625 23.035473
12.484055 86.661255 23.428473
11.857056 85.384254 21.705473
2.6800613 83.34525 24.986473
2.648056 82.40326 22.699472
36.68405 15.7452545 18.372475
37.201054 16.363258 16.334473
46.405052 19.140251 15.096474
46.92805 21.742256 15.688473
22.635056 31.889252 1.651474
24.139061 31.905258 3.2674713
32.96106 33.879257 1.370472
33.555054 36.046265 1.3734741
57.325054 100.30826 5.203472
55.067055 99.93526 4.6594734
47.158054 95.66926 9.3884735
48.064053 97.506256 11.283474
20.316055 74.617256 24.718472
18.221054 76.27826 23.888472
8.992058 74.45525 26.269472
8.608055 72.46026 26.168472
17.365059 76.86226 16.103474
19.462059 76.21226 16.299473
25.472061 81.661255 10.761475
25.785057 81.19325 8.761475
65.00806 18.072258 24.843472
65.13005 16.844254 23.495472
55.435055 14.579254 23.138472
53.366055 14.654251 22.619473
12.213058 55.136257 10.665474
12.583061 56.414257 8.588474
18.514061 62.458256 5.118473
17.203056 64.145256 3.7874718
22.775055 40.630257 12.384472
22.063057 41.675255 10.862473
30.983055 42.462257 7.3504715
31.264053 43.792255 5.8504715
10.291061 62.462257 16.734472
8.296059 63.607258 16.454472
2.7510605 56.191257 21.617472
1.6780548 54.857258 20.112473
29.601059 13.807251 37.69747
29.938057 15.635254 36.46247
36.99106 20.703255 34.174473
38.496056 19.882256 32.755474
60.779053 82.33626 22.352472
61.500053 80.80826 24.054472
71.22906 85.23425 21.136473
72.21005 83.36326 21.996471
39.343056 47.205257 37.16547
39.621056 45.563255 38.339474
29.018059 45.64126 39.596474
28.608055 43.439255 40.714474
65.067055 82.36526 38.610474
64.95905 83.99026 36.88447
2.5240555 87.521255 36.716473
3.358055 86.232254 35.236473
66.34106 92.466255 11.566475
64.581055 93.89226 12.426472
57.033054 91.75226 17.160473
55.377052 90.80826 16.291473
38.509052 22.503258 32.236473
40.58005 23.286255 33.83147
48.73905 26.019257 29.848473
49.31005 28.242264 29.810472
32.613052 58.746258 30.103472
31.040054 57.39026 29.208473
21.625061 53.942257 30.985472
21.34906 53.749256 32.870472
48.391052 51.796257 28.250473
49.944054 51.256256 28.827473
57.550053 55.810257 25.750473
59.954052 55.588257 26.471472
34.681053 66.064255 8.527473
33.192055 65.10326 7.439472
25.554054 58.75926 10.991474
25.970055 56.707256 11.684475
50.110054 72.925255 21.719473
50.221054 74.76125 20.230473
60.696053 76.63625 18.677473
62.192055 75.47426 19.879473
65.63005 31.772263 4.5064735
64.36906 33.062256 2.8484726
54.630054 27.782257 4.4564705
54.105053 29.022263 6.0604706
27.175056 100.994255 6.458473
28.949059 101.10326 7.434475
37.708054 1.4062576 4.665474
38.956055 103.33425 4.122471
70.33505 56.267258 15.448475
72.25005 55.521255 15.793472
7.0360565 60.510258 13.544472
7.910057 62.706257 13.732471
5.856056 88.88625 8.609474
4.4700546 88.29226 6.9894714
70.68906 81.09726 9.082474
69.71405 82.286255 10.505474
71.04705 64.06026 22.100471
71.86105 63.545258 20.076473
5.1770554 69.87425 18.201473
6.914055 69.73325 19.670473
28.202057 20.573257 40.029472
29.974052 21.171257 41.292473
31.601059 29.701263 38.855473
31.157059 32.025253 38.153473
72.512054 27.831253 22.708471
0.7150574 26.670258 20.882473
70.026054 28.441254 13.460472
69.92205 30.338257 14.0534725
31.308052 0.27825165 18.398472
33.418053 102.47626 17.610474
41.007053 5.1582565 15.649475
41.12805 5.143257 13.025475
8.57206 10.067253 2.1294708
10.068054 8.445251 1.9174728
16.359055 15.926254 2.0444717
15.97406 16.416252 41.53247
10.223061 21.384254 38.03947
10.53006 21.352257 36.24647
17.59906 28.63826 33.870472
17.136055 30.316254 35.30147
39.861053 81.245255 6.6124725
40.43505 83.133255 7.3954735
47.520054 89.40226 2.7464714
47.887054 88.12626 0.6044731
47.744053 2.2652512 22.825472
48.228054 3.1112518 21.001472
57.008053 6.0452576 20.545473
56.826054 8.377258 21.017473
4.747055 41.764256 9.568474
6.8870544 42.091255 10.085472
14.167061 43.198257 3.3204727
16.291061 42.892258 4.5554733
25.818054 42.258255 32.647472
25.611061 41.390255 34.730473
20.055061 34.479256 37.832474
20.79506 32.764256 39.52547
0.21105957 57.496258 22.422472
0.5850601 55.333256 23.002472
64.75205 51.200256 25.715473
64.304054 52.788258 27.526472
4.5550613 32.535263 37.47647
5.1830597 32.397263 35.332474
14.473061 34.783264 33.834473
15.212059 36.245255 32.127472
35.386055 48.536255 31.233473
34.60206 49.290257 29.208473
26.342056 44.945255 30.120472
24.399055 44.236256 31.545473
69.68806 43.770256 41.840473
70.40705 44.183258 2.3594704
65.74205 38.731255 8.301472
63.974052 39.861256 7.431473
72.21105 59.818256 23.834473
72.56306 60.02326 22.063473
8.539055 66.607254 22.479473
9.994057 64.72726 22.358473
1.3140564 92.75026 37.752472
72.46405 91.438255 37.18547
65.46105 87.381256 0.48247147
64.76505 89.063255 2.2284737
43.343052 91.15426 27.320473
42.579052 92.63826 28.179472
45.98905 99.97226 23.813473
47.51105 99.479256 21.927473
47.160053 72.19325 14.595474
45.537052 72.634254 13.577473
37.340054 68.72426 10.773472
37.69905 66.381256 10.212475
24.388062 75.81926 41.743473
24.881058 77.635254 40.200474
32.90806 81.20525 39.04647
33.567055 82.06625 40.76247
28.859055 61.802258 31.802473
27.210052 62.455257 32.488472
19.28006 56.202255 35.94947
21.171059 54.963257 35.883472
15.200058 89.50126 37.902473
15.9750595 87.37225 38.22647
8.827057 80.81926 40.291473
7.497055 82.11526 39.300472
3.278061 74.218254 17.199474
3.62706 74.716255 15.379475
13.401054 77.63826 14.610474
14.797058 77.07326 16.367474
1.2630615 4.2402573 26.999472
3.0310593 3.9162521 24.925472
10.958061 7.9912567 23.207472
10.509056 9.810257 24.522472
53.033054 25.395264 40.78247
52.604053 25.228256 0.97447205
44.26105 22.251251 2.1614723
42.60805 23.876251 3.330471
0.04005432 1.2642517 9.037472
2.1610565 1.1132584 10.373474
10.66906 5.8202515 12.319473
10.508057 6.893257 14.536472
5.500061 65.909256 10.824474
5.0780563 64.145256 10.468472
69.29605 61.900257 10.799473
66.88205 62.095257 11.702473
56.36505 21.952255 33.62247
58.07305 20.648254 35.49647
67.79906 20.642258 34.264473
68.49005 22.810257 34.41547
22.33506 90.45525 15.964473
22.770058 88.26125 15.307472
15.662056 83.10825 19.023472
15.26506 82.03226 21.194471
42.53105 28.827255 17.364471
41.695053 30.467255 18.582472
34.097054 24.046257 23.379473
32.257053 25.865265 22.735472
31.43406 60.400257 26.777472
30.647057 60.831257 24.565472
36.220055 67.30926 20.917473
38.13006 66.617256 21.802473
35.992058 38.513256 6.283474
35.360054 36.30725 7.583473
28.219055 30.537262 6.9494705
26.271057 31.935257 6.681473
52.54505 66.70525 17.832474
52.842052 67.35226 15.747475
61.883053 67.15226 16.075474
62.251053 68.062256 14.058472
11.747055 42.102257 34.56547
11.684059 40.198257 33.597473
3.688057 36.514256 36.72047
3.9190598 35.194256 39.145473
54.648052 48.401257 3.6494713
56.813053 49.032257 4.3604736
64.70005 53.260258 0.4544716
65.441055 54.567257 2.212471
23.146057 34.260258 7.5514717
25.189056 34.001255 8.663475
31.869057 40.460255 11.470474
30.456055 42.265255 12.082474
53.105053 71.18626 27.314472
53.299053 69.43026 25.330473
45.708054 64.743256 29.337473
43.940052 66.35825 30.838472
19.423058 27.309265 22.588472
19.757057 26.837265 24.403473
29.33606 28.113266 21.488472
30.287056 27.066254 20.079472
20.91706 67.90626 17.674473
19.05606 68.12225 17.181473
11.47406 61.463257 19.041471
12.213058 60.077255 18.011473
68.39506 49.54426 33.904472
69.262054 50.267258 35.917473
4.0690613 54.10626 32.248474
5.2700577 55.49426 33.14847
72.28406 31.287262 17.364471
72.37505 31.232254 15.340473
8.041061 33.632263 12.901474
8.010056 35.669266 12.326473
4.78006 103.14025 18.709473
4.8310547 101.940254 17.200472
16.021057 102.01826 17.937471
16.648056 0.40125275 17.174473
21.088058 85.035255 7.2354736
19.430061 85.81825 6.5434723
11.050056 81.04526 5.9444733
10.271057 79.188255 7.5484734
16.582054 73.493256 11.085472
15.745056 73.43126 13.204472
7.597061 71.30826 17.376472
8.633057 68.80225 17.898472
35.35106 45.452255 23.953472
33.903053 43.958256 23.751472
24.499054 41.383255 24.906471
24.462059 41.64126 27.434473
72.46105 32.82025 26.628473
70.09905 32.90126 25.790472
66.15805 27.119263 28.438473
66.08905 26.684265 30.446472
28.602058 51.839256 17.639473
29.257057 49.463257 17.841473
30.429054 48.282257 9.0134735
28.558052 48.535255 7.1214714
33.01205 17.248253 9.558472
33.676052 19.066254 8.498474
42.478054 19.903252 5.9064713
43.61505 21.953255 5.037472
9.997055 103.85825 0.00047302246
8.554054 103.854256 40.196472
1.0960541 0.21925354 6.847473
72.12605 103.661255 5.8974724
56.432053 42.933258 40.65147
54.971054 41.092255 40.042473
48.78105 39.900257 41.39147
49.78205 39.928257 2.0584717
34.73906 70.74026 20.890472
33.902054 67.968254 21.188473
26.01706 68.50226 25.119473
26.213058 67.801254 27.182472
47.828053 47.578255 23.449472
45.675053 48.264256 22.406471
40.228054 41.828255 22.372473
40.13705 40.543255 24.406471
49.19905 25.132263 27.239473
50.362053 22.954254 26.923473
59.63505 28.675262 23.980473
59.848053 27.63826 22.018473
26.914055 11.685257 26.423473
26.841057 13.155258 28.392473
35.023056 18.610252 24.633472
37.03106 18.042252 25.551472
3.6700592 2.760254 32.859474
5.76606 3.4022522 34.096474
12.292061 10.525253 31.313473
12.327057 11.197258 29.062473
34.10905 98.01626 10.921474
33.22705 97.72226 8.993473
40.37805 0.29125214 7.2184715
41.97605 103.801254 8.448475
67.60506 90.368256 20.044472
67.28005 88.091255 21.783472
60.006054 86.20826 28.019472
58.276054 84.79426 26.874472
12.19706 75.94726 3.8974724
11.317055 76.92825 5.439472
1.9720612 70.81825 6.092472
0.51205444 72.11626 7.2794724
34.579052 20.900253 22.309473
36.07305 18.808258 22.047472
43.91305 24.064255 19.057472
46.182053 23.843254 18.511473
20.940056 40.991257 21.202473
20.43206 38.831257 21.980473
13.199059 35.235256 23.905472
11.583061 36.456257 22.771473
68.94605 79.69626 4.893471
70.13206 78.60825 3.8174706
5.0860596 85.69125 2.9574738
4.7910614 87.55526 2.389473
71.26805 41.696255 38.32447
69.495056 40.762257 37.88647
60.724052 39.406258 36.562473
58.652054 38.621258 37.307472
61.641052 46.199257 16.569473
61.325054 44.699257 17.913473
53.849052 41.872257 23.432472
51.911053 40.844257 22.579472
59.749054 14.387253 35.528473
60.894054 14.773254 36.78247
67.650055 19.093254 36.78847
69.92005 19.808258 37.325474
42.721054 14.153252 29.782473
42.175053 16.546257 29.186472
51.57305 18.694252 24.607471
51.181053 20.299255 25.716473
25.537056 53.323257 7.500473
26.907059 52.497257 9.214474
22.382057 45.349255 14.723473
21.839058 43.160255 13.557472
46.582054 100.662254 6.924473
45.585052 101.58425 5.622471
51.028053 5.359253 2.005474
50.98205 5.213257 41.744473
41.325054 38.78726 32.26147
39.661053 39.401257 31.084473
32.308052 37.832256 36.13747
30.096052 38.278255 35.772472
39.33806 16.909256 31.862473
39.32306 15.250252 30.365473
30.380058 11.505257 33.467472
29.353058 10.102257 31.951473
23.046059 13.756256 25.912472
23.452057 12.063255 27.089472
14.953056 8.180252 25.052473
14.364059 7.8182526 26.684473
32.992054 92.18426 1.2354736
33.877052 90.91325 41.897472
43.36605 95.770256 38.585472
44.716053 94.05726 38.451473
68.954056 72.771255 35.76647
71.038055 73.562256 36.450474
5.886055 78.27826 33.76247
4.9890594 80.024254 34.60747
13.44706 4.2692566 12.661472
13.04306 5.793251 14.110474
21.441055 10.592255 10.305473
22.05806 8.944252 8.468472
15.19606 38.53726 39.230473
15.603058 36.281265 39.38747
8.912056 33.47426 4.9284706
7.039055 31.962265 4.137474
54.24005 74.20826 38.377472
54.374054 73.08826 40.055473
46.81005 70.39326 41.902473
45.23905 71.993256 1.1164742
67.61706 49.657257 38.09447
67.10205 49.861256 40.228474
56.700054 47.160255 40.120472
57.450054 45.525257 40.939472
18.61406 77.64026 21.548471
20.18206 76.77525 22.181473
27.063057 80.61326 16.401472
27.451057 80.69826 14.204473
30.685059 6.727257 34.182472
28.265053 7.961258 33.44947
20.30606 6.7832565 34.28947
19.977058 4.635254 35.257473
35.870056 57.156258 35.050472
34.93506 56.020256 36.77647
27.025055 51.37026 38.660473
26.407059 51.456257 41.16947
34.26205 0.595253 25.898472
35.08005 2.786255 25.559473
37.832054 9.556252 23.221472
38.752052 9.096252 21.334473
28.049057 92.57326 35.153473
27.455055 93.938255 37.096474
20.104057 88.71026 41.242474
18.784058 87.68026 39.575474
47.343052 32.329254 31.582472
46.071053 31.517258 33.466473
41.050053 26.159256 30.784472
39.263054 26.206253 30.480473
48.808052 84.32526 26.712473
48.016052 84.13725 24.714472
52.147053 90.42925 18.789473
54.004055 89.27525 18.104473
19.421059 52.043255 25.415472
18.27806 50.654255 26.962473
12.042061 44.131256 23.522472
10.594055 44.756256 25.327473
9.137054 36.868256 19.638472
8.414055 39.05826 19.712473
0.5010605 34.594254 25.204472
0.7230606 32.824265 24.328472
59.021053 12.087257 32.36447
60.117054 14.310257 31.377472
69.28205 14.989258 30.536472
70.59006 13.097252 30.582472
24.380058 48.687256 34.87847
24.173058 51.525257 34.48947
33.24106 54.497257 30.166471
32.265053 53.234257 28.606472
17.342056 25.31726 28.634472
15.762054 26.628265 28.846472
10.462059 20.807251 30.728472
10.298058 20.465256 28.338472
53.676052 44.164257 31.886473
55.711052 43.786255 33.54747
64.29605 48.883255 32.443474
63.637054 50.182255 30.885473
2.0570602 27.951263 24.699472
2.134056 26.352264 25.999472
68.85306 23.407257 31.886473
69.525055 21.379257 32.41347
10.720055 89.49026 15.086472
10.754059 88.815254 13.022472
17.40606 94.259254 10.677475
19.241058 95.55225 10.814472
21.98906 100.58526 30.065472
21.158058 101.26225 31.878473
14.189056 95.78026 35.74047
13.216057 96.15125 33.710472
68.28205 14.673256 22.353472
66.763054 13.116257 21.518473
59.984055 6.3702545 21.134472
59.748055 5.1762543 23.042473
62.127052 74.60026 16.270473
62.69805 74.773254 13.760471
69.07606 75.468254 7.0134735
70.00305 74.020256 5.5084724
70.66905 96.687256 31.115473
72.082054 96.04226 32.67747
3.448059 0.6262512 34.57347
5.931061 0.22825623 33.14247
6.769058 27.772263 25.783472
5.712059 29.273254 24.646473
13.199059 32.040253 27.548473
13.920059 29.878265 27.423473
1.5840607 39.406258 39.42647
2.0420609 38.366257 37.71847
9.381058 46.053257 35.35247
7.948059 47.625256 35.828472
20.276054 39.457256 6.205471
22.200058 38.050255 5.948471
29.478058 44.802258 3.4264717
30.581055 43.341255 2.8554726
11.828056 95.091255 25.818472
11.33606 95.995255 23.774471
20.687057 98.01726 22.733473
22.139061 97.216255 23.872473
19.218056 77.94526 25.853472
20.537056 78.83926 23.916471
27.800056 85.91726 24.170473
29.710052 84.37626 23.482471
53.428055 79.30425 36.54547
54.322052 81.510254 35.874474
61.944054 84.83926 37.494473
62.683052 85.50226 35.28947
66.329056 24.035255 30.761473
64.10405 24.580261 28.955473
56.328053 19.757256 30.855473
56.127052 18.190254 29.692472
52.44105 38.75426 15.017472
51.21205 38.13326 17.009472
42.794052 34.353256 21.162472
43.19105 32.271255 20.556473
45.193054 32.05226 22.649471
45.924053 30.585266 21.675472
55.525055 36.650253 20.176472
54.25305 38.538258 19.776472
65.23605 55.68226 35.064472
66.11405 54.260258 33.67647
0.032058716 57.962257 29.495472
0.72206116 59.837257 29.771473
20.607056 32.51425 0.30647278
19.254059 33.85826 1.5664711
10.65406 27.33226 1.5844727
9.135056 28.865265 2.231472
42.979053 44.777256 4.0104713
43.235054 44.14826 1.493473
51.842052 47.078255 40.21247
54.242054 47.140255 41.40147
66.025055 7.9692535 2.8884735
64.982056 8.5592575 0.46847153
1.110054 9.220253 37.10947
3.2030563 8.143257 37.33047
14.33506 31.591263 19.381472
12.788055 30.34726 18.802473
7.0980606 25.83226 24.020472
5.8920593 24.534256 23.179472
41.543053 3.654251 9.970474
41.35105 2.5592575 12.016472
31.029053 0.75525665 11.705475
29.483053 1.2832565 10.084473
52.770054 41.100258 29.609472
51.888054 43.740257 29.966473
48.48205 34.444256 33.465473
46.632053 33.66926 34.835472
2.7390594 85.86326 39.42847
2.327057 88.09525 39.55347
67.524055 85.94325 2.2234726
66.78606 83.91325 2.5684738
19.243057 1.5532532 28.567472
17.82106 0.7052536 26.725471
9.139061 100.62926 27.057472
10.174057 98.50326 27.948473
0.28505707 27.052261 13.445473
0.65406036 24.755264 13.779472
64.969055 20.121254 16.292473
63.937054 19.654251 18.714474
69.98605 98.37826 37.104473
71.12705 98.66926 39.597473
5.754059 103.30225 38.55947
5.045059 0.3302536 36.75547
14.098061 62.695255 32.25447
14.2740555 64.35926 33.41947
24.15406 65.591255 31.029472
25.104057 67.68026 32.32247
64.206055 90.40726 8.862473
64.65505 89.17825 10.867474
54.777054 85.10825 8.6384735
54.416054 83.15726 9.529472
7.1090546 83.79626 4.451473
9.68306 84.15226 5.2794724
15.76506 87.078255 41.18447
14.593056 89.32526 40.78947
56.85805 90.10825 26.837473
57.952053 89.96026 29.674473
67.538055 92.065254 27.525473
67.789055 89.982254 27.394472
10.060059 55.614258 7.4644737
9.596054 54.916256 9.894474
0.99505615 50.466255 9.839474
1.374054 48.62026 10.898472
4.2650604 29.523254 31.024473
2.490059 30.296265 32.472473
69.43806 25.325256 35.471474
67.28505 26.402252 35.41547
3.471054 0.5992584 21.053473
1.639061 103.675255 20.350471
67.317055 97.59525 21.061472
66.14105 99.41325 19.877472
56.99005 71.33426 41.377472
58.571053 70.65226 0.863472
67.67406 74.69526 41.42847
68.46205 75.66626 39.80447
12.823059 68.451256 33.014473
14.112061 69.10825 35.167473
21.402061 70.21925 31.478472
23.235054 71.010254 30.165472
43.043053 28.129257 12.933472
43.877052 27.435257 10.973473
51.958054 31.542252 9.098473
53.685055 29.636261 9.163475
6.6820602 12.028252 1.7514725
7.313057 13.145256 3.9714737
12.285057 21.435257 1.264473
11.163055 21.908257 41.76247
21.51606 22.853256 32.65547
19.25306 23.775253 32.53847
11.066055 20.507256 33.71347
9.79306 18.699257 34.701473
66.763054 48.034256 31.537472
66.61305 49.985256 31.222473
1.5660553 55.226257 28.435472
3.4150543 53.823257 28.857473
51.10205 0.2602539 36.867474
51.484055 102.05926 36.46947
42.050053 98.43226 37.51047
42.638054 97.29226 35.87947
40.791054 12.013252 30.712473
41.544052 13.019257 33.174473
33.15605 8.337257 34.45447
31.471052 9.403252 34.99747
18.332054 21.726257 18.193472
18.187057 21.230255 20.646473
9.133057 18.614258 21.448473
8.37706 20.180252 19.709473
47.09405 27.371262 25.803473
48.979053 26.977264 24.864471
55.804054 35.05426 23.715471
55.49605 37.30426 23.198473
24.450058 56.339256 7.8134727
24.384056 55.545258 9.903473
17.177055 50.152256 10.956474
17.325058 48.248257 11.155472
61.661053 88.091255 0.7874718
60.687054 88.82226 41.40747
53.645054 83.51826 38.26147
52.258053 83.20525 36.610474
64.485054 73.510254 20.047472
65.77905 71.938255 19.396473
71.18605 80.118256 15.344472
0.09005737 79.31026 16.602472
64.704056 5.956253 40.931473
64.93705 5.1202545 38.62847
72.874054 8.252258 34.883472
0.98205566 6.286255 34.53347
8.298058 96.730255 24.078472
6.7250595 97.24126 22.902472
0.6810608 89.39126 25.160473
0.5300598 91.62425 26.045473
7.028061 102.82025 35.244473
6.8830566 101.510254 33.847473
1.4440613 97.07326 40.189472
3.4230576 95.881256 41.89447
11.232056 3.6322556 10.123474
12.539055 2.0542526 10.667473
4.5130615 98.84625 12.469475
2.4600601 99.63725 12.545475
10.685059 70.006256 39.071472
10.686058 69.09826 41.139473
6.438057 62.811256 4.2134705
5.3920593 61.211258 3.0964737
48.971054 11.414253 4.0884705
50.381054 11.267258 6.3764725
41.39905 6.4812546 9.849472
42.229053 7.129257 11.9144745
51.152054 48.00226 33.34547
53.145054 47.060257 32.15547
60.457054 50.188255 28.373472
60.569054 51.521255 26.893473
61.148052 98.701256 14.946472
60.299053 100.63026 16.020473
52.655052 95.31926 17.841473
52.391052 92.870255 18.241474
17.622055 69.95625 9.348473
16.914055 68.494255 7.5204735
11.826057 61.69626 14.905472
9.989059 60.834255 13.322472
47.403053 6.836258 31.364473
49.118053 5.9932556 30.500473
56.324055 13.326256 30.261473
55.949055 13.869255 28.159472
15.5240555 95.80225 4.5844727
14.298058 97.50126 5.379471
4.931061 92.46326 7.056473
6.1790543 91.492256 8.660473
25.881058 34.109253 15.189472
27.091057 33.516266 13.3504715
36.594055 38.015255 12.809475
35.40606 39.40826 10.711472
51.825054 8.687256 4.9734726
53.923054 7.718254 5.663471
55.784054 18.082253 3.5984726
57.395054 17.610252 2.1144714
53.936054 83.07426 3.5794716
51.704052 82.39226 3.1074715
43.943054 77.397255 4.585472
44.341053 76.14026 2.5414734
25.819061 56.341255 14.420475
25.138062 54.382256 13.235474
20.690056 49.139256 18.551472
20.899055 46.811256 18.728474
71.316055 33.526257 15.518475
70.79906 35.556255 15.573475
5.0540543 39.604256 11.041473
7.0120544 40.352257 12.296474
45.056053 30.481262 28.441473
44.353054 32.59825 29.053473
