48.745697 78.46955 1.6038818
49.4507 1.323555 2.27388
30.430698 10.032555 26.016878
29.437698 11.665555 27.446878
23.000698 3.389557 29.129879
25.156698 3.2845535 29.551878
57.1187 7.807556 47.57588
58.056698 6.3865585 46.381878
48.154697 1.9125519 43.24088
49.0897 79.30055 43.230877
12.564697 17.402552 37.67688
12.915695 17.319551 39.659878
5.1256943 11.107552 42.800877
7.016693 10.683551 43.85788
27.697699 40.125553 32.41788
26.803698 41.56655 34.08688
33.6237 49.31755 36.23288
35.3037 48.98755 34.88788
29.882698 76.40955 37.93688
31.735699 76.975555 39.39088
36.676697 4.165558 33.59288
37.600697 3.873558 31.634878
62.2567 9.157551 12.129879
63.8097 7.862551 11.668879
68.511696 17.31355 11.780879
70.9927 18.207552 12.353879
2.2496948 2.9075546 16.09488
0.3666916 3.7875519 15.074879
76.6187 76.62055 19.47288
74.4127 75.98456 18.516878
22.158699 25.75855 30.182878
22.718697 24.884552 27.716879
24.280691 15.949552 25.075878
26.528692 16.982552 24.48388
64.8217 65.98455 8.520882
65.1567 66.405556 6.5128784
71.7157 72.574554 4.8598785
73.4637 71.41155 4.2048798
29.300697 62.35955 43.313877
30.240698 62.23255 41.242878
35.9787 68.47355 37.96888
38.426697 68.408554 38.28788
50.995697 21.777552 9.09988
53.454697 22.39355 8.862881
54.938698 32.055553 6.1128807
54.1017 33.42155 4.181881
29.847698 47.97255 5.985882
31.741697 46.543552 6.957882
38.919697 52.70855 9.86488
39.6187 54.905552 10.56488
71.374695 77.644554 15.563879
72.4617 75.86256 16.092878
62.9347 71.394554 15.763879
62.6867 68.74955 15.466879
76.388695 47.08955 7.7368813
75.903694 46.668552 5.7498817
67.2287 45.27155 8.56588
67.1417 43.15155 9.36388
41.028698 63.53855 30.77888
40.3997 64.711555 28.688879
45.9437 72.213554 27.54988
46.9067 72.70555 29.247879
30.063698 34.16955 22.54888
27.935698 34.362553 23.046879
21.634699 27.239552 26.754879
20.526697 28.59255 26.947878
75.00169 70.518555 47.95688
76.6637 68.55555 48.10088
2.9686966 72.12355 46.58188
2.4896927 70.170555 45.26188
45.125698 62.807552 43.104877
44.4657 64.92955 42.680878
52.0257 70.04155 45.33688
52.6527 68.58155 46.85188
33.391697 62.94055 8.926879
33.726696 61.363552 7.161879
25.850698 54.72955 11.390879
25.470697 55.12855 13.355879
20.469698 57.63855 6.98188
21.993698 59.22255 5.973881
31.152699 62.07755 4.570881
30.039698 64.02255 3.7438812
24.601698 68.32955 42.67088
26.073698 66.710556 41.45688
32.302696 74.851555 40.930878
33.521698 74.33355 39.19588
9.552696 75.03455 15.110879
11.092697 74.48155 16.513878
18.3947 78.86256 11.759879
20.606697 78.41856 10.356879
53.7897 60.66955 17.006878
54.785698 61.43855 14.879879
62.0407 66.75755 12.391879
61.7737 67.39555 10.416879
70.0357 20.631552 17.964878
69.886696 21.384552 20.22688
72.7437 19.374552 25.002878
73.86269 20.360552 26.08088
10.513695 15.505551 20.582878
8.575699 15.924551 20.692879
0.9916916 9.446551 21.418879
2.2396927 8.185552 23.259878
20.012697 66.88155 25.237879
22.170698 65.88455 24.86588
29.551699 72.15155 24.391878
31.330698 71.53955 25.075878
17.924698 57.30255 44.299877
17.783699 57.231552 41.861877
24.137693 65.22855 43.22788
22.901695 66.04356 40.87788
44.8537 6.771553 2.858879
42.7847 4.9315567 3.7158813
40.4587 77.032555 6.742882
40.0117 75.77656 4.804878
65.5487 68.66555 19.81288
64.2027 69.66355 21.11588
55.2267 62.91555 21.82988
54.369698 63.63855 23.574879
24.808699 37.264553 11.6828785
25.080698 37.83055 13.625879
27.310698 47.09055 10.358879
28.854698 48.06255 9.329879
46.697697 56.76055 33.26088
44.7157 57.501553 33.94988
40.1707 50.24255 39.54388
38.066696 51.52755 40.402878
61.5527 24.32855 47.73188
59.418697 22.969551 47.51788
65.623695 16.948551 0.76887894
66.7597 18.791552 2.0578804
57.2907 60.05155 23.591879
59.1857 59.60855 22.67788
67.358696 64.44255 22.804878
66.358696 66.33055 22.27088
51.278698 58.293552 0.2948799
51.1707 60.134552 0.41287994
60.369698 62.93155 46.94688
62.2627 64.033554 48.418877
54.514698 31.40755 43.61688
53.599697 30.799551 42.13088
47.146698 24.236551 46.66488
46.7277 23.812551 48.536877
61.2017 33.48455 27.623878
60.4407 32.348553 29.325878
54.625698 24.660551 29.533878
54.667698 22.69655 28.294878
81.8677 31.17955 20.68088
0.036697388 32.042553 18.727879
6.0296936 38.55455 17.027878
5.8156967 40.77455 15.896878
28.198698 15.377553 29.397879
29.146698 13.524549 30.291878
22.688698 5.9895554 32.94988
21.732698 6.2755585 35.21888
55.0977 46.54655 33.71788
57.1737 45.21355 32.53388
63.6847 53.42355 30.379879
62.8167 53.04155 27.966879
60.299698 70.335556 15.118878
58.9207 71.62656 15.335878
52.4137 62.80555 13.398879
51.4577 63.29155 14.8668785
77.723694 4.167557 43.721878
78.2387 3.210556 42.18488
2.5986938 9.670555 38.08688
0.9496918 11.387555 36.94588
80.358696 57.69355 41.772877
79.733696 56.20655 39.81788
72.431694 51.01255 40.82788
71.1607 51.41055 39.22388
77.6887 14.067552 23.346878
75.816696 13.504551 22.75688
67.916695 9.548552 25.978878
66.37669 8.025551 25.925879
18.2967 19.840551 7.0668793
17.484695 21.648552 7.959881
24.463697 28.180552 3.747879
26.610693 28.27555 3.771881
60.8677 33.94355 18.148878
60.0867 31.93955 16.936878
51.348698 30.49555 22.80588
50.528698 28.53255 23.64688
24.735699 40.37355 25.141878
25.620697 40.31155 23.040878
33.6367 44.89455 19.63588
34.056698 46.26855 17.707878
13.957695 41.88755 42.465878
13.4096985 41.792553 40.478878
18.7827 46.564552 35.26888
19.912697 48.67455 35.42988
39.4077 0.7385559 17.796879
39.4507 78.21655 19.47688
31.925697 74.81655 17.556879
31.385698 74.946556 15.294879
56.6997 62.01255 31.267878
56.9397 59.90755 30.782879
47.251698 55.55355 30.887878
48.5697 54.05155 31.784878
2.8286972 48.24055 25.44888
1.8796921 50.78755 24.537878
11.106697 53.47655 20.894878
11.652695 55.84755 21.654879
11.491699 58.203552 24.63988
8.8657 57.67655 23.755878
2.7136917 51.870552 27.089878
0.83169556 52.42355 26.444878
35.8747 26.63755 27.18488
37.612698 25.51255 27.121878
44.2977 30.257551 22.747879
43.767696 31.923552 21.813879
68.540695 13.962551 45.501877
66.638695 15.183552 45.819878
58.1697 10.188551 46.80388
57.8127 10.898551 48.847878
18.375694 71.61055 31.97688
18.415695 72.70855 34.29088
24.566694 79.266556 35.40788
24.860693 79.392555 33.20588
75.568695 0.27855682 22.942879
75.77969 0.06655121 25.188879
78.984695 8.804558 27.29288
81.3427 8.488556 27.58788
76.290695 39.155552 27.395878
75.5787 41.194553 26.928879
80.0307 47.293552 22.161879
81.4207 49.502552 22.71188
34.125698 71.66655 21.04188
34.4847 71.44055 18.679878
43.820698 76.35655 21.320879
44.7367 75.50056 19.27088
78.3127 65.56555 5.553879
80.3787 65.227554 5.56588
4.971695 69.948555 3.2108803
6.197693 71.38655 4.0318794
71.7717 65.989555 32.32788
72.1637 68.17855 32.53688
78.000694 74.60755 28.676878
79.9647 75.226555 30.057878
12.519699 10.982552 14.422878
12.114693 11.443551 12.079879
18.624695 19.047552 9.6498785
19.760696 17.139551 9.446878
38.007698 26.87955 31.645878
37.8877 27.812551 29.848879
45.432697 33.02655 26.245878
44.8397 34.784554 27.026878
3.9116974 34.32555 7.000881
2.082695 33.40855 5.889881
79.1317 29.149551 8.170879
76.9477 27.97055 7.0858803
29.456697 65.54356 46.07288
30.504698 67.22955 47.60888
35.4447 73.71955 43.610878
36.626698 74.42455 45.299877
40.2127 44.82755 33.249878
40.1457 43.905552 31.339878
47.9567 49.82755 28.296879
48.0947 49.78255 25.97988
67.7957 62.50455 18.157879
67.859695 60.35055 19.31288
60.9237 54.91755 23.070879
61.8607 53.09855 23.672878
66.247696 17.615551 47.500877
67.7387 17.781551 46.07188
74.2277 24.611551 43.85888
73.5637 26.26955 42.30188
63.6937 26.01855 10.988879
61.1837 25.805552 11.603879
58.6487 19.621552 17.234879
56.5467 18.322552 18.057878
36.6657 20.15055 10.267879
34.640697 20.447552 11.4588785
26.498697 18.106552 7.802879
25.488697 16.312551 8.478879
56.5177 6.7745514 39.22688
56.7127 8.181551 37.34188
65.3657 13.979551 41.87788
65.7157 15.767551 40.339878
50.253696 25.343552 18.293879
50.439697 26.60955 16.12188
57.7617 32.22655 15.310879
57.2757 33.841553 16.13988
44.599697 25.628551 45.95488
45.745697 25.29055 44.577877
50.1087 33.26855 41.80888
51.4697 32.716553 39.50188
38.2227 61.29755 18.134878
39.405697 60.35055 16.894878
45.0557 69.33355 15.808879
46.503696 68.40255 14.313879
79.2707 57.321552 34.16888
79.4507 55.20655 34.00088
72.8237 49.76155 37.63488
70.7457 48.634552 36.30488
43.593697 21.13055 36.26888
45.3477 20.55055 35.548878
49.883698 26.11255 30.076878
51.9297 27.305552 30.648878
4.1926956 60.07655 19.525879
2.207695 61.17255 20.11488
80.459694 54.35455 26.60188
80.8657 53.65855 28.616879
22.461699 1.0815582 19.45888
23.493698 1.7895584 21.43788
24.687698 10.975553 16.440878
25.418697 12.329549 18.470879
47.1497 26.11255 3.0748787
45.404697 27.70355 1.6968803
52.1437 33.134552 46.05188
50.8467 34.80355 46.06588
75.053696 17.123552 25.32688
74.7747 15.866551 23.855879
67.0097 11.123551 23.827879
66.4627 10.757551 21.338879
56.9347 34.78355 11.026878
57.2847 32.549553 10.137878
48.522697 28.31755 13.861878
48.0747 26.962551 11.891879
41.787697 1.6295547 34.39488
43.3167 0.12555695 35.242878
37.4297 70.22255 36.34988
35.427696 71.10855 37.62888
37.891697 46.42355 32.16588
37.3397 44.60855 33.96788
30.741697 38.382553 32.80888
31.715698 36.75355 34.15688
40.799698 12.2135515 12.7748785
40.410698 12.725553 14.780879
33.807697 5.993553 16.540878
32.892696 6.0255585 18.67688
26.613697 16.408552 19.637878
26.552698 16.596552 21.71288
35.573696 20.257551 18.890879
38.0407 20.381552 19.20888
11.355698 47.25555 48.61488
10.367699 48.77455 47.89388
16.154694 55.93855 46.966877
17.336693 57.272552 48.03088
66.3697 67.16555 28.63988
64.233696 67.240555 29.893879
60.7257 59.71555 33.33588
59.7817 61.10055 34.402878
72.1877 6.9075513 38.76288
74.012695 6.3945513 37.38488
81.3647 12.857552 34.91888
80.7567 14.664552 34.06788
19.082695 66.09455 21.779879
18.812698 64.99255 23.790878
12.9207 60.557552 26.129879
13.077698 61.16555 28.086878
4.4226913 73.44355 0.15687943
4.5576935 74.39555 47.11688
14.396698 76.252556 43.74688
14.1336975 78.170555 42.26088
48.731697 3.0765533 5.1518784
50.710697 2.4115524 6.1528816
58.5477 5.9615555 5.2308807
60.271698 6.287552 6.53788
22.296698 11.706552 0.49887848
24.241697 11.661551 1.2368813
31.848698 17.510551 47.556877
33.5337 16.804552 46.67188
62.9707 10.200554 23.234879
62.279697 9.852554 20.95588
54.7967 5.809555 22.268879
54.056698 6.5225525 24.05288
72.678696 35.56755 12.363879
72.694695 33.50355 12.441879
63.9567 28.851551 13.428879
63.7207 27.76955 14.986878
68.8127 32.972553 45.48288
69.0307 31.36955 46.12188
62.5827 25.087551 1.0898819
61.3677 26.72055 1.1848793
42.7357 74.78555 13.933879
43.001698 72.56955 13.837879
34.913696 67.072556 16.460878
35.7707 64.92755 16.46988
42.6087 60.76855 33.51888
42.620697 60.90755 31.05288
34.093697 57.51455 31.296879
32.447697 55.95155 31.21988
74.7287 55.40855 16.647879
74.8517 57.17755 15.738878
80.4507 62.54955 10.810879
80.941696 62.10155 8.508879
0.69169617 17.62955 0.49588013
2.4466934 17.420551 48.13588
7.9136963 23.79055 2.214882
8.9446945 25.62955 0.95288086
1.1106949 30.73055 33.13488
1.259697 29.83555 34.93988
73.1467 28.00255 36.21888
73.4607 28.24455 38.54288
21.381699 50.28555 40.95588
19.232697 50.54955 42.21388
15.144699 43.655552 47.23888
14.369698 45.40855 46.624878
13.496696 77.83256 39.56088
12.2547 0.029556274 40.13288
3.7306976 73.70755 40.17488
3.6746979 71.72155 40.749878
48.516697 37.493553 48.84288
46.6167 36.46955 0.37387848
43.8247 29.40255 6.1668816
44.9087 28.903551 7.7328796
70.1577 32.397552 48.28088
72.137695 31.94355 48.78288
80.332695 37.77755 45.52488
79.375694 37.91255 43.381878
3.8436966 34.15255 48.397877
3.5836945 32.319553 0.22488022
78.1317 28.37755 3.6448784
78.8277 26.37355 4.2048798
16.957695 1.2945557 48.40588
18.538696 0.21155548 47.31088
26.939695 4.7605515 46.876877
27.516691 4.345558 44.944878
77.693695 41.21455 42.904877
79.6557 40.63155 42.173878
3.160698 48.63155 37.98088
3.756691 50.50555 39.44288
73.0227 54.02555 7.4998817
72.1187 53.32555 9.743881
65.2987 48.508553 12.7488785
63.2397 47.63555 11.832882
41.035698 48.905552 2.261879
39.7277 50.52755 3.6028786
31.424698 44.93755 4.702881
29.926699 46.30555 3.8008804
15.999695 17.064552 43.05988
18.050697 16.305552 42.569878
26.032698 21.090551 41.17988
27.720694 20.39455 42.66488
6.528694 0.15455627 30.335878
7.8996964 78.38555 29.76488
2.8376923 68.69455 31.967878
4.9866943 67.87355 31.30988
30.589699 67.25055 13.306879
28.757698 66.90955 14.045878
22.277699 64.18955 17.682878
20.712698 62.49755 18.828878
66.8077 24.253551 16.379879
66.122696 24.89355 17.90688
60.813698 16.97055 17.49088
62.1277 14.684551 17.078878
40.912697 11.949552 2.7238808
40.778698 13.699552 3.0658798
49.760696 15.386552 48.257877
49.806698 17.34855 0.34088135
54.662697 60.446552 10.113879
55.217697 59.592552 12.167879
64.6757 63.97655 12.986878
63.924698 64.72255 10.913878
59.9847 23.500551 44.534878
58.2327 21.933552 44.833878
56.924698 13.985551 0.033878326
57.1507 15.048552 1.7258797
76.3707 37.549553 22.846878
76.3937 35.627552 21.88888
69.374695 30.215551 24.61088
67.0797 29.95455 24.75788
13.999695 54.467552 25.487879
15.567696 53.89555 26.897879
22.413696 61.508553 26.13988
22.7697 62.62855 27.887878
31.652699 34.15255 33.13788
33.6117 33.244553 32.81188
39.9077 40.52655 29.773878
40.884697 41.298553 31.569878
9.603699 49.08455 3.4918785
7.7706985 49.13555 1.9158783
2.2306976 42.168552 6.101879
0.42869568 43.689552 6.9348793
65.1997 31.93255 40.95388
64.1877 33.382553 39.36988
57.7347 25.46755 37.30788
59.043697 24.555552 35.78588
28.320692 61.182552 38.67188
26.87869 60.81755 40.43188
18.833694 55.60055 38.437878
16.410698 55.65655 37.88288
66.567696 37.11055 37.23988
65.6697 38.96455 38.59588
71.1187 45.85955 36.80888
71.234695 46.71255 38.666878
73.040695 42.93355 29.651878
74.360695 43.56955 27.909878
0.5806961 49.05155 30.055878
1.0906906 48.252552 27.505878
56.1867 16.141552 4.139881
58.5647 15.606551 4.1498795
66.873695 16.01555 7.0408783
67.5097 17.240551 9.436878
59.6837 36.028553 17.07388
59.855698 34.67755 15.141879
53.5837 38.15655 9.785879
53.6027 38.661552 7.645879
13.223694 68.47955 12.43288
13.051697 70.77455 11.88488
19.139694 75.047554 6.7708817
18.281693 77.39855 5.719879
23.517698 35.180553 9.978882
25.122698 34.724552 9.035881
32.3257 40.43455 3.9158783
31.372698 42.31655 3.417881
72.8077 76.741554 12.945879
71.066696 75.74455 11.872879
65.9067 67.547554 14.847878
64.4077 68.02755 13.466879
3.257698 50.48455 34.58288
3.667694 52.16955 34.10788
11.693695 57.09455 34.09788
13.1017 56.10755 35.11188
13.092697 56.69955 29.443878
11.930695 55.79155 30.936878
3.9886932 50.092552 31.79288
2.6496964 51.00455 30.353878
67.858696 10.924551 33.79688
69.414696 12.305552 33.006878
76.8147 17.84155 32.51688
76.7017 17.108551 30.695879
10.328697 61.36755 27.30988
8.5187 62.43155 27.668879
16.362694 69.32055 23.769878
17.431694 67.59755 23.04188
25.586699 62.779552 35.22688
27.888699 63.23255 35.49688
32.197697 70.75655 30.665878
31.165697 71.40355 28.599878
51.549698 72.16155 37.80888
51.801697 69.82755 38.79488
41.7627 68.04356 37.53988
41.2977 65.81755 37.41388
34.628696 7.9535522 28.53588
33.5417 9.080551 26.326878
44.628696 11.131551 25.116879
44.3037 13.196553 24.762878
55.8057 68.58455 34.91388
54.4857 70.200554 34.13488
59.5177 76.39755 28.047878
58.0467 77.91556 28.569878
20.294699 42.273552 12.545878
21.060698 44.57355 12.4658785
27.355698 50.57355 12.5248785
27.416698 52.63155 13.107879
62.9837 26.330551 8.588879
63.2327 24.42155 8.664879
58.8777 15.909552 11.958881
56.7617 15.502551 11.421879
27.935698 22.292551 38.97288
27.423698 24.000551 39.971878
31.251698 31.57455 33.05388
32.8537 30.406551 32.56188
16.151695 49.890553 27.034878
16.730698 49.189552 28.977879
8.480698 43.10555 29.900879
7.505699 44.29255 28.52188
75.4497 10.72955 16.06988
76.306694 9.398552 14.414879
68.8807 3.8365555 17.39288
69.5907 1.5135574 17.51788
43.2137 51.11755 7.4658813
42.6647 51.078552 9.656879
34.6597 44.17255 10.493881
33.085697 43.210552 9.21088
31.583698 32.50655 37.08488
32.4167 33.348553 39.34988
24.554697 26.89755 39.88388
26.148699 26.323551 41.06588
15.361694 66.099556 10.693879
15.6826935 67.34055 12.892879
21.280693 75.55556 12.641879
23.244698 75.64755 11.846879
72.902695 9.8105545 47.96188
70.653694 9.733551 47.514877
62.5127 5.331558 48.63488
60.7637 5.929558 47.756878
75.5507 45.88255 41.58488
73.998695 44.63755 40.40788
65.7277 40.828552 40.75788
64.2697 39.557552 42.11688
54.7837 61.06955 24.24088
55.2217 59.154552 24.981878
45.6997 55.13755 25.650879
45.897697 53.273552 27.259878
28.574697 5.870552 0.98888016
27.997698 6.974556 47.931877
36.8877 11.391553 48.58588
37.3667 12.669553 47.493877
39.299698 33.22655 10.025879
37.967697 33.36555 11.937879
33.787697 26.92855 13.397879
32.8337 26.62455 11.746879
68.430695 20.929552 14.670878
67.7667 19.495552 13.232879
65.8377 11.302551 17.589878
63.875698 10.477551 16.077879
56.5597 65.519554 35.18388
56.2347 63.44355 36.33488
49.0747 56.81755 34.35788
50.107697 55.73755 36.013878
48.655697 10.017555 32.88388
50.7277 8.758553 33.62788
46.9867 0.3125534 37.95388
44.8257 78.87656 37.43588
4.231697 62.300552 17.089878
5.650696 63.71255 17.921879
13.455696 66.58155 14.296879
15.394699 66.48255 15.675879
27.175695 76.89855 30.445879
25.910696 75.13756 31.74088
19.939697 70.77655 35.66388
19.736694 69.61755 33.49588
59.730698 13.118551 12.736878
61.4907 13.644551 14.625878
64.374695 20.35255 9.440879
66.3787 21.805552 9.631879
29.709698 66.17955 9.037879
28.370699 66.30255 10.521879
21.992699 60.72955 13.832879
22.666698 58.63655 13.778879
43.7277 40.377552 32.10288
43.883698 42.05155 33.33488
51.093697 48.19455 31.821878
51.044697 50.64955 31.732878
77.1477 5.738556 6.1248817
76.373695 4.290558 4.72488
66.7967 1.5105515 6.5438805
66.0307 2.3175583 8.554878
55.0247 55.80955 9.124882
56.9467 55.06155 8.131882
64.6077 61.38055 5.7568817
65.220695 63.45455 6.9538803
18.690697 50.77555 33.02988
17.541695 49.703552 35.00588
9.123695 45.10155 37.94188
8.007698 44.83355 36.03588
20.025698 23.358551 20.94188
21.819698 24.561552 19.984879
29.607698 27.385551 21.261879
30.816698 25.19655 20.544878
45.9787 29.076551 12.077881
45.535698 30.81355 11.27388
53.5627 35.69055 7.789879
54.0977 35.83055 5.3268814
16.5747 30.996552 24.07288
17.9347 30.104551 22.83788
24.920698 37.597553 24.169878
26.817694 38.01355 22.463879
44.9637 54.015553 19.320879
44.849697 56.168552 20.182878
51.001698 60.46255 14.223879
53.023697 59.384552 14.041879
42.418697 9.546555 3.6878815
40.4517 8.765556 2.4958801
34.566696 1.7455521 4.9048805
34.990696 0.6925583 6.6758804
31.800697 51.37855 1.7948799
33.724697 53.38755 2.1398811
38.8317 56.15655 8.125881
40.0957 54.65155 7.667881
30.142698 3.448555 5.14188
30.743698 5.5325546 6.193878
38.086697 9.962555 1.5868797
37.496696 12.321553 2.0908813
3.9526978 21.035551 13.683879
2.2976913 20.45655 13.296879
79.678696 12.445551 14.607879
80.428696 10.272552 14.109879
76.233696 40.451553 34.10888
77.0037 41.216553 35.59588
3.6536942 41.659554 31.963879
4.6826935 44.02855 31.61888
30.321697 43.11955 0.2528801
28.275698 42.305553 0.035881042
21.223698 38.25355 4.9348793
22.270699 36.32355 5.76688
24.146696 23.492552 37.12088
21.833694 22.625551 36.59588
12.1336975 21.83455 38.29988
12.631699 19.929552 38.80888
58.522697 72.87656 5.4678802
57.4987 74.99255 5.0348816
63.9747 77.88255 46.66388
65.2877 75.908554 45.70388
8.752693 30.17955 1.7648811
7.9656982 29.25155 48.721878
16.389694 30.10555 43.140877
18.156693 31.04355 44.265877
34.968697 19.46055 5.3458786
34.750698 17.181551 6.07288
28.434698 11.707551 10.7418785
28.459698 13.227551 12.665878
56.397697 61.30455 28.503878
55.9517 62.09855 26.555878
64.8937 67.727554 26.21288
64.1617 69.615555 23.991879
19.869698 74.157555 44.77488
18.137695 74.93156 46.431877
10.801697 67.004555 47.90188
11.014694 66.099556 45.76788
74.749695 23.503551 32.19988
76.0357 22.66855 30.697878
3.1666946 27.382551 31.30988
3.9906921 26.82455 29.238878
28.271698 29.29655 19.67788
27.939697 30.809551 20.93388
24.616697 35.689552 18.185879
25.414698 35.855553 15.797878
29.004698 37.68655 29.762878
31.529697 37.31655 30.206879
39.0897 43.07955 28.822878
40.070698 44.78355 27.369879
76.264694 13.182551 16.797878
76.3227 14.145552 14.839879
0.079696655 21.84955 12.589879
80.48769 20.92155 10.726879
52.0547 61.56055 8.6808815
54.127697 62.13655 8.216881
60.626698 67.25055 7.473881
62.3477 66.33455 7.6498795
11.827698 65.672554 7.8078804
9.924698 65.77655 8.84988
5.1236954 57.51355 9.777882
6.1056976 57.06055 11.765881
43.2897 54.17155 8.261879
42.2547 55.773552 9.574879
50.2957 62.54255 6.16288
51.2917 61.29855 4.2378807
27.093699 78.644554 27.303879
26.653698 1.3775558 26.011879
32.462696 7.694557 30.228878
31.066698 9.303558 30.965878
30.723698 21.917551 8.56588
30.056698 22.042551 6.0748787
20.956697 19.40055 10.833881
22.026697 17.447552 10.838879
22.3097 55.82755 10.594879
23.146698 54.07555 11.766879
20.113693 46.44555 16.730879
18.023697 45.731552 16.588879
4.066696 16.908552 8.111881
5.7846985 15.870551 6.9808807
11.440697 23.09155 3.5648804
11.756699 24.885551 4.532879
12.861694 39.383553 41.756878
13.705696 37.738552 42.67288
10.922699 28.51855 43.243877
8.102699 28.806551 43.23988
75.387695 48.08855 2.3058815
75.985695 50.23455 0.9198799
0.53969574 56.61055 48.64888
2.7986908 56.42855 48.472878
53.0907 63.90055 5.30188
54.079697 61.48255 5.3338814
59.2297 69.196556 1.2098808
58.7337 70.42555 3.3408813
27.778698 13.906551 25.749878
29.867699 14.633552 27.492878
36.363697 20.377552 23.133879
36.1097 22.687551 22.981878
33.287697 74.49455 33.61488
34.257698 75.85655 34.812878
40.0977 1.0455551 29.203878
38.469696 2.9705582 29.18488
52.3247 59.40355 10.448879
50.605698 59.11155 11.7418785
44.8737 54.147552 15.176879
43.5127 54.60255 17.21588
44.1037 69.961555 5.5628815
45.4987 68.879555 7.34988
54.9167 73.81355 3.6728783
56.209698 72.10655 5.608879
1.1536942 1.5705566 10.330879
0.48169708 1.0495529 12.019878
76.969696 72.58055 14.238878
77.0737 72.22055 16.051878
19.929695 17.333551 6.577881
17.780693 17.448551 6.063881
12.002693 9.880551 9.671879
13.398697 7.785551 10.372879
39.8177 22.77955 30.36588
41.168697 21.860552 28.522879
47.9577 28.81755 25.29188
49.8167 28.61355 26.122879
13.916695 73.33455 24.210878
16.007698 73.23155 25.02788
22.903694 77.14855 19.855879
23.973692 78.32056 21.24088
35.8817 74.27855 2.6338806
34.549698 75.08456 0.8678818
26.963697 70.366554 5.4948807
26.968699 70.76255 7.7748795
6.578697 61.21355 25.515879
5.669693 62.70255 27.173878
78.87669 57.83155 31.17488
77.8257 59.54755 31.49088
47.834698 75.28955 29.525879
47.605698 76.82855 30.891878
53.9907 4.738556 30.62588
53.563698 6.889557 30.525879
6.455696 49.08955 39.55688
7.6996994 49.48355 37.26788
15.265694 54.43355 35.569878
16.124695 54.23255 33.666878
58.5977 3.6495514 35.85788
60.6297 4.0705566 37.03688
68.2977 8.170555 31.871878
67.5337 7.7115555 29.84788
74.6187 68.573555 44.47588
73.4777 68.061554 46.653877
65.3087 62.953552 47.56788
63.6847 63.182552 46.33188
41.1807 9.6875515 41.312878
40.7557 11.290551 39.64788
46.355698 18.107552 36.50088
47.3467 20.146551 37.930878
67.7387 18.621552 5.9878807
68.125694 19.86655 7.7988815
75.1497 25.75555 3.27388
75.6587 27.20755 1.3628807
14.491699 46.508553 0.23487854
14.203697 47.65055 2.5838814
23.632696 53.613552 2.1408806
24.544691 51.79255 2.9028816
52.168697 65.58055 24.082878
52.5457 67.349556 26.041878
60.2777 72.75955 22.602879
61.6967 73.09755 24.498878
75.0077 70.836555 11.439878
74.084694 70.338554 9.238879
67.2467 64.214554 12.012878
68.1597 62.26155 11.569879
41.9997 65.10755 41.60588
41.258698 64.44455 43.888878
34.000698 59.786552 44.04488
33.2067 57.640553 44.87088
37.3937 57.75555 16.397879
36.5687 59.32555 17.466879
29.261698 54.682552 21.13888
29.167698 53.11555 22.307878
31.834698 59.59755 40.35788
33.265697 57.76255 39.99588
38.7137 65.83055 37.687878
37.649696 66.86955 36.34388
23.843699 47.18755 36.19588
23.152699 46.59755 34.19588
30.663698 48.22955 28.204878
32.542698 46.78255 28.254879
69.6977 31.98855 39.12188
70.3527 31.969551 36.81488
76.4627 36.70055 33.36988
77.9227 38.583553 33.75388
43.522697 57.53755 22.452879
43.3617 59.627552 23.17788
51.057697 62.98555 18.90288
53.1377 62.759552 19.853878
23.228699 30.28655 2.0808792
22.440697 29.03955 48.96788
14.354698 23.11655 2.4688797
12.715698 25.020552 2.0268784
18.901695 46.91955 23.97988
17.790695 48.45755 24.62188
8.457695 44.53155 25.24388
9.502693 41.85255 24.74288
18.001694 15.440552 45.216877
19.246696 13.597551 45.853878
12.840698 7.009551 2.497879
10.892693 8.232552 2.1998787
17.106697 18.191551 2.4818802
17.7137 19.81455 0.7848816
24.497694 27.705551 48.26188
25.303694 27.556551 0.88087845
60.4297 56.97155 32.22388
58.2087 57.66355 32.33588
54.2267 49.01155 32.40388
53.7137 47.16555 31.157879
35.295696 22.524551 16.17388
35.0617 24.603552 16.728878
42.4077 31.548552 17.293879
42.6047 30.493551 19.641878
81.2247 35.946552 36.87788
80.9267 33.79055 37.74788
73.708694 30.056551 43.272877
72.4757 28.681551 42.59588
34.522697 65.394554 10.367879
35.056698 66.18855 12.467879
40.514698 73.363556 10.303879
40.556698 74.585556 8.550879
23.562696 73.39555 6.8108788
23.608694 71.25655 6.410881
14.8517 65.807556 7.51688
13.456696 67.33155 6.761879
37.591698 14.8385515 0.33588028
38.6937 15.876552 1.9068794
45.2747 22.746552 44.654877
47.3057 21.580551 45.83188
28.359694 36.38155 32.242878
26.787695 36.29055 30.819878
18.732697 33.73555 36.51888
16.956696 33.174553 34.97388
10.2846985 40.85855 33.79088
8.9066925 40.68555 35.47488
80.8817 38.18555 34.69588
81.6177 35.83755 34.07388
79.0247 29.53055 11.765879
79.5037 30.622551 13.699879
5.3416977 35.397552 13.651879
7.4636993 35.946552 15.343879
81.7327 68.61955 20.794878
80.3247 70.39855 20.33688
70.5187 69.47255 23.28588
68.9637 68.16755 24.76788
23.171698 25.534552 35.70588
23.625698 26.83155 37.07088
28.885698 34.146553 33.40088
29.185698 34.285553 35.80288
15.938698 11.532551 20.630878
15.197693 11.749551 18.096878
20.833694 19.246552 15.361878
21.493698 18.475552 13.586879
75.081696 38.42155 19.19088
77.000694 38.79555 20.22288
1.5626907 45.43855 18.35488
3.891693 44.12455 18.695879
13.605698 16.278551 28.003878
12.174698 16.255552 29.578878
4.7466965 9.372551 30.072878
2.8496933 10.137551 31.355879
45.849697 73.05155 20.556879
48.112698 72.11755 18.845879
54.183697 0.17455292 18.162878
53.6247 1.9185562 18.557878
29.783697 73.266556 18.438879
30.308699 70.84055 19.04988
25.189697 74.99555 14.012878
24.378698 76.45255 15.087879
30.600698 10.485551 23.54988
32.662697 10.083551 24.17488
38.642696 18.62955 22.84388
39.7487 17.448551 24.29888
71.415695 73.03555 43.188877
73.233696 72.80455 44.83788
79.666695 74.02455 38.62888
79.5917 73.76455 36.50088
66.957695 54.45855 42.08088
69.1877 54.46455 42.049877
75.319695 62.35955 40.16388
76.2567 61.08655 41.46288
5.7127 78.615555 14.646878
7.3856964 1.1325531 13.858879
16.048698 3.7025528 14.770879
17.8527 2.609558 13.872879
56.515697 60.134552 20.584879
56.1997 58.76155 18.56988
48.0837 52.48355 22.063879
48.912697 50.29255 23.089878
19.150698 77.28855 0.1808815
20.014698 77.30255 2.5268784
29.027699 2.160553 1.4138794
29.722698 3.8415527 48.50488
11.914696 67.32055 3.535881
13.967697 67.25855 4.0228806
19.2967 74.50855 4.1828804
17.981697 74.84556 1.9538803
30.992699 8.209557 20.775879
29.708698 9.986557 20.974878
24.569698 3.0085526 26.731878
23.868698 1.271553 25.25788
69.457695 41.250553 15.308879
68.776695 43.32455 16.700878
76.6147 48.57355 15.096879
76.2967 49.63555 17.17088
38.7227 17.549551 10.038878
37.364697 17.729551 11.845879
30.420698 11.423552 13.858879
31.549698 9.732552 14.300879
14.367699 12.084551 24.56688
16.710693 11.602551 23.75688
20.682693 20.05055 21.518879
21.034698 21.08855 19.456879
79.8997 66.32755 13.852879
80.9627 64.59255 15.150879
74.0387 57.95255 18.21988
73.289696 58.19455 20.040878
60.4617 46.18455 45.284878
62.410698 45.37255 45.854877
69.639694 50.43555 48.29588
68.5487 51.73055 47.22788
18.614693 15.666552 2.714882
17.502693 15.866551 1.0538788
10.263695 10.223551 4.610882
11.122696 8.475552 4.811878
24.084698 64.60755 33.20588
23.999699 65.70855 35.138878
27.969698 73.908554 33.40688
29.376698 75.22056 31.894878
17.2277 36.015553 48.93588
19.225693 35.995552 48.25588
25.560698 41.94255 47.99588
26.525694 42.35855 46.354877
17.481697 52.36855 40.18888
18.372696 50.25055 38.95388
10.125694 46.93355 41.53388
8.861694 44.95955 42.701878
10.741699 42.68755 38.28088
8.579697 42.333553 37.58788
1.4736938 36.876553 40.62888
1.0116959 34.236553 39.60588
62.9937 71.892555 20.727879
62.5737 73.99355 21.967878
72.5307 77.450554 19.931879
74.0237 77.59055 21.44788
3.0126953 68.93155 17.789879
1.9636917 69.58255 19.311878
4.7366943 78.16055 19.96288
4.1636963 0.3085556 18.619879
75.8367 3.2235565 37.56588
77.598694 2.6285553 36.353878
3.3116913 7.9315567 34.75388
2.6126938 10.696553 34.94688
53.382698 44.03955 21.26788
51.4447 44.02855 22.14588
45.635696 37.87255 24.786879
45.1387 35.21155 24.48988
5.3646927 57.31755 14.922878
7.4356995 56.905552 14.574879
13.4066925 64.35655 12.670878
13.0576935 64.60855 10.063879
73.0237 13.662551 13.856878
74.4957 12.959551 11.919879
79.6587 19.76855 8.098879
78.860695 21.792551 6.694879
49.592697 44.44755 9.874879
47.5387 44.56655 8.537879
40.3687 37.37355 10.359879
39.0467 36.38855 12.877879
14.8456955 41.384552 2.0818787
15.620697 43.55455 2.4358788
24.838697 44.27455 48.10188
25.368696 45.42155 46.036877
60.3287 54.50655 33.63288
58.7707 56.01355 34.76788
54.9137 47.529552 37.08888
54.225697 46.55955 39.215878
20.482697 55.370552 5.3948784
21.2417 52.87855 5.89188
14.905693 48.94155 11.58688
15.7816925 47.20555 12.16288
66.1147 40.50555 5.186878
65.320694 39.56555 3.410881
56.2637 35.19755 8.434879
56.7287 33.17055 7.716881
49.253696 9.134551 18.560879
49.496696 11.302551 19.23288
58.3397 15.780551 17.234879
59.1697 14.841552 15.328878
81.7267 79.28555 0.31488037
81.7887 2.0295563 2.1138802
3.4666977 10.654553 46.661877
5.8856964 10.475555 46.33888
46.057697 0.57255554 33.80788
47.3887 78.544556 35.076878
54.245697 7.028557 37.47488
53.8947 7.934555 35.46188
68.9927 28.34655 26.904879
70.844696 29.108551 28.352879
80.014694 31.233551 30.043879
81.1297 30.63455 28.054878
39.1937 6.3485565 39.06388
39.149696 5.608551 36.68988
29.254698 1.7445526 40.23288
28.007698 2.5325546 38.26188
61.744698 28.40455 5.827881
60.6277 31.01155 5.0648804
66.5187 36.09455 47.79488
68.66869 36.855553 48.265877
79.525696 3.514557 2.6318817
78.5027 4.9095535 1.8378792
4.921692 10.055557 2.0508804
4.544693 12.520551 0.80688095
29.966698 22.273552 43.22788
29.189697 22.871552 41.41188
37.237698 27.358551 37.05488
35.7637 27.71155 35.35288
14.6847 29.302551 24.523878
13.997696 28.396551 26.864878
12.521698 19.454552 25.411879
11.2816925 17.742552 27.210878
20.735699 52.91955 37.92988
21.746698 50.41555 37.88588
29.661697 56.24055 34.06188
29.685698 57.99455 35.56088
36.1037 38.93455 8.60688
34.0897 38.411552 8.12788
27.489698 31.27755 10.372879
26.587698 33.556553 11.708881
31.616697 35.99055 38.58588
33.2557 35.80855 36.91488
40.772697 42.72855 35.23088
40.0967 44.35855 36.03988
50.6857 70.811554 31.238878
51.6927 69.00055 30.467878
57.1787 74.76356 22.102879
59.2607 75.031555 23.657879
4.074692 1.6735535 20.978878
3.145691 78.95155 22.122879
2.7726974 4.7545547 24.804878
2.094696 6.7795563 25.99388
44.410698 47.14255 1.4738808
45.482697 48.11655 3.1808815
50.6787 55.383553 48.86388
52.100697 54.67955 1.8598785
14.644699 51.65855 19.59088
14.401695 49.63755 18.69188
5.023697 47.11255 22.710878
4.546692 46.16555 20.48988
35.5187 62.07755 11.891879
36.017696 63.39655 10.103879
42.8037 69.47255 8.317879
44.3937 70.10655 9.981879
23.642698 11.332551 44.58688
22.561697 12.833551 45.549877
31.950697 17.686552 44.65688
31.896698 19.76555 43.61488
35.967697 67.25955 24.971878
37.049698 67.23255 26.758879
45.758698 70.503555 22.92788
47.5047 70.852554 24.185879
18.140694 32.47855 38.80088
16.011696 33.500553 39.54588
11.863693 25.57855 36.06488
11.257698 24.48455 38.062878
81.6197 54.83055 31.916878
0.99269104 53.67255 32.86888
9.4066925 59.72055 31.62588
9.259697 60.74455 29.657879
50.1117 1.8645554 8.782879
48.503696 1.1325531 7.018879
41.403698 75.825554 11.538878
40.5407 77.02656 13.272879
78.2177 25.549551 1.7158813
77.6577 25.47455 48.640877
5.3276978 29.84955 44.17088
6.0486984 31.017551 46.06788
61.660698 39.459553 22.900879
59.3097 40.49055 23.47988
64.0217 49.842552 27.145878
64.7447 50.10855 24.85788
70.9107 36.83255 8.713879
70.1067 34.798553 7.55888
63.0727 28.53255 10.040878
62.1417 30.229551 10.26688
25.399698 60.773552 25.87588
27.584698 60.15255 25.25088
35.879696 63.411552 21.73988
36.3187 61.036552 21.085878
56.5237 49.84755 45.396877
56.000698 48.53355 43.751877
63.549698 53.57755 39.53088
64.261696 53.258553 41.53288
16.043694 27.88355 18.532879
16.400696 26.99855 20.89988
9.162697 20.21755 21.710878
8.493698 19.153551 23.77088
76.235695 52.27155 20.17488
77.3827 50.56955 20.978878
70.917694 43.911552 26.086878
71.443695 44.106552 27.87588
32.947697 77.73155 3.1948814
33.0537 78.31355 5.2638817
24.786697 73.04055 4.5068817
23.154697 72.976555 2.5948792
25.440699 9.405551 43.793877
25.752697 10.166552 45.597878
34.572697 15.388552 44.95388
33.913696 16.871552 42.92188
12.855698 25.607552 9.716879
11.139694 26.68255 9.296879
2.9526978 23.103552 12.063879
1.2736969 24.454552 12.810879
30.636698 31.06055 19.56588
29.981697 30.29355 17.28188
38.036697 36.38655 16.41088
40.1297 35.592552 17.11888
17.2277 8.374551 25.55988
18.489693 7.633551 27.570879
25.261694 14.124551 26.808878
26.229696 16.278551 27.804878
43.5117 30.23855 0.3778801
41.7747 31.271551 48.14988
47.1727 39.24655 44.57188
48.488697 39.023552 46.494877
60.0587 1.3015518 36.728878
60.8687 78.74956 37.66388
52.5457 76.55556 44.16988
51.9707 78.69556 43.53788
23.275698 43.13555 25.37188
22.707699 44.78855 26.335878
26.101698 50.69355 20.195879
27.313698 51.35355 17.92388
57.3657 28.52755 0.2378807
57.3937 30.50955 47.74888
64.3927 36.05955 45.67688
64.417694 36.932552 43.12188
6.9726944 46.30355 39.42188
5.1376953 46.773552 37.55288
79.5607 41.217552 38.66388
78.9767 39.63855 37.17788
75.8847 19.54655 21.96288
74.6047 20.642551 23.658878
80.9667 28.69255 20.893879
79.886696 28.608551 18.689878
23.623697 48.44955 38.37188
25.185698 47.099552 39.02288
32.071697 51.13755 34.70388
32.2917 52.217552 32.12188
44.3097 14.438551 21.61488
46.598698 15.200551 22.346878
52.2897 22.60655 21.74988
50.9237 24.46355 21.80588
11.746696 73.739555 19.220879
13.352699 73.09655 17.685879
22.069695 77.59455 16.915878
21.437698 77.656555 14.945879
75.3297 58.72855 29.09788
77.2177 60.26055 28.840878
0.9266968 65.16355 23.46888
1.7606964 66.420555 24.769878
8.832695 69.96855 8.615879
8.415695 69.39755 6.80888
16.464699 75.51556 4.3998795
15.652695 77.144554 4.55188
19.429695 54.20055 35.79988
19.9487 52.92055 34.374878
24.787695 61.12455 31.082878
26.072691 60.33255 29.702879
38.9297 51.23255 46.22488
38.7847 52.36255 44.493877
47.1017 57.02855 44.487877
49.139698 57.31755 45.22788
0.881691 70.95355 30.172878
81.914696 71.769554 28.30988
10.010696 72.308556 25.857878
10.237694 75.02656 26.329878
7.955696 22.676552 29.326878
7.5176926 23.763552 27.39688
14.043694 31.653551 29.343878
13.981697 33.16455 30.374878
49.9077 44.90655 17.471878
48.1527 44.91255 18.31688
42.1927 37.98355 16.438879
42.028698 37.258553 19.030878
10.759697 63.633553 38.52288
11.366699 63.09855 36.39088
19.692696 68.16655 37.38488
21.6447 66.99555 36.38388
16.460693 16.762552 46.736877
14.539696 17.413551 45.71088
6.8496933 11.479551 48.71888
7.2256927 9.634551 0.97587967
59.6097 13.149551 18.49688
58.4707 13.8715515 19.731878
51.9627 7.1765513 22.52088
50.6667 8.203551 23.650879
77.6287 16.24455 24.76788
79.431694 15.348552 24.99688
0.9446945 22.29655 20.164879
2.2396927 23.65855 19.536879
4.9486923 43.002552 24.769878
5.2656937 43.127552 22.53488
79.11269 35.66555 22.40288
79.9897 34.78155 20.811878
29.469698 52.18455 19.790878
30.405699 51.64355 17.87488
34.295696 48.050552 19.709879
34.3887 47.30855 21.68488
43.071697 32.87155 12.878879
40.9777 33.340553 12.739879
35.0897 25.27655 11.0248785
36.1047 23.50155 10.728879
1.3116913 57.592552 41.82888
1.143692 59.31055 42.507877
10.147697 62.738552 41.09788
11.828697 61.56555 40.59588
79.5767 47.75655 11.792879
78.1897 46.98555 10.321878
70.5657 41.04655 12.157879
71.2547 38.95555 11.198879
67.9357 78.48656 10.326879
66.221695 0.2725525 10.421879
57.647697 75.11156 10.245879
57.3597 73.34455 9.152879
14.088699 31.476551 20.547878
15.5086975 33.10255 22.084879
21.724693 40.08655 18.27788
22.8797 42.03855 19.38288
76.98769 62.793552 36.95788
78.1627 62.82955 39.16888
0.062690735 72.51355 37.87688
0.9486923 72.62355 39.84288
36.997696 76.51155 4.743881
34.9927 76.184555 4.646881
29.299698 69.05455 9.7678795
30.007698 69.586555 11.582882
43.8447 3.5015564 35.86388
42.994698 5.408554 36.02188
46.961697 13.179555 30.86888
47.6187 11.930554 29.30288
78.581696 17.12655 37.95088
78.358696 17.700552 39.94688
68.7167 12.1215515 38.68188
69.733696 10.084551 39.56888
54.1437 69.071556 37.98088
53.7477 70.59855 36.64688
61.667698 75.38555 34.38688
61.5717 77.21855 34.99188
19.334694 35.819553 4.5838814
20.594696 34.32455 4.1448784
12.016693 27.805552 4.8548813
12.148697 27.097551 6.660881
58.6427 46.91455 6.1048813
58.029697 48.97855 7.19088
50.070698 47.32655 11.184879
47.787697 47.86955 10.79488
4.6496964 29.94755 36.91588
6.8266983 29.07255 37.95988
9.972694 38.188553 35.27388
11.622696 37.202553 36.05088
31.712698 70.169556 16.55588
32.7617 72.213554 16.828878
38.8197 77.93855 15.402879
36.973698 79.13555 15.718879
51.8237 43.49455 14.947879
51.148697 45.38055 14.587879
60.5747 47.39955 10.488879
59.9007 48.613552 9.197879
2.3616943 65.950554 28.803879
1.1456909 66.936554 30.56688
75.5037 63.53355 32.70588
73.584694 62.78355 30.912878
33.6027 32.542553 22.98288
32.140697 32.863552 21.141878
39.2627 40.778553 21.737879
38.9637 41.543552 20.07288
9.141693 25.561552 40.04688
8.239693 23.24855 39.74088
81.1497 19.78355 36.52688
80.5067 17.625551 35.85988
56.9857 25.12655 33.59588
56.0377 24.103552 35.374878
47.475697 22.68255 38.103878
45.363697 23.544552 37.24788
17.454697 78.70355 3.1648788
18.535698 0.3935547 1.8568802
27.168692 5.547554 3.3048782
28.124693 3.4115524 3.525879
74.7557 53.251553 10.450879
74.3927 51.439552 10.097878
67.3847 45.65655 11.234879
66.570694 46.02655 13.294879
75.916695 19.906551 30.524878
74.220695 20.726551 31.672878
68.8657 11.387551 30.661879
68.0217 10.179551 28.550879
63.6007 76.06756 31.289879
64.1007 76.35655 33.826878
69.87669 5.955551 31.254879
71.8437 4.6735535 31.312878
4.618698 26.538551 22.98288
4.2866974 28.483551 22.53188
11.401695 33.63655 21.276878
11.854698 32.63155 19.56988
2.0516968 61.23755 15.130878
1.8866959 61.140553 17.38988
76.1467 58.06855 20.154879
75.763695 57.40955 22.129879
70.64069 53.307552 4.3748817
69.263695 52.015553 2.6448784
61.3847 47.189552 5.8618813
61.6717 46.585552 8.117882
14.342697 21.120552 46.917877
15.468697 20.468552 45.397877
24.285696 25.903551 44.361877
23.187698 26.615551 42.34488
49.3057 76.91055 47.43388
49.760696 79.08055 48.25588
56.8807 6.5325546 2.4568787
58.167698 6.573555 0.6658783
25.044691 21.23155 35.94088
22.778694 20.986551 34.56088
16.335693 15.924551 38.40388
15.120697 17.17855 37.17688
32.6527 73.75855 30.122879
32.344696 75.630554 31.022879
33.656696 5.6455536 27.158878
36.371696 5.2545547 26.246878
12.835693 51.15655 25.77888
11.394699 49.07355 25.874878
3.7186966 47.272552 30.532879
1.5816956 45.96855 30.451878
44.142696 9.745552 14.977879
42.356697 10.451553 14.495879
35.544697 3.8465576 16.856878
34.712696 3.2535553 18.755878
24.401693 43.81255 34.17088
24.232695 41.715553 34.749878
15.264694 36.918552 35.42888
15.4217 34.861553 36.47088
49.1227 10.064552 25.529879
48.121696 8.745552 24.477879
39.225697 4.8505554 27.251879
37.815697 5.8625565 28.447878
31.415697 10.442552 16.867878
31.149698 10.478551 18.79588
39.7987 16.753551 17.214878
40.5837 16.225552 19.32288
35.697697 59.23455 7.0818787
36.2707 61.30155 7.7258797
43.418697 65.52355 4.9708786
43.3957 67.32755 5.0578804
49.6797 18.561552 38.464878
51.2127 18.476551 39.96988
59.8927 23.243551 38.17488
61.5387 21.90155 38.47588
11.968697 59.28155 32.360878
11.913696 61.01455 30.400879
19.609695 66.057556 27.723879
21.247696 64.52655 26.804878
64.4517 35.507553 36.01988
62.6877 35.382553 37.88788
64.181694 31.36955 30.470879
65.2877 32.328552 32.00988
11.580696 42.444553 43.46188
11.7957 40.743553 45.341877
5.9446945 32.33655 43.85288
5.5776978 31.687551 41.902878
75.6597 15.917551 19.970879
77.195694 14.685552 20.544878
1.6876907 21.59255 15.530879
3.7796936 22.32855 16.40388
1.4606934 15.287552 1.0888786
81.2727 14.353551 48.847878
75.7947 10.547551 4.1098785
74.1777 11.008552 2.3788795
62.7897 51.04755 15.632878
64.1217 50.73455 13.894878
72.110695 56.29755 15.181879
71.2397 57.876553 14.048879
75.5917 67.88655 5.368881
75.402695 65.63255 4.7638817
64.442696 64.10855 3.6028786
65.12669 63.08855 1.0838814
63.9777 18.499552 37.798878
61.2407 18.59255 36.95088
53.4767 15.001552 39.71988
52.892696 14.073551 42.07988
41.6597 69.948555 4.0058784
41.0407 71.23555 2.5318794
48.565697 75.93855 0.63087845
50.176697 74.90456 1.8098793
38.9917 58.54255 9.075882
40.6447 59.15155 7.796879
46.7077 66.281555 11.595879
48.7817 65.14755 11.249882
10.485695 20.000551 31.987879
8.6566925 20.489552 31.296879
1.5676956 15.109551 34.21988
2.8276978 13.547551 34.12088
23.080698 78.49555 12.209879
24.673698 78.880554 13.737879
35.079697 0.19355774 13.226879
34.926697 1.9325562 15.103879
33.731697 2.498558 8.140881
33.4497 3.7815552 9.782879
38.864697 12.502553 6.1308784
40.7837 12.00755 7.983879
15.840698 3.6385574 7.1498795
15.4217 1.9245529 8.92588
10.166695 73.01355 8.354881
9.014694 72.92355 10.297878
67.7417 12.52155 41.60488
67.0357 10.444557 40.79288
59.438698 8.125557 44.65088
60.2257 6.255554 43.819878
46.516697 39.43355 37.534878
48.6377 40.272552 37.88488
52.514698 47.078552 34.06488
52.676697 49.35855 35.41788
41.9427 46.30955 26.19888
40.1647 45.69955 24.755878
45.8607 51.08955 19.04288
46.975697 50.40055 17.56288
14.301697 46.09755 6.4398804
15.536697 45.981552 4.271881
24.288694 49.08355 1.5438805
24.936697 49.870552 48.39888
20.405693 70.04055 41.72988
19.430695 69.69255 39.98288
14.524696 62.10155 44.646877
13.759697 61.009552 43.001877
58.9977 29.875551 6.974879
60.2407 29.003551 8.055879
54.6797 20.752552 10.525879
54.0617 19.457552 12.430879
49.7427 29.00155 29.652878
50.1027 29.66255 31.550879
41.8237 23.148552 34.673878
40.9427 24.014551 36.84888
3.1746979 38.773552 6.35688
3.3276978 40.410553 7.839882
11.627693 46.99855 8.30888
12.158699 47.42255 5.997879
15.038696 16.10955 40.67888
16.556694 14.089551 41.29388
10.959694 7.1225514 43.42088
9.560699 6.9015512 45.08788
74.414696 65.67855 40.326878
72.611694 65.63955 41.694878
65.098694 59.55455 45.25588
65.8077 57.36755 44.92888
5.249695 78.087555 9.511879
6.1806946 79.17855 10.850879
12.600693 4.9875565 9.495879
14.746696 4.7355576 10.348879
10.839699 22.353552 43.70088
10.405693 24.26855 43.834877
19.349693 27.733551 40.03688
21.5327 27.53255 39.55288
28.164694 78.05355 39.37388
26.441694 0.7535553 39.96188
17.925697 78.79156 44.62888
16.941696 76.656555 44.48388
23.925697 38.48355 18.217878
25.630697 40.029552 19.317879
35.204697 42.494553 18.880878
35.774696 42.104553 16.72688
71.8257 38.14955 21.67688
72.2727 37.22655 24.21188
64.761696 31.264551 25.13888
65.9827 31.67955 26.732878
10.318695 64.921555 2.0788803
11.510696 64.489555 3.768879
4.773697 56.05355 4.243881
3.5556946 57.57455 5.36388
61.4427 55.064552 26.133879
62.6027 55.88855 27.506878
69.7857 61.418552 25.12888
69.4527 63.77055 24.91788
6.3496933 19.28655 14.768879
6.686699 20.990551 15.664879
15.4446945 26.28255 16.320879
14.803696 27.80755 14.770879
75.8247 5.844551 2.9238815
75.3517 4.6645584 1.0658798
64.6987 4.4255524 4.7448807
63.4867 5.087555 3.4438782
30.133698 26.06055 5.3578796
32.3677 26.16155 5.6128807
38.855698 29.64155 1.9208794
40.9217 29.41155 1.8808784
75.6327 68.25755 1.575882
74.831696 66.017555 2.0088806
67.639694 59.94855 0.14588165
69.3667 58.04455 0.97188187
6.0737 37.813553 12.687879
7.221695 39.342552 14.105879
14.993698 44.49655 8.856879
14.176697 46.14455 9.725879
15.780693 70.04255 19.19888
14.266693 68.32855 18.623878
6.9726944 63.40755 23.32688
4.7486954 63.78555 22.14688
46.5387 78.378555 40.131878
46.5487 79.27255 42.506878
41.1177 70.059555 46.01788
39.7977 71.322556 45.82988
70.3657 11.659552 45.23388
72.4087 11.656551 45.903877
80.8287 14.635551 44.493877
81.7047 15.204552 42.473877
48.092697 59.74355 46.34488
47.621696 61.38755 45.090878
57.529697 64.25755 44.570877
57.8147 65.95255 45.92688
78.3717 2.259552 47.64488
77.0857 2.2095566 1.2018814
68.7277 0.41155243 3.9118805
68.9347 78.210556 5.31588
35.431698 30.86755 39.562878
35.441696 32.944553 39.04588
42.8747 40.58055 38.69088
42.988697 40.19355 36.72288
10.223694 18.082552 19.296879
9.661697 19.610552 18.432878
17.149696 23.36255 12.331879
17.720695 22.642551 10.543879
52.676697 4.2515564 19.16388
52.350697 6.0015564 17.158878
59.9607 10.574552 13.265879
61.2747 10.802548 15.002879
6.4826965 42.64455 17.967878
7.941696 41.53855 17.84388
15.608696 44.939552 17.551878
15.096695 46.37955 16.120878
17.807693 69.25955 20.978878
20.344696 68.505554 21.289879
27.833693 74.20155 20.636879
28.751692 76.533554 19.94888
37.906696 23.371552 28.598879
37.2367 21.49455 27.883879
27.859697 20.336552 30.09488
27.933699 18.614552 28.61888
59.952698 3.4775543 43.14488
59.1457 2.0105515 41.46288
51.5877 78.80355 40.78088
48.6937 0.47755432 40.666878
63.9827 61.22855 2.521881
62.4307 62.15255 3.79488
55.5417 55.38255 4.86388
54.105698 55.522552 3.67688
68.9087 16.864552 4.18388
69.3267 18.98755 2.778881
75.778694 23.801552 46.95788
77.2457 23.00455 47.74888
8.361694 12.863553 11.967879
9.530693 12.024549 13.350879
0.8896942 7.3555527 18.168879
0.6806946 5.5825577 17.22688
35.0277 18.378551 1.622879
34.9217 20.115551 0.48688126
44.4497 24.17855 1.1138802
44.1177 26.200552 48.70788
1.1146927 44.189552 11.60788
3.285698 44.79455 12.34988
10.302696 49.16455 8.85688
10.014694 51.03155 7.860882
73.7467 3.3525543 44.65788
72.7457 5.406555 46.12088
66.9097 1.1045532 1.7118797
66.8777 78.018555 1.200882
24.663694 70.40255 3.14888
23.175697 70.378555 1.535881
15.0737 64.29255 3.13488
14.0877 64.530556 5.0908813
33.633698 23.749552 23.237879
33.5677 21.561552 22.54288
23.791698 19.898552 21.721878
23.959698 17.993551 20.37488
64.9947 60.32555 47.83788
65.1717 58.17955 47.58188
56.2117 52.79855 48.508877
56.1717 50.509552 48.25288
3.0936966 55.68355 2.1568794
0.6826935 56.43755 2.247879
75.111694 52.90355 6.108879
75.4197 52.60955 7.9118805
76.428696 63.09555 48.22588
76.611694 61.92255 46.53088
70.5587 54.58955 1.8738785
69.7677 53.48555 0.030879974
72.0047 56.95955 10.30188
73.1907 56.77555 8.213879
81.820694 59.60055 5.6548805
0.7056961 59.33955 3.1398811
54.0417 52.73755 42.73888
55.467697 52.23055 44.96388
64.3637 54.86155 43.541878
65.9117 53.53755 44.42088
58.2047 44.93455 43.93588
56.1967 45.73955 44.56188
49.1297 39.898552 41.534878
48.1587 41.31755 43.175877
18.8937 31.37955 0.42488098
17.283699 33.341553 48.12888
9.376694 33.08155 5.80888
11.251694 32.36455 6.931881
34.066696 53.74755 41.918877
35.495697 52.88555 40.96688
42.369698 59.93055 41.23188
44.6637 59.55955 40.784878
78.792694 26.278551 14.308879
77.111694 27.79655 13.444879
70.5047 23.57455 18.515879
68.984695 24.701551 18.06288
71.1017 76.72356 7.221882
68.9967 75.49755 6.792881
64.0757 70.57055 12.890881
62.7277 69.42355 11.913879
48.007698 1.2385559 47.639877
46.6177 0.42455292 0.42488098
40.0137 73.935555 2.8158798
38.377697 74.90256 2.7488785
69.4947 23.101551 15.823878
68.5227 24.19955 14.356878
71.026695 31.910551 8.759879
73.4677 32.259552 9.609879
7.554695 22.068552 18.140879
9.266693 22.152552 19.450878
12.793694 30.20655 15.315879
12.399696 28.85955 13.711879
45.196697 78.143555 23.445879
