64.38605 3.024152 43.174026
72.21305 7.416152 39.14203
70.63805 8.991153 39.20303
4.698044 62.633152 15.45903
3.732048 65.23515 16.852028
11.456047 69.83715 15.047028
12.017044 71.81015 14.756027
28.807045 49.186153 19.364029
27.672043 49.681152 17.590027
18.483047 43.935154 18.29303
17.889046 45.990154 18.148026
24.527046 17.751152 18.018028
23.801048 19.020153 16.30503
33.85504 22.469152 13.430027
35.465046 21.732153 14.79203
33.252045 67.63015 12.585026
31.066048 68.30515 11.249027
37.22105 76.40415 10.034027
37.367046 77.522156 11.724026
4.522049 21.936153 18.72403
6.3820496 20.843153 18.524025
9.667046 30.431152 13.800026
11.944046 29.318153 13.181026
56.72805 35.844154 16.220032
54.72005 35.916153 17.799026
47.33005 31.456154 19.038025
45.94905 29.554153 17.838028
49.58305 54.548153 32.74003
49.80605 56.404152 33.567028
57.56305 57.337154 27.24803
55.683052 59.508152 27.88303
79.60405 66.538155 9.475025
78.75205 66.205154 11.9050255
70.91905 62.992153 15.743027
69.04305 62.93915 14.295029
38.55205 33.97615 7.0680275
38.65005 32.646152 8.732025
34.04605 25.546152 13.673027
33.79705 24.265154 11.709026
41.11805 72.872154 6.7230263
42.46205 74.063156 8.451027
50.78405 77.136154 6.2830276
51.84605 75.370155 5.3340263
6.300049 32.83715 42.90003
7.1320496 33.39815 44.909027
13.313049 40.040154 40.71203
14.781044 38.392155 39.89803
62.31805 34.75415 26.532028
64.679054 34.66815 25.47403
72.95705 40.153152 25.948029
73.43405 40.124153 24.03003
48.54705 41.024155 2.9640274
49.119053 43.063152 4.3550262
53.72705 50.743153 4.163025
55.59205 50.179153 4.0790253
40.64405 71.455154 46.964027
42.286053 71.31915 48.331028
50.57805 0.13815308 45.839027
49.294052 1.0101547 44.442028
62.75005 73.661156 19.81903
64.17805 72.60015 18.466026
68.29405 2.5361557 14.183025
69.45405 2.0371552 12.284027
70.49805 74.21415 0.081027985
70.71605 73.50315 48.074028
75.75705 1.8341599 41.77503
77.944046 1.5591583 41.951027
72.91305 68.48815 46.213028
71.56805 70.162155 46.02503
79.29705 75.689156 41.69003
81.42405 76.75115 42.180027
65.12905 63.451153 6.316025
66.81805 61.788155 6.196026
75.42205 67.07215 6.064026
75.78805 68.497154 7.3150253
23.949043 68.842155 0.38202667
23.933044 70.97515 48.49703
30.447044 77.455154 46.88503
31.324043 76.71315 45.005028
26.017044 2.3091583 30.480028
24.419044 2.2711563 29.27003
15.819046 73.59815 31.57903
17.241043 72.47115 33.444027
53.433052 72.91815 45.68803
52.22605 72.30715 47.567028
45.27505 67.36615 45.85803
43.856052 66.86115 47.623028
71.67505 30.069153 41.749027
69.65205 30.228153 42.03903
64.43705 24.180153 47.846027
62.46305 24.712152 47.63303
2.9550476 23.957153 17.771027
0.85305023 23.562153 16.314026
77.27905 19.631153 21.362028
76.09805 21.088154 22.72803
28.370049 3.032157 40.76703
26.149048 3.5451574 41.20903
21.116043 72.29115 38.728027
22.394043 70.89616 38.741028
32.661053 61.546154 48.92803
34.76005 60.895153 48.55303
38.87305 69.29615 47.493027
40.16705 69.77015 49.20903
21.580048 75.20116 8.863026
23.440048 74.34615 7.8040276
30.115044 3.3881521 7.6530266
30.847046 4.7711554 9.386024
30.572044 28.542152 12.951027
31.099045 29.950153 14.851028
37.49705 36.077152 12.425026
37.54405 38.57215 12.856026
8.612045 25.219152 40.64203
6.3480453 25.671152 41.00903
82.24505 24.094152 46.86203
81.55305 25.332153 44.847027
25.601044 6.9741583 42.60803
25.800049 6.183158 44.978027
19.915047 74.192154 44.576027
18.262047 76.106155 45.03603
34.74005 64.593155 14.79203
36.190052 63.69015 16.631027
43.35005 71.551155 13.981026
42.29705 71.90715 12.264027
53.29605 58.900154 17.757027
51.93405 59.345154 16.19403
43.84705 54.850155 16.61303
41.959053 55.546154 15.128029
58.315052 72.716156 12.035027
57.26905 72.37915 13.988026
52.26305 64.50815 15.359032
50.85905 65.39815 14.415031
55.58105 48.899155 44.20903
56.80605 49.984154 42.58603
63.72305 56.128155 44.96703
63.91605 56.533154 42.96103
5.9810486 68.789154 38.451027
6.359047 69.164154 40.422028
11.855049 77.51715 40.590027
13.067047 0.007156372 42.310028
43.95005 17.440153 30.000029
44.15205 18.628153 27.614029
49.66705 23.996153 22.65803
51.75405 22.464153 22.823029
68.09105 67.44615 17.311028
69.50905 65.78315 18.532028
74.09505 72.83515 13.0420265
74.74005 72.60015 14.986031
66.48805 73.59715 42.31503
64.20005 73.633156 41.513027
57.676052 67.93315 40.52403
55.56405 68.38815 40.103027
63.169052 23.606153 40.130028
61.76905 24.988153 38.931026
68.38205 30.626154 34.16103
70.27705 30.924152 34.52303
29.286049 76.469154 35.131027
31.011047 75.89015 36.53103
25.318047 72.30515 41.76003
24.597046 69.469154 41.65603
44.76705 39.34915 38.58503
43.31005 37.727154 38.278027
34.821053 37.171154 42.756027
33.51105 36.373154 41.38303
38.04205 45.774155 33.27503
36.39505 46.462154 34.59903
30.86005 38.686153 38.58503
32.64505 36.917152 38.96203
11.7450485 14.9291525 24.46303
10.415047 15.726152 22.86303
14.723045 24.854153 23.531029
16.657043 25.175154 22.119028
7.2590485 58.78615 19.465027
6.8930435 56.921154 20.689026
80.91405 51.957153 20.908028
80.15405 52.491154 18.982025
53.13505 65.27615 21.878027
52.97605 64.70815 20.088028
62.09705 69.36315 16.94703
61.58105 70.247154 15.045029
10.773048 1.4561539 29.344028
10.755051 76.86015 29.968029
2.0400467 73.72615 26.97403
1.0420456 73.45715 24.72703
14.6690445 68.800156 12.078026
16.839043 67.148155 12.146027
18.229042 77.17416 16.108025
20.559044 77.081154 16.927025
19.791046 27.072153 29.97103
20.947044 28.742153 30.934029
26.918045 32.445152 25.333029
27.529045 34.693153 24.601028
49.53405 3.458152 1.7880287
49.120052 5.3271523 0.7010269
57.43005 12.845152 1.404026
59.259052 11.973152 0.7840271
4.7370453 53.626152 2.3040276
7.1220474 53.575153 2.937027
12.083046 58.02315 46.526028
12.459045 59.896152 47.867027
57.24605 38.397152 23.43203
58.77805 37.007153 23.434029
66.03105 43.566154 22.94703
68.20605 43.910152 22.67203
76.30905 55.29315 25.430029
77.63005 55.063152 27.14703
71.31805 46.665154 28.843029
71.48505 45.611153 30.334028
16.962044 51.98115 21.032028
18.066048 49.639153 21.704027
26.461044 51.843155 17.93303
26.339043 52.876152 15.489029
59.27205 14.586152 8.860027
60.38605 14.586152 6.7450256
68.37605 20.549152 4.555027
69.01105 22.165154 3.0980263
23.422043 12.160152 5.7230263
23.441048 12.380152 7.807026
17.260048 4.6291523 9.361027
15.545044 4.409152 7.8300247
56.759052 -0.46784782 13.371025
57.273052 0.278152 15.315025
63.86805 7.723152 12.772026
63.96005 9.126152 14.618027
20.860046 61.906155 13.830025
22.514046 60.603153 14.259026
30.569046 65.83315 11.431026
32.268044 64.92215 12.353027
79.42105 39.584152 47.47303
80.53405 40.013153 49.55803
71.93205 37.152153 2.706028
71.78805 35.255154 4.482025
78.94105 38.506153 31.23403
78.83905 40.394154 32.270027
5.5770493 43.70315 34.054028
8.463043 42.561153 33.57203
77.01005 46.112152 8.018024
77.54005 44.950153 6.0990257
69.34405 40.487152 5.9880257
68.93205 38.340153 4.6030273
50.58705 28.051153 18.70803
52.67405 27.037153 19.77703
61.336052 31.557154 16.853027
61.81805 32.618153 18.920029
11.287048 4.942152 42.45903
13.34005 4.713152 41.87803
18.036049 8.952152 34.82003
18.322044 8.463152 32.713028
75.54005 63.048153 35.81503
77.34105 63.242153 37.62103
1.0610504 69.58215 31.209028
1.9910507 69.89015 33.22403
79.77405 45.44715 48.838028
80.87405 43.861153 47.53603
4.5280457 51.359154 43.881027
7.038048 50.054153 44.82003
1.0980453 56.772152 41.894028
2.0700455 55.07915 41.25103
9.97905 59.186153 37.89203
9.351044 60.422153 36.24503
59.11405 31.048153 9.2540245
58.57305 33.20415 10.614025
63.61605 41.381153 8.029026
64.88605 40.994152 7.027027
47.97505 47.378155 24.684029
48.94805 45.28715 24.726028
41.53805 40.27315 24.107029
42.56805 38.069153 23.44703
43.73305 5.4571524 40.98303
44.68105 6.3851523 39.49403
50.35405 13.6461525 37.477028
50.405052 13.666152 35.42103
28.288048 35.371155 30.88003
29.925049 33.52515 30.706028
20.557045 29.373154 34.32003
20.056046 31.917152 35.02903
69.05605 69.69915 42.42503
70.88205 70.413155 43.44103
80.01605 73.716156 39.90003
79.50705 75.11715 38.505028
12.800049 10.801152 12.256027
13.836044 10.343152 14.103027
19.624046 16.992153 13.091026
19.035042 19.308153 12.363026
22.311043 8.9291525 44.75303
23.491043 7.687152 46.59803
17.287048 -0.41184783 48.82203
14.862045 0.20615196 49.00103
67.82905 32.970154 30.69303
67.319046 32.99615 28.41203
72.11605 42.513153 29.569029
72.49205 42.872154 31.445028
64.81005 19.820152 34.95103
63.88305 21.540154 35.69003
72.44705 25.212152 34.276028
73.85605 24.608152 32.71703
18.415047 24.603153 19.234032
19.225044 25.553152 21.164026
26.859047 30.190153 17.421028
28.531044 29.084152 17.469025
62.75505 44.44615 7.843025
62.75005 46.663155 6.9620247
70.61405 52.448154 6.409027
69.68705 53.798153 5.100025
42.82705 21.830153 41.131027
42.00405 20.204153 39.776028
35.245052 14.321152 40.645027
36.196053 13.498152 38.63303
60.03305 51.718155 18.93203
61.41605 50.262154 19.83403
54.51205 44.208153 20.30603
53.134052 43.187153 18.86303
48.412052 22.419153 4.003025
46.06005 22.135153 4.0720253
43.04705 13.848152 4.7170258
43.12505 11.721152 4.8770256
80.972046 19.346153 40.443027
81.57505 18.740152 38.012028
5.994049 23.713154 36.498028
6.1160507 26.497152 36.71003
41.34705 56.14115 20.592026
43.42105 55.34215 19.289024
50.079052 61.619152 16.562027
51.43705 63.040154 17.511024
36.73905 34.85815 2.923027
39.190052 34.181152 3.0040283
45.13505 39.258152 2.670288e-05
45.82605 41.48115 0.47602844
30.50905 68.03115 8.663025
32.33905 67.55715 8.7730255
38.807053 73.414154 5.649025
37.940052 75.341156 4.6760254
71.59205 34.091152 1.4550285
72.64105 32.73815 2.9570274
67.98805 25.395153 3.6120262
65.87205 24.739153 3.1130257
67.76905 9.443152 24.251028
66.25005 11.033152 23.30403
57.74005 5.4371524 26.38303
56.68405 4.724152 24.501028
23.276047 54.393154 0.01802826
22.279045 55.371155 1.2600288
28.591042 62.777153 0.77202606
28.064049 64.59515 2.0700264
53.349052 37.721153 20.431028
53.10805 38.269154 22.87003
52.69505 43.54415 26.97403
51.72005 44.257153 28.79003
40.82605 14.195152 12.749027
42.42905 14.923152 12.054028
45.69305 23.718153 11.036026
44.558052 24.586153 12.828026
20.147041 9.246152 37.44603
19.264046 10.828153 36.70203
29.558044 14.313152 36.90703
29.399048 16.041153 34.741028
34.949047 9.279152 32.131027
35.536053 7.066152 31.494028
26.201042 3.9031522 33.51703
24.777046 5.073152 32.85503
63.787052 14.078152 32.01403
64.18805 14.913152 34.31603
60.95505 7.109152 37.589027
59.14305 7.6101522 36.75203
41.83705 27.944153 46.220028
41.195053 28.790154 47.978027
47.47805 37.511154 46.749027
49.06905 36.32215 46.132027
68.79505 31.923153 37.95903
69.50405 29.959152 39.346027
65.14605 21.599154 43.64903
66.47005 22.635153 45.826027
1.3540497 22.211153 8.046028
2.1280441 22.970154 5.5250244
8.550049 28.899153 4.191025
8.2070465 31.368153 5.3750267
38.11405 29.239153 39.43903
38.626053 31.073153 40.38503
46.69905 34.848152 36.62903
48.25505 33.506153 35.68203
18.992043 59.422153 12.329025
16.805046 60.876152 11.870026
8.086044 56.71015 11.662025
8.496048 54.562153 12.296028
7.5040436 70.716156 3.9100266
7.47805 70.33815 1.7550278
13.536049 0.43415833 2.7990265
15.511047 77.161156 3.279026
80.97405 1.1881561 46.93803
80.65905 0.67515564 49.124027
77.84005 67.525154 0.075027466
76.15405 67.40715 48.40603
63.31805 6.644152 48.01003
65.06305 6.9781523 49.590027
68.01505 10.558152 42.465027
68.55705 12.542152 42.13403
53.67105 20.683153 12.0680275
51.95105 20.796152 13.587025
45.043053 13.314152 14.1550255
42.898052 13.719152 14.331032
69.83005 36.185154 1.1240273
69.01405 36.326153 2.786026
60.42005 31.458153 49.160027
61.40905 29.406153 49.50303
61.49805 66.30115 3.3580246
61.36205 65.386154 1.5120277
54.176052 57.83615 3.6300278
52.79905 59.019154 4.8770256
5.000046 17.184153 18.226028
5.0470505 17.421152 15.725029
1.2820435 8.362152 12.4430275
81.91005 6.598152 13.240025
47.84005 45.97415 10.844025
49.65905 46.69715 12.138027
57.81305 49.87715 12.097027
58.03105 50.402153 9.606026
59.96405 6.938152 46.055027
59.70505 8.245152 43.852028
66.63705 12.933152 40.41803
66.75705 14.420152 39.08003
21.720047 24.034153 31.730028
20.770042 24.155153 34.42103
12.948044 17.990152 31.924028
10.902046 19.166153 32.34803
46.83005 2.1601562 0.8710289
45.912052 2.6061554 48.66203
37.800053 75.83315 0.3540268
35.84005 76.72916 0.32502747
9.565048 22.191153 33.331028
9.7940445 22.852154 35.617027
16.505043 30.170153 33.06503
18.514046 29.499153 32.64203
80.42105 36.55115 28.17503
79.94205 34.757153 26.61003
71.07705 29.128153 24.30703
72.09605 27.088154 24.90803
65.39905 75.13216 38.408028
64.86505 76.968155 39.846027
74.00405 5.2051535 37.30303
72.73805 5.761153 35.04903
24.507042 37.09215 22.81103
22.731049 38.292152 23.01503
17.063042 31.060154 24.351028
14.557045 31.634153 24.278028
44.29205 7.791152 46.167027
44.287052 9.890152 45.13503
50.61605 16.006153 42.861027
50.99305 17.140152 41.03703
50.75005 16.669153 48.521027
51.43205 15.604152 46.76603
42.11105 10.698153 49.62903
42.94205 9.716152 47.81603
21.167046 18.067152 16.887032
19.387047 19.915154 17.337029
13.106049 13.516152 20.68003
11.012047 13.425152 19.095032
68.06405 66.59215 26.30303
66.34805 66.85415 27.896029
59.87205 58.671154 28.542028
59.44105 59.268154 26.653028
48.21505 61.185154 1.4980278
49.44405 61.07915 48.944027
58.69805 64.46415 47.567028
59.62105 66.04215 49.12003
25.956047 20.460154 30.153028
26.067047 19.967154 28.055029
33.214043 28.042152 24.442028
32.784042 26.608152 21.966028
82.35305 9.737152 25.21703
0.26604462 11.235152 26.71403
9.848045 16.042152 26.539028
9.024048 17.934153 26.06003
0.53504944 72.71215 31.921028
1.0630493 74.135155 30.348028
9.738045 0.69815826 34.53603
7.869049 2.405159 34.770027
77.75405 62.121155 45.35503
75.67505 63.298153 44.85603
70.03805 53.369152 45.451027
68.43405 54.031155 46.333027
11.4190445 58.538155 35.40003
10.275047 57.545155 33.33303
3.3140488 53.698154 39.12003
1.2360458 53.68315 37.67003
41.968052 37.54415 20.24903
40.85805 36.60615 22.062029
33.55305 29.747152 22.10303
34.82305 28.297153 22.12003
74.90805 11.593152 46.26803
75.05405 10.766152 48.049026
0.8490448 13.728152 43.889027
2.9080505 13.305152 44.28003
55.54205 22.584152 24.341028
54.03105 22.232153 26.02303
49.453053 15.327152 26.972029
49.307053 13.553152 28.437029
35.60805 38.563152 7.748028
36.29605 41.107155 7.4100266
41.53405 46.358154 0.7460289
42.432053 45.05115 49.263027
15.032043 17.972153 40.569027
14.958046 18.105152 42.80303
8.926048 13.267152 48.00203
7.1530457 12.602152 45.68903
59.56405 41.93915 30.35903
60.273052 40.838154 28.82903
67.39205 45.894154 24.83903
67.04705 48.089153 24.73503
23.999046 31.983152 8.351025
23.357048 33.513153 9.672028
16.304047 28.884153 15.107025
15.452049 28.409153 13.290028
19.514046 6.4641523 21.36603
21.426048 6.3191524 20.172028
28.188042 11.684152 17.604027
28.033043 13.792152 18.48703
69.85305 21.655153 15.7120285
71.21805 23.829153 15.905029
77.11005 29.588154 10.974026
78.33005 31.357153 12.346027
76.26905 20.422153 31.92203
74.40505 19.153152 32.25703
66.94705 15.348152 34.44603
66.73505 14.986152 36.34803
68.38605 1.080152 4.5320244
70.77005 0.8391521 5.7750244
74.83005 10.435152 3.807026
77.11805 10.129152 3.687027
29.735046 53.952152 29.590029
32.157043 52.790154 30.18903
37.14905 59.429153 27.851028
37.13905 62.052155 27.413029
26.687042 64.75715 45.16403
24.428047 64.85615 45.10603
19.456047 57.515152 43.75303
20.237045 55.18915 43.91403
41.89205 8.894153 1.7340279
40.834053 10.869152 2.5770264
33.89205 5.342152 5.0330276
32.26305 5.2481523 6.8150253
5.841049 65.03015 37.59903
4.6580505 66.50315 38.69503
78.23905 60.777153 37.41203
78.29305 58.57115 38.03703
37.38205 1.8541521 13.954025
39.62105 1.4461521 13.2920265
46.043053 7.218152 9.330025
47.81805 6.736152 10.480026
15.259048 62.249153 7.892025
17.610046 61.880154 7.191025
21.001045 71.331154 6.4540253
22.846046 70.97916 5.2940254
9.613045 11.931152 15.385025
10.262047 10.209152 16.146027
1.7940445 5.2461524 16.179031
3.2230453 4.000152 17.066025
73.083046 6.8921523 32.58403
73.30605 8.689153 31.907028
74.49205 8.134152 37.59303
74.76105 8.355152 39.49003
76.70705 33.450153 11.889027
77.34805 33.52415 13.807026
0.41004944 42.164154 9.491028
1.4410477 40.760155 7.7520256
58.20705 33.285152 13.261024
58.88105 31.666153 12.753025
50.80505 25.966152 14.387032
49.92305 27.100153 15.989029
39.63705 17.862152 16.296028
41.190052 17.496153 14.409027
47.15205 24.185154 14.060028
49.23605 24.344152 12.635025
60.995052 14.667152 21.194029
61.51005 13.129152 22.923029
54.15705 8.159152 23.420029
52.90305 8.486153 21.44303
35.613052 5.1871524 11.9170265
37.37205 6.4121523 12.742027
43.474052 10.739152 7.0990257
42.82705 12.861152 7.9150276
42.64505 66.12815 43.595028
42.461052 65.71315 45.521027
32.66305 61.617153 44.910027
32.91505 59.562153 46.48703
58.75805 38.188152 28.38403
59.25805 35.871155 27.732029
53.44605 29.191153 28.58603
51.20105 29.350153 28.40403
60.00505 56.73115 23.085028
59.63805 57.548153 21.025024
67.46705 63.254154 21.423029
69.24505 62.029152 20.701027
14.536049 24.392153 5.9800262
14.262047 25.108152 7.795025
7.6100464 19.601152 9.892025
6.1380463 19.873154 7.838028
27.114044 45.512154 5.3790245
27.716042 45.218155 7.548027
21.498047 37.941154 11.866028
23.119041 36.577152 11.832027
5.670044 68.61715 0.581028
4.710045 69.343155 48.34303
78.60305 64.20215 49.65603
76.97105 64.97915 48.47403
35.74905 70.134155 30.166029
37.585052 69.26615 31.566029
42.74005 76.74115 26.81703
44.113052 0.42915344 28.184029
72.53805 30.942154 35.84703
71.56105 32.820152 36.34303
79.91405 37.820152 37.81303
80.01005 40.29415 37.42803
81.21805 22.228153 49.21003
78.96105 21.893152 49.54503
74.48505 16.112152 4.975025
75.555046 16.702152 7.0510254
78.16505 12.528152 13.303028
79.72905 11.752152 14.563026
4.482048 19.121153 11.836025
5.7400436 17.732153 11.354027
0.43605042 4.5901523 7.260025
0.95204926 5.638152 9.457027
6.6570435 13.023152 4.041027
5.6060486 15.0471525 4.194027
14.068047 70.369156 18.271027
11.828049 69.25215 18.01603
6.698044 62.289154 20.370026
8.336044 60.785152 21.13703
60.63205 6.722152 33.33403
61.356052 7.902152 35.05103
71.79505 7.863152 36.65303
72.59605 8.618153 35.096027
37.18505 58.466152 3.706028
35.43605 59.636154 3.0750275
42.911053 68.16615 4.090027
41.39305 69.20815 3.4140244
7.6390457 7.219152 40.007027
5.6380463 7.835152 40.685028
0.8010483 -0.9368479 44.860027
1.2540436 -2.359848 43.01603
27.437042 20.267153 22.411028
28.442047 20.091152 20.227028
37.74805 18.448153 18.20903
39.172047 20.264153 17.815025
69.94305 4.935152 16.04103
69.41905 5.1341524 13.846027
77.57605 11.364152 10.861027
76.84605 10.446153 8.585026
26.835045 2.3511581 35.65703
26.529045 0.9731598 33.79303
22.515045 69.079155 35.11503
21.154045 69.775154 36.554028
37.058052 51.573154 40.90603
36.342052 53.805153 40.33003
43.00505 59.499153 37.415028
41.557053 60.914154 36.93903
70.79305 44.049152 25.989029
70.51505 44.019154 28.16903
64.00905 36.72415 29.885029
61.92505 37.616154 30.55403
77.97105 41.60615 29.93603
78.30305 42.862152 31.348028
0.77404785 49.99515 26.622028
1.2140503 51.41915 28.246029
9.974045 3.2411566 38.229027
7.864044 3.282157 37.52503
82.26305 74.57315 37.880028
0.0990448 72.911156 38.873028
15.323044 52.868153 25.69003
15.024048 55.306152 25.08103
21.361046 61.456154 26.139029
19.867043 62.600155 23.88003
48.356052 13.288152 20.915031
48.80905 12.387152 18.911026
56.36805 16.386152 12.246025
58.06405 15.486152 13.689026
1.0800476 53.063152 31.83903
0.14104462 50.83515 32.34803
78.20605 45.959152 40.11303
76.34105 44.67615 39.062027
71.90705 25.042152 28.038029
71.92305 27.191153 27.892029
79.50205 30.643152 24.718029
80.73305 32.00215 25.760029
16.046043 44.94715 12.381027
15.726044 43.20315 11.044025
6.5190506 39.990154 11.231026
4.9140472 41.378155 10.608025
24.994041 42.964153 36.36103
24.840042 44.528152 34.91303
29.436043 51.608154 31.34903
30.674042 52.78015 32.651028
52.49705 60.582153 13.573025
53.67505 62.108154 14.733025
61.85205 68.758156 12.851025
63.73905 67.456154 12.707027
37.711052 6.2051535 32.62703
36.74805 6.511153 34.80603
35.83905 75.26715 38.672028
33.81905 74.62615 38.200027
72.07405 74.66715 5.1740265
70.54205 75.70815 5.968025
64.60005 68.509155 8.108025
62.634052 69.01315 7.9640274
26.565048 8.861153 1.7800255
25.195045 8.650152 3.6010246
18.257042 0.74415207 1.5080261
17.912048 -1.3178477 3.0980263
37.35005 32.576153 47.73203
39.26805 32.202152 48.39103
45.38005 38.670155 45.36903
45.70805 39.644154 43.37603
40.155052 69.83315 42.58503
42.08905 69.703156 41.068027
48.579052 75.147156 41.07803
48.63805 76.04515 38.84103
69.18505 6.953152 20.309029
70.60005 6.124152 21.523027
79.68705 9.225152 19.365028
82.09405 8.252152 18.04203
12.461044 75.524155 26.89703
12.009048 74.161156 25.42803
3.4730453 71.46215 27.487028
2.857048 69.79015 28.987028
25.672043 5.5431523 39.54503
27.642044 5.771152 40.956028
32.164047 12.116152 33.00403
31.691048 13.490152 34.423027
74.30705 57.958153 17.70903
73.64305 60.358154 17.225029
78.59305 68.580154 16.758026
80.43905 68.27915 15.329025
40.94205 52.354153 6.6050262
42.55305 51.28015 5.5000267
47.48705 60.198154 4.378025
48.00005 60.78015 6.2750244
60.83805 18.828152 22.343029
61.37405 19.414152 20.010029
66.07005 28.979153 23.355028
64.29505 29.668154 23.653028
42.36605 38.57915 17.86203
42.66005 41.00915 17.81903
50.593052 45.331154 21.619028
52.32005 43.785152 21.927027
5.204048 63.677155 22.69603
5.213043 61.941154 23.046028
78.75705 57.54415 25.58103
78.22905 57.553154 27.843029
2.1570435 42.331154 16.12603
3.1570435 41.285152 17.90203
76.09205 35.602154 18.079025
76.51805 35.180153 20.340027
46.98405 59.22415 41.250027
46.67805 60.462154 39.769028
55.98405 65.63715 40.27903
56.84705 64.34615 39.07003
39.323048 25.020153 33.50803
37.700047 26.456154 33.90003
30.047043 20.531153 35.87603
30.446045 18.627153 35.38603
0.76304626 60.514153 11.986027
1.5760498 61.61315 9.822025
10.292046 65.71415 8.191025
10.850044 67.80815 9.508026
58.83105 49.428154 7.1670265
58.86205 51.431152 7.1790276
67.01505 55.250153 4.2760277
66.02005 56.746155 2.7230263
42.85705 55.272152 27.53603
41.64305 54.160152 28.76303
35.79505 47.417152 26.330029
35.66505 48.076153 24.042028
31.69605 47.678154 18.786026
33.794052 46.463154 18.910027
40.64305 53.56415 18.647026
42.74705 52.48115 19.895027
40.53405 55.32815 8.600025
40.03405 55.100155 6.513027
46.42405 62.680153 4.9380264
46.10705 64.50515 6.229027
22.438042 62.353153 23.868029
23.029045 63.471153 25.19303
30.201042 69.25716 20.935028
29.958046 71.50515 21.184029
63.481052 53.199154 23.32103
63.24105 55.508152 24.72103
70.51505 61.50215 23.004028
71.52905 63.30015 24.31403
69.80005 12.842152 39.55903
71.97105 11.6791525 38.61203
66.91705 13.427152 30.368029
65.85705 12.017152 31.784029
23.851044 4.613158 35.513027
21.466042 4.3041525 34.14303
17.022041 73.067154 37.949028
15.471046 74.468155 37.319027
32.50505 57.424152 42.042027
34.39905 56.575153 41.290028
41.397053 62.60615 38.93803
43.57705 62.465153 40.123028
28.962044 47.59915 4.9360275
29.441048 49.554153 4.0560265
37.006046 55.507153 6.508026
37.878048 55.181152 9.059025
57.405052 75.149155 20.93203
59.03605 73.76715 19.785027
51.28505 66.72115 19.79203
49.175053 67.01815 20.01603
77.56105 58.049152 30.819029
75.13105 58.54315 31.79003
69.08605 51.30115 32.73103
69.25205 49.553154 32.17003
31.31805 32.91915 20.55803
31.71305 33.790154 22.958029
40.21205 39.66815 21.50203
40.88005 41.503155 19.78703
55.82705 48.02315 1.3590279
54.63005 47.610153 49.229027
51.18805 38.871155 49.18403
48.76305 38.653152 48.98103
66.21205 7.074152 12.2540245
66.19605 9.029152 13.149025
71.74405 15.329152 8.436028
74.02605 15.966152 9.496025
74.29005 48.489155 37.40503
72.89005 49.894154 35.73003
81.55005 55.318153 35.15403
80.45205 57.061153 36.242027
64.10605 49.824154 18.636024
64.78505 49.118153 16.581032
68.73405 57.03015 12.305027
70.27905 58.376152 13.183025
61.42505 27.596153 3.0330276
62.454052 25.657152 2.4670258
55.01705 19.254152 7.7090263
54.697052 21.170153 9.481026
72.83205 28.826153 39.57903
71.41805 29.404154 37.51103
66.92405 19.483152 39.41303
67.36605 18.768152 37.596027
8.482048 20.944153 25.70403
8.088043 19.925154 24.223028
13.182045 25.490152 21.29303
15.362045 26.351152 20.19003
44.72305 2.6741562 41.57703
42.90205 3.9381552 43.07003
37.91405 72.91815 42.535027
36.42405 74.245155 41.582027
65.01905 39.989155 42.11903
66.48805 39.547153 43.840027
74.43605 44.860153 41.699028
76.194046 44.298153 41.98903
76.24705 58.082153 24.424028
73.88905 58.119152 23.806028
65.06905 55.241154 28.80403
63.947052 56.783154 27.56003
3.1910477 73.301155 48.631027
2.734047 74.803154 46.88303
12.599045 1.6011581 0.19602585
12.20105 3.4511557 0.4810257
7.6430435 52.57915 9.0040245
7.588043 51.783154 10.991028
1.7430496 45.027153 9.392025
1.4870453 45.517155 11.810028
5.841049 5.9441595 32.42503
3.795044 4.794158 32.59703
81.41505 76.00515 31.831028
79.75305 0.22115326 32.21003
37.26905 8.8631525 14.422028
35.46305 9.5471525 12.722027
34.856052 19.384153 9.192028
37.112053 19.282152 8.411026
68.97505 27.954153 25.69603
69.42705 26.517153 27.30003
61.29305 21.076153 27.73103
60.87505 19.861153 25.55303
29.297043 36.311153 32.98903
31.449043 35.889153 33.159027
38.61005 43.48815 32.09103
39.966045 41.545155 31.416029
22.362045 30.603153 48.28703
23.451042 30.412153 0.2650261
28.100044 40.75215 49.28803
28.390045 40.916153 2.0120277
50.84705 67.994156 31.302029
51.14905 66.955154 32.94803
41.19205 66.885155 31.09603
40.33805 65.09715 31.472029
66.56305 52.267155 38.87903
67.07205 51.132153 41.25203
61.43205 44.77315 43.73903
59.65805 44.387154 42.534027
11.137047 41.610153 37.91803
13.224045 41.574154 38.10103
18.849045 47.491154 35.055027
18.983047 49.825153 34.971027
19.845047 52.674152 42.42503
19.119041 52.236153 44.28103
13.179047 45.278152 44.96103
11.876045 44.223152 42.824028
53.69405 14.276152 35.227028
52.52505 13.7381525 33.423027
57.33505 21.662153 28.264029
55.426052 23.225153 28.14403
79.17905 9.120152 5.9800262
77.03505 8.979153 6.409027
68.90905 4.1021523 8.130028
68.63805 4.112152 10.550026
25.334045 68.28215 47.60003
26.727043 67.11415 46.755028
33.679047 74.05915 42.062027
34.60905 75.17015 43.46903
4.2710495 71.43315 40.13503
4.5900497 71.509155 42.37603
10.763046 2.1961594 42.338028
11.5820465 2.6891556 44.00903
1.1740494 32.10615 38.221027
2.0660477 33.67615 36.57603
8.639046 40.243153 34.902027
11.037048 39.625153 35.595028
45.61405 59.223152 35.72303
46.39405 58.729153 33.30903
52.68405 64.899155 34.21703
52.89705 67.23715 35.124027
11.261047 58.160152 24.611029
10.579048 58.735153 22.553028
18.532043 63.790154 22.010029
19.990044 63.876152 20.32503
80.85905 60.874153 45.29503
80.33605 60.346153 43.054028
6.4970474 65.07915 42.14703
8.011047 63.899155 42.713028
26.052048 3.893152 26.673029
26.018044 4.329152 28.517029
33.562042 9.597153 28.431028
33.325043 11.623152 29.39803
48.60305 20.094152 40.04303
49.995052 18.352152 38.665028
57.64905 22.416153 34.763027
58.079052 24.002153 33.05303
17.333046 23.090153 15.323029
16.824043 23.558153 17.249031
9.596046 17.505152 19.80503
9.1430435 15.584152 20.017029
43.17805 53.95415 10.085026
41.92805 55.489155 10.820026
50.801052 58.374153 8.579025
52.97305 58.813152 10.178028
49.52705 37.108154 36.80803
51.537052 36.033154 37.01703
55.95105 42.868153 36.317028
57.25705 44.010155 37.62903
81.60705 52.986153 29.79403
80.78605 51.149155 29.20303
73.82805 46.840153 33.929028
74.736046 46.236153 36.15503
77.02305 13.501152 6.468025
78.50305 11.674152 6.4240265
3.6710434 18.572153 7.138027
4.9750443 17.633152 8.450027
74.47705 18.199152 24.112028
73.76705 19.202152 22.400028
68.22405 11.531152 21.053028
66.14305 11.158152 20.611029
43.96605 15.764153 23.84503
43.32705 14.923152 25.82403
37.20805 8.723152 27.372028
36.36805 8.645152 29.615028
67.53205 0.09915209 48.75403
68.26905 1.2011521 0.7310257
75.16405 6.889152 46.64903
73.78405 8.460153 47.291027
66.87805 16.078152 30.948029
65.43905 16.761152 32.67103
71.38205 22.004152 27.08503
73.04905 21.271152 27.462029
52.99605 18.868153 3.6220245
54.38905 18.489153 2.1360283
62.419052 23.510153 0.3070259
64.63605 23.722153 1.1010284
49.66005 51.64115 26.740028
51.28805 50.257153 26.438028
61.26305 53.186153 25.47403
61.47905 54.463154 27.108028
12.209045 46.78615 2.6220284
10.346046 47.232155 2.3230286
4.8740463 39.795155 49.62003
5.4850464 38.200153 1.4760284
54.03205 14.696152 42.98803
55.20805 15.124152 45.06303
61.41305 21.532152 41.39003
61.926052 21.315153 39.352028
14.738045 56.500153 40.00903
13.540047 58.118153 39.249027
5.762047 51.81515 41.71003
5.838043 49.519154 41.339027
31.23805 75.61816 33.48803
32.07505 0.5051575 34.51103
38.34605 3.4221563 28.327028
38.14205 5.720153 27.20003
58.46905 17.214153 8.726025
59.17105 17.263153 11.086025
63.21705 26.056152 9.579025
64.05505 27.549152 8.013027
81.21605 10.7381525 34.93903
82.18105 11.860152 37.26003
77.06705 3.030152 39.30303
74.87905 3.767152 39.528027
69.333046 25.529154 21.42603
69.94605 23.820152 20.67603
62.94205 16.542152 25.250029
63.80405 14.906152 24.85903
55.12205 73.61415 3.3800278
52.57105 73.99915 2.9010277
48.24205 66.966156 6.574028
47.41705 66.76915 4.5160255
49.95705 33.44615 38.026028
50.787052 31.792152 39.01503
41.56705 28.213154 42.451027
43.258053 26.869152 43.604027
52.23405 0.41616058 21.560028
53.00305 0.26315308 19.42503
47.18005 71.51715 23.75603
48.293053 69.69815 23.32903
37.912052 9.118153 33.22503
38.88605 10.364152 34.588028
44.76705 15.285152 28.135029
46.925053 14.654152 27.909029
17.457047 42.32215 12.932026
19.175049 41.476154 12.509026
25.870049 49.09215 10.601025
27.524048 50.19715 11.419025
81.41505 56.98815 43.52903
79.78005 58.007153 41.97503
71.42305 53.160152 42.42703
72.17205 51.234154 41.48803
1.0440445 0.32215214 0.4430275
1.3530502 0.8721521 48.03603
9.338043 4.9501524 46.85603
9.196045 6.538152 48.80703
30.527046 55.979153 36.97303
29.317047 56.028152 35.484028
21.961044 51.482155 38.37603
21.245049 50.244152 36.770027
18.423042 62.93215 12.982025
19.716042 63.048153 11.179028
25.611046 69.45015 10.843025
27.688042 70.260155 11.860027
56.93405 0.97415924 21.572027
57.38305 77.26515 19.25103
67.74705 4.1821585 18.89103
67.75405 4.018157 16.69503
36.86505 1.3621521 8.175026
39.52405 1.1911521 7.300026
46.432053 7.657152 3.958027
47.80605 7.227152 5.567028
75.85705 75.22916 27.06803
75.49105 75.43315 29.285028
66.94505 71.482155 33.07203
68.03305 71.43215 34.991028
0.80804443 25.556152 21.816029
0.28904724 24.988153 24.126028
73.63205 23.386152 26.14003
71.77905 24.484154 24.88003
1.2850494 21.796152 10.611027
0.8340454 22.244152 12.550026
76.26505 15.392152 16.926025
75.89805 14.572152 14.6510315
52.38105 63.886154 31.810028
51.62505 65.44715 30.128029
43.141052 62.42515 33.16103
43.551052 60.359154 33.44703
48.565052 53.984154 41.36303
48.48005 53.873154 43.38403
42.786053 45.32915 40.845028
42.65205 43.054153 41.410027
2.904045 50.882153 25.348028
3.90905 51.46015 27.760029
12.966049 55.23815 26.64803
13.352051 52.955154 27.427029
13.531044 8.069152 11.658028
15.380051 8.616153 13.035027
22.931046 13.944152 11.414024
23.319046 16.358152 10.506027
10.230049 27.637154 46.65603
10.255051 27.016153 48.78203
3.1660461 19.909153 0.3160286
1.0510483 20.469152 49.014027
32.386047 38.360153 3.114029
32.09305 36.422153 2.5000267
25.604042 29.749153 4.631027
24.045044 30.852154 4.9480247
23.104042 68.51415 3.9980278
22.154045 69.64215 2.2780266
16.926048 61.758152 0.8620262
15.656044 61.090153 2.2770271
60.49705 28.374153 9.798027
59.92805 29.216152 11.903027
55.02405 22.264153 15.940025
52.863052 22.441153 15.706032
3.3930435 21.936153 14.856026
3.4660492 21.458153 12.695026
12.654045 27.799152 11.214027
13.902046 26.241154 12.132027
15.706047 25.992153 14.197025
13.293045 26.503153 15.045029
7.4930496 19.369152 13.419025
7.6830444 17.667152 15.20903
27.005043 70.24316 8.735027
29.026047 70.079155 9.536026
33.603043 0.4791565 4.9030266
32.776047 2.4441605 4.6760254
13.611046 26.923153 5.6080246
13.445045 28.623154 4.701027
16.981049 36.271152 5.107025
16.003044 38.24515 4.6460266
2.4290466 44.157154 18.338028
0.44504547 45.470154 18.15203
75.26905 41.41815 21.413027
74.46605 39.118153 20.96103
52.72105 39.493153 11.076027
51.66605 41.257153 12.617027
42.704052 34.756153 12.737026
41.488052 36.702152 13.849026
33.53905 2.1271522 1.8900261
33.79805 2.0161521 48.965027
40.42305 9.234152 47.55903
39.72905 11.319152 48.38603
22.735046 68.42115 40.03803
22.768044 66.23015 39.408028
17.679047 61.010155 48.01703
16.659042 59.448154 46.665028
40.71405 62.160152 31.817028
40.704052 60.841152 33.73003
32.626053 55.041153 32.89103
33.203053 53.108154 33.061028
78.79805 12.992152 29.37303
80.07905 12.557152 27.98503
72.29505 6.923152 28.19903
72.42805 4.8131523 26.68203
59.22505 -2.8828478 10.285027
59.04305 -1.7118478 12.158028
61.87805 7.582152 6.946026
62.68805 8.7381525 8.1480255
66.43205 50.82815 25.71303
66.03705 52.442154 26.22103
72.20105 57.743153 19.746029
72.88005 59.80115 20.05703
74.15705 13.370152 4.812027
73.11505 13.211152 7.2450256
64.16305 8.215153 5.668026
64.582054 6.239152 6.192028
75.31005 29.214153 38.55103
75.79905 27.225153 39.354027
79.69705 19.556152 35.67103
77.86205 19.983152 33.98303
25.390045 46.378155 41.40003
26.357048 45.736153 43.014027
33.972046 51.81415 40.25803
33.385048 53.844154 40.90703
43.33405 24.201153 40.14903
44.314053 24.564154 41.769028
52.41505 30.807154 40.89803
53.40105 29.766153 42.549026
17.147041 41.858154 17.075027
17.878044 39.364155 16.36303
8.473045 37.354153 21.865026
9.678047 36.518154 23.29603
77.791046 24.911154 46.222027
78.21705 24.371153 48.319027
70.13905 20.376154 1.3480263
70.01105 18.818153 3.0850258
36.379047 52.02315 0.68302536
34.62505 53.03015 49.17803
28.259048 46.395153 2.7850266
28.667046 44.198154 3.185028
71.92405 34.91815 48.24403
72.66405 34.685154 46.46203
80.56705 36.160152 44.062027
82.25505 37.753155 44.263027
82.17805 37.026154 41.14703
0.08905029 36.650154 39.28003
9.058044 40.876152 39.625027
10.690048 42.039154 41.060028
72.38505 21.788153 19.71003
70.45405 21.750153 19.09703
73.069046 14.742152 14.4620285
72.12805 16.763153 14.046028
66.60605 30.492153 25.511028
68.34505 30.872152 26.70003
75.01705 36.89815 21.89803
77.04605 37.28715 22.93603
25.538048 58.028152 13.521027
25.655045 59.603153 15.8370285
33.13405 64.718155 20.036026
34.307045 63.08615 19.881027
36.127052 25.546152 15.405029
35.88505 24.971153 17.934029
43.030052 33.868153 16.871025
44.71505 32.67115 17.747025
4.3680496 63.392155 19.112028
3.0230484 62.957153 21.244028
78.27505 56.000153 21.306028
78.68405 53.66915 21.917028
15.929047 41.463154 46.18403
16.840042 42.771152 44.875027
23.161049 44.859154 41.262028
23.362045 46.09215 39.24503
18.125046 51.149155 37.054028
19.117043 48.810154 37.674026
14.984047 42.09215 42.847027
15.56105 40.112152 42.019028
79.49605 6.3001523 48.86503
81.47005 4.8071523 48.896027
6.3560486 8.453153 44.540028
5.161049 9.487152 42.82703
18.038048 54.441154 40.15603
20.494041 53.734154 39.783028
29.128044 59.792152 38.67003
29.666046 58.441154 37.067028
35.97105 53.871155 46.81503
36.10105 54.208153 44.91903
44.626053 61.435154 44.57703
43.65105 63.278152 45.31303
63.02905 60.417152 0.4070282
60.954052 59.327152 48.49703
51.36105 58.922153 49.61303
49.98205 58.013153 48.44803
46.31805 2.385152 37.638027
46.168053 4.809152 37.84803
54.54105 8.990152 38.42603
56.37205 9.011152 39.97403
64.749054 57.720154 40.46903
63.57305 59.21015 41.324028
69.10005 65.232155 37.25403
68.57905 67.216156 38.52503
27.231049 36.38415 22.569029
27.902046 37.00915 20.32803
35.714046 43.935154 22.13403
35.37105 45.526154 23.32103
68.79005 19.321154 10.466026
69.48305 17.277153 11.079025
65.34205 10.982152 16.26403
64.346054 10.857152 18.09903
35.25005 15.591152 47.19803
34.89505 16.992153 45.62103
42.54705 23.688152 45.49503
44.843052 23.447153 43.98903
29.354042 38.621155 36.12203
29.492043 36.230152 36.34303
21.163048 35.04315 41.074028
20.173042 32.62115 40.971027
4.36705 4.5961523 25.084028
3.9870453 2.4621582 25.834028
76.17605 77.61015 23.247028
75.39505 77.27015 25.46003
53.07705 40.500153 19.317032
53.70305 40.139153 16.888031
45.398052 34.612152 19.247025
47.03905 33.381153 20.730026
45.08905 23.886152 0.41802597
44.29605 23.472153 2.4450264
36.50705 17.560152 1.9410286
35.738052 16.721153 49.72403
28.313042 57.30015 26.14103
27.849045 57.69715 24.004028
33.325043 62.89815 23.97103
31.761047 63.90515 22.34903
81.48105 4.5091543 10.639027
79.82705 5.792159 9.195026
72.45405 76.855156 8.573025
73.930046 75.732155 10.350025
4.9120483 38.112152 5.274025
4.593048 37.103153 7.203026
79.92005 31.746153 9.757027
78.50605 32.85615 8.662025
65.72205 52.764153 31.983028
65.27805 51.78715 34.27903
56.32805 48.928154 36.19003
54.91105 47.889153 34.637028
39.794052 76.26215 11.892025
41.54705 75.327156 12.311028
49.31905 3.8331594 10.353027
50.79605 3.0171576 11.833027
47.13705 29.035152 21.30003
48.02705 27.588154 19.53703
41.68005 20.077152 21.879028
41.24205 19.177153 23.77203
1.7740479 6.7281523 27.723028
81.82305 8.180152 27.76503
75.63105 3.005152 32.784027
75.68605 0.9661521 32.14103
67.72005 51.879154 44.94003
65.86505 52.042152 43.97303
59.599052 45.736153 46.646027
58.11105 45.008152 44.854027
60.82705 4.278159 46.75203
61.54105 2.7251587 45.67603
53.82505 74.357155 0.52202606
51.676052 74.02015 0.0070266724
12.606049 58.146152 32.082027
11.974045 60.122154 33.09303
21.568047 65.025154 29.515028
20.736046 66.89715 30.21703
38.147045 71.41515 44.985027
38.66605 68.872154 44.45203
29.101044 64.37315 47.435028
30.421043 63.03715 48.39103
69.79905 11.511152 23.493029
70.72705 10.552153 21.64103
75.75305 17.299152 21.830029
74.27905 17.762152 20.20403
42.17705 54.56415 23.028028
40.51105 55.860153 23.362028
33.05405 49.671154 25.593029
32.968052 49.054153 23.364029
55.13005 32.99015 48.11403
54.96705 34.014153 46.249027
64.14005 37.854153 43.71803
65.29405 36.979153 45.31503
2.7730484 76.47615 21.808027
4.291046 76.803154 20.16803
81.98705 68.774155 17.388031
80.39405 70.04515 19.089027
66.18905 46.46115 19.274025
67.72805 45.295155 19.94703
74.84005 51.58515 14.440025
76.38105 50.31415 14.399025
30.048042 37.130154 41.01503
27.924042 37.774155 39.87703
21.492043 34.653152 45.72303
20.125046 34.33515 44.000027
32.85105 16.839153 37.99403
31.848051 18.447153 37.49503
41.29905 22.724154 38.674026
42.37305 23.878153 37.359028
55.21005 25.154154 23.952028
56.058052 26.025152 25.80803
60.336052 34.05215 23.12703
58.94605 35.000153 24.935028
22.688042 26.072153 33.64903
22.220047 26.531153 31.63103
31.417046 30.661154 26.99103
29.438042 31.925154 26.47103
53.43505 50.374153 29.88103
53.93805 49.790154 32.27803
61.59505 55.305153 29.560028
59.86605 56.581154 30.225029
54.98505 77.397156 17.133026
54.76505 77.067154 15.047028
47.14605 68.83815 14.055027
45.64605 69.883156 15.753029
46.72705 45.57215 13.421028
47.85305 44.848152 15.721031
45.68005 48.493153 21.496027
48.02705 47.50215 21.97003
42.647053 73.80815 15.905029
44.44305 73.064156 15.772026
48.647053 3.7991552 14.399025
49.54605 5.794158 15.66803
19.484047 7.127152 28.625029
18.353043 8.651153 29.89503
10.036049 3.3451521 31.07103
8.072044 4.0641522 31.216028
8.636047 29.839153 46.408028
8.475044 31.059153 44.257027
14.67205 38.707153 45.769028
16.699043 38.882153 44.03003
39.648052 38.244152 16.02903
39.08005 36.020153 14.94503
32.79805 28.771152 16.548027
30.916052 28.646152 18.412025
32.559044 15.8041525 47.005028
31.889046 13.490152 47.317028
28.148048 8.805152 3.8760262
27.436043 8.775152 5.6930275
68.10705 65.87915 20.687027
69.43605 66.08415 22.52003
77.20705 70.72815 21.488028
78.13505 71.42316 19.22403
22.186043 14.497152 49.20203
22.264046 15.579152 1.5580254
28.361046 22.526154 0.97802734
28.875046 21.150152 49.17003
45.80405 12.156152 16.920029
47.71305 10.537152 17.34903
41.077053 4.048152 22.028028
39.44205 6.028152 21.444029
70.24405 50.154152 39.81403
71.89905 50.972153 38.59203
75.88905 56.354153 35.068027
76.40705 58.179153 34.060028
29.064049 65.344154 6.260025
27.600044 65.357155 4.595028
20.178047 58.901154 2.4850273
18.193047 60.284153 2.928028
3.7870483 14.210152 47.068027
5.2380447 14.990152 45.193027
11.713043 21.553152 43.35003
12.485046 23.958153 44.00403
38.18305 25.125153 28.33803
37.116047 25.007153 30.14503
32.493042 28.939154 34.14803
30.825043 30.040154 33.07103
34.61105 30.219152 35.255028
36.210052 29.928152 33.51703
42.967052 36.936153 35.31603
43.49005 39.202152 33.58303
5.3800507 5.697152 28.04303
4.4830475 6.7811522 26.37703
13.46405 10.183152 24.19003
15.539047 9.395152 25.50103
70.59605 46.783154 25.62403
69.48105 47.332153 23.472029
72.94005 55.18215 18.48803
71.43505 56.277153 17.257027
21.193047 59.151154 17.309029
20.068047 59.643154 15.54303
13.378044 56.360153 19.912025
14.56105 55.582153 22.340029
50.99905 45.838154 15.62603
50.057053 45.14815 14.082027
60.93105 46.990154 13.5490265
60.85505 49.12015 14.541031
38.34405 71.26915 39.199028
40.48405 70.71215 38.825027
45.87405 77.315155 34.78903
45.182053 0.5701599 32.62703
45.87105 12.405152 19.78003
44.61705 13.876152 20.205025
36.17305 10.405152 17.80703
34.696053 9.1131525 17.984032
35.01105 44.73815 26.33203
32.99505 45.179153 25.868029
26.918045 38.851154 29.503029
26.248047 38.875153 27.548029
18.599045 7.330152 18.87503
17.390045 7.567152 17.131027
21.959045 16.445152 14.79303
23.600044 16.212152 13.747025
27.810043 28.102154 1.3820267
25.357048 28.795153 2.102028
17.940048 22.605152 3.687027
17.413048 23.353153 5.9310265
5.980049 40.760155 15.161026
5.9670486 41.59915 17.059029
11.88205 48.089153 13.795025
11.933044 48.076153 11.335026
60.89305 54.122154 18.857025
63.20005 53.36315 19.128029
69.34205 60.386154 15.206032
71.28305 60.28715 15.983025
41.211052 7.033152 35.374027
43.29105 7.066152 37.304028
44.787052 16.585152 32.84303
47.26805 16.332153 32.949028
44.891052 66.08815 1.5200272
46.25405 67.07115 0.15602875
54.711052 70.00716 48.207027
54.65805 71.717155 49.01103
59.724052 54.472153 21.30703
59.59705 52.145153 21.53703
52.80005 44.42515 24.38403
51.28405 45.775154 25.63103
55.86405 59.052155 17.344025
56.09005 60.553154 18.93203
64.99105 64.70915 14.081028
65.30205 66.11015 15.216026
13.329048 73.829155 22.979029
13.967049 72.04615 23.86703
7.416046 67.88216 27.38403
7.7920456 65.91715 28.30703
32.998047 9.314153 21.180029
32.002045 9.058152 19.13703
28.576042 1.3971521 24.38703
30.178047 -0.35984802 24.757029
53.01405 14.3631525 38.471027
52.62805 15.971152 37.214027
60.77705 21.763153 36.78703
61.95905 19.782152 37.08603
27.414047 62.343155 35.32803
26.969048 64.43015 35.27303
34.005043 68.08615 30.827028
34.318047 67.90916 28.670029
47.689053 66.62515 15.433029
44.96205 67.18515 15.633026
39.127052 61.84915 20.436028
37.00405 61.269154 18.601028
19.363045 56.77315 46.464027
17.872047 56.459152 47.62203
11.503044 48.956154 48.65403
11.690048 47.270153 0.0010261536
58.26405 68.330154 45.041027
59.51405 67.33215 46.235027
68.35805 69.468155 45.18203
69.22705 70.93115 46.957027
20.617043 35.272152 1.8970261
20.134048 36.775154 1.1740265
25.541046 43.69015 44.77303
27.126045 42.66915 43.631027
72.15105 71.758156 0.27902603
74.39505 71.48615 49.55203
78.48005 2.0841599 46.547028
78.84205 2.5601578 48.71903
0.20005035 59.041153 8.413025
81.03905 60.604153 7.6130257
73.07705 53.397152 10.941025
71.19305 54.430153 11.453026
52.14605 1.827152 7.5960274
53.41605 2.188152 5.732025
58.68205 10.509152 4.7750244
59.40005 10.764153 7.446026
81.01805 11.549152 18.75003
80.92805 11.998152 21.01503
7.3820496 17.705153 22.30303
6.5070496 18.335152 19.982025
25.333046 37.43215 18.826027
25.348045 38.85615 20.923027
31.501045 44.89815 17.735031
30.795044 45.916153 15.882027
64.85705 58.07815 37.47303
66.39205 57.08515 38.48703
72.31405 64.54115 36.72403
70.74505 65.16115 35.144028
7.9990463 58.122154 22.88403
7.0160446 59.81515 23.869028
81.66205 52.867153 27.069029
79.72905 53.705154 26.548029
51.95505 56.593155 4.5650253
51.93605 54.646152 4.4120255
46.565052 46.938152 5.595028
47.127052 45.379154 6.496025
48.15705 53.379154 29.466028
46.75705 53.42615 31.365028
37.925053 50.100155 31.80103
38.29705 50.040154 34.50003
41.78505 49.395153 1.1030273
42.40305 50.73815 2.3300285
49.79905 55.720154 0.47402573
50.71005 56.244152 2.3040276
32.64405 38.790154 43.817028
32.265053 40.832153 41.60603
42.01205 43.09915 38.79403
41.32505 44.498154 36.99403
80.30405 25.825153 0.793026
81.12005 25.572153 48.89803
4.8630447 30.514153 43.28203
6.7020493 28.927153 43.53203
53.13105 51.292152 34.540028
55.05605 50.795155 34.66803
60.82605 57.526154 32.66803
59.13205 58.135155 33.87803
31.974045 23.027153 9.115025
31.757042 22.393152 11.419025
29.303047 13.030152 13.990025
27.396042 13.069152 13.528027
25.794044 42.004154 31.89403
25.810043 41.46715 34.27303
18.764046 34.24015 35.52503
17.125046 33.89915 33.84003
33.058044 4.3721533 10.683025
33.23105 3.1261587 12.164024
27.220047 72.81015 13.465027
27.259048 72.287155 15.716026
30.494051 7.665152 11.744026
31.444052 7.481152 9.386024
39.82505 12.254152 6.4500275
40.05505 13.828152 7.899025
71.35905 47.700153 37.373028
71.63505 45.50215 37.263027
64.12905 40.640152 38.817028
62.76005 39.478153 37.41103
43.74805 16.518152 20.885025
45.869053 15.980152 21.299028
50.99205 24.192154 16.656029
51.95205 24.601152 18.56903
12.670044 27.636152 2.3620262
13.094048 24.894154 3.0920258
5.8910446 17.687153 5.432026
4.277046 19.036154 4.5350266
43.91305 55.583153 24.76303
44.961052 57.517155 26.08203
53.11805 62.271152 24.312029
54.76305 62.796154 25.500029
33.240044 60.511154 17.420029
34.91705 59.802155 18.810028
26.545044 54.859154 17.729027
27.101044 53.659153 19.632027
51.461052 5.322152 13.407024
51.23605 6.078152 11.457027
56.28305 15.117152 9.968025
55.82505 16.977152 9.240025
37.384052 29.939154 42.28803
37.11305 30.076153 44.16803
29.692047 22.702152 44.65403
29.265045 22.171152 42.338028
18.015045 30.802153 36.52803
16.720047 31.862152 35.40403
10.059044 26.038153 37.46603
7.9330444 26.558153 38.34903
3.8100433 26.077152 21.164026
3.88105 27.872152 23.06703
12.6200485 30.493153 19.54403
13.080048 29.666153 17.526031
5.869049 66.86615 35.62903
5.815048 64.90515 33.96503
79.40405 59.318153 35.36503
79.33705 58.394154 33.52903
31.30705 20.079153 49.674026
31.77205 21.462152 48.00903
40.19205 25.977154 45.429028
40.68605 26.175154 48.18303
23.479042 4.677152 26.27003
23.140045 5.6751523 24.334028
29.706047 13.236152 26.027029
31.091042 13.1461525 24.58903
5.281044 26.833153 34.09103
5.406044 28.430153 32.27903
12.835045 32.11415 28.37703
12.029045 30.059153 27.08603
20.945045 10.245152 42.85603
19.568047 10.404152 43.896027
14.725044 2.0351522 42.62903
15.93705 0.45915198 42.839027
58.73505 59.859154 31.962029
58.59605 61.810154 33.16303
66.85605 67.61115 30.76203
67.38805 68.86115 29.40803
29.358047 59.339153 27.653028
30.235046 60.13415 28.93203
35.61205 66.15115 31.91903
37.866047 66.40415 31.24103
46.29105 -1.3128481 28.848028
46.56805 0.46915197 29.972029
54.37205 6.815152 29.177029
55.19505 7.922152 30.89103
1.668045 56.151154 47.76603
1.4290466 58.157154 48.526028
5.2830505 66.802155 47.45403
5.637047 66.178154 0.01102829
74.12705 52.394154 7.085026
74.41405 50.387154 6.569027
0.31604767 54.96115 3.1190262
0.4630432 55.594154 0.88502884
20.181046 65.78315 27.22103
20.459045 68.11215 27.81803
29.083046 71.37515 29.258028
29.839043 71.93315 27.14403
63.60305 52.673153 27.052029
63.94305 50.261154 26.45403
59.877052 43.445152 32.48803
57.43505 44.136154 32.74703
31.638052 67.75015 16.254028
32.244053 70.19915 17.076027
39.55205 73.40115 11.999027
40.73505 72.719154 10.371025
23.375046 56.15515 10.072025
22.799042 58.75215 11.200027
33.108047 62.408154 9.589027
32.36904 64.73515 9.591026
41.72605 4.133155 32.28903
40.570053 3.6271582 30.229029
36.466053 71.74115 32.631027
34.26005 71.04115 33.055027
79.03705 38.381153 25.393028
78.80305 38.811153 27.878029
4.803047 46.219154 27.99103
4.892044 45.643154 30.277029
49.877052 10.965152 20.914028
49.79705 10.178152 23.01503
