15.078506 95.40036 18.26389
15.593506 93.434364 18.217888
40.981506 26.475365 2.406887
38.716507 25.450356 1.3938866
30.131508 23.117363 3.5288887
30.457512 21.16436 2.7048874
6.4725037 54.109356 15.758888
6.8075104 55.81136 17.239887
16.772507 57.35336 15.599888
15.28051 55.086357 15.653889
0.99250793 54.272358 6.418888
2.0495071 54.585358 8.377888
9.9915085 60.009357 5.904888
10.97451 59.89536 8.229889
69.3365 91.531364 8.796886
67.49551 92.46536 8.451889
61.674507 86.28836 7.3468895
59.390507 85.09336 7.2098885
23.29351 64.035355 1.9408875
25.176506 63.06736 1.7678871
32.103508 69.88436 3.6678886
33.15251 71.23336 1.8298874
54.467506 81.41836 27.80589
54.993507 82.27836 29.79689
60.318504 90.50536 26.55389
62.206505 89.67736 27.202888
64.28251 82.41136 24.992887
62.539505 83.78636 24.886887
56.386505 80.02436 29.348886
55.640503 78.172356 30.768887
36.74951 66.08636 3.6668892
36.16951 64.95336 1.3688889
26.768509 62.72936 4.4648895
25.231506 63.08936 5.969887
34.634506 75.24536 9.711887
34.992508 77.50836 9.624889
45.576508 77.00336 5.4508896
45.04551 77.27436 3.406887
52.83551 20.594368 23.12489
53.679512 19.17836 24.397888
47.91751 12.96936 27.834888
48.010506 11.063362 27.695889
53.854507 51.027367 26.617887
53.61151 49.45536 28.552887
45.131508 44.378365 30.039886
43.928505 45.95936 30.942886
63.042507 11.037361 31.646887
64.568504 10.353363 30.211887
71.940506 13.478355 27.375887
71.63451 14.724358 25.271887
19.00251 27.357368 16.547886
18.398506 27.354362 18.495888
8.804504 25.366356 20.097889
8.862511 23.316368 20.037888
4.7465057 79.73636 14.171886
5.067505 82.381355 14.073887
14.356506 82.14236 7.890888
15.72551 82.62436 9.730888
1.5435104 94.44036 19.897888
2.9485092 94.753365 22.177887
9.522507 100.04036 18.519886
11.150505 100.601364 20.205887
25.199509 73.68236 20.703888
27.081505 73.69236 21.850887
33.93451 79.574356 16.126888
33.537506 81.756355 16.293888
54.92251 34.945366 3.1248894
56.007507 32.867363 3.2658882
64.96251 37.03837 39.366886
63.26151 37.659355 38.11889
9.545509 3.6683655 35.52289
7.360504 3.204361 33.77989
70.7655 1.2483673 34.18889
70.17551 1.4863663 36.106888
55.97651 6.7083664 7.2668877
55.765503 5.0313644 8.774887
48.94751 107.06236 11.609886
48.75251 105.63036 9.869888
15.97451 49.296364 1.6088867
17.610504 49.50036 0.051887512
23.776505 57.412365 38.574886
23.41851 58.39336 35.86189
71.398506 67.07336 18.399887
71.9315 68.86436 18.488888
6.8385086 74.24536 19.556889
8.392509 73.922356 21.39589
13.423508 50.671364 35.08389
12.842506 48.594368 34.259888
10.009506 49.805367 30.128887
9.063507 50.920357 27.843887
59.168503 8.684364 23.911888
57.983505 9.369362 21.780888
50.040504 3.2263641 25.01889
49.342506 4.8923645 23.92389
5.081505 2.5013657 25.460888
4.910507 108.253365 26.18089
69.8225 103.71436 26.946888
69.4075 101.79036 26.177887
0.36650848 104.849365 39.801888
71.47851 105.738365 38.392887
62.253506 102.30236 0.89888763
61.567505 102.281364 2.6328888
30.971512 28.30436 38.83489
29.62751 27.402367 37.49389
28.357506 22.397362 1.406887
26.26751 21.546364 2.925888
14.185509 55.74836 7.1368866
14.139511 53.63736 7.800888
8.876511 48.200356 14.665886
7.442505 48.67936 13.331886
6.2535095 13.85836 5.489887
5.90551 15.449356 4.4218864
71.4475 10.236359 8.295887
71.289505 11.47036 10.3018875
59.132507 102.40436 32.85489
59.17051 104.02936 33.92489
66.011505 1.4983673 30.269886
65.67151 2.3283615 27.994886
22.18451 25.397362 14.877888
20.87751 25.44236 12.862888
28.792511 24.31237 7.5258865
30.427505 25.67736 7.765888
36.522507 43.182365 6.712887
35.04251 43.976357 5.7258873
26.524506 38.24836 7.797886
26.163506 39.58436 5.9148865
40.51351 36.30036 8.6578865
40.646507 38.31536 7.113888
50.41851 39.714363 7.1108894
51.86651 39.948357 9.056889
13.812508 4.8873672 11.851887
12.501511 3.6343613 10.987888
7.103508 104.63536 13.185886
6.4755096 106.84236 12.913887
32.356506 27.446358 16.314888
31.361511 28.88337 17.876888
24.89251 24.780357 23.326889
22.42051 24.806358 23.30389
47.76751 3.7473679 21.982887
47.594505 2.7863617 23.90889
38.802505 105.91536 24.88889
39.928505 103.69636 24.496887
53.633507 59.073357 35.53689
56.177505 58.975357 35.745888
62.301506 64.50136 31.000887
63.627514 63.177357 29.044888
6.9915085 39.960365 3.269886
7.1775055 42.24636 3.5608864
18.302505 43.67437 4.219887
18.760506 41.89936 4.873886
30.43451 100.740364 38.859886
30.659508 101.42836 0.35888672
20.895508 96.988365 40.252888
22.203506 95.57936 40.10589
16.881508 88.72736 26.949886
17.12851 89.11036 29.065887
10.320511 87.17236 34.997887
8.539505 86.90136 33.203888
49.60151 8.753365 29.739887
49.910507 10.162361 31.357887
58.057503 15.477356 27.144886
56.954506 16.745361 25.700888
10.612511 7.4113617 35.77189
10.066505 9.37236 35.767887
15.309509 13.85836 29.334887
15.309509 15.187363 27.489887
65.96351 22.51336 18.204887
65.386505 22.213356 19.835888
55.536507 20.353355 19.65289
55.455505 20.66137 22.02089
41.147507 29.458366 32.482887
39.90251 29.237358 30.438887
46.02951 36.739357 29.315887
46.64151 37.173363 31.195887
45.648506 43.38337 35.12489
45.99051 41.72036 36.46589
36.565506 38.249367 0.023887634
37.62551 36.076363 0.314888
57.764503 59.391357 6.7328873
59.370506 58.199356 5.628887
67.805504 63.36236 1.1788864
66.36351 64.96736 40.34789
69.86751 4.462364 0.3638878
71.60451 3.570366 39.998886
8.332504 5.837364 37.671886
10.357506 5.2553635 38.791885
23.563507 6.1703644 38.693886
24.700508 4.5313644 38.968887
17.44851 104.558365 0.25688934
18.166504 104.57436 2.2978897
71.07651 72.130356 21.99289
69.483505 73.44236 20.820889
61.101505 71.03036 24.354889
60.733505 69.23536 26.58289
50.14151 24.695366 17.186886
49.881508 24.920357 19.406887
45.13951 18.66436 24.38889
45.648506 16.768356 25.39489
26.657509 44.622368 15.429886
25.873505 43.50837 13.458889
29.996506 51.015358 7.2168884
28.999512 52.97236 7.1208878
60.19951 5.719368 21.710888
60.33651 4.940361 23.934887
52.248505 107.47136 23.467888
52.40251 105.73636 22.174889
27.285507 106.95136 34.45889
28.524506 107.113365 36.066887
36.08251 4.306366 32.189888
36.899506 3.2813644 30.657887
0.70150757 71.05636 22.550888
0.8595047 72.40036 24.81289
10.956505 73.99936 24.642887
9.883507 75.38336 23.002888
63.542507 104.90236 16.95789
64.04851 104.23436 18.776886
54.91951 98.19536 16.559887
56.03051 96.54836 17.535889
9.906509 107.754364 30.783886
9.869507 108.26136 32.81389
1.5005112 104.18036 33.878887
1.7985077 102.98536 36.137886
29.20951 82.50136 38.405888
30.569511 83.61936 38.798885
39.04151 83.62036 39.435886
40.344505 81.465355 38.967888
38.926506 85.34736 37.11989
39.94851 87.65636 36.839886
49.011505 89.73336 34.817886
49.30951 91.27236 36.06389
68.4035 10.707359 2.559887
67.359505 8.397362 2.835888
62.773506 3.6203613 10.286888
62.090504 3.1593628 7.823887
44.843506 41.60636 28.353888
43.231506 42.631355 28.537888
34.19651 38.988365 31.468887
33.326508 39.84336 29.894886
28.34951 13.089355 18.688889
28.882507 11.157364 19.585888
19.131508 7.506363 18.154888
18.272507 7.452362 20.22689
42.761505 32.61236 9.45789
43.36151 31.518364 7.691887
52.676506 32.505363 5.845886
53.88951 34.351357 5.6538887
48.720505 7.1563644 24.83989
50.746506 7.853363 25.14589
54.732506 16.03936 22.446888
54.923508 15.371361 24.452888
14.00251 98.43136 26.515886
14.416504 98.38136 28.265886
5.7105103 93.81336 29.950888
6.020508 94.48736 31.925886
27.121506 59.386356 6.1998863
25.972511 60.86036 7.1678886
24.421509 65.73636 11.186886
22.605507 67.40236 11.655888
29.299507 14.499359 27.268887
27.356506 15.270355 26.200888
21.18451 7.7953644 27.679888
19.32151 8.58136 29.304888
46.164505 83.01736 10.126888
47.30651 82.825356 8.093887
56.39151 86.05436 7.7188873
57.53251 85.92236 5.7078896
56.522507 39.21836 8.146889
56.967506 36.979362 7.4908867
62.986504 41.583366 0.5438881
64.8215 41.152367 2.2398872
20.040504 107.84536 13.252888
21.48951 0.9323654 14.003887
30.22651 2.7633667 9.098888
31.175507 2.3473663 6.710888
61.56151 91.97136 28.638887
61.63051 90.69136 30.943886
52.146507 87.16036 30.451887
51.39351 85.615364 29.087887
31.894508 78.46136 9.732887
29.472511 78.15336 9.306889
23.244507 71.83336 7.3368874
21.430504 72.29936 8.397888
15.133507 61.72036 14.031887
17.207504 62.523357 15.192886
17.007507 65.769356 24.621887
16.010506 67.117355 23.25489
63.809513 35.581367 34.32089
63.028503 34.31536 36.62689
54.631508 28.035362 37.538887
53.661507 28.475365 39.497887
16.827507 23.878365 7.2588882
15.713509 25.586357 6.1928864
7.388504 19.271362 9.880886
7.9295044 17.674362 8.673889
3.6185074 103.38436 5.696888
5.8945084 103.02436 5.909889
12.799507 105.63236 0.21888733
14.665504 104.69036 0.3618889
62.202507 55.834362 20.058887
61.51751 57.633366 20.22789
52.54251 52.989357 16.581886
51.44651 51.810356 18.266888
36.75051 19.153358 7.9638863
37.701508 19.732368 6.0188866
32.49051 26.641365 10.698887
32.106506 28.67936 9.844887
13.076508 33.225365 5.7518883
13.30751 35.004356 6.632889
23.54351 35.003365 2.7758865
24.768509 35.88337 3.939888
40.68051 101.877365 14.679886
41.093506 99.78836 14.737888
50.276505 105.64636 16.279888
50.16951 105.91636 14.037888
5.645508 17.495361 2.8518867
8.032509 17.49736 2.8888893
14.817505 22.421364 40.207886
16.410507 22.619362 0.9438896
8.08651 35.199364 36.86189
8.713509 35.56437 34.552887
16.883507 38.033363 30.426886
16.699509 39.55137 32.504887
10.260506 36.878365 7.915886
8.184509 36.188362 6.8578873
1.5145111 30.331367 11.033886
72.649506 32.02236 9.6768875
68.360504 42.543358 14.334888
68.30951 41.016365 16.38889
58.453506 37.902367 17.378887
56.357506 38.11837 16.150887
15.4275055 52.89536 36.483887
14.306511 54.544357 36.10589
18.810509 62.030357 34.74389
21.137505 62.733356 35.023888
2.7125092 97.225365 29.501886
4.5545044 96.16436 28.996887
11.032509 104.70036 29.287888
13.067505 104.36236 29.489887
32.17151 74.11936 6.587887
31.510506 72.27536 4.7288895
23.020508 69.310356 5.298889
22.701508 66.71836 4.5068893
65.71651 101.65136 10.983887
67.415504 100.16436 10.086887
1.6985092 108.07736 9.682888
2.9605103 107.07536 8.148888
58.410507 10.031364 17.154888
57.15751 8.0143585 17.498886
48.301506 6.2713623 20.74089
47.64251 4.832367 19.411888
71.5975 104.92936 34.280888
71.052505 102.64736 34.316887
61.722504 97.72336 33.568886
60.795506 98.294365 35.384888
4.584511 78.33136 10.014889
2.4955063 79.07236 10.857887
68.52251 73.79636 14.529888
66.456505 73.72236 14.232887
22.451508 104.96536 15.073887
21.527504 103.628365 16.761887
13.726509 98.86936 19.833889
12.287506 98.43836 18.65989
13.957504 72.71036 27.908886
14.764511 70.85836 28.464888
17.511505 73.25836 36.677887
16.966507 73.94836 38.748886
33.173508 20.425362 5.2638893
34.55551 18.861359 6.3468895
25.758507 15.035362 12.168888
25.97551 12.986359 11.770889
41.771507 52.62336 37.35589
42.39351 52.437363 34.95889
48.54251 56.789364 27.627888
47.701508 58.86436 27.296886
60.599503 14.778358 33.002888
60.222504 13.640358 34.734886
51.18151 10.460358 35.538887
49.955505 8.949364 34.49389
53.909508 77.66736 28.678886
52.92251 76.87336 27.468887
44.94951 73.65136 33.27189
44.95751 71.23436 33.08389
55.729507 96.56236 14.538887
56.579506 95.48536 13.271889
61.859505 102.502365 8.571888
64.192505 101.69936 8.761887
2.0695114 60.70736 15.83989
4.341507 59.89636 15.651886
12.71151 65.519356 13.037888
13.94751 67.02236 14.292889
38.37651 36.221367 5.128887
38.18351 34.14637 4.6678886
36.551506 33.545357 38.725887
38.160507 32.81637 37.41789
3.7395096 76.19436 4.5278893
2.2955093 77.533356 5.743889
67.581505 71.35736 7.4318886
67.8755 71.16436 9.8468895
16.139511 87.768364 16.341888
17.15551 89.29836 17.480888
23.00151 95.47736 13.754887
24.688507 96.91436 14.3208885
44.81051 87.20036 10.322887
43.77751 88.48536 8.343887
51.34851 95.13836 5.7548866
53.36451 95.42736 4.979889
61.957504 36.55436 28.118889
61.357506 36.964363 26.083889
69.805504 40.23237 23.314888
71.04751 39.42437 25.17989
26.803505 56.951366 0.4738884
25.97651 57.536366 2.4528885
16.382507 53.337357 4.0138893
16.305504 54.493362 5.988888
32.89451 39.03637 34.27189
31.761505 37.991356 36.11289
30.088509 30.070366 0.23488998
28.32151 29.046364 0.33688736
9.2155075 29.725365 34.26389
9.562508 27.700356 34.108887
1.6455078 25.367363 39.572887
72.3335 25.820366 38.023888
63.708508 25.44236 16.524887
63.16551 25.185356 14.661888
54.942505 19.079361 14.110889
53.65851 21.16137 13.280888
25.452507 20.701363 21.11789
27.16851 19.560356 19.592888
34.868507 23.176369 14.619888
33.898506 24.961357 13.592888
36.37851 24.419365 17.862888
38.651505 24.130363 19.15789
46.120506 31.260368 14.790886
44.637505 32.63537 13.881889
15.4045105 9.000359 21.16489
16.105507 6.4303665 21.48589
7.0925064 2.304367 21.599888
7.714508 0.5063629 22.18789
21.243507 4.577362 24.669888
20.708504 5.742363 23.14589
30.547508 11.107361 23.46489
29.872505 12.256355 21.71489
65.4755 104.211365 14.304886
66.721504 105.656364 15.533886
1.1995087 2.2893677 13.779888
0.77550507 3.7473679 12.633888
68.59051 94.48236 12.400887
66.82751 94.99736 11.491886
58.379505 89.099365 12.853889
59.167507 87.33536 12.863888
40.43151 80.74636 35.880886
41.451508 80.63336 34.044888
49.258507 87.02236 35.033886
50.65751 84.86936 34.15989
33.56151 73.520355 0.66588974
32.399506 74.20436 39.77989
40.90451 77.98236 34.811886
40.46251 75.99836 34.11989
68.553505 18.30436 19.368889
70.2245 16.896362 18.849888
3.8985062 24.119362 15.161888
4.3645096 23.210365 13.177887
44.831505 54.900356 6.9998894
45.70751 53.47936 5.4408875
53.772507 59.828358 1.4038887
54.341507 58.61736 39.731888
20.178505 69.05236 6.597889
19.91851 72.04636 6.0758896
12.55851 67.73636 11.335888
13.066505 69.20836 12.708889
51.595505 38.408363 40.418888
53.122505 37.530357 38.891888
59.333504 45.754356 37.366886
60.236504 47.75036 38.32689
34.065506 79.32336 12.844887
35.064507 80.56636 10.94389
40.15651 88.89636 11.448887
41.23751 89.49836 9.458889
39.662506 25.666359 28.94389
39.456505 27.244362 28.015888
46.83551 33.058357 26.10189
45.98551 34.53936 24.343887
17.023506 34.188362 13.601887
17.437508 34.09536 15.643887
28.158508 34.25936 13.287888
28.658508 36.43136 14.349888
64.9175 21.434364 2.1298866
67.07851 20.825356 2.0548897
2.7155075 18.185356 1.8278885
3.2625046 18.62436 3.7828865
23.246506 76.26336 21.01389
22.478508 74.604355 19.514889
13.839508 69.77036 20.47889
13.980507 67.58036 19.989887
48.137505 14.249359 34.614887
49.578506 16.268356 35.09789
58.992508 18.287361 33.856888
60.54651 16.835358 35.192886
36.57351 65.799355 39.34789
37.26851 66.19536 37.62589
45.80751 71.18336 35.908886
47.22151 69.70536 35.414886
65.06451 96.72236 1.5118866
63.447514 96.45636 3.3178864
56.007507 97.42536 6.970886
56.07451 95.56136 8.754887
10.898506 47.876366 24.06089
10.656509 49.753365 24.412888
21.21151 51.87136 22.640888
21.899506 50.514366 20.95689
39.12951 17.507362 15.811886
37.29451 17.17836 14.579887
28.54351 12.83136 14.063889
28.963509 13.31636 16.189888
47.72251 101.60536 4.7528877
47.43351 99.35436 4.4718895
37.714508 96.29736 5.984886
39.33451 94.33336 5.177887
25.666512 76.93236 34.43789
27.178505 75.62636 34.871887
19.540504 71.19136 36.226887
19.032509 71.01036 38.349888
0.28450775 62.60236 20.087887
1.167511 64.42136 19.363888
8.652504 70.37736 17.278889
10.498505 69.02236 16.844887
43.679512 49.087364 32.318886
43.00451 51.053368 32.255886
47.992508 55.380356 24.876886
47.38851 57.510365 25.028887
8.805504 62.05636 37.295887
8.342506 63.948357 36.031887
19.164505 65.534355 34.64789
18.922508 67.591354 35.84189
33.82451 31.28637 20.333889
34.29451 33.141365 19.516888
40.13851 34.84336 13.044888
40.68651 36.24836 11.491886
58.932503 2.907364 8.078888
60.04651 1.4633636 9.33289
52.42051 104.71536 12.831886
52.884506 104.447365 10.476887
53.437508 77.94536 25.073887
53.734505 78.35736 23.10289
62.889503 81.616356 22.732887
62.904503 79.603355 21.81289
68.85251 29.518364 0.10688782
68.872505 32.137367 40.159885
4.4915085 36.59237 0.4758873
5.9635086 36.89736 38.988888
28.040504 103.75036 31.709887
28.287506 105.74936 31.995886
39.136505 106.796364 30.664886
38.61551 0.693367 30.420887
8.123505 100.906364 14.937889
7.291504 99.13236 13.821888
72.09251 93.56936 15.993889
69.8095 94.71936 16.713886
11.385506 12.041359 7.965889
12.909508 10.635361 8.990887
22.024506 10.940361 3.9938889
22.856506 12.802361 5.1178894
23.008507 43.74436 13.306889
21.615509 44.741356 12.127888
12.910507 39.06736 12.540886
13.376511 39.02436 14.8088875
6.823509 106.599365 23.848888
8.122505 105.01236 23.08289
0.11050415 98.600365 25.758888
1.4075089 97.51536 27.084888
68.5715 45.201363 13.546886
68.982506 46.94137 14.797886
5.4795074 46.017357 13.043888
4.8825073 48.254356 13.238888
46.83351 73.19536 37.275887
48.776505 72.26136 35.823887
53.857506 74.32836 29.592886
55.522507 72.838356 28.720886
36.22451 55.78436 22.583889
38.22251 55.640358 21.384888
43.715508 59.635357 14.797886
42.94451 61.67436 15.121887
69.65951 29.134361 33.58389
69.8105 30.849358 35.25089
6.2275085 34.048363 34.82689
6.570511 34.68937 33.11189
5.5855103 42.257362 38.728886
7.537506 43.05636 0.20388794
17.125504 45.36236 39.86189
16.230507 47.03936 0.16388702
1.4015045 84.08036 10.035889
1.4135056 85.59336 11.774887
9.941505 90.05336 8.544888
10.60051 90.25536 10.480888
7.4255066 75.76236 12.079887
8.229507 76.227356 9.921886
15.365509 79.80236 7.9458885
17.50251 81.01136 8.515888
21.60151 54.20136 21.050888
21.130508 56.107357 20.674889
28.449509 60.615356 18.81289
29.496506 61.455357 20.071888
17.718506 44.59536 37.19489
17.972504 45.23336 35.15389
25.953506 50.376366 31.561886
27.615509 49.05436 31.374886
54.400505 47.65136 24.961887
56.26651 48.359367 23.965889
63.89751 54.33436 25.875889
62.417503 56.149364 26.458889
44.109505 70.28036 28.321886
43.20851 68.22236 27.588886
37.137505 67.07036 35.009888
35.011505 66.338356 35.309887
0.99450684 51.631355 3.604889
0.013504028 50.714363 1.6418877
63.818504 46.53837 3.5808868
65.3095 44.474358 4.297886
3.8215103 14.641357 39.815887
2.865509 17.02636 39.324886
68.32651 13.201363 5.4388885
67.3645 15.518356 6.543888
56.95051 60.91736 10.878887
55.55951 62.62436 10.602886
46.054512 59.86636 13.816887
46.204506 58.61036 15.238888
72.482506 16.527359 30.598886
0.690506 14.772362 29.564886
65.43951 10.620361 34.413887
64.9775 9.33036 33.079887
50.54451 42.93136 39.655888
50.107506 43.78736 1.2828865
57.201508 50.45437 0.48788834
57.607506 51.837364 2.3818893
49.760506 46.456367 4.7548866
51.43551 45.726357 5.930889
60.312508 48.39637 7.764889
61.207504 49.463356 6.1108894
51.288506 3.2853622 29.218887
51.19751 4.4773636 27.532887
56.889503 12.971359 25.235888
58.828506 12.862358 26.834887
39.18251 107.30236 21.16689
37.33751 106.79936 22.44289
29.065506 101.87236 24.38089
29.374512 99.97836 23.15189
49.41851 67.86036 39.943886
50.73651 68.12136 1.3238869
43.409508 62.27036 7.451889
42.843506 64.27936 8.150887
70.1845 21.488365 25.334888
70.985504 22.894356 26.65789
4.214508 30.362358 25.12289
5.778511 29.64936 23.871887
29.065506 20.435356 33.420887
28.233505 17.922356 33.067886
19.97651 19.211357 40.13989
19.884506 17.020355 40.20189
22.852509 50.499367 27.493889
22.980507 49.920357 25.501888
15.658508 44.27636 26.87389
13.94651 45.20237 26.808887
69.13351 35.881355 11.043888
70.692505 37.50936 11.545887
5.9655075 41.988365 6.1678886
7.7295074 40.256355 6.9738884
27.036507 64.27736 11.506889
28.48851 62.412357 11.347889
35.92251 69.29436 10.576889
36.563507 70.44236 12.347889
48.620506 16.569359 38.330887
47.63951 18.043358 37.254887
55.964508 22.946358 35.821888
58.099503 22.041359 36.686886
13.567505 36.404366 9.056889
14.958504 35.631355 10.887886
23.33751 39.379356 6.7788887
22.68251 39.544365 4.623886
18.256508 31.769356 22.371887
19.649506 31.63636 24.29089
11.423508 28.531364 28.25689
11.426506 26.728355 27.405888
16.110504 83.12336 5.668888
18.049507 83.12236 6.8438873
25.371506 88.53936 4.1338882
26.389511 87.21936 2.9128876
61.30851 39.82937 33.732887
61.944504 38.61936 35.886887
54.498505 34.64637 0.18088913
54.92251 32.23736 40.09889
0.007507324 9.363358 18.34689
0.542511 7.3403625 18.428886
66.7105 2.591362 25.18089
64.75751 2.5503616 24.90789
64.70251 5.6113663 30.915886
62.55951 5.3363647 30.411886
56.883507 107.42336 33.51489
55.568504 0.83036804 33.398888
17.027504 12.906357 32.080887
17.304504 14.674362 30.818886
26.990509 18.12136 30.417887
26.71051 20.004356 29.190887
32.992508 37.81437 20.27689
31.674507 39.52836 19.170887
39.483505 45.98237 21.959888
39.508507 47.48336 20.25489
12.508507 17.490356 19.09689
12.782509 17.936356 21.31189
19.163506 24.89936 19.23389
20.326508 24.85537 16.956886
48.410507 31.599358 16.893887
49.25251 30.02137 16.022888
54.23551 33.456367 8.384888
55.201508 34.876366 9.2828865
39.64251 38.695366 4.5568886
41.022507 37.46537 4.404888
47.44851 42.25936 38.447887
49.054512 40.56936 38.927887
36.74051 6.7713623 31.682886
38.37551 5.843361 30.221888
45.43351 12.17836 27.829887
45.216507 14.347359 26.631887
59.049507 89.684364 20.302887
59.25451 88.45136 18.119888
64.429504 97.04736 18.176888
66.652504 97.10736 17.725887
60.17151 4.0553665 15.2218895
59.803505 5.056366 17.19389
52.090508 108.282364 18.856888
50.76551 107.753365 20.474888
8.250504 97.128365 7.0328865
8.55851 95.20936 7.868889
0.48350525 90.07136 9.685886
71.690506 89.62236 7.6348877
25.638512 35.697365 8.533886
24.29551 36.571358 7.804886
15.775505 31.80236 9.302887
15.3785095 29.537361 10.552887
43.524506 14.805359 18.13189
45.437508 14.635361 19.50689
51.260506 22.306358 14.994888
50.536507 23.59037 13.267887
25.161507 69.91836 20.99289
24.768509 68.45336 19.287888
18.102509 65.00936 13.438889
16.514511 66.355354 13.645889
49.554512 57.27136 20.37389
50.65351 55.713356 19.489887
57.26651 62.32536 18.973888
59.537506 61.474358 19.336887
72.68551 64.59836 12.692886
71.6815 65.41636 14.5588875
8.4015045 68.62436 13.088886
8.662506 69.89736 11.001888
53.856506 17.89936 16.322887
54.590508 15.808357 15.867889
64.73051 20.227364 14.33289
64.62051 18.86036 12.295887
34.493507 3.7633667 24.023888
32.75551 2.0483627 24.517887
26.86351 106.94036 29.855888
25.483505 108.05536 28.99989
18.913506 12.545357 27.696888
18.000504 14.530357 28.03389
26.97451 18.351357 26.962887
28.289505 19.113358 25.27089
28.65451 25.459358 3.498886
28.370506 25.02636 0.94488907
18.493507 22.909355 2.2778893
18.040504 20.84237 2.7188873
13.977509 78.45236 30.592886
15.425507 77.491356 31.611887
24.664505 81.30136 30.825886
23.61351 83.37236 30.778887
37.970505 68.186356 5.3488884
39.29451 67.79636 7.8418884
48.540504 70.91536 5.2498894
50.428505 69.756355 5.5708885
29.04351 44.10737 30.453886
30.228508 45.850365 30.124887
40.133507 45.02636 29.040886
39.645508 47.11936 29.252888
13.855507 43.945366 24.38889
12.800507 44.91236 22.19489
20.386505 49.89936 18.713886
19.630508 52.09736 17.70089
30.278511 32.811363 12.726887
31.674507 31.731361 12.439888
39.08851 34.558357 7.2568893
40.79551 33.417366 7.548889
12.661507 0.48836517 35.02989
12.538506 107.30236 33.753887
22.870506 108.28736 30.731886
22.48951 1.3383636 28.977886
5.7515106 86.02136 26.75489
6.3475113 86.73836 24.97889
4.69751 93.79036 23.966888
3.8575058 95.53836 24.65889
3.3325043 34.891365 25.648888
4.4495087 36.813362 26.799889
11.953506 39.141365 23.059887
13.09951 40.234367 24.656887
45.258507 16.28936 31.173887
44.76751 17.083359 33.177887
37.59951 9.857361 35.115887
38.25351 9.28936 37.123886
18.12651 54.697357 15.791889
18.118507 55.47936 13.951889
26.25351 61.51436 16.736889
28.436508 61.800358 15.579887
49.812508 61.175358 29.072887
50.26451 62.60436 27.766888
59.13051 62.51936 22.141888
60.28151 61.031357 22.972889
50.13951 60.51136 31.862886
48.77951 62.50536 31.529886
40.176506 56.851357 35.825886
39.39151 55.823357 33.95989
38.90451 53.73536 24.834888
40.609505 54.883358 26.22189
46.62951 58.192356 18.447887
46.483505 59.60236 20.88189
8.43351 79.85936 23.995888
8.0905075 82.36336 22.91489
15.729507 87.26236 18.955887
15.16951 89.42436 19.68589
62.171505 61.58836 26.850887
62.724506 63.550358 26.744888
70.80051 68.17636 25.06989
71.248505 67.43036 23.147888
7.930504 20.805367 13.956886
7.0385056 22.824364 14.159889
16.35051 26.273369 11.305889
17.422508 26.632362 13.168888
57.78051 96.42536 22.844887
57.867508 97.35436 24.758888
64.8755 104.41736 24.265888
64.4745 105.72836 22.23389
12.399506 6.9893646 10.175888
12.976509 7.1733627 12.599888
1.8645096 6.9113617 13.853889
2.3965073 4.8613663 14.449886
72.7245 87.67636 10.780888
70.9035 87.65436 9.250889
62.148506 83.853355 9.204887
62.636505 82.15636 10.975887
48.21251 67.90336 28.34689
48.76451 67.880356 26.29889
50.75551 76.65136 22.050888
50.96051 78.088356 23.95089
62.226505 48.69236 3.3318863
62.426506 50.63836 3.2328873
70.648506 55.26236 39.950886
71.7525 53.395355 38.183887
54.735504 15.680359 11.665886
55.799507 14.756355 10.3278885
65.07251 16.084358 8.402889
65.27051 17.424362 6.7408867
71.2255 23.307365 30.725887
0.117507935 23.818367 28.973886
8.115509 28.091362 31.538887
8.479507 28.82737 29.842886
21.133507 99.281364 8.398888
19.761505 97.66436 7.2598877
12.422508 92.36936 10.481888
10.968506 93.74736 10.857887
21.236504 46.62136 16.45089
21.671509 45.264366 15.144886
13.699509 39.77337 20.676888
12.005508 41.309364 20.82489
18.811508 82.186356 11.020889
19.19751 84.71836 10.238888
28.286507 85.98536 10.58989
28.785507 86.71636 8.861889
3.2995071 20.148369 40.321888
6.0265045 20.097359 40.349888
12.170509 26.281364 0.333889
13.649506 26.728355 38.770885
18.58551 88.43036 21.712887
17.361504 87.975365 23.56889
9.384506 83.59936 26.93089
9.283508 85.67936 27.93589
55.48851 75.28936 27.11789
56.89451 74.09536 26.556889
65.498505 80.09336 25.89489
65.36351 79.88636 23.85389
55.08851 84.54536 0.7808876
54.53051 82.52436 1.0598869
46.498505 79.68036 3.6548882
44.632507 80.24936 3.2098885
13.477509 80.16436 36.85589
11.525505 80.67836 36.636887
8.73951 72.11036 40.168888
6.111511 72.15736 40.436886
70.95051 83.562355 1.4598885
0.14850616 84.41136 0.22488785
7.926506 88.35936 39.175888
9.560509 87.86036 40.253887
33.26551 59.334362 21.127888
31.381508 59.760365 20.15789
24.23851 52.605362 25.16689
24.053505 51.587364 22.703888
41.328506 78.199356 31.799887
42.27851 79.34136 30.127888
50.84751 83.14136 27.155888
52.068512 83.08236 24.811888
70.24551 10.867363 12.790886
68.3245 11.533356 12.210888
59.938507 6.5783615 13.874889
59.760506 8.198364 14.797886
33.15651 48.36837 6.401886
32.27951 48.24436 4.6578865
24.886505 42.169365 6.196888
23.347511 41.864357 7.7738876
43.11051 36.559364 20.37489
44.20751 35.180367 21.668888
37.65851 30.354362 28.48589
37.68451 29.34336 26.611889
10.47551 98.31636 16.445889
11.423508 96.46836 17.01389
1.7045059 90.823364 17.109886
2.579506 88.70136 18.704887
62.116505 93.43236 31.872887
63.485504 93.04036 30.420887
69.400505 100.91736 30.294886
70.06151 102.877365 30.652887
69.92351 73.36936 24.508888
71.88451 74.25836 25.293888
6.7575073 76.68336 20.474888
6.791504 78.59736 21.837887
19.93151 0.006362915 17.19489
18.312508 1.4843674 18.290886
11.541504 101.34836 14.716888
10.096504 101.35636 16.510887
23.264511 30.947365 33.99489
24.152512 29.071358 34.63389
14.57151 24.723366 36.560886
15.260506 24.793358 38.711887
35.55651 82.32236 23.128887
35.55751 80.034355 21.91489
25.036507 77.87336 24.00489
24.345505 78.46636 22.03489
8.659508 24.70237 22.510887
7.9705048 23.030357 23.377888
0.9955063 19.139359 27.654888
1.5685043 17.014359 28.315887
0.30150604 88.76536 15.713886
1.3495102 87.08236 14.795887
7.7295074 93.67536 10.564888
8.639511 95.79136 12.147888
50.29751 76.90436 17.463886
50.78051 74.87236 16.834888
43.92151 70.85536 22.45689
43.76751 70.18436 24.278889
16.04351 35.364357 22.147888
14.494507 36.87536 20.74789
6.2835083 31.505363 21.85989
4.1755066 32.81536 22.03489
42.659508 76.48736 36.121887
44.400505 78.04436 36.388885
51.193512 82.51536 32.24489
52.37951 81.35836 30.865887
20.87651 89.18536 32.11889
20.36251 88.31336 34.23789
13.009506 82.97136 36.59189
12.228508 83.17936 34.232887
36.397507 46.030357 7.4038887
35.98551 48.11036 5.9788895
45.61251 49.58036 4.043888
47.579506 48.154366 2.828888
42.340508 16.506355 23.720886
43.20851 16.243362 25.729887
35.953506 12.319359 30.238886
34.44851 13.597359 30.570887
65.650505 72.03836 5.585888
67.176506 71.21536 4.3748894
1.9305115 75.853355 2.559887
3.4535065 74.951355 2.1218872
68.21451 79.52336 26.384888
67.648506 81.061356 24.467888
5.077507 81.894356 21.74289
5.23851 80.51036 20.022888
56.972504 87.25336 10.684887
56.679504 84.73936 10.072887
47.46051 82.94036 12.775887
47.048508 80.64836 12.0588875
24.605507 45.60737 20.703888
24.327507 45.59736 22.78389
15.181511 39.879356 22.871887
16.397507 37.838356 23.111889
13.716507 11.071358 12.059887
13.914505 11.279358 14.268887
20.833504 19.523361 14.605888
21.005508 20.308357 17.17389
69.178505 83.199356 30.860886
71.36751 82.49536 31.461887
2.8995056 90.52036 30.919886
4.282509 91.56536 29.044888
44.845505 50.04136 39.288887
46.689507 49.16636 37.992886
52.83451 51.309364 30.289886
51.925507 53.23736 28.780888
20.650505 78.255356 6.8578873
22.408508 78.27236 7.5758896
28.119507 86.64636 6.024887
29.733505 85.08236 6.132889
37.117508 27.33036 24.85289
35.426506 26.385368 26.258888
29.46051 19.097359 29.793888
29.444511 17.437363 27.77089
29.136505 41.352364 25.968887
29.994507 40.13337 27.479887
21.061508 36.124367 30.016888
22.507507 35.046364 31.403887
6.50251 86.14036 29.746887
6.9375076 84.58036 28.711887
0.14250946 80.64836 34.178886
0.17250824 78.395355 33.91089
47.45951 26.153358 4.9718895
48.549507 24.379356 5.746887
56.775505 23.953362 6.448887
58.55951 26.147362 6.6248894
12.260506 54.464355 3.9548874
12.33651 54.224358 6.154888
4.5125046 47.969368 8.9458885
4.9605103 47.033363 10.701889
59.780506 106.21936 2.1528893
61.317505 104.739365 2.0408897
69.93851 0.039367676 39.058887
69.373505 2.1493683 38.954887
47.26351 89.18936 19.465889
45.85051 87.00036 19.92289
38.066505 81.55836 23.361889
38.38851 81.755356 25.556889
12.501511 3.4793625 37.946888
12.227509 3.3683624 35.511887
20.471504 6.1403656 30.591887
21.291504 3.9153671 29.855886
67.20251 85.05136 35.309887
65.2685 84.12036 35.594887
59.817505 79.49036 0.7558899
58.816505 80.32736 39.627888
1.926506 17.49836 32.23689
1.591507 19.377357 30.947886
10.939507 22.33236 28.756887
10.871506 24.055367 26.873886
0.23751068 4.6203613 8.249889
1.7445068 4.369362 10.277889
9.882507 9.74836 7.359886
8.798508 11.223358 6.4828873
34.67051 71.65136 10.023888
32.81151 73.05436 8.888889
26.522507 67.61236 11.988888
24.799507 68.936356 10.682888
5.971504 76.42036 8.050888
6.436508 78.64936 7.852886
12.500504 83.56436 3.8658867
14.506508 82.15436 2.4818878
0.8075104 7.5133667 11.45089
0.46450806 9.634361 11.467888
72.7385 8.227364 6.880886
71.8335 6.825363 5.9458885
55.674507 35.62336 15.340889
54.715508 36.003365 17.049889
44.12451 35.240364 18.288887
46.065506 35.033363 20.022888
1.667511 66.43236 27.389887
72.4885 66.40436 26.740887
64.46651 65.69736 32.197887
65.218506 63.79036 31.991886
60.376503 103.920364 4.368889
60.49051 102.19636 5.123886
52.99051 100.81036 10.583889
51.72651 98.59436 10.342888
58.773506 41.811363 22.31289
58.773506 44.227364 22.03289
66.4465 46.928368 16.414886
68.343506 46.609367 17.368889
53.93151 24.273369 22.341888
55.598503 23.366356 23.316887
64.3485 26.277367 23.46489
64.927505 27.112358 25.425888
62.888504 34.365364 24.403889
62.368507 33.37336 26.808887
52.64351 29.809364 28.04089
52.01551 31.147362 29.919888
31.867508 10.493362 19.022888
32.18451 10.564362 21.279888
41.20951 16.961357 19.996887
42.14051 15.187363 20.884888
23.485512 86.21136 31.048887
22.23751 88.113365 29.976887
28.37651 94.032364 26.941887
30.204506 93.90236 28.424887
52.97251 8.662361 1.1248894
52.998505 10.917358 0.6788864
61.132507 14.256355 37.31389
62.464508 14.084358 38.622887
71.10251 85.73036 3.1938896
71.75751 87.00336 1.2468872
7.2315063 91.030365 0.92188644
7.5625076 92.50036 2.5688896
12.442505 76.25936 30.245886
11.084511 77.45336 30.401886
6.360504 69.38736 29.435886
4.353508 68.380356 29.651886
42.121506 95.02236 12.794888
41.089508 95.80336 10.912888
48.714508 100.22836 11.389889
50.063507 101.26936 12.307888
61.549507 52.434357 5.594887
60.42151 54.08136 5.4638863
52.147507 50.532356 10.569889
52.32551 51.00837 12.897888
23.111511 88.26436 38.627888
21.021507 87.73936 38.065887
16.663506 80.96836 0.7878876
14.880508 80.41236 40.061886
18.12651 8.560364 22.66689
19.968506 8.570358 23.751888
26.633507 15.166359 20.99289
26.18251 17.201363 20.467888
44.984505 77.464355 39.622887
43.024506 78.284355 38.823887
34.71051 74.255356 2.9908867
33.69851 75.69536 4.2028885
40.066505 39.935356 16.342888
38.220505 41.512367 16.515888
33.80851 33.41436 22.306889
34.132507 33.20736 24.593887
19.19851 66.67536 5.856888
18.417511 68.30136 4.298889
8.367508 69.894356 4.797886
7.799507 70.20536 2.3538895
67.61651 38.219368 1.9018898
68.902504 36.67437 0.98489
3.5955048 41.03736 37.558887
2.4355087 42.46537 35.634888
30.36251 74.82736 36.54289
29.735512 74.23936 34.318886
39.748505 77.65036 29.781887
38.929512 78.79036 28.148888
18.26551 95.91236 0.019889832
17.636505 97.850365 40.43089
8.839508 93.25036 39.418888
9.301506 90.89736 39.616886
56.042503 26.106361 30.688887
57.126503 26.495369 32.66789
64.037506 33.785362 32.185886
63.51151 34.142357 29.864887
14.227509 85.70436 4.5498886
15.39151 84.51936 3.262886
19.804504 93.712364 40.446888
19.68251 93.57036 2.2848892
38.966507 44.059364 16.21489
37.302505 45.034355 15.511887
28.687508 40.422356 15.665886
27.358505 41.874367 16.237888
7.2375107 55.073357 26.28389
7.9725037 56.456364 27.120888
17.194504 56.787365 23.111889
18.883507 56.438366 23.89489
0.01750946 14.510361 22.090889
72.31451 16.699356 21.926888
8.032509 19.172356 16.552887
8.496506 21.494362 16.74289
34.93351 36.861366 38.960888
33.21251 38.02236 38.324886
24.886505 36.74537 1.1108894
23.338509 35.04937 0.0988884
68.93851 64.868355 3.6648865
70.6545 65.13836 2.5338898
7.061508 66.463356 5.158886
6.867508 65.82236 3.3538895
6.549507 72.44136 2.6128883
6.671509 74.22636 2.4438896
15.270508 78.40336 1.2798882
16.20951 76.60036 0.35289
58.136505 48.86036 36.87589
56.995506 46.988365 35.627888
49.77951 40.62037 36.48089
47.94651 40.372368 35.110886
67.760506 18.81736 3.434887
66.07751 19.89936 4.708889
71.079506 27.712364 6.203888
71.523506 29.490364 7.694889
18.843506 7.603363 26.063889
16.87751 7.6803665 24.81089
11.43251 0.56936646 28.83989
12.338509 106.99136 29.729889
52.08551 64.79236 37.294888
54.342506 65.77836 37.22389
61.29551 69.755356 38.98089
62.714508 70.45436 36.93889
27.492508 69.04636 23.104889
27.027512 67.07236 24.302887
19.422508 62.78236 27.882889
18.590508 64.94036 27.28289
31.553505 20.727364 37.759888
33.01651 20.781364 39.836887
39.036507 27.619362 40.228886
40.678505 27.874367 39.519886
8.698509 51.657356 23.98589
9.592506 51.673363 21.897888
16.633507 53.313362 17.813889
17.97651 54.841362 19.06289
18.513504 24.298363 11.766888
18.972504 23.338356 13.896889
13.267509 18.366356 15.444889
11.125504 17.793358 14.268887
37.564507 94.309364 8.44389
35.634506 94.63436 6.9928894
29.689507 91.36936 12.675888
29.749512 93.60736 13.56889
32.64151 86.15536 17.559887
32.98951 84.61636 16.218887
43.58851 86.99136 14.70089
44.593506 87.45736 16.65289
43.068512 10.592361 20.369888
43.049507 10.579361 18.250889
34.786507 6.782364 19.38189
35.30751 5.0813675 20.322887
1.2475052 34.19036 17.665886
2.801506 35.155357 17.178886
10.46151 39.185356 19.329887
9.5295105 41.241356 19.780888
64.887505 64.451355 35.998886
65.3485 61.98736 35.72989
57.00351 58.72036 2.1858864
56.28151 56.788357 0.64388657
31.98751 34.39736 25.70689
30.36351 35.736366 24.599888
24.08551 30.918358 27.66689
22.302505 30.731361 27.071888
56.909508 53.78636 38.95189
56.746506 54.006355 0.70988846
46.188507 49.894356 1.0568886
45.368507 51.542366 2.3758888
48.770508 16.29036 3.668888
51.298508 15.681358 3.3728867
56.846504 22.325356 39.610886
56.500504 24.737358 0.7508888
4.7715073 17.86036 37.55589
5.0545044 16.375359 35.629887
12.75251 17.392357 31.026886
12.69651 19.38636 30.703886
25.914505 47.685356 23.918888
25.606506 49.979362 23.842888
34.648506 53.031357 19.11789
34.44551 53.31936 17.246887
55.069504 40.652367 19.232887
54.956505 38.928368 17.995888
47.659508 32.822365 19.224888
47.732506 30.436363 19.75589
55.328506 65.68036 12.379887
56.993507 63.960358 12.725887
64.676506 70.78836 7.927887
65.31051 69.42136 6.2148895
25.312508 9.10836 1.1018867
25.840508 7.167366 0.19788742
34.38851 9.508362 38.19589
36.40351 9.802361 39.402885
56.049507 36.94137 11.357887
58.29651 37.98736 12.525887
64.690506 39.81936 4.746887
64.607506 41.96836 4.845886
7.162506 97.003365 32.725887
7.50251 95.23036 34.09789
13.970505 98.95036 31.794886
15.47451 97.711365 30.930887
10.922508 15.603355 12.148888
10.261505 17.405357 10.518887
16.852509 21.756355 5.5258865
18.853508 20.613365 6.0848885
31.493507 39.710365 32.066887
30.282509 38.659355 33.37489
23.609505 31.297356 31.463886
25.159508 29.84037 31.702887
31.240509 97.50636 30.585886
30.497505 98.82836 28.970886
38.813507 102.74336 27.151886
40.50351 104.14636 28.191887
69.3095 39.12536 13.092888
69.64551 41.56936 12.021889
5.0855103 44.95237 9.024887
6.025505 43.87136 8.090889
66.441505 88.85536 35.25089
66.21451 87.796364 37.27889
59.773506 82.78736 1.22789
57.964508 83.88236 1.2858887
46.65651 18.547356 34.740887
45.827507 19.80436 33.91089
54.870506 24.34237 33.495888
55.43351 26.282356 34.713886
13.803505 20.533363 27.729889
13.457504 22.645363 27.56289
20.93351 27.628365 26.056889
20.403511 29.41137 25.793888
3.9625092 98.87136 36.275887
5.2885056 98.88436 33.774887
13.607506 103.28936 34.27889
12.973511 104.795364 32.712887
72.60251 19.825356 33.065887
0.99250793 18.230362 34.571888
65.2805 14.907356 39.888885
64.927505 12.940361 38.46589
58.354507 42.764366 25.587887
60.373505 41.99337 24.54789
67.1415 46.28936 22.58189
68.943504 44.73336 22.10989
53.020508 29.765358 32.011887
53.622505 31.779366 32.49989
60.123505 35.742363 30.169888
60.26851 38.09336 30.104887
36.606506 14.556358 1.932888
36.07351 13.6013565 40.461887
45.940506 13.210358 35.83489
46.64051 14.760361 36.67489
42.370506 69.01736 20.628887
41.066505 70.18036 21.854889
34.76851 61.74336 25.941887
33.71151 60.809357 23.99189
56.51651 32.098366 8.264889
56.536507 33.046364 5.8848877
67.191505 36.42536 5.7328873
66.59051 37.76336 4.2008896
69.398506 15.467361 14.436886
69.52051 13.791359 13.065887
7.110504 14.881355 9.113888
6.261505 16.057358 7.2098885
51.34751 27.051369 14.819889
52.30751 24.846367 15.246887
57.168503 33.198357 14.510887
56.478508 34.21737 12.834888
15.200508 41.775368 28.437887
13.615509 42.42437 27.151886
6.2535095 35.781364 30.300886
7.18351 33.99537 30.357887
32.15451 101.82736 6.533886
31.264511 102.61936 4.4338875
22.009506 96.41636 6.927887
21.463509 96.19136 4.668888
41.01551 32.165367 35.638885
41.049507 32.28837 33.344887
51.12551 33.01336 32.120888
51.511505 32.78736 34.353886
17.244507 102.17236 1.7768898
16.644508 99.95936 1.5158882
9.394508 94.14936 1.6458893
7.6265106 94.96636 1.4168892
24.55651 75.01236 25.104889
25.08751 73.08236 25.521889
16.801506 68.92736 26.868889
16.370506 68.86936 28.910889
16.708504 1.0243683 11.052887
18.355507 0.9943619 11.829887
25.887505 7.5593643 10.254887
27.799507 7.000366 10.862888
29.414505 101.34236 34.969887
31.593506 101.14936 33.572887
39.012505 108.294365 35.793888
38.591507 2.3343658 35.82689
26.597511 81.435356 37.171886
24.719505 81.62736 35.804886
20.048508 72.81436 34.053886
17.597504 73.49636 33.727886
31.58751 68.713356 36.304886
32.29351 67.30036 35.005886
26.046509 58.886356 39.185886
25.799507 58.941357 36.922886
42.48551 74.30136 28.118889
43.203506 74.58336 26.02689
48.702507 78.53736 20.93089
49.38951 80.34936 20.15989
0.25750732 44.958366 33.44589
72.6415 44.06736 35.308887
64.54651 38.63636 34.81989
64.29651 39.964363 36.52889
18.607506 100.45136 5.3178864
20.068504 98.89636 4.330887
28.743507 104.97236 1.8868866
29.547508 105.03936 3.656887
31.370506 14.058357 32.725887
29.792511 15.666359 31.863886
22.942505 9.1423645 33.49489
21.97551 11.096359 33.837887
37.32151 58.24136 27.620888
36.93151 59.956356 26.60889
46.663506 61.90136 24.361889
46.22551 63.668358 22.61089
63.07351 85.72436 21.993889
62.359505 86.69936 20.454887
53.36351 87.10036 22.211887
51.58751 85.02236 21.90789
50.86351 42.89736 4.4858894
49.47451 41.779366 3.1618881
39.36251 43.26136 6.974888
38.90451 41.226357 5.897888
72.5715 70.26136 26.153887
70.46751 71.34436 25.909887
63.739506 65.55736 28.254887
61.970505 66.62036 29.301888
26.288506 93.503365 12.105888
26.855507 91.22836 11.059887
19.65451 85.69036 15.286888
17.750504 86.81436 14.265888
67.707504 95.55136 4.609886
66.52051 97.33836 4.1908875
2.6865082 102.50536 2.4578896
1.8945084 104.41436 3.1888885
68.4035 100.13336 19.516888
68.01951 99.53836 21.60289
59.552505 94.52036 21.946888
58.770504 93.12136 23.258888
11.179504 30.051369 2.8728867
10.58551 28.867363 0.5668869
4.230507 21.49636 3.2568893
2.164505 22.310356 3.236889
19.554504 12.28936 34.44489
18.401505 10.320358 33.78489
11.478508 7.514366 39.78689
9.722504 8.184364 38.427887
52.744507 71.07636 11.211887
53.663506 69.35636 11.787888
63.516514 72.34936 10.20789
64.10251 74.47436 11.014889
49.62751 6.860367 31.573887
48.67151 4.950363 31.292887
39.90851 1.5003662 33.129887
38.290504 2.556366 32.79989
5.4225082 65.910355 33.38289
5.535507 66.51536 31.343887
16.15551 66.30736 28.348886
16.255508 64.30836 28.609886
61.855507 1.0493622 11.255886
64.414505 1.0113678 11.398888
72.75851 1.5963669 9.091888
72.71651 0.9863663 6.8868866
55.262505 52.281357 29.242887
55.557503 53.116356 31.022886
60.622505 59.59636 28.006887
62.50551 58.655357 27.448887
23.367508 72.41036 17.133888
23.658508 73.67036 15.264889
31.691505 80.59936 14.323887
31.652512 80.02136 11.958889
27.436508 102.23536 26.653889
27.426506 103.86636 25.03289
35.61251 107.73136 27.786888
34.97351 0.5383682 25.661888
6.3545074 13.563362 39.777885
6.5345078 14.765358 37.777885
13.957504 21.566368 37.248886
14.145508 22.423363 35.282887
51.92151 104.573364 18.897888
53.399506 106.20036 19.702888
61.386505 106.268364 17.524887
61.69851 108.33136 17.695889
32.37451 35.15336 19.906887
31.505508 34.958366 22.333889
30.621506 30.881355 16.177887
29.399506 30.821358 14.069889
52.98851 66.13836 0.8108864
54.806503 65.478355 40.308887
60.13051 73.25936 39.731888
60.57251 75.03036 39.59089
19.546509 69.19636 33.89689
19.425507 67.78236 31.824886
27.589508 73.50136 30.393887
28.22551 72.005356 29.161886
2.9085083 56.912365 16.164886
3.9795074 55.196358 15.376888
67.1955 49.59037 18.577888
65.67251 51.408363 17.595886
65.90851 25.834358 21.356888
66.7275 24.530357 20.119888
2.7115097 27.319359 17.086887
3.7655106 27.04937 15.406887
59.448505 7.8093643 19.620888
60.715504 9.258362 21.06089
68.54751 13.422356 17.324886
70.0595 11.95536 17.479889
21.382507 31.476357 29.615887
21.148506 32.631355 31.335886
12.8665085 27.126366 33.127888
12.323509 27.212364 35.268887
14.370506 76.41636 26.876888
13.51651 78.18936 27.883888
20.241508 84.64136 26.830887
20.007507 84.57136 24.74289
32.76351 36.478355 29.969887
34.399506 36.18937 28.447887
42.665504 37.525368 25.17189
42.466507 38.949364 23.285889
61.884506 70.69436 2.6088867
63.811512 68.66336 3.0208893
56.597504 64.32836 3.196888
55.62851 62.455357 4.265888
8.610504 79.18236 14.482887
8.8665085 76.09736 14.805889
19.856506 77.41836 13.787888
20.145508 76.923355 15.877888
10.734505 91.47836 6.286888
12.48951 90.66236 7.1018867
18.014511 97.62336 3.052887
16.706505 98.78636 4.3388863
15.777504 71.66836 26.205887
16.522507 70.66036 24.384888
20.967506 79.05636 22.236889
22.400505 78.49536 24.188889
14.109505 108.31736 0.31988907
13.82151 1.8763657 39.755886
20.720505 8.194359 35.28489
21.032509 7.405365 33.242886
44.145508 2.6683655 4.1628876
41.81151 2.2733612 5.1198883
35.43451 103.14736 7.701889
36.537506 101.40836 8.610889
9.5265045 69.98836 7.522888
8.841507 72.51736 8.439888
16.898506 77.71136 3.2778893
18.383507 77.12836 4.7408867
39.73651 28.98037 1.795887
39.728508 28.74636 3.736889
29.758507 28.366356 5.2338867
29.373505 27.910362 2.5778885
59.626503 63.947357 17.509888
59.021507 65.868355 18.585888
66.662506 70.97236 14.312889
65.8495 71.35136 11.995888
68.67351 99.11236 16.153889
70.179504 99.26336 17.547886
4.7915115 102.32736 10.82589
4.777504 104.03436 11.748886
42.887505 58.092358 7.005886
41.470505 58.553356 8.651886
32.205505 55.767357 9.517887
32.58251 53.68136 9.587887
13.562508 90.93736 14.648888
12.969505 89.47336 13.264889
6.0435104 83.68036 16.11089
3.3695068 83.93136 17.003887
10.394508 45.73536 20.634888
9.129509 43.781364 20.049889
1.8045044 41.042366 27.864887
72.704506 41.824364 26.239887
7.402504 2.6583633 27.098886
7.0155106 3.266365 29.391888
71.43951 107.35836 31.908886
71.9445 105.30136 31.315886
9.229507 55.97636 30.939886
7.5005035 57.35236 29.750887
71.21451 54.27536 32.572887
71.065506 53.822357 34.594887
7.3095093 67.478355 38.651886
5.8305054 66.86236 37.08489
70.6285 62.858356 0.83288956
70.676506 60.293358 0.4718895
54.914505 93.08836 10.229889
56.603508 93.17236 11.715889
63.279507 97.83836 6.227886
65.71651 97.76136 7.132889
47.17051 92.44136 30.663887
45.48751 93.42636 29.172886
36.06951 90.141365 30.257887
34.965508 90.81936 28.526886
43.359505 63.23636 18.571888
40.85051 64.632355 18.379887
32.52751 62.03536 18.690887
32.45751 61.45236 16.307888
59.640503 31.190361 17.206886
60.650505 29.639366 15.865887
54.440506 22.698357 15.495888
53.145508 21.100365 16.23589
46.068512 27.878365 7.774887
47.05851 25.620369 7.6678886
56.065506 29.324364 7.6438866
56.914505 29.800362 5.267887
20.190506 50.435356 12.013889
19.525505 52.24936 12.0328865
29.548508 57.55736 11.265888
28.716507 59.757366 11.310886
56.986504 81.70636 37.784885
57.958504 80.200356 36.399887
65.53351 84.77536 32.22389
65.95351 84.98936 29.996887
32.147507 66.34736 32.34189
32.25251 64.20936 32.13989
24.229507 58.51236 30.039886
22.71251 60.07636 29.358887
30.940506 69.29336 27.250887
28.82051 69.50736 27.739887
21.332504 65.54436 33.130886
20.042511 65.17036 31.840887
25.629509 90.392365 8.618889
23.622505 91.70736 8.5328865
14.761505 91.13836 11.865887
13.892509 89.711365 10.599888
24.194511 107.18936 26.72089
23.62651 107.07936 24.826889
16.732506 101.36836 25.954887
15.311508 101.34136 27.82589
1.4965057 31.031364 18.215889
0.23150635 31.100365 19.903889
67.67451 25.752357 24.68089
67.3935 23.982368 22.79889
23.595505 47.094368 14.903889
22.597511 49.016365 14.696888
30.34851 54.798363 11.415886
30.603508 55.90736 13.040886
62.094505 60.35536 19.045887
63.212505 59.21536 17.127888
69.220505 65.62236 13.216888
68.99351 66.21136 14.901886
46.776505 73.37536 2.5778885
45.86451 74.88536 2.559887
36.554512 70.602356 0.2658882
35.595505 71.16336 2.4408875
69.0145 108.14936 31.265886
67.055504 107.22036 30.074886
61.533504 102.63936 38.655888
59.310505 103.22036 37.477886
51.83351 37.660362 11.643887
51.631508 39.971367 11.626888
43.554512 38.433357 16.949886
43.58651 39.06437 19.20089
70.07751 7.4703674 7.9458885
70.998505 7.9133606 10.108887
64.2105 1.0103683 14.358887
62.214504 2.2353668 15.084888
23.900505 90.65336 39.93089
25.666512 90.92836 38.596886
30.728508 96.55036 39.249886
33.191505 97.099365 39.048885
27.618507 10.087364 13.548889
25.867508 9.430359 11.985889
15.6165085 7.639366 11.814888
15.131508 8.868362 13.737888
63.620506 27.781364 13.270889
65.5865 28.057365 13.315887
1.2135086 31.228355 13.549889
0.36750793 32.64837 12.432888
56.071503 89.18136 8.291889
56.027504 88.35736 6.2738876
65.2795 93.06236 2.5408897
65.2105 94.66336 4.1788864
15.46151 0.15736389 8.923889
14.162506 1.7963638 9.540886
6.430504 104.02636 8.765888
4.756508 105.51436 9.279888
4.5265045 98.407364 39.884888
2.7235107 99.07436 38.801888
68.2795 92.82736 2.5028877
67.263504 90.81136 2.4358864
50.98551 77.48336 13.482887
52.399506 76.672356 15.401886
58.870506 83.69636 11.001888
60.593506 85.09636 11.453888
40.952507 49.478355 31.176886
39.884506 47.984367 31.824886
33.64251 44.38636 38.15389
31.82351 45.99337 37.807888
