3.111946 5.8800545 7.86935
24.932945 22.785057 57.435352
26.244942 21.210052 56.43135
27.443947 23.278053 45.58335
29.052948 21.254059 44.96435
55.234943 30.639057 6.8153534
53.897945 31.785057 6.3783493
56.798946 32.265057 62.75835
59.024944 32.903057 61.692352
23.929947 17.26706 52.41135
22.056946 16.847054 51.91035
25.602943 20.425056 40.63135
24.347946 22.077057 40.00435
4.981949 23.300056 47.97135
5.620949 22.146057 49.366352
90.903946 17.011055 55.671352
91.60995 17.012054 57.358353
83.68694 41.38006 28.95035
82.76894 43.555058 29.71535
74.76395 44.275055 38.25735
76.54994 44.317055 39.96635
10.755943 2.7830544 48.053352
9.193947 4.4930534 48.43635
7.13295 3.7050552 59.636353
5.250946 1.4520531 59.934353
6.4169464 24.858057 50.130352
6.587944 26.565056 48.52035
14.425941 27.598057 38.85035
16.665947 27.778057 39.30235
73.627945 42.264057 54.44035
74.31394 44.480057 55.392353
77.41195 48.532055 45.55135
78.49294 47.164055 44.518353
78.101944 34.148056 40.03835
75.904945 34.216057 39.609352
71.41395 37.890057 50.08235
69.25594 37.86606 49.81435
19.756943 7.001053 67.45235
18.366943 4.8920555 66.77935
13.141945 1.2150536 10.50235
11.647949 2.8310547 10.786354
29.886948 53.968056 19.36635
29.142944 56.021057 18.50835
37.627945 3.2690544 9.80835
35.646942 4.0990524 8.20835
74.78594 32.027058 0.65335083
73.114944 32.485058 67.72935
75.307945 36.853058 56.43835
76.35695 36.149055 54.80635
14.229942 7.120056 30.42635
12.026947 7.1090546 31.12035
5.6949463 3.6800537 39.699352
4.6719437 4.4890556 42.05135
19.119942 28.188057 4.8693542
21.049942 29.568056 4.1343536
28.653946 29.362057 62.970352
27.587944 30.162056 61.046352
56.109943 51.017056 47.91835
54.349945 52.080055 47.470352
59.468945 2.5340538 37.10535
57.132946 2.8140526 36.37135
1.8269501 4.105053 56.02035
3.2139435 5.2810555 56.892353
12.558945 10.131058 48.873352
12.645943 12.377052 50.413353
93.43794 0.5170555 35.73135
93.52395 1.3950539 37.92935
87.53294 55.938057 46.44535
86.933945 54.557056 47.94735
24.225945 44.173058 28.73535
23.627945 42.682056 26.89535
28.001945 49.573055 18.528349
29.080948 47.147057 18.36835
22.738945 5.3570557 51.948353
24.353943 4.473053 52.00835
32.183945 5.6020546 42.12135
30.658943 6.5760536 40.373352
67.06795 17.840057 48.83235
66.42895 16.238052 47.31835
65.948944 12.493057 59.02035
64.45294 13.979057 59.684353
15.853943 39.456055 8.79435
13.929947 39.52606 9.45635
12.511948 35.148056 20.59735
10.793945 36.247055 21.51235
49.981945 20.604057 54.760353
49.226944 20.840057 53.003353
57.640945 24.277054 45.83935
59.665943 23.608055 44.67235
3.9879456 4.6790543 59.218353
5.0709457 3.6490555 61.25235
5.859947 0.92705536 4.12735
5.6839447 55.663055 4.264351
93.710945 33.406055 48.711353
92.33195 34.698055 49.137352
86.932945 29.225056 58.468353
87.65794 27.076056 58.24235
42.960945 44.957054 23.39735
45.134945 45.997055 23.66235
45.742947 47.425056 11.26635
46.843945 49.024055 11.42435
83.87495 39.356056 26.86435
84.084946 38.530056 29.07835
78.08994 30.051056 35.97835
78.628944 27.973057 35.69335
37.696945 31.015057 2.0583496
38.36595 29.214056 3.6203537
33.340942 29.533056 13.5043545
34.523956 31.487057 14.510351
23.715942 40.643055 63.34135
24.834946 39.578056 65.30235
21.570946 37.327057 6.4243546
19.660942 36.126057 7.491356
8.083946 36.956055 53.84835
8.288948 35.948055 55.59635
3.316948 34.835056 65.99235
3.865944 33.755054 67.47735
60.629944 3.2790527 55.84035
61.441944 2.5800552 58.012352
54.963943 4.2380524 67.63835
55.018944 2.7530556 1.2233505
49.853947 52.197056 62.88935
50.490944 54.392056 62.823353
55.107944 54.790054 52.143353
55.197945 56.937057 53.156353
92.06795 23.008057 9.332352
90.06094 23.815056 8.815353
1.5609436 26.658056 67.18835
3.2619476 28.424057 66.95135
54.984943 53.160057 31.73835
55.949944 51.136055 32.38435
49.930946 47.581055 42.89535
47.763947 47.832054 42.36435
28.588943 47.702057 36.10035
28.261948 45.880054 34.87135
23.851944 37.970055 43.23835
23.533943 35.920055 41.70135
92.62495 9.69706 57.857353
90.84495 7.7530594 58.15535
83.74294 6.8840523 67.36435
83.361946 9.114059 67.75535
26.860947 0.61605453 1.9073486
28.055946 1.5560532 3.340355
21.249947 2.3770523 11.370352
20.742943 0.19605637 12.113348
22.144943 14.906059 35.90335
23.901947 15.903053 36.68635
29.128944 10.791054 24.91435
31.112946 11.990059 24.63935
64.419945 1.2910538 57.17535
64.36894 2.7360535 58.47835
59.972946 56.256058 0.4333496
59.003944 53.861057 68.065346
32.61994 16.854057 41.58935
35.125946 16.884056 42.36935
41.330948 20.122055 33.02835
40.49095 19.161057 31.08535
84.64694 23.561058 40.34935
86.12095 21.977058 42.03735
79.82594 16.186058 51.20935
77.92995 16.748055 50.79835
64.38394 8.359055 6.623352
62.854946 8.2740555 4.9313507
66.22095 10.315056 61.60635
64.960945 11.958054 61.338352
59.794945 43.220055 13.996351
61.875946 43.744057 14.0653515
68.712944 47.405056 4.6123505
68.60895 49.292057 4.319351
80.600945 1.9550552 66.72035
80.906944 56.936054 67.22435
74.42595 52.525055 6.6973495
74.528946 53.462055 8.274353
90.473946 51.079056 67.25635
92.54694 51.274055 66.52935
1.9299469 51.865055 56.20835
1.0049438 51.671055 54.13835
2.9509506 31.482056 32.46035
2.7989502 33.595055 32.10435
9.426949 36.638058 23.75735
11.592949 36.975056 25.04835
12.202942 6.754055 10.840355
12.477943 9.126053 10.991356
20.601944 14.214058 2.8603516
23.020943 14.068054 2.8823547
89.93694 28.718056 45.64835
88.24294 27.392056 46.28335
79.16495 25.149055 53.09035
79.948944 23.255056 54.11835
5.059944 40.92206 1.3643494
5.467949 40.707058 67.648346
13.308945 44.157055 60.37535
15.287949 44.377056 61.053352
45.499947 51.925056 44.49935
44.436947 51.292057 42.85135
50.308945 56.166058 32.03435
51.919945 54.272057 31.84635
90.528946 14.193054 42.026352
92.71895 14.219055 43.43035
85.08395 8.093056 52.57635
83.06495 7.9440536 51.733353
64.83395 45.690056 35.42435
62.684944 45.858055 35.78035
61.359943 38.869057 46.48635
61.023945 40.929058 47.10435
59.458946 44.789055 47.82635
57.601944 45.538055 46.86335
52.101944 43.174057 59.14635
53.886944 43.554054 60.976353
53.509945 18.28106 56.05835
54.968945 16.942055 56.98735
46.200947 14.985054 66.47035
46.715946 13.070053 67.12535
40.118942 51.372055 8.542351
40.05995 49.501057 8.552353
29.298943 47.205055 14.502348
27.537949 46.555058 13.497351
71.95795 16.176056 47.837353
73.168945 14.736053 49.35435
68.29095 11.1870575 59.871353
69.21895 11.1490555 62.27335
64.933945 30.983057 65.13735
66.09294 32.776054 64.86035
69.62395 34.215057 52.982353
69.476944 32.890057 51.25835
52.819946 24.365059 40.81535
51.984943 24.36406 42.73935
46.517944 22.840057 51.04735
47.599945 20.798058 50.93635
13.288948 26.357056 20.00935
11.469948 26.421057 20.00535
5.3119507 28.238056 31.122349
5.129944 29.951056 32.35435
2.6359482 48.807056 56.956352
0.20095062 49.940056 57.248352
0.48794556 48.408054 1.0903549
0.6949463 47.400055 3.2283478
37.217957 5.360054 28.528349
37.344955 7.643059 29.70135
29.737946 3.1630554 38.28335
27.634949 3.9040527 38.79535
9.4149475 49.903057 24.00135
10.314949 52.247055 23.87435
11.526947 56.727055 12.88235
12.172943 55.720055 10.60135
28.413948 13.884056 6.212349
30.683945 13.528053 5.4803543
36.69095 16.978058 64.51035
35.107956 17.974052 62.99235
92.334946 7.787056 36.69135
92.88795 5.6700554 36.984352
6.897949 5.9960556 29.98535
8.860947 7.1130524 30.219349
82.27295 55.106056 66.00735
82.94095 56.677055 64.61835
88.225945 1.716053 53.643353
86.337944 2.8780556 52.91935
80.88395 37.702057 24.05435
83.073944 37.977055 23.92135
89.81094 40.044056 13.26235
90.115944 42.312057 13.718349
62.105946 16.528053 59.37735
60.429943 18.252052 60.19035
51.293945 16.341057 0.36235046
52.514946 14.404053 0.86434937
53.562946 45.155056 43.86235
51.780945 44.057056 43.02235
56.682945 46.173058 32.45135
57.278946 47.978058 31.92035
47.472946 18.063057 18.024351
48.773945 19.333054 16.824354
51.546944 18.750053 5.0323486
51.359943 21.005058 4.1263504
14.073944 22.458054 18.72935
12.095947 24.054054 18.924349
6.6229477 20.264053 28.78335
7.5849457 21.043053 30.69235
49.802944 47.883057 45.524353
48.091946 46.814056 46.40235
42.254944 44.068054 54.990353
41.616947 45.821056 56.97835
67.351944 30.338057 47.09035
66.84294 29.164057 48.836353
62.486946 26.882055 59.65535
62.819946 25.043056 60.84135
0.73394775 35.302055 32.630352
0.095947266 32.989056 33.296352
88.222946 30.533056 43.725353
86.31495 29.622057 43.04435
91.81695 53.156055 3.8923492
91.961945 52.440056 6.1953506
91.154945 47.108055 15.717352
89.86794 45.496056 14.76335
65.72195 43.339054 0.56134796
64.38494 43.257057 67.10335
71.57694 44.502056 56.10335
71.195946 46.989056 55.880352
66.70294 55.450054 6.345352
65.65894 53.738056 5.7073517
60.093945 53.039055 15.639349
60.223946 54.921055 17.172354
23.094948 37.538055 8.888351
22.613945 39.642056 8.457352
31.157944 44.395058 68.36635
29.753944 45.945057 66.85335
23.188942 18.23906 3.712349
23.282944 19.896057 2.212349
30.654945 18.154053 61.380352
32.793945 19.539055 61.62435
50.481945 47.004055 28.93635
50.850945 44.481056 27.69735
44.933945 42.770058 39.64035
43.732944 40.51906 39.55735
86.73095 39.101055 62.851353
88.06895 40.76206 61.58535
93.20194 45.814056 51.47335
92.03494 46.480057 49.796352
91.13895 12.201057 40.62235
90.670944 10.912056 38.80935
2.0359497 16.240059 27.66335
1.6229477 14.226059 26.74335
5.196945 16.373055 47.331352
4.8959503 15.186058 49.039352
5.677948 22.611053 52.41735
7.236946 21.348053 51.54235
40.475952 16.558052 48.19735
42.002945 16.162056 49.72335
36.191956 11.712059 57.046352
37.118942 9.907059 58.330353
15.005943 9.348053 49.75135
15.291946 10.388054 47.718353
24.663948 12.587059 38.90735
24.498947 10.456055 37.33035
22.477943 34.900055 25.36535
24.274948 33.639057 24.52535
30.809944 35.591057 15.496349
32.533943 34.595055 14.41935
22.347946 2.5740547 52.61335
23.078949 1.1990547 53.94535
19.892944 49.326057 62.067352
18.134949 47.905056 60.84735
70.06995 24.348053 15.58035
69.85294 22.537056 15.08535
63.476944 21.873055 25.18135
62.326946 23.047058 23.71635
3.8979492 19.82206 28.74935
4.669945 21.050056 30.35235
91.820946 16.346054 41.12535
89.892944 16.910057 40.68635
10.411949 17.500053 63.99435
11.927948 16.557053 64.99335
15.566948 22.639053 54.75735
17.515945 22.376053 54.68735
23.880943 38.937057 61.39735
23.323944 36.847057 60.50635
30.480942 38.345055 49.79935
29.282944 38.844055 48.33435
71.125946 40.210056 1.1403503
69.820946 39.24806 67.99435
74.323944 39.37306 57.18935
75.39895 41.659058 57.52135
40.486946 49.785057 5.6573486
42.414948 48.705055 6.1203537
47.217945 51.313057 62.88335
47.462944 53.714054 63.011353
1.6469498 1.9100533 40.54335
2.34095 3.1390533 42.10735
92.09595 53.112057 50.989353
92.77595 50.987057 50.72235
35.187943 0.155056 24.82135
37.418945 0.47005463 26.47235
33.089943 55.727055 36.85635
30.884949 55.922054 36.68035
11.45295 22.327057 30.85335
12.980942 21.048058 31.32235
18.791946 18.926056 20.20535
19.669945 20.814056 20.57535
24.855942 35.280056 45.691353
23.176949 34.117058 44.643353
16.863945 28.885056 53.00835
18.901947 29.017056 53.99435
89.751945 20.411057 7.895355
88.97195 22.484055 6.7633514
92.03995 23.701057 63.316353
0.2309494 23.070053 62.961353
26.270943 49.979057 50.59735
25.561943 47.952057 50.039352
19.975945 43.439056 60.185352
18.963943 45.404057 60.75035
17.747948 9.742058 51.969353
15.606949 10.643059 52.21435
8.433945 7.455055 58.98035
7.8629456 7.275055 61.331352
3.948944 44.375057 54.982353
4.401947 46.529057 54.29935
9.587944 51.449055 43.712353
11.668945 50.593056 43.99235
91.25895 34.182056 30.22935
92.67194 33.106056 28.86735
7.722946 37.934055 22.04735
6.7119446 38.320057 20.20535
93.65295 20.526054 42.73035
93.15195 18.212059 43.41235
88.48195 13.339058 53.93735
87.26894 11.789055 54.393353
73.670944 33.265057 21.76735
74.920944 34.292057 23.53135
68.99995 29.426056 31.500349
70.626945 30.317057 33.05835
70.126945 39.445057 37.595352
71.75994 39.138058 39.18935
64.59695 41.655056 48.27135
62.983944 40.163055 48.545353
2.9469452 11.867058 59.220352
1.2579498 12.131058 57.84635
8.996948 13.152054 48.359352
7.1199493 14.474052 47.232353
75.12295 40.49106 6.125351
73.20294 40.477055 7.5533524
64.209946 36.676056 13.488348
64.95394 37.572056 15.775351
38.898956 49.272057 59.75235
40.003952 47.572056 59.40835
39.264954 41.031055 1.0183487
40.821945 41.245056 2.7213516
92.62295 17.927055 9.28735
92.420944 19.164055 10.85135
88.75794 12.191055 19.77535
89.863945 12.655052 21.82535
79.85494 43.200054 58.78635
78.33295 42.191055 57.37635
83.808945 43.925056 46.10335
82.473946 45.487057 45.14135
31.847946 24.973057 10.367355
30.634949 26.395056 9.888351
37.95395 26.739056 68.12635
40.05995 26.585056 68.18935
1.7939453 41.074055 52.95135
93.96695 41.804058 52.239353
89.264946 37.611057 62.97235
90.28294 35.618057 63.32235
1.8889465 18.634056 46.04035
1.3829498 17.18406 44.79035
92.81094 12.262054 57.09035
91.59195 13.6610565 57.21435
53.324944 34.166058 62.032352
52.187946 36.287056 61.66535
48.484947 31.786057 4.4813538
50.476944 31.824057 5.87735
57.308945 7.497055 40.17435
57.197945 5.6580544 39.24535
51.088943 0.39105606 48.30835
51.461945 0.71505356 50.61935
19.804947 5.0120544 50.27935
19.922943 5.594055 52.45335
12.543945 2.6350555 61.156353
12.128944 0.5660553 60.914352
3.828949 37.011055 67.84435
3.3039474 38.76206 0.16735077
90.60494 35.757057 10.2493515
91.27695 36.163055 12.458349
61.651943 48.496056 0.66335297
62.942944 50.182056 0.5843506
64.53895 53.800056 57.025352
66.014946 51.865055 56.90435
1.9899445 25.639057 64.70435
3.814949 26.739056 65.20635
8.928947 31.390057 53.18035
9.95295 33.581055 54.746353
53.387947 39.237057 27.93335
53.939945 37.257057 29.46735
45.010944 34.530056 38.29435
45.958946 33.016056 38.80935
20.608948 41.765057 11.63835
20.466942 43.382057 13.04235
13.524948 36.426056 22.71835
14.590942 37.437057 24.47235
58.630943 11.376053 22.58435
58.594944 10.871056 20.44035
63.432945 14.952057 11.53435
62.568943 15.445053 9.64735
77.88695 40.449055 23.96735
78.42194 38.426056 24.73835
78.76195 36.985058 36.90635
79.15195 35.191055 37.449352
17.421944 17.682053 35.84735
18.372948 15.718056 36.651352
9.66095 12.537056 45.38135
11.320946 11.954056 47.13335
78.02495 18.914055 21.81735
76.350945 19.106056 20.19535
69.95595 17.67006 28.70635
69.558945 18.034058 30.865349
68.53294 14.58606 11.93635
69.406944 12.596054 12.06335
62.503944 11.543053 23.62435
62.938946 9.396057 24.57935
19.226944 12.868057 35.58735
18.269943 11.200058 36.01435
13.804947 5.888054 45.96035
12.9379425 7.559059 47.18335
4.283951 5.9180527 25.82735
4.599945 6.3380547 28.43335
88.113945 55.910057 32.82135
86.861946 0.6230545 33.16135
30.596947 24.929054 28.96435
32.155945 25.310059 30.78635
28.252945 24.039055 42.25735
26.412949 22.856056 42.70035
15.504944 22.714058 37.48735
16.056946 23.675056 39.54935
10.02095 22.549057 48.996353
10.1009445 20.129059 50.143353
71.27595 12.21106 45.88135
71.597946 10.601059 47.330353
63.047943 7.103058 54.30835
61.981945 6.9790535 56.29035
89.75895 8.650055 55.95135
88.528946 8.082054 54.323353
2.3349457 11.817055 45.39035
4.4649506 10.867058 45.53035
1.4229507 10.081055 60.366352
2.9229507 10.921059 61.71635
88.04195 7.2560577 68.30635
87.125946 4.9810524 0.16235352
64.210945 35.03306 48.02035
62.830944 36.044056 46.685352
64.27495 39.943058 35.50035
66.56294 40.364056 35.39835
68.05595 28.848057 16.49435
67.20595 30.390057 18.11835
63.392944 25.246056 28.316349
61.283943 24.353056 27.69935
67.77194 26.812056 65.29335
66.38394 27.619057 63.90335
70.891945 26.649055 51.253353
68.67995 27.391056 50.04335
2.4459457 20.530052 62.656353
2.9759445 23.01706 62.09035
10.2259445 26.796057 53.14635
9.052948 28.454058 52.177353
35.198944 43.790054 34.82135
32.794945 44.325054 35.63635
24.460945 44.035057 45.247353
25.621948 44.271057 47.06335
77.80595 1.1160545 64.29635
80.15794 0.5410538 64.23735
87.63795 5.883053 55.67435
88.377945 4.133053 54.677353
74.600945 21.80906 17.18935
74.13595 20.119057 18.77035
65.96895 17.180054 26.35335
67.07894 18.169052 27.72035
66.26395 45.957054 1.1473541
66.49194 48.246056 1.3703537
72.34094 49.720055 60.692352
72.07594 51.524055 60.073353
52.344944 51.523056 30.04435
53.888947 49.557056 30.29135
47.062946 45.822056 40.71935
47.026947 43.740055 41.32535
81.41295 9.122055 17.46335
82.29994 7.402054 18.13135
78.94195 6.7590523 30.38735
78.73095 8.3990555 30.89835
47.914944 56.762054 63.962353
49.820946 1.348053 63.720352
54.152946 6.688053 55.18035
55.577946 4.605053 55.52735
37.141953 25.595057 65.87235
36.767944 25.323055 63.885353
44.771942 29.713057 56.44535
45.02495 28.943056 54.43035
74.19095 12.419052 47.934353
73.045944 13.804054 46.93235
78.67494 17.36406 37.70135
80.92795 17.077057 37.83335
56.010944 28.687056 27.83835
57.638947 28.966055 28.615349
53.164944 21.773056 39.58335
56.023945 21.805054 39.97135
17.198944 54.620056 29.539349
17.348946 52.753056 30.86935
11.166946 50.952057 39.887352
9.24295 51.455055 41.14835
31.274948 12.431053 58.59735
29.801949 10.845055 57.09135
26.252945 10.766052 0.77835083
24.130943 10.758057 1.076355
67.183945 20.592056 62.59135
66.35594 20.181053 60.740353
74.00694 25.174057 53.63835
73.35494 26.319056 52.02235
83.19195 3.6970558 51.69535
82.36894 5.4370537 50.00835
87.13194 12.887054 40.78235
87.986946 11.553055 38.81235
43.89794 49.424057 10.76635
41.878952 50.017056 10.58935
35.92395 45.928055 18.28835
35.06595 47.339054 19.67435
40.946945 22.186058 14.700354
40.19995 20.405052 13.9143505
44.733948 25.193054 3.7753525
44.306946 26.105055 1.561348
84.24394 45.236057 28.34235
84.73595 43.685055 27.58335
88.210945 46.268055 17.47235
89.03394 48.436054 17.13135
66.85895 18.352058 65.90635
65.24494 17.750053 64.49435
58.817944 10.591057 2.3963547
59.007946 11.953056 4.045349
13.096947 38.338055 37.977352
11.04995 38.043056 36.66235
15.249947 42.061054 26.22235
17.325943 41.786057 26.63935
72.45094 35.157055 36.79935
73.03394 35.099056 39.31935
63.775944 31.334057 45.74235
64.74895 29.209057 46.71035
37.488953 46.365055 2.734352
39.674942 47.773056 2.526352
42.478943 52.143055 61.18835
42.848946 49.563057 60.942352
49.849945 52.019054 46.774353
51.323944 50.654057 45.63235
54.264946 1.242054 34.83935
56.182945 0.37005615 35.64335
70.655945 8.122055 28.334349
71.84495 6.4130554 29.92935
68.89694 7.7480545 41.60535
66.627945 8.095055 41.95335
51.197945 29.772057 22.03335
51.990944 31.600056 22.90835
58.729946 36.291058 12.42735
60.451946 36.581055 13.60335
68.49294 7.507057 7.069351
69.95094 9.105057 6.470352
75.947945 12.94706 66.29635
75.781944 14.806053 65.87435
30.904945 41.461056 65.54435
33.297943 42.611057 66.52735
39.148956 44.861057 56.13335
37.878952 44.216057 54.14535
62.567944 29.613056 48.497353
63.205944 32.270058 48.19635
59.567944 27.829056 58.982353
59.223946 25.604055 58.36735
56.545944 2.0730553 32.69535
58.775944 2.3310547 33.70735
60.877945 5.275055 22.26835
62.135944 3.110054 21.50635
28.793945 18.496056 22.55035
28.148949 16.207054 21.43035
29.953949 22.718056 12.06835
28.907944 24.212059 10.40235
68.294945 22.070053 31.34035
69.45895 21.734055 33.01435
65.89394 16.139053 43.12435
64.723946 14.933052 42.25235
60.239944 15.746056 7.25235
58.828945 14.239059 5.4893494
63.171944 21.388054 64.00835
63.334946 19.162056 62.97235
48.763947 30.258057 37.56635
46.814945 31.283056 36.574352
52.408947 36.892056 26.66435
50.291946 37.267056 26.04335
23.908943 7.894058 18.41235
22.992943 9.966057 18.87935
30.230942 14.277054 8.93235
27.999947 15.320053 8.32835
25.650948 12.355057 56.83535
24.720947 10.727058 55.928352
19.587944 11.116058 65.176346
19.404945 10.847054 67.97535
60.058945 20.493057 7.217354
61.826946 21.566055 8.317352
65.028946 22.722054 65.28935
66.08994 20.991058 65.09635
3.9619446 33.410057 34.53835
4.917946 34.40806 36.00235
93.84395 30.241056 45.97135
91.40794 30.905056 45.37435
15.281944 52.248055 62.239353
14.606949 54.095055 62.27135
19.787949 56.120056 49.651352
18.584946 1.110054 49.16235
63.375946 56.879055 39.16135
63.923946 1.4640541 40.97435
56.543945 55.783054 49.22135
55.809944 0.28105545 50.66635
13.637947 35.452057 58.74535
14.066948 34.523056 56.84935
19.561943 39.406055 46.50935
18.442947 41.287056 46.25135
21.851944 34.220055 61.344353
20.195946 32.604057 60.69635
14.739944 27.441055 1.3623505
14.570946 28.274055 3.5653534
44.443947 12.405052 65.87735
42.351944 11.276054 65.40635
34.92595 12.657059 8.4003525
35.29895 10.788055 10.054352
80.43995 26.529055 23.18035
79.71895 28.258055 24.47035
69.16194 24.459053 31.00135
70.42294 24.381058 33.14635
86.16595 48.232056 17.219349
86.22195 49.147057 19.14135
76.59595 41.995056 20.41135
76.375946 43.251057 22.65535
13.634949 39.257057 41.12735
12.135948 38.029057 40.27535
6.234947 34.474056 52.10335
3.8529434 34.992058 51.302353
46.713947 18.662056 67.98535
45.233944 18.731056 66.61935
48.665947 23.513054 56.977352
50.447945 25.252052 56.99935
37.222946 33.637054 67.72435
36.038956 35.657055 68.26535
33.153946 33.063057 11.979353
31.814941 31.819056 13.295355
3.3739471 3.4020538 24.44135
5.1199493 2.2730522 23.42435
13.678947 1.7100525 13.626349
13.261948 3.8520546 12.74735
59.996944 54.612057 37.59035
58.454945 52.991055 36.51835
52.640945 48.652058 46.247353
53.795944 49.412056 48.081352
93.640945 14.433052 58.725353
92.81995 16.454056 59.77035
86.23295 9.096054 68.10835
87.15195 10.221054 1.4703522
28.234947 30.412056 44.67235
30.221947 29.837055 43.977352
34.610947 38.907055 36.88235
36.628952 38.443058 36.47835
55.796944 23.841057 6.569351
55.560944 26.249056 6.118355
59.083946 29.089056 62.88435
58.261944 27.700056 61.14735
25.851944 47.382057 47.37435
27.594948 46.160057 47.56235
33.986954 50.380054 39.13235
34.859955 49.470055 36.75935
93.722946 13.522057 24.91335
91.642944 14.452057 24.44235
84.13695 15.651054 33.52135
84.335945 13.936058 35.00035
23.201942 55.963055 52.074352
21.523949 54.027058 51.477352
21.401947 47.275055 61.29935
23.254944 46.374058 62.76635
88.379944 5.5240555 35.82635
90.084946 5.898052 37.56935
83.25694 56.980057 47.22235
85.254944 56.698055 48.50635
55.519947 47.319057 63.34735
57.275944 46.894054 62.34135
59.422943 47.395058 50.61935
59.587944 49.373055 51.164352
47.058945 3.1340523 49.33235
47.633945 4.7930527 51.41735
39.669945 56.092056 58.27235
40.397945 53.988056 58.01435
39.86995 33.323055 2.5933533
39.50795 32.750057 0.036354065
44.340942 36.874058 58.220352
45.39794 38.595055 58.83435
40.550945 52.098057 41.52835
40.003944 53.285057 39.68935
44.930946 56.907055 29.615349
47.323944 0.09705353 29.97235
55.168945 32.086056 9.06135
55.246944 33.29706 10.96035
55.386944 23.945057 20.50235
56.141945 24.654057 22.14435
51.443947 37.914055 6.2993546
52.088943 40.314056 4.953354
54.170944 41.265057 62.45235
52.791946 40.756058 60.607353
68.82494 44.897057 19.93635
67.82995 46.171055 18.38135
75.73395 48.948055 8.93735
77.19495 47.481056 9.67935
38.91194 30.219057 17.21835
39.96695 28.706057 16.16835
44.667946 34.430058 5.90235
46.256943 32.535057 6.19035
55.668945 5.075054 35.89535
54.639946 5.667053 37.75235
47.900944 55.540054 45.05035
46.961945 56.743057 46.713352
15.389946 56.124058 10.894356
14.528946 54.795055 9.332352
22.144943 1.0500526 0.33235168
21.123947 2.7780533 67.64535
81.81695 12.076057 51.948353
81.69495 12.066055 49.66835
88.70695 18.890053 41.84835
88.79894 20.715057 42.91235
93.71895 39.772057 48.57135
92.55595 40.105057 46.72135
1.1969452 47.306057 38.37035
2.9509506 46.420055 38.10835
61.524944 49.454056 34.15835
62.620945 50.262054 36.56235
58.457943 43.554054 44.78335
57.514946 41.507057 44.37635
79.52295 22.591057 36.06835
80.739944 23.524055 34.76635
84.709946 21.857056 24.38835
83.351944 22.919052 22.45935
28.102943 22.357056 28.57935
30.281944 21.163055 28.70635
22.476944 21.533058 37.85835
21.820946 23.613052 38.14335
40.816944 54.155056 7.9433517
43.149944 54.566055 7.8413544
51.149944 52.914055 65.33335
52.603947 54.297054 65.96535
15.841942 26.859056 19.75035
15.531944 29.159056 19.65435
20.486946 27.558056 7.13435
22.172943 28.866056 6.80335
18.483948 53.151054 11.77735
16.451942 53.673058 12.2043495
15.936943 47.990055 23.03035
13.379944 48.148056 23.39035
21.717949 20.870056 55.37535
22.892944 21.076057 56.990353
16.972946 17.638054 66.93035
14.581947 17.345055 67.68735
83.64594 41.63006 43.734352
83.725945 41.27606 45.873352
80.85294 41.439056 56.629353
80.919945 39.801056 58.489353
12.592949 46.303055 55.65235
13.327942 44.283054 56.49935
21.643944 42.409058 48.41035
23.894943 43.120056 48.60435
28.734947 34.886055 12.27835
26.717949 33.360058 12.38135
26.674942 27.636057 24.08535
25.083946 25.710056 24.11635
42.961945 48.189056 8.62035
40.983948 47.385056 10.32335
40.54695 43.316055 19.72835
38.398956 42.499058 18.89735
8.36895 55.618057 39.84635
7.8249435 53.704056 38.10135
12.283943 3.5020523 31.17035
10.386948 4.7410545 30.40835
12.735947 49.471058 41.73635
14.034943 48.415054 40.24035
17.639946 46.709057 30.31035
17.369942 47.461056 27.92035
52.361946 53.174057 49.43035
51.788944 51.156055 48.75835
44.550945 51.264057 58.82135
46.552944 51.468056 60.34235
80.17595 32.830055 23.85135
79.02395 34.375057 23.57635
74.626945 33.613056 35.25135
73.335945 31.988056 33.88635
29.423943 17.970055 56.78735
30.249947 18.668053 58.713352
38.804947 23.683052 50.48735
37.026947 23.960052 49.587353
11.88195 11.575058 30.98835
9.3539505 11.731056 30.61135
6.25795 9.156059 42.96035
7.3119507 10.742058 44.782352
4.748947 11.6000595 10.40735
4.3529434 9.465057 10.70235
92.251945 7.672058 20.27735
89.806946 7.669052 21.26435
23.173943 0.40005493 13.813353
23.903946 2.1370544 12.390348
33.655945 6.1540527 8.30835
32.88595 7.5550537 6.9683533
42.780945 7.0540543 12.51735
44.636948 6.594055 14.14135
39.267944 2.7740555 24.78635
39.667953 0.57705307 25.13535
30.313942 21.329056 9.262352
31.671944 23.282059 8.411354
30.074944 28.953054 65.48335
31.837944 27.643057 64.71735
87.11995 28.607056 11.41935
88.723946 27.884056 12.88135
84.42995 27.858057 22.94235
85.80395 27.714056 24.48335
50.533947 21.177055 1.5253525
52.144947 20.280052 1.2023544
57.112946 19.976059 59.63935
58.125946 18.382057 58.27735
25.301949 30.954056 43.63235
25.308945 32.426056 45.17335
21.719948 28.985056 55.303352
21.159943 29.746056 57.225353
83.476944 28.306057 41.26135
85.04994 27.344057 40.04935
86.23195 33.526054 29.22935
88.02495 32.340057 28.539349
5.245949 18.717056 45.62635
3.9149475 20.32206 44.48135
13.031944 24.817055 36.43735
14.141945 25.079056 38.32735
57.431946 33.392056 29.78635
56.965946 34.994057 31.17035
53.506947 27.807056 40.57635
52.569946 29.164057 41.56935
78.183945 5.379055 66.662346
79.447945 6.952053 66.37235
84.30495 9.463058 55.157352
86.34094 9.426056 55.211353
7.61895 40.834057 22.02535
6.89695 42.766056 23.41935
93.670944 40.345055 31.60635
0.46394348 38.626057 32.66335
33.461945 44.954056 18.36535
31.887947 43.679054 17.87835
27.763947 39.464058 26.90535
28.372948 39.891056 28.948349
75.41295 32.162056 53.470352
77.02094 33.575058 54.49335
84.50995 37.595055 44.843353
85.79095 36.031055 44.20135
84.11995 27.129057 6.73635
85.25594 26.669056 8.0863495
79.33894 25.864056 20.56135
80.639946 23.648056 20.80335
29.367943 31.198057 29.32835
27.649948 32.090057 29.95735
21.751945 29.500055 38.92735
20.416946 28.159056 39.623352
45.532944 34.167057 57.16635
45.958946 31.697056 57.90535
39.63495 29.166056 68.01535
37.238953 29.316055 0.18835449
68.66595 24.000053 48.171352
67.60294 24.965057 49.907352
62.732944 19.018059 58.70735
63.740944 19.578056 60.30035
14.113945 41.397057 56.57035
14.813942 41.659058 58.949352
10.244949 37.626057 1.663353
12.253944 37.087055 2.3563538
24.994942 13.385056 54.09035
24.874947 14.949059 52.87535
27.378944 14.749054 41.77135
29.412949 14.621056 41.331352
0.7219467 55.102055 37.30135
93.14594 54.224056 38.86435
89.89895 51.258057 47.579353
91.35995 48.970055 48.053352
16.980942 34.60906 25.34635
14.959946 34.803055 25.00735
9.822945 30.831057 32.02735
8.57695 30.097055 34.13835
24.292946 6.2250557 1.9723511
23.352943 7.268059 3.4563522
15.377945 5.6020546 12.444349
17.151947 4.685055 13.42835
27.840942 5.1490555 23.34035
28.490944 2.9050522 24.07835
23.616943 55.764057 31.29135
23.736946 55.511055 33.38235
78.13194 47.908054 62.06435
79.919945 47.383057 62.86035
73.750946 42.749058 5.3563538
71.472946 41.554058 5.3823547
80.571945 5.3360558 52.30635
78.95194 4.690056 50.52935
72.65994 55.056057 58.53435
75.00594 55.491055 58.746353
0.20794678 54.807056 3.8133545
94.14394 53.828056 2.1593475
6.5209503 56.438057 61.28335
5.415947 55.251057 59.552353
40.539948 39.996056 53.671352
41.976944 41.780056 53.838352
45.455944 49.122055 44.41035
44.096947 47.756058 42.93135
91.77094 29.750055 60.03635
93.474945 30.450056 61.40835
2.8309479 37.173058 52.27835
1.9739456 38.824055 51.39135
81.34495 35.360058 22.66235
83.184944 35.006058 23.64935
88.75594 34.877056 12.62535
88.58195 33.710056 10.69735
57.331944 42.422054 29.32835
58.680946 40.817055 28.93035
64.10294 42.777058 18.00535
66.459946 43.375057 18.56835
75.98495 47.804054 43.07835
75.79694 45.782055 42.23835
76.126945 37.048058 39.241352
77.988945 38.731056 38.78135
49.492947 25.557056 38.012352
48.589947 27.057056 37.06535
53.515945 28.965055 26.44235
54.719944 27.552055 25.44935
44.779945 29.448055 38.87435
42.67594 29.717056 38.75135
31.586945 27.547056 44.09835
31.253944 28.382055 46.27735
76.683945 17.164055 64.90435
77.34295 15.614059 63.46035
80.600945 15.934059 53.829353
80.02295 13.9980545 53.16635
83.225945 44.794056 62.86935
84.63895 45.179054 64.75035
79.001945 43.332054 5.906349
77.63695 41.287056 5.760353
18.364944 50.657055 45.95735
19.258942 49.520058 44.135353
20.007942 55.591057 33.82235
20.982948 54.798058 31.79335
10.415947 13.647057 27.79335
8.994949 14.118057 26.16035
12.023949 13.462059 15.67635
11.433945 15.157059 14.47735
39.034943 33.212055 35.95735
39.745956 32.096058 37.81635
35.16295 34.112057 47.79235
34.820953 32.351055 49.02835
33.21895 25.024055 60.90435
33.574944 23.229055 59.887352
38.12195 32.301056 52.49935
36.044952 32.843056 52.748352
48.911945 3.7600555 12.69335
48.178944 2.0540543 11.410353
55.378944 5.676052 2.3943481
56.413944 4.4030533 3.1913528
37.316956 13.087059 44.81435
37.23094 10.948059 43.64835
40.932953 14.628059 32.11735
41.891953 16.529053 30.88135
50.252945 12.299057 35.192352
48.124947 13.020058 34.90935
46.096947 3.7900543 44.67935
43.964947 3.5280533 45.16735
27.492943 56.866055 20.94435
27.321945 54.872055 20.30835
19.931946 48.373055 29.08535
19.734947 48.728058 31.02335
49.111946 27.527056 23.79735
49.399944 25.633057 23.17235
45.767944 22.219055 33.75135
46.689945 22.365059 35.54435
55.776947 10.871056 20.25735
56.202946 12.665054 22.05335
48.085945 6.6270523 29.86835
47.043945 4.6530533 30.511349
8.724945 53.998055 59.477352
10.328949 53.643055 57.48735
12.835945 3.7760544 49.23035
11.685944 5.7220535 48.92435
45.708946 45.361057 43.24335
45.303947 42.854057 43.67535
44.896946 41.597057 56.58335
46.576946 39.74806 56.41035
43.610947 0.36205673 43.781353
45.121944 1.7460556 42.98635
49.924946 1.9530525 32.56835
51.813946 3.2920532 31.25535
67.98495 56.131058 41.07235
65.83095 55.857056 41.70235
61.715946 56.140057 52.51535
59.882946 0.5390549 53.31235
48.680946 32.402058 58.01435
48.364944 31.020056 56.37635
54.632946 37.531055 45.651352
55.189945 35.518055 44.84735
72.73194 23.285057 15.380354
72.97195 24.862053 13.223349
75.528946 27.803057 2.7423477
74.90794 29.099054 1.2943497
53.131947 18.144058 19.89135
53.110947 15.897057 20.90335
50.721947 12.144058 31.73535
49.098946 10.651054 32.21035
52.500946 17.523056 2.7533493
54.097946 18.849052 2.899353
59.138947 24.938057 61.39735
60.786945 23.242058 61.455353
48.223946 7.9530563 32.73335
47.149944 6.270054 32.86535
42.360947 2.846054 43.33335
41.127945 5.1980553 42.84735
22.336945 30.768057 59.852352
21.894943 28.774055 59.39735
19.483948 23.858057 3.3763504
20.458946 21.951056 3.0693512
64.556946 50.942055 53.330353
65.016945 50.044056 55.177353
58.241947 50.421055 64.90835
58.330944 48.780056 64.04035
35.944946 25.397057 46.60635
37.83795 24.69806 46.33235
45.184944 25.818054 37.94435
43.990944 25.527054 36.42035
32.568947 31.024055 48.13935
30.751945 32.419056 48.56535
23.567947 27.371056 56.80035
24.329948 27.409056 58.871353
25.154945 15.380058 4.508354
23.309944 15.570053 5.4333496
17.889946 8.753059 14.653349
16.689941 7.6410522 13.669348
48.798946 0.46705627 13.435349
49.855946 56.126057 14.0533495
44.663944 56.053055 25.48535
44.984947 53.322056 26.11535
2.9079437 46.993057 17.22035
1.4979477 47.730057 15.61335
9.087944 47.718056 7.03135
10.00695 49.537056 6.91635
36.011948 50.992058 40.644352
37.34195 52.279057 41.34635
33.451942 48.849056 51.220352
32.110947 48.133057 53.12435
41.003944 29.597055 32.62835
39.110947 30.898056 31.789349
45.239944 32.901054 23.36935
46.072945 33.008057 21.10235
32.917946 24.015053 12.80135
32.033943 22.175056 13.98035
26.694946 23.691055 23.64135
26.752945 21.741058 24.77735
88.44395 26.068056 41.55535
87.948944 26.664057 39.50835
2.7379456 28.390057 31.250349
2.5349503 26.029057 30.650349
41.06494 4.2320557 10.64735
38.831955 4.966053 11.58935
35.247955 3.0560532 20.45335
34.084946 2.6010551 22.34435
55.962944 40.207058 28.05835
55.908947 38.301056 26.76735
60.042946 41.834057 16.54535
62.262943 40.902058 16.45935
88.823944 41.48406 45.969353
88.05195 41.382057 43.984352
0.79294586 40.733055 34.30035
1.3049469 42.941055 33.59635
8.795944 0.72805405 7.6363525
8.308945 1.1620522 5.89135
14.158943 3.5630531 63.56235
15.677948 2.3470535 63.755352
18.347946 3.2580528 29.85735
18.298943 2.6480522 32.27235
9.936951 0.76605606 40.97435
7.8929443 2.1970558 40.45235
1.0429459 10.315056 8.864349
1.9329453 10.278053 11.047356
94.06194 1.3590546 7.560356
1.4189453 1.7600555 5.901352
32.302948 53.363056 37.98735
32.381943 51.378056 37.206352
24.124947 47.180058 45.268353
21.643944 47.835056 45.04135
39.920944 34.608055 51.40535
38.692947 34.043056 49.90335
41.200943 39.326057 40.28235
40.85495 40.784058 38.90835
7.88295 55.353058 42.37835
7.0939484 53.232056 42.713352
5.962944 51.403057 55.199352
4.425949 50.482056 55.73035
79.34295 48.775055 42.706352
77.44295 48.934055 41.32935
83.12095 46.298058 30.93435
83.93594 47.675056 29.81235
41.36795 0.4300537 27.26735
39.842957 56.178055 27.91535
36.831955 54.540054 39.26835
34.648956 53.977055 38.79235
25.105942 55.218056 49.156353
27.198944 54.190056 49.91135
36.34395 5.0920525 44.247353
37.73195 3.3290558 44.07135
93.586945 8.089058 22.78635
91.54195 8.2250595 23.13935
86.42394 3.006054 31.511349
87.14895 3.9390526 33.71835
50.323944 49.308056 63.41035
48.318947 48.966057 64.15035
46.893944 45.830055 6.911354
48.389946 47.096058 8.175354
71.53895 19.968056 30.761349
69.34595 20.25306 29.53735
76.80595 27.119055 21.33935
76.62395 24.988052 20.30235
14.137947 33.027058 39.73335
15.123947 33.813057 41.38335
7.578949 30.989056 50.85635
6.639946 29.586056 50.22835
78.363945 52.285057 45.135353
77.65994 51.815056 43.08935
85.07694 52.353058 32.80135
85.04894 51.562057 30.44035
1.6499481 36.634056 47.62735
2.7579498 38.952057 48.04835
6.4359436 43.477055 38.65335
4.861946 44.501057 37.54935
93.77194 56.194057 53.156353
1.2949448 0.78305435 54.18335
7.248947 5.5620537 43.25935
8.018944 4.284054 42.16335
14.774948 53.039055 45.18735
12.624947 52.470055 46.309353
8.864944 51.200054 54.650352
8.216949 51.758057 56.746353
92.101944 37.467056 47.91035
93.45795 35.988056 46.976353
2.7229462 37.407055 34.24935
3.189949 39.768055 34.25635
11.032944 16.888054 31.83835
11.873947 15.6230545 33.33535
5.0119476 16.505058 42.741352
5.6689453 15.637054 44.615353
70.698944 53.630054 6.875351
72.77294 54.939056 6.6553497
77.820946 2.6750526 67.412346
76.67294 3.1300545 65.68335
49.458946 33.190056 21.95835
48.307945 31.429056 20.80935
52.254944 32.222057 9.4943495
52.441944 34.341057 7.80535
4.373947 30.219057 0.081352234
4.762947 32.209057 1.3713531
2.7569504 28.228056 12.740355
1.3279495 29.971056 12.508352
30.916946 54.728058 53.32635
31.920944 55.708057 54.643353
39.954956 3.2640533 45.57835
39.64595 5.2200546 45.060352
5.8749466 51.332054 58.12735
7.2099457 51.658054 59.54035
4.1459503 45.231056 0.5443497
4.3319473 46.191055 2.6703491
84.099945 15.480057 19.97835
86.19095 15.910057 19.77335
91.47794 21.579056 11.56935
89.68594 20.885056 10.64635
64.28394 35.800056 33.42235
63.935944 37.77606 33.93035
59.385944 35.700058 43.816353
57.408947 34.54706 43.712353
56.241947 54.796055 67.05435
57.180946 53.293056 65.81435
61.013947 0.50805664 55.65535
63.329945 56.606056 54.704353
85.405945 35.03306 60.795353
84.55095 35.64406 63.15835
83.945946 31.692057 3.9203491
84.19395 31.085056 6.1543503
63.195946 35.000057 64.22635
65.47794 35.275055 63.99335
71.91395 39.431057 54.949352
70.78594 38.988056 52.75635
64.905945 37.857056 65.23335
66.864944 37.460056 64.96835
70.74895 41.951057 55.100353
70.500946 43.181057 53.475353
91.96795 8.611053 39.23635
92.321945 9.465057 40.99535
88.142944 3.8100548 51.16235
89.02495 5.853054 52.525352
68.45294 38.434055 35.51835
66.52394 37.357056 35.05435
61.325943 30.512056 42.95335
61.432945 32.110058 44.88935
32.100945 20.274055 11.62435
33.474945 19.75306 13.159349
29.520943 12.502052 22.54235
27.746948 11.231056 22.15135
12.772942 39.804058 24.71135
11.403946 40.744057 23.38135
5.2139435 36.087055 33.99035
7.4289474 35.075058 33.89535
35.124954 10.421059 27.22935
35.901947 11.783058 28.941349
27.823944 9.739059 37.28735
29.332947 8.856056 38.50435
24.862946 41.059055 12.30535
23.315948 41.825058 13.20035
22.319946 41.529057 24.93935
20.810944 39.847057 24.78535
6.3119507 55.209057 21.55435
8.397949 54.749058 22.31035
16.473946 1.6760521 14.08835
18.809944 0.81505585 14.15835
18.577942 34.758057 43.04535
16.371948 35.450058 43.48035
12.665947 32.754055 54.83935
11.516945 30.589056 54.03735
75.934944 9.713058 31.44435
78.001945 11.067055 31.250349
82.42695 13.326057 19.93835
81.26994 15.177055 20.06535
38.364944 21.539055 48.829353
38.765945 21.972054 46.760353
43.652946 23.109055 35.45435
42.095947 20.854057 35.46235
74.29894 8.180054 14.19935
75.73295 6.4630547 14.82735
70.74494 5.6160545 27.05135
71.488945 3.8800545 27.858349
87.64594 24.161057 56.69035
85.917946 22.826057 56.69035
77.77295 19.874054 65.79135
78.24495 20.37806 67.71835
54.859943 49.009056 13.84035
55.642944 49.972057 15.84735
52.338943 48.805058 27.28435
50.796944 49.499058 26.64335
93.06194 30.698057 30.098349
91.267944 31.618055 30.72935
84.212944 32.564056 41.15235
82.75594 33.823055 40.70035
66.656944 0.7080536 38.14535
68.66695 56.212055 38.16335
76.836945 0.1570549 28.89735
75.95495 1.5190544 27.57535
93.70094 48.780056 33.70235
92.26095 49.158054 32.602352
3.8069458 54.734055 21.94635
3.9339447 56.840057 22.71335
40.826946 37.094055 38.71935
42.576946 36.118057 37.54835
49.101944 39.257057 27.46835
47.508945 38.565056 26.28235
58.879944 21.500053 43.02335
61.023945 21.699059 42.20035
68.52094 26.365057 33.53835
66.794945 27.516054 32.39135
3.9859467 8.328056 43.739353
2.7719498 6.666054 43.07735
93.946945 4.1230545 53.393353
92.86995 4.8280525 55.366352
85.83894 46.814056 31.41635
87.337944 46.321056 32.76335
84.08395 47.740055 44.14635
82.349945 48.727055 45.69635
24.411942 55.224056 67.97835
23.527946 53.347057 68.34435
15.452942 53.291058 66.606346
14.056946 53.095055 65.02835
44.446945 4.7030525 29.67535
42.14795 3.6540527 29.372349
35.832947 0.19405365 38.82535
35.963943 1.4420547 40.91435
56.121944 20.928055 42.595352
56.396946 22.806053 43.74235
53.099945 17.221054 53.34935
54.089947 15.101059 53.935352
80.74394 41.081055 40.96635
82.13795 39.771057 39.79135
81.572945 34.664055 38.192352
81.26195 32.377056 38.41435
1.9929504 13.201057 10.08835
3.0179443 13.587059 11.98435
93.17695 13.057053 22.40735
92.08195 11.045059 22.22235
94.16595 0.55205536 20.07135
1.5369492 1.4620552 20.91535
8.847946 2.5920525 10.42535
9.287949 0.1930542 10.07635
62.116943 51.444057 16.89235
64.32894 50.610058 17.78635
71.39794 51.105057 7.61235
70.377945 50.269054 6.43735
52.262947 36.107056 58.92435
53.771946 34.530056 58.28735
55.979946 39.463055 47.441353
55.169945 40.787056 46.13235
52.473946 14.134056 35.15235
52.873947 11.739059 34.87835
59.436943 16.05906 26.13635
58.679943 16.470055 23.76235
45.726944 16.550056 0.5103531
46.145943 14.931053 1.0113525
40.00995 14.070053 11.855352
37.624954 13.823059 11.9143505
74.85695 50.161057 39.817352
74.252945 50.453056 37.90035
81.057945 53.204056 28.67035
81.85394 55.381058 28.30935
18.728943 19.53106 37.07135
19.657944 17.811058 37.99335
15.903946 12.999054 49.225353
14.046944 12.970055 47.78335
23.099945 35.092056 10.10135
24.118942 35.905056 12.14335
21.984947 32.831055 23.02435
22.181946 30.409056 23.20635
0.488945 16.995056 25.34035
93.003944 16.741058 23.81035
3.9049454 18.126053 13.1783495
3.0679474 16.528053 11.81535
69.01195 41.384056 35.776352
71.20394 41.675056 36.38435
79.49695 46.560055 27.73235
78.654945 45.542057 25.59435
49.937946 15.112053 36.54335
47.444946 15.169052 36.56635
42.902946 15.345055 47.094353
43.308945 13.084053 47.33235
54.437946 9.825058 36.98735
55.353947 7.908058 35.89735
63.549946 12.882057 28.35435
62.664944 12.554054 26.13935
19.171944 18.651054 3.8063507
20.469948 17.571053 3.9613495
17.218948 14.073059 15.075354
15.053947 15.144058 16.006353
53.574944 32.141056 43.01035
51.400944 31.965055 42.61735
46.594944 31.086056 54.344353
46.414944 33.004055 54.948353
44.568947 43.806057 6.325348
44.599945 42.236057 3.934349
47.138947 46.343056 64.72635
48.104946 46.492058 62.52035
77.70194 10.964058 35.10735
79.32895 8.989059 35.11535
76.114944 7.9890594 46.98835
78.058945 6.954056 46.755352
48.757946 54.925056 29.271349
50.352943 54.115055 28.27735
55.739944 52.608055 16.823349
57.593945 53.417057 16.594349
45.153946 11.636055 16.20735
46.597946 11.410057 17.58635
43.099945 11.915054 29.98435
42.753944 13.926056 29.962349
79.53494 2.971054 48.14735
81.06495 3.9860535 48.303352
83.320946 5.8750534 36.748352
85.16094 6.9300537 36.44135
30.730942 3.4820557 41.48835
28.655945 4.447056 41.19835
20.704948 2.6770554 49.04235
21.565948 1.2110558 50.47835
66.15994 25.800056 14.43435
64.77194 24.163055 14.37435
57.590946 25.388054 24.52835
57.630947 23.204056 24.35435
73.38494 21.834053 32.38935
73.85895 19.566055 32.06935
76.169945 21.913055 21.84435
78.05495 23.106056 21.69835
41.57495 30.996056 53.400352
42.693947 30.134056 54.734352
35.704956 27.823055 64.11435
33.587944 27.169056 62.859352
33.924942 33.680058 51.441353
31.471947 33.464058 50.89635
29.149948 35.335056 63.100353
30.147942 34.223057 64.49835
37.971954 39.492058 38.55135
36.249954 40.517056 38.25135
31.117943 35.810055 48.830353
32.271942 34.106056 47.19435
63.689945 52.892056 51.607353
64.81995 51.930058 49.54035
73.114944 1.1520538 43.643353
74.76894 0.9010544 45.43235
49.553944 24.018057 2.9103546
48.711945 23.075056 1.3903503
49.199947 29.422056 59.102352
49.703945 31.478056 60.30535
71.57794 36.264057 20.49635
72.79894 36.001057 22.39735
67.40295 33.253056 30.88035
68.17594 32.008057 32.57835
35.539948 33.945057 32.07035
35.96895 36.039055 33.36135
43.756943 40.067055 23.37535
43.667946 42.071056 24.58935
11.65995 30.993055 19.55935
13.926949 31.408056 19.54635
20.458946 34.689056 10.53535
21.205948 33.866055 8.60435
5.7099457 43.397057 34.53835
3.974945 43.716057 33.26535
6.269951 45.337055 22.41635
7.9929504 47.226055 21.32035
56.783947 42.684055 31.95635
54.637947 43.970055 32.16335
47.609947 37.778057 39.91135
47.718945 38.40806 42.199352
39.588947 12.914055 62.05635
39.172947 12.678055 59.845352
45.618946 18.409058 51.99435
46.696945 18.042053 50.413353
19.526947 7.9410553 49.87635
21.900948 8.849052 50.650352
26.475945 8.940056 39.49635
25.052948 7.7720566 37.651352
40.444946 34.333057 17.73735
38.72995 32.948055 18.44435
34.777954 31.276056 28.55935
35.025955 31.569056 30.61335
49.613945 2.763054 65.98635
48.656944 0.65205383 66.61735
39.800945 3.3130531 8.459351
39.915947 1.2120552 9.277351
44.427944 37.627056 40.97635
45.424946 39.743057 41.63335
43.768948 37.277058 54.51535
41.775948 37.048058 54.420353
91.238945 20.971054 41.519352
92.612946 22.942055 42.06235
6.3929443 24.691055 33.46135
5.4149475 25.584053 31.60935
74.639946 16.895058 14.424353
73.212944 18.588058 13.26335
78.64594 20.931053 2.5863495
79.100945 22.841057 1.111351
53.643944 14.134056 37.31835
54.355946 14.744057 39.19535
44.825947 10.840057 47.414352
43.991947 9.1870575 48.14035
38.887955 45.797054 38.25735
37.228943 46.097057 39.262352
31.905945 41.575058 48.65935
31.651947 40.166058 47.462353
30.791946 41.436058 30.61935
31.118942 39.216057 29.32935
34.114944 40.347057 17.92635
33.943954 42.381058 17.09735
57.694946 16.944054 7.49335
57.728947 15.453056 8.69835
50.364944 10.030052 15.10235
49.614944 11.756058 17.22835
41.103943 15.507057 66.59935
38.806946 16.875053 67.08235
30.391945 16.766052 7.4903564
30.812943 18.480057 8.969353
50.423946 41.854057 26.92235
50.250946 41.031055 24.70935
54.667946 44.769054 15.40035
55.909946 44.340057 13.47335
26.945946 8.178055 21.10935
26.685944 9.249054 23.84135
19.501945 8.237053 31.82935
19.315948 6.4530525 33.34735
46.047943 6.867054 50.68235
44.794945 5.3120537 49.04835
36.292953 1.6550522 58.206352
34.472946 1.735054 56.642353
35.570953 45.635056 54.90235
35.454956 43.494057 54.76535
31.680946 36.899055 64.08935
33.465942 35.235058 63.89035
90.43095 40.236057 66.64635
90.08295 42.098057 65.28035
2.4049454 45.820057 56.61835
1.7599487 47.124058 54.76535
72.655945 36.031055 51.73535
71.88294 34.442055 50.310352
81.197945 33.742058 42.96835
80.23395 31.875055 41.48635
46.305946 49.043056 26.35835
44.743942 50.482056 26.14435
37.20395 45.807056 35.83035
35.719955 46.599056 34.95035
64.46394 5.405052 41.99735
66.335945 5.5020523 43.05735
57.112946 5.5120544 53.129353
58.394943 6.393055 54.76435
74.74995 45.272057 6.4833527
75.09295 47.377056 6.512352
82.31795 49.163055 65.926346
81.24795 50.982056 64.55735
48.362946 23.064056 37.998352
46.311947 23.300056 38.102352
45.143944 17.356056 48.20235
43.945946 18.218056 49.913353
8.620949 26.441055 33.79235
9.991943 25.111055 33.17735
12.740944 30.785057 23.04235
13.924942 33.074055 21.82335
35.922943 14.223053 28.27735
35.58795 14.082054 26.40135
41.07794 20.191055 18.05835
41.086945 20.077057 16.44235
12.969948 31.078056 56.89135
13.529945 32.401054 58.616352
8.370949 30.924057 0.25035095
8.654945 28.848057 0.27735138
23.297943 17.544052 38.82635
24.737946 15.706055 39.46535
18.531944 12.310059 51.37535
19.087944 13.886055 52.84935
76.96394 36.330055 22.79735
76.54195 35.743057 20.74535
84.72994 41.143055 13.185349
83.225945 41.815056 11.31435
66.91395 47.326057 36.53535
68.530945 48.798058 36.04735
74.65894 48.761055 25.65935
73.101944 50.018055 24.90735
45.415947 7.464058 30.278349
43.909946 7.372055 28.55835
52.641945 10.971054 19.83735
53.879944 12.565056 19.16835
46.324947 13.356056 49.594353
47.520947 11.925056 48.18035
50.553944 17.582054 40.03135
49.295944 19.485054 39.62435
7.262947 34.788055 2.2203522
9.287949 35.214058 0.9143524
10.051949 37.53306 57.50235
8.178947 39.414055 57.16835
7.9479446 19.659058 64.97435
8.004944 18.071053 63.163353
13.0889435 22.292053 53.99235
12.432945 22.89206 51.33935
8.678947 7.8420563 43.73535
8.650948 7.396057 41.56335
14.5659485 12.327057 33.178352
16.933945 12.776054 34.14635
93.11095 2.1330528 4.290352
92.321945 0.54405594 5.4873505
87.835945 0.29205322 14.84535
87.92394 55.296055 15.3533535
67.87495 15.298058 45.42635
68.44495 17.762054 45.42335
75.587944 16.379059 34.68135
77.182945 14.867058 33.80735
38.646942 9.543053 46.12035
37.696945 11.326057 46.656353
32.892944 4.954056 56.03435
33.169945 2.9130554 54.81235
4.9069443 22.147057 13.31835
3.1179504 23.843056 14.11635
93.73595 23.709053 26.10935
93.56294 21.598053 26.85835
77.72095 9.895058 15.61035
79.03695 10.351059 16.89835
76.476944 7.7580566 29.56135
74.51095 7.3400574 30.11935
43.033943 54.179054 46.100353
42.127945 53.188057 43.73135
35.306946 44.826057 52.08435
35.668945 42.635056 52.09035
78.01395 55.478058 64.64635
78.22894 0.18805313 66.87635
69.112946 51.864056 3.0683517
