73.45791 70.74664 0.70513153
20.77491 63.914642 31.03213
22.748909 64.477646 30.17713
28.419907 69.939644 24.17713
27.494904 71.16964 22.633131
82.35891 14.130641 24.12113
80.16591 13.757641 22.32913
78.00091 3.944641 23.674131
77.90491 2.339641 24.75213
0.121910095 31.91764 25.44813
1.8639069 30.72364 23.78713
5.196907 40.23264 23.931131
4.944908 40.55164 21.30413
28.548908 71.94564 18.46713
28.030909 71.96564 16.37313
35.591908 1.7776413 16.43313
36.815907 1.8146439 18.22013
1.286911 57.54864 8.9671335
3.220909 56.75964 8.292134
10.3839035 62.52864 5.123131
10.249908 63.511642 2.7311325
77.24791 60.27264 32.16013
79.35091 59.19564 32.17213
1.3579102 67.522644 33.259132
2.0039062 66.090645 32.078133
19.076904 -0.041358978 4.9121323
18.020905 2.521641 4.864132
23.230904 9.309641 48.33013
24.540909 9.896641 1.6011314
51.53191 11.599641 28.55913
51.18691 12.648641 26.78613
58.757908 20.00864 27.03513
60.30491 18.635641 25.87413
5.7119064 36.60364 7.1531305
3.3439102 37.004642 6.2431307
84.58691 28.36164 9.882131
83.12391 29.53664 10.47813
34.79091 56.73064 38.95513
33.307907 58.63264 38.32713
41.27591 61.86964 37.112133
42.639908 61.192642 35.75013
39.445908 46.28864 36.29913
41.28491 45.61064 37.42813
49.182907 49.490643 30.25713
48.49191 52.12164 31.06613
70.15091 60.115643 21.830132
71.67491 58.247643 22.230131
65.18091 51.664642 19.976131
64.95191 50.61164 22.16613
78.23591 5.675641 41.49913
77.31891 7.728641 41.45613
83.14791 12.892641 37.03113
85.03091 13.579641 36.20813
73.26291 22.19264 24.254131
71.75891 22.353642 25.50513
67.57591 14.84864 27.96413
66.23091 15.083641 29.95913
44.362907 10.667641 10.86513
44.92891 8.357641 10.743131
38.30891 1.291641 6.379131
37.549908 0.82364106 8.835131
63.65991 3.415641 38.32613
65.21191 2.5036411 36.627132
73.85591 4.932641 36.88013
75.08191 6.767641 38.321133
55.82591 17.774641 10.267131
57.43591 18.301641 11.61513
60.92891 26.64664 8.355131
62.97891 27.98064 9.0091305
45.404907 17.985641 32.69513
47.439907 17.972641 32.133133
50.85991 26.833641 34.74213
52.875908 27.492641 34.28413
43.77491 53.00264 15.388131
45.17291 54.48064 16.45113
49.155907 61.54864 13.311131
51.209908 61.70264 12.747131
83.601906 53.13864 39.59713
82.768906 54.89964 38.45613
77.83191 55.990643 32.78313
80.18291 56.761642 33.265133
54.252907 9.533641 31.18613
55.44491 9.811641 29.30713
57.967907 15.63864 23.757132
55.772907 15.937641 22.549131
9.642906 57.01364 29.84913
8.516907 56.08364 28.37413
0.7259064 49.93864 29.22813
83.84291 51.02664 29.40313
24.724907 -0.073358804 21.362131
26.480904 1.189641 21.105131
34.035904 6.4166408 19.58613
33.20691 8.259641 19.61813
55.20091 11.679641 37.66713
56.725906 10.648641 35.59413
62.493908 16.536642 30.63713
62.306908 17.352642 28.62013
0.6809082 2.942641 15.006131
0.81591034 4.161641 17.084131
84.78391 6.858641 23.71113
85.11291 7.216641 25.63713
73.70191 18.807642 20.633131
74.09291 17.892641 22.67913
65.59391 14.708641 21.841131
65.63191 13.495641 24.05913
54.044907 62.79164 37.77113
53.36791 63.76264 39.759132
43.766907 64.73364 41.336132
42.446907 63.18664 42.87113
48.704906 30.43864 27.83813
47.210907 30.596642 29.54013
42.23591 25.068642 32.869133
42.42291 24.69164 34.96213
47.910908 5.9936447 9.928131
49.236908 4.2436447 9.5091305
41.40791 73.88564 12.346131
40.13191 74.33464 14.272131
32.237907 9.311641 9.00413
32.18591 9.880641 11.187131
39.097908 16.686642 10.811131
40.578907 14.868641 10.500131
17.224907 36.31964 39.50413
16.933907 35.470642 37.71213
24.365906 41.51564 33.72213
24.377907 43.58464 32.90713
69.99791 64.424644 29.421131
71.13491 63.48964 31.00313
65.21791 54.79364 32.711132
63.018906 55.657642 32.31913
82.42991 72.75964 29.91913
83.74891 72.85864 31.57113
6.014908 2.1296463 32.057133
4.6389084 3.5496447 32.982132
21.279907 57.63364 17.29713
20.53991 58.032642 19.435131
14.870903 52.53464 25.33713
12.525909 52.30964 24.98013
23.457909 55.96764 17.553131
23.911903 57.720642 16.86113
27.736908 61.46064 10.646131
29.235909 63.23064 11.183131
57.68591 70.31064 6.482132
60.08191 70.09864 6.7471313
67.86691 74.84264 4.060131
70.17291 75.05564 4.5021324
28.712908 9.328641 2.0831337
28.573908 7.328641 1.9901314
35.49891 12.505641 44.00413
34.73591 14.434641 44.27513
66.32791 8.345642 18.82613
66.338905 6.4026413 20.671131
61.023907 75.65964 23.129131
62.399906 73.92264 23.43013
84.77491 25.48464 12.177131
82.79291 24.35564 11.137131
73.09991 22.79264 15.130131
73.08691 21.909641 17.05513
68.35491 38.706642 3.2141304
68.40291 36.636642 4.7501335
62.595905 29.14064 4.100132
60.93791 30.13064 4.7261314
43.55891 72.40464 19.192131
42.97191 70.54764 18.80213
34.21891 66.924644 23.35713
32.76291 67.410645 21.32613
49.535908 43.92264 14.839131
49.95091 42.21664 16.188131
43.974907 37.63864 20.85013
41.799908 37.31264 20.41613
1.1089096 43.08564 15.106131
2.27491 44.91364 15.849131
4.540909 50.80664 9.540131
6.5259094 51.338642 10.680131
9.5119095 10.139641 3.0041313
10.267906 8.965641 1.6041336
17.695908 15.328641 48.04613
17.161903 17.746641 48.12113
11.875908 21.07864 40.22613
11.28891 18.589642 39.85313
2.6629105 15.291641 40.08713
1.0259094 14.990641 38.258133
27.153908 38.39464 27.14413
26.758904 36.101643 26.08313
17.836906 31.395641 30.640131
17.602905 30.461641 28.34813
14.05291 74.93564 41.66313
12.71991 73.29464 42.68413
6.111908 71.077644 40.83713
5.071907 69.47464 42.41213
57.634907 26.91464 47.65413
56.54791 25.88764 45.83013
50.06891 18.533642 45.05113
51.08791 16.402641 46.20613
76.69791 26.908642 44.11113
78.740906 26.92564 45.09713
2.27491 31.44564 44.51013
1.6329117 33.79864 44.79113
8.849907 26.252642 45.03413
7.604912 26.49164 42.59213
84.44491 21.48464 46.06713
0.64390564 19.59164 45.47613
20.795906 72.09464 1.7121315
22.008904 71.01864 0.2881317
28.05191 1.234642 45.11713
28.894905 0.34264374 43.32013
81.73491 41.90664 48.55313
82.57091 41.89864 46.18713
4.562912 47.86464 46.07113
6.286911 47.07764 44.718132
77.40391 46.93264 4.128132
75.58591 47.824642 3.9311333
68.09891 40.61164 4.95113
67.14791 42.78664 4.343132
41.222908 45.86764 1.6411324
39.48491 45.79564 0.27213287
33.43691 39.37864 48.38613
33.31791 37.741642 1.2741318
24.485909 10.139641 41.22113
24.818909 10.975641 39.35813
33.158905 12.816641 35.79113
33.41491 15.295641 35.40013
10.050903 61.04064 35.71313
11.6979065 59.844643 35.939133
20.387909 65.35964 33.32513
20.214905 67.32864 33.86713
38.28491 56.19064 9.980131
38.82691 55.57064 11.74713
35.092907 47.12464 15.359131
33.215908 46.91764 14.774131
73.48091 19.076641 17.63413
72.18091 18.783642 16.195131
65.531906 12.361641 19.28413
64.434906 12.262641 17.36713
42.42891 8.381641 39.46413
44.362907 7.218641 40.76713
49.604908 16.165642 42.96413
51.58791 14.827641 43.90613
66.76391 44.80664 18.55013
66.19491 45.86364 16.72913
73.42691 52.24564 13.671131
73.295906 54.39064 14.431131
69.57191 15.411641 45.96713
67.49291 14.567641 45.31913
66.07591 7.454641 3.7031326
65.768906 8.927641 5.01313
84.72491 29.01264 26.77613
0.59690857 26.724642 26.26113
79.67691 20.14364 28.25513
80.31991 17.508642 27.72713
14.902908 57.09864 37.55913
13.60791 57.93864 35.98513
21.325905 60.39564 32.571133
21.225906 61.23864 30.21913
35.849907 27.346642 28.05413
37.60791 28.29664 29.32913
40.83291 36.84664 26.69713
42.368908 36.77664 28.41713
9.160904 43.07964 44.35313
9.362907 42.57864 46.19813
0.8519058 40.22864 47.79713
0.24291229 38.49464 0.85713196
72.03691 28.221642 43.05613
74.309906 27.340641 43.16613
68.52891 18.09464 45.43913
68.018906 19.12964 47.58113
26.254906 60.64164 41.87913
24.433907 61.09064 42.43513
15.573906 57.53364 46.16213
15.571907 56.26564 44.55413
70.90891 29.231642 34.43013
73.15291 28.43464 34.79213
78.37291 36.73564 30.32213
78.532906 37.94664 31.96713
80.17391 40.15364 32.12313
78.31391 40.93964 32.63013
82.19391 49.20964 28.678131
80.97991 50.761642 28.45413
63.314907 2.909641 45.62913
64.56791 3.379641 43.31513
70.12391 11.863641 43.00413
71.93291 11.3536415 44.27013
73.40291 21.42064 21.32613
75.809906 21.43564 22.06513
82.12791 26.73064 19.38113
82.49991 27.30264 16.95813
20.30191 54.55664 46.97813
21.380905 54.57064 48.81713
30.50191 58.87464 46.95113
30.683908 60.72364 48.27313
28.676908 25.83864 2.0141335
29.672909 25.339642 0.29213333
36.98391 32.59864 48.10113
38.765907 31.475641 47.90113
1.5089111 58.29464 11.734131
84.72991 58.02864 12.755131
77.85891 53.75764 16.01913
76.129906 54.96864 15.783131
11.932907 42.90664 44.14413
14.252907 41.83564 43.93013
22.127907 46.90664 43.364132
21.74691 48.838642 42.69613
19.225906 43.26964 25.12313
19.526909 41.30564 25.58713
12.619904 35.803642 29.36013
13.698906 33.90364 30.612131
74.92791 6.039641 34.60513
76.421906 6.399641 35.88213
1.1509094 7.993641 34.76913
1.4369049 6.656641 32.377132
15.432907 54.40264 37.27713
15.44091 53.80764 34.49813
23.08091 58.32864 31.78513
25.320908 58.64264 31.45813
30.816908 50.99364 22.36413
32.94991 50.873642 20.81513
38.59391 59.01064 19.438131
37.25591 59.976643 18.51213
57.28491 64.09664 39.78513
56.91391 64.25465 42.19013
48.87491 59.191643 42.28213
47.250908 58.845642 41.36013
47.472908 70.50964 18.129131
49.452908 70.52364 18.320131
53.32391 76.01664 14.272131
54.272907 1.1466446 13.9431305
61.670906 57.49464 30.45213
61.51791 58.52364 31.96113
65.64291 65.45964 25.72513
67.83491 66.18164 26.71013
17.708908 40.977642 1.8481331
19.602905 39.136642 2.6421318
28.540909 39.95464 0.65813065
28.591904 41.72564 1.5331306
73.03691 20.555641 6.1791306
72.96091 19.003641 4.6511307
73.310905 14.195641 0.54813004
74.05791 15.764641 1.9291306
32.862907 14.495641 32.88513
34.63891 15.324641 32.47713
38.391907 21.27164 27.26313
40.65291 21.31364 26.692131
25.153908 37.094643 19.952131
25.018906 35.32064 18.82913
13.891907 33.428642 19.143131
14.664909 31.367641 18.08813
82.48891 4.442642 11.486131
80.74491 3.4526446 9.84113
74.05591 75.04364 13.011131
71.60791 75.813644 13.310131
45.69991 45.108643 5.75613
46.90091 42.87564 5.2851334
40.71391 36.205643 9.395131
41.314907 34.17364 9.492131
37.835907 29.70264 39.13213
37.89991 29.37364 41.32613
32.287907 20.90764 41.13913
30.315908 21.71264 39.47613
28.700909 50.248642 7.565132
26.91491 51.69764 7.5231323
35.81291 57.38164 5.8541336
35.48491 58.782642 7.8601303
81.199905 3.439644 42.31413
80.68691 0.9746475 42.38513
72.50291 74.29164 47.52613
70.80691 74.33864 46.232132
76.98291 46.58264 47.725132
76.46691 45.86864 45.96913
70.04391 37.51264 48.83113
69.74991 36.67364 47.21013
61.30291 52.53564 23.077131
61.53991 52.41964 25.12213
51.13191 50.59164 25.97713
50.17391 48.43264 25.40813
36.050907 2.304641 4.779133
37.80891 1.8646411 3.7961311
42.42091 7.5026407 48.46713
41.37391 8.609641 46.85413
44.92391 25.03564 5.5571327
46.65891 24.50164 6.6431313
38.83991 18.152641 8.400132
39.52091 16.801641 6.539131
74.36691 15.968641 11.599131
74.03591 14.040641 9.8841305
68.99791 7.362641 12.829131
66.89991 6.998641 12.393131
67.94391 47.97264 28.251131
65.73291 48.366642 29.17013
60.40991 42.27864 34.168133
61.140907 40.86764 35.82513
60.211906 5.1966476 39.58213
58.514908 4.916641 38.15913
50.454906 0.7806473 42.70013
49.953907 75.10164 44.10613
8.410904 54.733643 20.827131
9.604904 57.00164 20.50213
18.633904 60.20164 18.390131
18.73291 61.310642 16.41813
37.098907 65.82264 32.82313
36.58791 64.689644 31.44613
29.571909 58.65864 35.919132
29.410908 57.43064 33.58713
67.93691 9.509641 16.24213
68.58991 7.572641 15.435131
76.96991 12.792641 12.03713
76.95291 12.193641 10.074131
36.521908 54.234642 3.0461311
36.83291 52.970642 1.230133
29.708908 45.67764 1.7291336
28.217909 45.30964 48.857132
40.424908 43.04764 33.89513
40.189907 43.78064 32.197132
48.02591 48.42564 27.84113
47.70091 49.67764 26.15313
80.532906 2.8056412 2.5001335
79.21891 4.0306473 3.8631325
72.07591 75.33864 7.7871323
72.71591 73.24264 8.945134
51.90991 60.504642 7.855133
51.69991 60.82764 5.6441307
61.88891 61.57664 5.0871315
62.63091 63.67564 4.6431313
20.09591 42.55764 27.90613
21.127907 40.39264 28.10213
17.243904 33.12664 32.74913
14.988907 33.58564 32.97713
32.78491 10.991641 27.16813
32.30491 12.760641 28.449131
38.58691 19.206642 25.52313
40.95491 18.482641 24.883131
51.355907 20.19964 3.9651337
51.509907 21.83064 5.3061333
58.967907 27.60564 3.9411316
57.54591 29.96964 3.699131
23.560905 22.575642 25.34613
22.73391 22.39764 23.31513
28.491905 29.840641 21.78613
30.689905 30.645641 23.02413
50.44991 45.93964 21.56913
52.481907 45.50864 21.40113
58.389908 52.50164 19.93213
59.44491 52.643642 17.893131
49.56791 76.17864 1.5531311
47.328907 0.53764343 1.6721306
40.37891 71.37164 4.9101334
40.58891 69.26564 4.713131
43.72091 43.921642 45.92213
43.19091 41.89464 44.57413
37.083908 35.15364 48.43813
36.648907 34.72364 1.5191307
36.49791 75.76564 3.5161324
38.028908 74.60364 2.1341324
46.258907 1.8426437 48.08313
46.544907 4.2896423 47.61713
2.019905 18.158642 8.704131
2.1579056 18.60164 10.49013
81.48991 11.139641 14.110131
79.32591 12.1506405 14.609131
84.43191 36.00864 36.45013
0.6349106 36.21164 38.01813
5.9819107 41.54364 30.82613
7.256912 39.75664 30.21213
30.744905 39.42264 47.94913
30.786905 38.04364 0.6111336
26.987907 28.847641 0.8771324
25.95591 29.84464 2.718132
22.88691 24.20664 32.26813
22.57991 22.093641 31.75313
15.323906 18.235641 38.23613
14.391907 18.67164 40.20113
59.954906 67.46764 6.0471306
61.356907 66.09964 5.834133
67.82191 72.94764 2.0711327
69.16791 73.08464 0.6491318
15.63591 17.248642 34.862133
15.33091 16.859642 32.537132
24.238907 20.10864 31.87313
24.950905 20.66464 34.078133
49.31691 3.0176468 6.2761307
50.55391 2.300644 8.003131
43.63091 70.76364 8.0941305
43.18691 70.78164 10.64113
69.48691 49.34864 32.357132
71.38591 49.44464 33.17913
70.20891 46.83364 25.49813
69.85391 46.79164 23.37013
20.612907 66.117645 46.93713
19.486908 67.269646 48.40813
16.021904 59.455643 3.810131
15.721909 59.44464 5.8701324
2.7909088 8.672641 29.27613
2.1949081 10.3276415 30.10813
7.9739075 17.27864 28.37813
9.772903 16.13964 28.05613
28.781906 29.009642 17.35313
28.556908 26.11264 17.72413
21.520905 21.996641 18.935131
19.503906 22.27964 19.022131
30.575909 29.61164 19.89413
31.714909 30.83864 17.68913
39.910908 36.70764 17.726131
38.583908 38.46464 17.10713
80.07891 11.105641 6.859131
79.98391 13.155641 5.57613
2.0559082 16.82364 1.8481331
3.349907 16.286642 3.93713
64.962906 45.95264 12.323131
66.57691 44.89264 14.117131
74.98991 50.219643 9.26813
76.51391 49.35564 10.79413
25.98491 50.18764 10.705131
25.860909 49.37564 12.508131
18.967903 44.77064 10.31313
18.446907 42.386642 10.935131
45.22191 49.629642 9.603131
45.493908 47.78364 8.683133
52.792908 52.02064 3.0021324
51.593906 53.85664 2.3511314
35.66591 67.74364 31.66213
34.99291 69.35664 29.95013
41.46891 74.89264 26.08913
40.97591 0.18564606 25.00313
36.76191 19.788641 9.383131
34.84491 20.28964 9.74913
28.843908 13.390641 14.208131
29.412909 13.734641 16.094131
29.444908 50.67264 19.75313
27.812904 50.93764 21.341131
24.516907 41.705643 22.528131
22.495903 42.01464 23.40113
7.408905 14.001641 5.9861336
8.365906 12.100641 5.279133
17.573906 17.548641 3.9181328
17.314903 18.987642 1.5351334
19.089905 27.513641 35.884132
20.777908 26.569641 36.74213
11.810905 23.56364 41.62513
12.104904 25.12264 43.22713
81.76591 46.82764 7.1441307
82.85491 45.60364 5.2781334
4.8729095 50.37864 0.47613144
6.505905 51.64864 1.4241333
55.424908 55.789642 7.574131
57.125908 54.01364 7.8021317
63.425907 59.43664 3.6571312
65.19291 58.86364 2.0711327
31.981909 9.964642 16.37013
33.690907 10.069641 17.41213
41.036907 14.824641 15.515131
42.22791 15.667641 17.70413
40.90291 64.077644 40.41513
42.74691 63.92764 39.09513
49.59491 70.36864 37.370132
48.70191 72.67664 38.18813
59.968906 50.66264 15.776131
58.00591 51.50064 15.052131
52.001907 43.95464 16.21113
51.96491 43.19564 17.87113
51.54591 65.00264 14.231131
52.500908 64.34264 12.610131
62.11691 67.72764 13.392131
62.758907 65.99065 14.777131
6.6029053 69.01164 10.729131
7.8919067 67.60864 11.481131
0.34590912 60.21664 10.649131
84.16291 61.80964 11.633131
29.05291 6.822641 5.209133
26.876907 7.475641 3.9741325
21.179909 2.364641 8.291131
19.536903 2.388641 7.147133
53.40691 4.1526413 15.164131
54.44991 5.836641 16.37413
60.43491 10.532641 12.5091305
62.636906 10.825641 11.302131
16.571907 68.90764 25.46413
19.143906 68.05364 25.35613
25.308907 0.21664429 24.02013
26.28891 76.11464 25.97013
43.016907 63.07764 0.8111305
42.87391 61.22164 47.77713
35.425907 58.91264 47.67413
34.591908 60.98164 48.39813
11.535904 57.324642 34.18113
12.861908 55.57964 34.418133
3.4909058 51.816643 33.90313
2.8289108 49.67564 33.808132
56.13091 61.55664 26.43613
57.279907 62.75264 28.05813
64.28691 67.54064 24.97713
65.379906 68.83664 26.31813
8.929909 45.05264 38.39513
9.168907 44.50264 36.391132
17.230904 48.70164 34.79613
19.07991 48.15264 34.93113
68.44791 74.91664 38.00313
66.41991 74.42664 36.704132
73.77791 3.526642 31.12713
73.06591 5.6156464 32.787132
2.1309052 53.747643 3.619133
0.43590546 54.91164 4.3111305
78.43291 49.08964 5.8371315
76.22991 49.61464 7.0181313
46.60191 3.028641 41.225132
48.822906 3.530641 41.95713
55.96291 8.947641 37.33213
58.11691 8.638641 37.62313
69.63991 24.44864 3.0401306
71.77691 24.12264 3.8581314
79.76291 27.878641 5.484131
78.62291 29.01464 4.084133
15.623909 38.82964 41.76513
15.418907 41.21564 41.63713
21.481903 47.21064 36.00413
20.41391 45.54764 34.47813
69.004906 44.47864 20.23513
69.38591 46.67064 20.53613
75.324905 52.39864 19.72713
74.96891 52.91764 17.43413
79.601906 61.796642 3.5461311
77.17991 62.42264 4.1741333
69.35091 57.414642 3.1911316
69.38891 56.62764 1.4001312
50.70091 49.80164 36.64213
51.301907 47.941643 35.675133
42.28791 46.45464 41.54813
41.876907 44.44464 42.02813
48.160908 46.15364 20.00613
47.81891 46.025642 22.43013
42.717907 39.18164 26.70413
41.35991 39.60564 25.36113
36.22191 49.94364 35.578133
36.07391 51.109642 33.98413
44.57991 55.22364 30.36513
45.786907 53.97164 29.42613
26.715908 35.580643 16.629131
27.738909 35.63864 18.49213
36.90691 37.71164 15.212131
36.65991 39.803642 14.690131
76.60491 25.600641 37.474133
75.20591 27.003641 35.72813
81.50891 35.19464 33.711132
83.99591 34.574642 34.044132
44.466908 56.07864 20.47513
45.71391 55.93764 18.757132
51.61591 63.36464 16.969131
51.56291 65.28164 17.02713
23.328903 29.440641 46.90013
21.30291 28.961641 46.87413
16.971909 20.363642 44.704132
18.128906 18.454641 45.87513
21.502907 35.991642 9.80613
22.674904 34.28364 8.91913
14.306908 29.732641 11.975131
12.768906 31.047642 11.324131
32.514908 74.07964 47.37913
31.502909 72.85964 0.021133423
25.749908 66.25264 2.1751328
23.617905 66.59964 2.1791306
16.171906 17.84464 43.51313
18.241905 16.758642 43.48413
24.82991 23.322641 42.89113
23.96891 24.40464 44.94113
67.448906 45.68664 22.58313
67.09291 43.68964 23.098131
58.010906 41.032642 24.612131
56.69291 41.40664 26.067131
43.97891 16.519642 24.50013
43.58791 18.700642 24.296131
53.383907 21.288641 19.98413
54.107906 21.57364 21.74513
79.81591 33.635643 26.12913
78.89891 33.239643 24.51913
73.879906 27.23764 30.18913
73.60791 27.100641 32.33013
39.265907 59.331642 16.58913
40.33691 59.51764 14.543131
47.850906 66.923645 14.954131
49.327908 66.230644 13.08213
34.383907 53.28464 44.05313
34.618908 51.17564 43.41913
29.14791 43.64264 43.232132
29.579908 43.52764 40.89713
43.73391 9.741641 45.90413
42.238907 12.038641 46.32813
48.273907 19.638641 47.28013
49.139908 19.666641 0.8081322
32.65091 25.499641 19.181131
32.65891 24.52664 21.202131
28.696909 15.844641 23.44413
26.823908 14.978641 24.38713
13.401909 31.58064 27.081131
12.419907 31.645641 29.60513
6.7099075 24.36264 30.62013
4.589905 24.78264 30.94013
5.847908 16.770641 10.724131
5.8229065 18.339642 8.981131
14.887909 20.23664 6.050131
16.88591 20.516642 7.6471305
0.2849121 60.47364 13.933131
0.9839096 59.227642 15.95713
77.54291 55.76764 18.04813
77.51591 54.88164 20.081131
28.42191 18.471642 33.09413
29.059908 20.72064 32.11613
37.37191 24.638641 28.27113
38.81191 25.523642 29.75513
16.776909 7.643641 21.03313
18.068909 9.7616415 21.32913
26.637909 12.847641 18.12113
25.741905 14.753641 17.67913
6.180908 20.35864 23.72113
5.456909 22.63664 23.53413
14.74691 26.54264 20.00313
14.786903 27.722641 18.164131
26.888908 4.1086426 43.20513
25.364906 2.701645 41.85313
16.783905 0.3686447 43.84713
17.362907 74.66364 42.77213
62.421906 62.43064 7.7001305
64.53491 61.316643 8.36513
65.04391 65.69364 13.632131
64.823906 68.33064 13.816131
25.92691 68.69364 14.625131
24.777908 68.43664 12.965131
19.487907 61.07164 13.230131
18.389908 60.78064 11.98313
37.710907 3.518641 20.063131
40.21891 2.9536412 20.872131
46.674908 8.770641 17.93613
48.03391 7.652641 16.47513
79.84491 62.34264 44.93713
80.27091 64.19764 45.60413
2.3559113 69.37464 43.16513
3.7659073 69.24864 44.93013
75.40291 49.79864 44.26413
76.79191 49.03664 46.11113
81.20291 57.30864 42.85913
82.06891 58.27164 44.97313
26.420908 54.31964 14.803131
27.538908 52.63564 13.813131
32.56591 59.678642 11.814131
34.619907 59.830643 11.519131
67.02691 50.45464 35.731133
65.56691 50.505642 33.79013
57.382908 45.20364 33.239132
55.14991 45.30864 32.543133
23.411903 70.40864 2.6601334
23.589905 72.89964 3.239132
32.13591 74.62764 2.4971313
33.506905 0.045646667 4.241131
21.391907 51.55564 42.63513
20.991905 54.337643 42.95213
31.800905 54.18164 42.88213
31.284906 52.587643 43.94513
40.63591 4.222641 29.09413
38.63891 3.6556475 30.20513
31.989908 72.98664 32.897133
31.575909 74.04564 34.83313
83.420906 31.04664 20.36313
81.73791 32.15264 19.153131
1.2289124 41.99464 19.40613
1.5959091 42.442642 17.73813
39.25391 13.672641 6.3971305
40.620907 13.543641 7.9821305
35.40191 5.286641 12.83213
36.459908 3.419641 12.177131
12.209908 8.717641 7.695133
12.407906 7.794641 6.192131
20.571907 13.764641 6.6771317
19.795906 15.674641 7.565132
6.680908 56.66264 26.59413
6.5039062 58.62764 27.25413
80.99491 55.727642 27.14413
80.11891 56.16864 29.33213
67.11191 39.10464 40.53313
64.86091 39.39864 40.00413
70.00791 47.77164 34.883133
71.71891 46.86264 34.383133
27.838905 4.9976425 47.69513
26.472908 4.9546432 45.95913
17.865906 76.20164 46.83113
17.866905 75.78264 0.16713333
31.718908 51.99464 28.07513
30.36991 54.21064 28.45513
37.49991 60.130642 24.449131
39.273907 58.77164 24.89913
23.81691 29.24364 43.468132
25.117905 27.97764 44.49013
32.231903 36.580643 42.80213
30.98691 38.074642 43.79713
17.374908 46.80964 30.61413
17.240906 47.26664 32.72213
14.016907 38.595642 38.03913
14.047905 39.469643 39.54613
6.3589096 38.956642 27.671131
6.623909 37.66164 28.94513
83.948906 32.392643 30.65913
84.74591 30.381641 31.78913
72.24691 58.46864 14.222131
72.23491 57.581642 12.339131
79.56791 64.48264 12.45013
81.63691 64.910645 13.710131
6.9249115 55.865643 17.282131
6.7319107 57.80564 16.56813
13.95591 61.47164 11.6271305
15.865906 60.866642 13.210131
0.20491028 70.56264 35.97013
0.6549072 73.05864 35.44513
9.583908 72.71164 31.22313
10.619904 74.08964 31.04513
58.898907 33.88264 17.07513
60.363907 32.32864 16.80413
54.21991 27.11664 20.955132
53.41491 24.88964 20.21813
13.658905 49.97264 14.567131
14.98391 48.963642 16.57513
22.19191 54.89264 15.279131
23.903908 53.80264 15.942131
75.990906 16.737642 3.4101334
77.14091 15.132641 2.6901321
0.41091156 18.703642 48.17113
1.609909 19.45264 0.94013214
58.16691 30.864641 8.88113
59.33091 28.83164 9.021131
53.36091 20.43964 8.830131
51.327908 20.930641 9.673131
20.776909 28.06664 34.09113
22.66391 29.200642 34.52113
25.578903 39.33364 32.94513
25.03891 39.324642 30.68213
73.031906 44.74464 28.19513
72.57091 43.25964 29.81913
64.72991 38.275642 31.01613
62.661907 40.12764 30.85113
23.808907 51.63764 8.402131
24.821907 49.64864 8.490132
20.638908 41.07664 8.03413
18.832909 41.68164 7.7121315
69.00791 41.41664 11.598131
70.84891 40.463642 13.530131
62.650906 32.97164 15.556131
61.892906 34.47864 16.35013
46.827908 8.223641 8.270131
48.64391 8.061641 7.544132
56.30391 13.37464 3.05513
55.97891 15.19764 4.473133
0.47690582 76.12764 0.8061333
84.26191 1.5596466 48.63213
5.300911 5.4316406 42.11913
6.186905 3.7706454 41.18113
55.091908 67.62864 46.50613
54.90691 69.90364 46.67513
64.893906 74.99864 45.76513
64.61291 0.62164307 44.56913
80.796906 16.512642 23.55513
80.27391 16.149641 21.48913
4.1349106 20.297642 21.716131
5.7619095 20.412642 20.310131
38.148907 7.8776407 35.69513
37.452908 5.823641 35.572132
29.73491 1.6836411 32.57413
29.05391 0.15564105 34.175133
59.424908 32.630642 5.1271324
59.585907 32.04064 3.0451317
65.65591 38.56964 46.53413
67.60691 38.16364 47.49813
5.920906 71.60664 7.8091316
5.361908 73.382645 8.149132
13.595909 0.2696457 2.4481316
15.672905 0.19664764 3.6531334
35.73291 10.917641 33.161133
36.210907 12.872641 32.58113
44.161907 18.489641 28.83413
43.13891 17.805641 26.80013
21.16391 15.507641 14.33213
21.268906 13.7426405 16.410131
16.550903 6.432641 17.40213
14.742905 5.630641 16.45313
27.75191 33.809643 22.69413
30.101908 33.56364 23.206131
37.195908 40.51064 21.15813
37.612907 42.005642 19.48913
37.59691 34.64464 4.6621323
37.91391 32.95964 3.1891327
34.090908 25.87564 7.7001305
31.728909 25.76264 7.8771324
43.71991 27.103642 43.11213
44.33291 25.71064 41.72213
50.15891 31.48364 36.12513
51.239906 31.777641 38.32413
62.955906 59.41564 37.90313
63.585907 59.24364 35.46213
69.490906 66.54164 31.11813
68.99691 68.43764 31.74913
4.0609055 8.609641 33.95013
3.849907 9.246641 31.96013
13.294907 15.274641 33.17213
13.119904 15.563641 31.23413
52.736908 38.240643 48.77013
54.13891 38.49564 1.6011314
58.105907 46.26464 46.38513
57.347908 48.21464 45.98413
20.451904 39.56364 14.396131
19.242905 38.685642 13.234131
10.331909 35.748642 17.64813
10.91291 36.02664 19.97913
40.875908 57.32964 12.82513
41.01391 56.90864 10.17413
48.70091 61.046642 8.87213
50.411907 61.03164 10.275131
22.320908 11.8346405 41.07413
21.697906 13.555641 42.21313
28.521904 19.36164 39.91513
30.62691 18.953642 40.42213
33.65091 66.70964 17.869131
33.251907 65.79364 15.909131
41.778908 71.73264 15.172131
41.19191 72.00164 17.257132
21.908905 21.00564 27.98013
21.53991 19.926641 30.112131
13.481903 18.801641 34.12913
12.124908 17.786642 32.717133
8.116905 45.893642 41.50413
9.664909 44.74664 41.15413
17.30291 52.29164 40.04513
19.030907 51.39764 39.19313
55.299908 67.95664 42.63913
55.49891 66.214645 44.14913
46.04091 61.84864 44.77013
45.99991 60.72564 46.52413
1.6289062 15.423641 43.27613
2.3529053 15.343641 45.14413
10.132904 22.548641 45.57313
9.60891 23.82064 43.72713
70.25591 31.43964 29.75013
72.16291 30.350641 29.14513
75.86391 39.09164 27.65013
78.66991 39.574642 28.31413
73.43891 34.77964 7.5921326
71.15391 34.01564 8.227131
64.61891 26.01164 7.7191315
65.28991 24.97664 9.531133
33.35991 48.789642 19.185131
35.71391 48.20264 20.080132
40.42691 56.05564 19.60313
42.15091 57.29764 18.733131
65.01491 36.66864 35.49313
65.10591 37.33264 33.59513
73.18991 43.511642 37.030132
74.87891 43.39264 35.11013
23.166908 16.79964 21.09013
25.137909 15.74964 22.33313
17.864906 9.547641 25.53213
17.909904 9.749641 27.87413
0.36590576 47.310642 28.91013
83.77691 47.76364 27.31413
81.30891 37.93164 29.90313
80.94191 35.77264 29.03513
36.61491 68.14864 41.54513
34.81291 68.80164 40.461132
28.894909 62.14164 43.08113
29.77991 60.59264 44.98413
30.78691 2.4306412 45.36013
30.420908 4.653641 45.989132
34.70691 10.807641 38.086132
34.86691 10.500641 35.80313
11.363907 23.93464 47.60513
11.641907 23.392641 0.36813354
4.564911 17.731642 2.0821304
4.601906 16.384642 0.16713333
39.20191 20.17564 22.66913
41.813908 20.169641 21.70713
50.45691 24.96264 21.414131
50.31191 27.15164 19.86013
22.670906 4.693641 23.73813
21.086906 5.912641 22.40113
28.342903 10.921641 17.549131
29.407906 9.883641 15.655131
49.63191 13.922641 32.92213
50.02691 14.042641 30.88113
55.258907 23.798641 29.74513
57.230907 22.74364 28.567131
71.39491 69.59664 42.10513
69.47091 68.77964 40.475132
61.12491 64.35165 43.44713
61.856907 62.157642 43.36013
25.27591 35.267643 14.008131
27.529907 35.09864 13.780131
31.00091 43.768642 12.629131
33.574905 44.00764 12.936131
62.216908 21.399641 43.30613
62.842907 22.99064 41.75213
71.213905 28.53264 40.43213
71.85991 27.91064 38.36713
17.182907 33.628643 42.39213
16.471909 33.433643 39.85213
6.27491 29.729641 43.40013
5.4169083 31.308641 42.15813
84.254906 8.373641 19.647131
0.6869049 8.937641 20.96713
8.241905 14.91464 19.931131
7.2169113 15.883641 17.924131
38.125908 26.732641 36.711132
39.362907 27.75464 38.245132
40.862907 36.11464 30.73013
43.036907 36.52164 30.98913
56.92391 2.584641 26.22313
59.10891 2.534641 26.07313
63.574905 8.582641 18.64813
64.43191 9.272641 20.542131
14.416908 67.145645 17.073132
13.875908 68.40264 18.79813
21.522903 75.41664 15.908131
21.522903 0.5406418 16.99513
82.99391 54.95064 35.27813
83.92691 56.643642 33.363132
5.2239075 64.06764 34.41713
3.9009094 65.99564 33.863132
16.264908 62.39664 10.628133
16.727905 60.89064 9.548131
20.352905 69.50964 5.293133
22.617905 70.14064 5.961132
21.707909 47.79864 32.36513
19.631905 48.518642 31.81613
22.67791 57.90664 27.37413
24.771904 58.25864 28.43013
47.848907 39.30664 44.33313
47.90191 41.14764 45.56213
55.14291 46.59164 41.68713
56.35191 46.90864 43.42213
7.1929092 62.84264 32.71513
8.46891 62.82064 34.55313
12.49791 72.24564 31.41513
14.155907 72.40864 32.919132
14.236908 9.251641 18.67213
14.259903 10.777641 20.507132
19.304909 19.265642 19.987131
21.693909 18.791641 19.594131
55.97091 31.93464 10.395131
56.98391 32.95364 12.03013
48.260906 30.61864 14.058131
46.849907 31.49364 16.021132
18.44191 55.25964 41.37513
20.100906 54.122643 39.63013
21.480904 62.85464 34.176132
23.519905 62.10464 34.10413
18.238907 14.074641 42.53413
19.618904 12.514641 43.55613
12.917908 6.920641 47.85913
11.548904 6.141641 46.20913
65.86391 8.887641 13.8841305
64.20991 8.461641 12.581131
59.183907 0.699641 18.025131
57.64991 0.6946411 19.334131
4.5139084 6.368641 31.66713
5.276909 7.009641 29.23513
13.417908 12.832641 28.05913
14.028908 14.204641 26.34713
13.521904 27.051641 14.290131
12.173904 28.229641 15.925131
5.4009094 21.40464 15.043131
5.422905 19.134642 15.04913
39.18091 41.10364 17.16213
39.50691 41.53764 14.888131
47.08991 46.53064 12.241131
45.31891 47.97564 11.595131
50.647907 27.38964 14.927131
48.04591 27.099642 15.356131
43.035908 19.66164 19.35013
42.833908 18.01864 18.62013
1.434906 56.39164 0.3561325
2.0889053 56.456642 47.06513
8.876907 62.664642 46.38113
10.849907 62.928642 47.02213
9.004906 33.490643 17.522131
10.188904 31.961641 17.629131
2.9029083 25.804642 20.20113
2.8579102 23.69564 18.77713
76.03891 66.603645 7.8181305
74.30691 66.91864 8.988131
67.477905 61.380642 11.784131
68.73491 60.28464 13.178131
14.841904 26.61264 12.05613
16.446907 26.801641 13.833131
24.168907 30.617641 11.3511305
25.642906 30.023642 10.11013
3.4219055 50.62464 44.61813
3.1459122 51.310642 42.107132
9.365906 60.41364 43.24313
9.612907 60.379642 40.69213
52.92991 58.17964 7.3601303
51.91491 58.36264 5.0681305
44.153908 54.205643 9.682134
42.54791 53.51764 8.392133
47.33891 73.83164 31.01713
49.49791 72.53464 30.98513
54.33891 3.2976456 24.96413
55.125908 4.616646 26.72613
6.5429077 5.199641 36.97213
5.451912 4.171641 35.45713
81.29491 3.0356412 39.363132
79.34991 4.575641 39.03913
52.718906 69.11064 30.84913
53.85391 68.37864 32.600132
60.765907 74.30964 32.11713
61.79191 75.98964 32.64313
11.752907 25.64064 2.9151306
11.208908 27.89664 3.5371323
19.869904 31.19964 46.19413
19.113907 33.05064 46.22713
61.37991 45.13264 6.4171333
60.475906 43.101643 5.5521317
54.632908 37.63864 7.7171326
55.571907 36.630642 5.586132
10.492905 21.346642 36.134132
12.117905 22.228642 37.689133
13.126907 30.78264 33.912132
14.70591 30.332642 31.65313
31.254908 68.90264 13.605131
31.535908 69.31064 11.522131
37.591908 75.33664 10.82713
35.97191 0.70464325 11.007131
55.64591 35.06964 3.1861305
55.981907 36.89464 2.831131
61.608906 43.51764 1.862133
59.383907 43.90564 3.1271324
12.98291 53.712643 37.67013
13.185905 52.85564 35.70013
5.700905 46.761642 34.40113
6.8229065 45.47264 36.01713
42.16591 17.333641 11.182131
40.56591 18.669641 12.243131
46.627907 27.39464 13.077131
47.583908 26.81764 11.189131
13.460907 17.287642 36.356133
12.937904 15.207641 35.92113
6.880905 8.276641 38.84413
5.7079086 8.619641 36.32013
63.13891 12.553641 21.601131
63.185905 12.71664 23.70813
54.83091 6.956641 25.140131
54.475906 8.492641 26.99613
32.06891 62.25864 5.6101303
30.941908 61.55464 3.2901306
36.154907 68.16564 46.086132
38.612907 68.40964 45.43713
78.62791 43.79164 4.1811333
77.74891 44.09864 1.7461319
70.65991 37.41864 2.5221329
70.63391 35.55764 3.9671326
73.94391 76.23664 17.028131
75.37091 75.96164 15.118131
78.24291 0.5446472 21.81513
78.602905 74.90264 22.17713
65.77991 68.94464 29.35613
67.66991 68.022644 29.05413
76.39691 74.08864 26.78213
75.70691 76.02464 26.11013
11.355904 11.455641 14.2851305
11.029907 13.543641 14.310131
17.200905 20.94964 15.648131
17.056908 21.19164 13.560131
6.4199066 57.89564 22.83913
4.3609085 56.90364 22.05713
84.27691 49.352642 25.23813
84.15591 47.44564 23.900131
72.32791 48.685642 36.56613
70.48391 49.393642 37.97013
64.87591 42.02864 43.61313
64.19391 43.80064 45.29613
32.023907 5.295641 48.30813
33.31591 3.0166411 48.20713
37.14591 10.238641 44.100132
35.460907 10.376641 42.05913
65.309906 -0.787359 48.36013
65.28891 0.975641 47.27113
61.590908 5.378641 48.43213
60.107906 6.239641 0.7081337
26.563904 23.582642 36.99113
24.59391 22.579641 36.38113
17.793907 16.203642 39.50313
17.995903 13.8936405 38.72813
39.44391 66.30164 35.40113
38.83991 67.89264 33.88913
42.53891 76.07264 29.22613
43.577908 74.57164 27.78813
15.670906 46.449642 23.79813
14.903908 46.09864 21.94013
9.030907 38.136642 27.29513
9.582909 38.91064 29.487131
51.398907 4.8746414 16.62713
50.58891 4.8306427 18.389132
45.68491 74.79064 22.841131
43.51791 75.65064 24.171131
39.493908 23.582642 32.95013
38.65191 24.818642 34.92113
28.864908 24.201641 35.488132
30.42191 22.930641 34.120132
58.70191 3.5846407 34.940132
58.07491 2.7536469 32.97913
50.96291 71.79764 33.10413
49.77591 71.70764 35.079132
40.53191 75.77064 19.042131
42.14391 74.50964 18.12313
45.355907 7.604645 13.186131
46.523907 6.4316406 12.163131
38.765907 53.59964 4.6171303
39.48391 52.85064 2.1081314
45.26191 58.35564 45.336132
45.30991 59.83364 43.08513
54.77491 12.7686405 46.586132
55.20691 15.104641 47.69713
60.02791 23.03564 43.08513
58.79791 24.95364 43.88113
25.071907 49.33564 43.59013
27.509903 49.82064 43.24713
31.99991 55.16364 37.56313
30.88891 57.40464 37.89413
74.823906 24.374641 38.939133
73.20891 24.66164 37.522133
66.73291 20.002642 43.61013
65.351906 19.366642 41.93113
17.46991 28.964642 32.10513
16.42791 28.655642 30.31313
10.0349045 23.64664 34.481133
9.92791 25.339642 36.147133
0.09790802 5.437641 13.73313
0.15090942 6.644641 15.956131
5.4339066 12.168641 10.241131
5.696907 13.800641 10.684131
4.472908 7.5756407 40.88213
3.5519104 8.130641 42.56613
83.13791 1.9616411 43.93113
84.04891 -0.136359 43.72313
76.24991 35.27864 13.875131
75.69491 36.42664 15.5351305
82.406906 43.907642 18.79013
83.17391 41.580643 18.83613
83.19091 58.86964 5.1311307
84.12891 57.17664 5.880131
78.41291 52.38364 11.13613
78.18991 50.32564 12.520131
75.48391 5.645641 40.75513
73.72591 6.973641 41.12313
65.82091 0.85364103 39.029133
64.629906 1.6906412 40.364132
51.127907 70.99264 1.1331329
51.760906 70.46064 3.463131
55.711906 65.86164 5.6911316
56.92791 67.68064 5.963131
49.53291 46.56464 13.692131
49.446907 45.094643 12.562131
53.696907 51.87864 5.793131
52.55291 53.99364 5.9351306
19.259903 8.836641 33.918133
19.637909 7.143641 36.022133
11.439903 2.241641 36.432133
11.345909 -0.00035884895 35.63613
22.798904 72.12364 8.3681345
23.771904 72.73264 10.4361315
31.44591 2.2326431 7.3791313
32.824905 2.1136475 5.5611305
45.13791 66.785645 8.9481325
46.12491 66.38464 6.7781334
51.591908 75.26464 4.1911316
52.32491 73.396645 2.9761314
39.44091 54.55664 7.9011307
37.23491 54.89164 6.8021317
30.026909 47.55764 4.5731316
30.998909 45.90864 5.376133
79.545906 1.2056427 39.18713
80.54291 75.994644 39.669132
73.84691 72.036644 42.92413
74.03391 69.20964 42.84713
57.99091 24.106642 31.48013
59.11791 25.252642 32.578133
64.55091 29.245642 26.44713
63.529907 30.89464 26.26413
43.48591 35.91864 23.15613
43.618908 37.76364 23.57113
52.63191 41.518642 25.87713
52.808907 43.89164 25.65613
22.911903 28.645641 37.328133
24.154907 28.472641 38.72613
30.704912 35.84264 38.49913
31.229906 35.18864 36.64213
27.197906 64.05964 6.373131
25.563904 64.65264 5.322132
20.73391 57.09064 8.271134
20.38691 55.191643 6.998131
68.51991 22.71964 13.814131
67.44391 21.70364 12.330131
59.23391 18.600641 17.58513
57.93791 16.65764 16.744131
61.945908 20.07464 40.70313
62.114906 18.884642 42.57413
57.266907 11.879641 46.96513
56.426907 12.864641 0.17913055
17.685905 36.04164 46.30113
17.161903 34.43164 44.93013
8.94091 31.61564 1.9571304
6.665909 32.066643 1.9721336
26.244904 1.0326462 39.273132
24.972908 2.8286438 38.968132
19.069908 74.28464 44.50913
18.707909 72.34764 45.50213
81.29491 54.60064 31.53013
81.198906 53.90564 33.58113
76.62091 45.532642 37.106133
76.26291 45.44364 39.18413
14.51091 65.44464 10.460134
12.870903 67.43364 9.869134
21.099907 74.09264 6.5961304
21.13591 72.71564 5.1841316
21.292908 10.232641 37.293133
20.324905 10.861641 35.35313
26.852905 18.252642 37.536133
29.002907 19.083641 37.08813
39.55291 64.71964 42.74913
38.29791 65.03764 41.41913
32.787907 56.65164 43.59113
34.912907 56.26564 43.80213
35.529907 25.24064 16.12013
37.266907 24.408642 17.26913
42.696907 31.11664 15.953131
41.76291 32.43964 14.482131
81.11491 32.891644 29.85413
81.07691 31.57164 28.05513
76.24191 23.05764 30.98213
75.63191 22.69964 33.19113
27.754906 47.63864 7.8641305
25.919907 47.42264 9.20213
23.167908 38.12764 11.782131
21.499908 38.69764 10.524131
72.56291 43.15964 25.53613
72.34191 45.55464 25.41913
77.01491 51.39664 21.61013
78.50091 51.984642 23.08213
3.2769089 17.971642 6.2421303
5.420906 18.31364 6.40913
10.778908 26.384642 6.04813
9.893906 27.97064 7.3331337
0.8249054 73.64164 48.05013
84.14791 74.29564 47.12713
80.29391 66.04464 0.06313324
78.91991 65.37965 2.0921326
32.667908 21.974642 1.0701332
31.91491 23.599642 2.1441307
40.78291 29.25164 1.9531326
41.87191 28.381641 0.11613083
7.5539093 51.05564 8.067131
7.9549103 48.845642 7.258133
2.4719086 42.074642 8.396134
0.03491211 42.31364 8.723134
7.8179092 40.69364 20.55913
8.394905 39.37464 19.03113
13.388908 46.553642 15.230131
12.303909 47.65364 13.495131
20.391907 60.63164 25.30213
20.327904 59.02664 26.13113
16.71991 52.08564 31.42413
14.763908 52.796642 31.84413
48.800907 58.40264 1.8611336
49.61591 59.68164 48.85913
57.224907 66.20664 0.32713318
58.396908 66.062645 2.3441315
1.2579117 71.410645 39.99013
3.01091 71.28464 41.32413
10.070908 0.77664185 40.60313
9.499908 2.5926437 38.90113
57.11091 46.823643 39.43413
58.938908 47.72464 41.29913
65.49591 52.77164 35.12213
66.79891 53.91064 37.16513
85.03891 74.73964 9.784131
83.560905 76.29164 10.79913
76.963905 73.57064 15.176131
76.45591 73.85164 13.04213
45.89991 21.62564 39.97713
47.614906 21.305641 38.12213
55.313908 26.766642 36.10813
53.94891 28.23364 37.03313
11.745903 9.056642 12.245131
11.900909 9.592641 10.04913
20.99691 9.435641 11.753131
22.52491 11.033641 10.673131
61.48491 75.15364 18.86413
61.175907 75.36864 16.53813
67.63591 4.324646 12.757131
69.41491 2.8096466 13.079131
8.993904 34.010643 12.069131
10.730904 33.067642 12.771131
18.98391 37.75964 10.7521305
19.106903 39.82564 9.668131
27.41491 53.969643 18.47013
28.481909 54.88364 16.55713
34.933907 62.32764 16.952131
34.244907 62.77264 19.18313
40.43791 18.27864 20.323132
38.34591 18.25464 20.93613
35.32591 10.004642 19.61813
35.99291 7.954641 18.36313
72.67491 71.52664 47.26613
70.865906 70.43764 47.92513
63.669907 63.775642 48.72013
63.669907 61.837643 47.38913
67.18991 56.35364 5.5541306
68.25291 54.98664 4.5781326
61.148907 48.98664 7.1131325
61.857906 47.01564 8.176132
74.33391 12.108641 48.45313
75.060905 14.332641 47.59613
82.49991 18.144642 43.06213
82.08691 19.57164 44.42213
18.53791 0.5146408 10.047131
18.364906 0.9446411 12.135131
12.487907 68.25264 13.574131
12.4479065 68.04164 15.5021305
36.099907 17.463642 0.9961319
36.03191 18.70964 47.94813
42.19191 22.714642 45.18413
42.61691 24.728642 44.02213
2.7899094 32.871643 41.89213
4.738907 33.35464 40.77013
8.674904 42.26464 41.62913
10.505905 42.30464 41.94713
84.02791 0.014640808 7.4791307
83.685905 75.60964 5.4941306
78.95191 69.72964 12.551131
78.504906 67.13764 12.677131
37.40091 42.477642 30.34913
36.28491 42.15264 28.53213
30.916908 37.78764 36.32013
28.785908 37.54364 37.078133
36.68091 22.988642 19.64113
34.35391 22.659641 19.60213
33.06091 12.663641 24.37413
30.941908 12.349641 23.21813
67.78491 54.52264 0.0871315
67.13891 54.48764 2.244133
58.63091 51.29564 3.54813
56.43691 51.581642 5.1461334
16.798904 41.94764 4.857132
15.855904 41.998642 6.8161316
6.2969055 38.06364 9.526132
4.939911 39.68064 8.179131
3.4719086 52.30864 48.12813
1.6409073 51.83564 46.34513
81.01191 44.91764 1.876133
80.23891 45.858643 3.706131
3.097908 42.43664 13.012131
5.0799103 40.990643 12.092131
12.950905 45.53064 10.087131
12.814903 47.36364 8.843131
62.001907 44.70064 47.96913
62.962906 45.69064 46.43713
70.37691 51.323643 46.36713
71.37891 52.393642 44.59913
60.94391 39.573643 32.97813
61.530907 38.11764 34.72113
51.121906 33.755642 35.328133
51.13691 34.421642 38.016132
24.049904 26.701641 40.68213
22.876907 26.51464 42.96713
13.859909 25.73464 48.00713
14.939903 23.478642 47.15513
37.724907 46.37464 30.35513
36.74691 47.859642 29.98413
45.19991 52.86264 26.70413
44.264908 54.57064 26.29713
83.54291 25.805641 6.873131
82.36691 23.81764 7.1041307
73.83591 19.801641 11.711131
73.34091 18.206642 10.040131
78.61491 73.03364 19.71013
77.85591 71.24264 20.98113
68.35091 67.72564 19.89913
67.40091 69.65864 18.46513
59.209908 64.966644 45.06713
59.46291 63.65864 47.04113
50.840908 57.04464 45.73013
51.363907 56.13464 47.829132
69.97091 22.40364 11.03013
71.781906 21.61264 11.190131
78.101906 30.224642 8.51613
78.684906 29.10964 7.405131
10.098907 11.328641 11.779131
10.19191 11.567641 9.656131
19.280907 13.878641 9.6011305
20.198906 15.842641 10.955131
56.51291 59.84664 22.629131
57.55491 59.823643 20.58613
62.751907 68.33064 17.48413
61.24891 70.18564 17.18713
81.49391 63.07664 10.56313
80.54891 64.95464 9.902131
4.659912 71.16664 10.301131
3.2219086 73.49764 10.617131
74.05591 6.768641 26.55013
72.13891 6.778641 24.57913
70.04891 4.477641 20.39213
69.17391 3.1056411 19.11013
68.40091 12.871641 35.73513
68.86191 14.746641 33.60113
75.77591 20.183641 31.22713
77.91191 19.08464 31.36813
62.89491 40.95364 42.22913
63.913906 38.91964 42.69313
56.49791 32.866642 46.28813
57.33791 31.531641 48.08513
50.278908 42.22864 12.831131
47.78291 42.03064 12.03713
40.362907 38.10064 13.919131
39.70591 35.79864 15.191131
83.63891 75.466644 2.9531326
83.81691 73.43264 1.5421333
74.68891 70.85464 7.579132
76.02191 69.23664 8.644132
38.925907 70.160645 2.456131
40.598907 70.147644 0.74313354
44.404907 1.836647 45.42513
46.208908 1.5276413 43.92513
16.53891 27.80364 25.69813
15.37291 27.98664 23.92613
5.9939117 24.902641 27.96713
5.781906 23.85164 26.22213
73.89491 9.6696415 41.67713
74.82091 10.285641 43.87613
83.087906 14.630641 38.856133
84.50091 15.135641 40.56313
66.587906 34.850643 33.59713
68.25191 33.59664 32.600132
76.80791 39.05964 30.33313
76.449905 41.07664 30.17213
72.03091 58.567642 27.15413
71.51491 57.86264 25.567131
64.34591 53.37664 22.862131
62.946907 52.91864 20.86713
70.66591 56.20464 9.977131
70.11791 53.62764 9.26813
62.97891 49.25764 14.716131
61.904907 50.29264 13.440131
72.78691 65.12965 34.266132
72.64791 64.07864 36.38113
66.84191 56.68664 38.97113
64.95391 55.82064 38.06213
83.20791 57.456642 1.1031303
81.76591 58.87464 1.1961327
74.102905 53.20964 4.5961304
73.59691 52.095642 2.612133
84.13291 45.05864 22.52313
84.29491 43.57164 21.06213
79.42491 35.43464 23.174131
78.66191 34.24964 21.619131
56.08191 54.025642 10.380131
55.474907 53.824642 12.820131
49.58991 48.62764 19.264132
48.112907 48.45264 17.57213
47.81191 56.18764 42.83413
47.883907 53.90964 43.06413
40.98291 49.56164 47.81613
41.633907 48.82564 0.75513077
42.55591 60.025642 38.738132
40.722908 61.205643 39.56313
37.97791 53.935642 47.44413
36.81291 55.310642 48.29913
83.57191 40.73564 7.2901306
0.40690613 39.36464 7.3721313
79.35591 32.06864 5.459133
80.684906 31.760641 7.362133
46.232906 42.88164 46.739132
47.53191 42.79464 48.57613
54.653908 48.997643 47.03513
54.65291 47.90464 45.54413
59.010906 62.51964 36.92813
58.099907 64.65164 37.25713
66.76691 71.79264 37.266132
68.05491 70.48164 38.34013
25.952908 56.685642 22.12013
26.64091 57.30764 24.26813
33.91391 64.201645 22.57613
35.92091 63.60764 21.51613
44.264908 70.119644 14.847131
45.27691 71.36064 16.199131
51.86791 2.072647 14.279131
51.924908 2.9656448 12.191131
45.223907 40.50264 45.53613
45.19991 40.65864 47.829132
40.125908 32.900642 1.2821312
41.320908 31.08164 48.97113
15.502907 10.914641 28.37813
15.231903 8.667641 26.77713
8.08091 2.820641 29.04913
8.105911 0.86164117 30.85913
71.22091 70.71464 39.03413
69.84991 72.56764 38.38713
76.74491 0.51164246 33.49713
76.240906 2.3946457 32.433132
46.028908 0.05464098 29.07913
45.41991 1.5346411 30.70813
52.07391 8.310641 25.35313
50.835907 9.571641 26.05613
78.12291 23.981642 41.88613
78.35491 24.19664 39.74913
84.97091 32.91864 39.74013
83.54191 34.303642 38.81613
63.52791 59.58964 46.18413
63.303905 59.16164 48.17113
57.382908 52.330643 48.26813
56.628906 52.50964 1.3071327
37.391907 71.88964 46.28913
38.51991 70.75664 44.45713
44.17891 1.9396439 41.00313
45.493908 0.75964355 39.05313
40.01291 47.400642 42.47813
38.23991 47.93864 41.87313
30.940908 43.41364 45.84613
30.820908 41.324642 44.46713
60.877907 72.69564 29.81513
61.376907 71.57264 31.67913
55.53891 64.700645 36.49813
54.584908 63.50864 34.91313
67.713905 35.25164 42.04513
66.87591 36.02364 43.74913
60.910908 28.71264 46.99613
58.924908 29.190641 47.63613
69.906906 40.00164 8.7241335
71.12091 40.03664 10.206132
81.01391 41.87464 8.277131
81.64191 42.54964 6.359131
20.336906 53.89564 3.5291328
20.481903 52.14564 2.5651321
14.952904 48.56164 9.510133
14.281906 47.07064 11.651132
79.58491 29.290642 48.45113
80.23591 29.975641 1.3491325
0.8379059 36.837643 47.60313
84.10091 38.18964 47.30413
7.613907 34.12564 9.314134
10.078903 33.602642 9.488133
17.307907 39.10764 4.3441315
19.12291 39.78064 5.2421303
5.9719086 15.452641 2.8731308
6.604912 16.392641 4.9831314
13.3869095 22.922642 5.232132
13.032906 22.603642 7.501133
16.822906 1.7736435 7.9621305
17.383904 0.1826477 7.062131
10.470909 71.02664 12.515131
10.20591 69.04464 11.427131
0.8019104 63.10564 20.515131
2.6429062 62.62464 18.566132
10.224907 67.85364 16.994131
11.215904 68.58364 19.18413
40.182907 63.060642 29.72013
39.090908 61.61864 28.63913
34.863907 55.630642 35.23613
32.56691 55.255642 34.91313
6.656906 21.006641 28.17213
7.3069077 19.50764 29.73313
84.24291 13.34164 31.14813
84.57091 13.430641 33.475132
42.06791 5.439641 35.50413
40.696907 7.372641 35.24013
46.841908 13.9596405 34.31213
46.760906 15.365641 32.65913
29.784906 2.8146439 47.80113
29.620905 3.7366412 0.4091301
22.098907 75.632645 4.407131
21.44291 0.5146408 6.060131
18.332909 69.65064 43.80413
18.09591 68.939644 46.21713
12.932907 62.09264 2.8771324
13.550903 60.191643 2.227131
77.49791 18.408642 17.94013
77.33691 19.87564 20.50313
84.296906 25.218641 19.00213
0.024909973 26.47664 16.77413
27.446907 10.065641 4.5401306
27.227905 10.889641 6.5421333
30.798906 18.034641 2.1761322
33.21991 17.871641 1.68013
4.2499084 28.072641 33.377132
3.425911 30.42564 34.155132
9.685905 37.49564 32.057133
11.628906 36.17564 31.69513
48.49791 61.00964 5.848133
49.509907 62.935642 5.897133
53.363907 67.59864 48.60313
51.76191 69.58564 47.62913
63.730907 30.29964 9.67613
65.78091 29.58064 11.021131
68.282906 38.54964 6.8691306
67.16591 40.192642 7.6331306
52.239906 37.58664 3.5331306
53.17391 35.99464 3.1601334
45.94491 31.02264 7.232132
44.757908 31.68264 9.419133
68.059906 30.89364 34.25613
