40.297585 68.37243 14.938001
40.573578 70.45743 13.94
49.66958 71.49343 10.074997
51.065582 72.270424 8.040997
18.599586 95.23143 31.248
20.437584 95.42043 32.628002
29.925583 96.85043 31.758
31.789581 96.03543 32.408
10.053581 106.724434 27.785
12.742584 106.03843 27.529999
19.559586 5.2734375 22.351
17.970581 6.9664383 22.607
16.981583 3.0004349 11.810998
16.020584 4.7754364 11.807
9.883583 106.16143 19.169998
8.504585 106.40843 17.98
9.768585 104.95443 23.664
8.154587 104.957436 22.146
0.83058167 102.38043 26.439
0.7435837 102.21944 28.816
16.472588 21.468428 26.272999
16.155586 23.616426 25.314
22.255585 30.510427 20.284
21.718582 31.909428 21.429
2.7885818 64.21943 19.193996
2.522583 62.852425 16.969997
10.389587 66.59243 13.634999
11.194588 68.37543 14.810998
25.26258 55.795425 28.595
25.190582 53.399426 28.333
18.236588 47.278427 31.181
16.372581 48.42243 32.443
7.232582 51.406425 12.866998
8.064583 49.611427 13.447999
18.270584 50.162426 10.808999
19.794586 51.40143 12.342
63.63658 65.02843 33.822
64.12158 63.581425 35.362
56.44258 57.099426 33.376
57.33658 55.144424 34.352
71.66158 75.27043 33.510002
71.644585 72.95943 35.377
63.852585 68.43943 34.326
64.226585 68.588425 36.298
68.812584 38.689426 7.1109962
68.35859 40.85943 7.674999
6.0665817 43.801426 6.100998
7.1305847 44.078426 4.407997
29.220581 49.964428 37.046
27.342583 51.423428 36.73
17.563583 49.251427 39.024002
18.021584 48.720425 40.848
6.0285873 44.925426 0.83799744
6.223587 46.791428 40.305
15.350586 49.493427 1.0589981
15.362587 49.583427 3.5109978
37.087578 87.651436 30.747
36.41958 85.14843 30.755999
27.158585 84.09543 34.37
25.071579 84.63443 34.659
50.255585 10.269432 29.279999
49.338585 12.422428 28.574
56.35958 17.15343 23.048
54.79058 18.86243 23.359
62.96058 85.486435 20.74
62.309578 85.22643 22.710001
53.546577 80.13343 24.412
53.02758 81.21743 22.673
52.98758 45.465427 16.018997
52.23358 43.351425 14.505998
47.797585 35.88743 17.085
46.037582 36.58743 18.655998
51.44158 61.302425 30.833
51.065582 63.027424 30.060999
60.408577 64.49643 26.039
60.451576 63.051426 24.527
4.1965866 18.01743 36.302002
5.8795853 17.33543 35.77
13.827583 20.187435 32.578
14.484581 21.072428 30.356998
43.95758 105.984436 6.2699966
43.495583 0.05343628 7.869999
34.16958 106.10743 9.594997
32.94758 106.182434 8.081997
8.570587 40.807426 0.86800003
7.4995804 38.667427 0.53499985
72.47259 36.74643 5.741997
71.70559 34.55343 5.8379974
18.946587 55.763424 11.967
20.294586 54.595425 12.704999
28.358582 59.257427 9.075996
28.91558 58.655426 6.7839966
44.42958 52.189426 38.338
46.04058 50.982426 39.8
55.34558 53.612427 36.459
56.218582 55.298424 37.669003
61.895584 4.1814346 11.033998
63.947586 4.772438 10.732999
71.44059 10.278435 11.252
72.12759 11.267429 9.927998
29.492584 23.019426 34.705
27.121582 23.114428 33.236
18.659584 20.856426 37.454002
18.803581 19.380426 39.403
38.964584 6.6974335 36.819
38.520584 6.750435 38.773003
29.547585 4.5114365 0.60499954
29.816582 2.7044373 0.9939995
16.149582 93.25643 24.371
15.541588 93.17343 26.089
7.407585 88.529434 28.366999
6.718582 86.99243 26.245
1.0035858 78.31243 37.7
0.7175827 76.31443 38.493
64.22159 75.51743 0.41999817
63.473583 74.13343 2.468998
26.479584 80.58243 31.538
25.240585 82.09443 30.651
32.435577 86.30244 25.01
34.383583 87.73043 24.585
34.786583 95.06744 31.928999
36.13758 94.890434 33.73
43.274582 99.98043 31.880999
44.30258 101.41943 33.268
18.970581 86.94943 24.084
18.839584 85.11943 25.117
11.250587 80.89443 24.077
10.86058 79.14543 24.979
28.204582 68.644424 19.954998
30.379578 67.837425 20.142998
36.82058 73.12443 13.908998
36.424583 72.364426 11.382997
57.44558 91.959435 8.951996
59.11058 92.96843 10.289998
65.62858 99.72743 8.725998
64.58558 101.389435 9.625996
0.77758026 51.311428 1.5499992
71.62559 51.348427 0.31100082
63.561584 47.245426 2.2039986
62.749584 49.03343 2.7879982
36.629578 56.237427 19.650997
38.299583 56.962425 20.792
46.02858 60.164425 18.251
47.698578 58.550426 17.459
35.06658 37.493427 23.614
36.661583 37.439426 25.204
44.077583 41.37743 26.121
45.531578 40.626427 27.534
63.769585 99.11743 1.9029961
65.326584 98.890434 0.59199905
71.25259 102.63243 36.364
72.617584 101.79443 34.615
62.398582 1.2824326 3.9579964
60.797577 1.8674393 2.3589973
67.17559 5.951439 37.438
67.70759 7.9214325 38.038002
39.340584 12.845432 7.949997
37.73558 11.915432 6.609997
27.37558 11.435429 8.531998
27.953583 11.754429 10.535996
38.284584 32.278427 25.655
39.61458 31.348427 26.699999
49.15058 33.140427 28.218
49.116585 35.48943 27.125
40.924583 47.084427 16.071999
40.49858 48.481426 14.218999
49.467583 52.129425 14.614999
51.212578 51.17943 14.362
42.422585 0.43143463 29.432999
44.68358 106.60343 28.855999
53.509583 0.20043945 30.552
54.54458 1.7134323 29.119
24.231583 95.13043 7.2599983
25.280579 95.79943 5.7109985
32.96958 101.18743 6.324997
33.86358 102.862434 7.419998
6.154587 92.67343 39.547
4.9205856 92.417435 37.178
70.01059 88.91143 40.642002
69.89059 87.90843 1.4449959
23.547585 37.896427 3.9439964
21.65158 38.77443 2.7559967
16.070587 31.797426 3.3889961
13.819588 30.767427 2.577999
56.032578 88.63443 0.31900024
57.214584 86.67744 0.45399857
65.65258 89.624435 36.39
66.28658 87.40943 36.598
38.823578 36.63543 35.361
39.80458 37.40043 37.538002
48.548584 40.19743 32.36
48.66558 41.26243 30.616
6.376587 50.724426 15.53
4.0375824 51.835426 15.868001
72.18858 41.939426 15.952001
69.83259 42.396427 16.150997
5.0025864 23.527428 3.6099968
5.93058 22.248426 1.3939972
12.130585 25.031427 36.044
12.455582 23.336428 34.742
39.62558 93.07843 8.628998
39.424583 91.55843 6.8689957
30.984581 90.77243 12.092999
29.95758 89.86643 10.143997
67.920586 37.077427 35.173
66.02658 36.90043 36.959
57.84958 33.786427 40.132
56.27758 34.81543 39.754
27.581581 38.99543 7.996998
27.711578 36.65143 8.191998
17.476585 34.45643 10.055996
15.716583 34.111427 8.627998
8.713585 28.323427 20.848999
8.0095825 28.925426 19.047997
12.407585 37.48143 14.648999
14.567581 35.957428 13.752
48.425583 15.14143 37.59
49.186584 15.116428 35.686
58.69558 17.671429 33.416
59.19258 18.581432 31.675
13.456581 24.212427 29.16
15.086586 23.109426 28.514
22.809586 29.905426 28.032999
22.788582 32.10143 28.130999
29.377579 99.10643 29.035
29.384583 100.347435 27.512
38.82158 102.67643 26.146
39.72458 102.432434 23.807
65.77958 59.247425 33.407
64.24958 60.944424 34.03
59.01558 54.054424 37.996002
58.158577 51.622425 37.041
63.429585 34.273426 23.47
64.685585 33.44243 24.844
71.08459 40.09443 20.534
72.75159 38.77543 20.534
69.156586 11.832432 6.3709984
70.572586 13.782429 6.5179977
4.5355835 19.509434 1.1650009
5.984581 19.496433 2.9469986
35.08358 67.82043 33.206
34.632584 67.478424 30.807
41.57158 75.71543 27.581
41.12858 76.20343 25.518
1.8895798 90.28843 18.124
72.51259 91.31644 19.15
64.784584 86.94843 22.161
63.419586 88.181435 23.811
21.609581 76.56743 10.403996
19.321587 77.223434 10.863
11.011581 71.683426 9.275997
9.693581 73.16043 7.926998
28.817581 0.25743866 1.843998
26.80658 1.0304337 2.4729958
20.353584 102.87143 5.0239983
19.611588 102.34444 6.930996
3.7405853 72.850426 38.260002
3.3065872 74.07642 40.244
71.449585 69.48043 7.6589966
71.367584 67.37343 7.5979958
67.63859 14.703434 2.7499962
68.450584 16.22543 0.61999893
5.0355835 16.206432 40.564
5.7575836 16.020435 38.533
45.657578 51.653427 1.3879967
44.89158 53.324425 0.33399963
55.007584 58.134426 0.5039978
54.15058 59.261425 40.097
42.76758 8.268433 8.332996
40.992584 9.185432 7.1239967
46.20658 14.398434 2.2529984
47.992584 15.324429 1.2840004
4.6365814 98.34043 1.5399971
4.6645813 100.581436 0.7840004
10.511581 104.86743 34.855
12.949585 103.74343 34.263
5.4325867 14.82243 32.157
5.725586 14.124432 30.069
14.805588 15.968433 26.401
15.702583 18.435429 26.219
9.699585 42.409428 4.438999
10.51358 41.12043 2.8919983
16.496582 46.662426 39.448
17.135582 45.590427 37.125
9.186584 52.025425 20.005997
10.791588 53.497425 18.543
16.268585 56.393425 11.592
15.776581 55.500427 9.578999
25.408585 28.318426 28.504
26.742584 28.418427 27.093
34.51758 33.681427 26.723
34.923584 32.95543 24.632
16.808586 103.85543 0.56900024
17.450584 102.60743 1.8699989
28.462578 104.848434 0.5639992
28.02658 0.017433167 40.297
51.282578 29.513428 21.499
52.295578 27.251427 21.841
61.97258 32.257427 24.398
62.532578 29.998426 23.875
43.521584 55.627426 40.606
42.25258 53.760426 40.48
34.273582 49.996426 3.7859955
31.753578 49.90843 3.1499977
5.7835846 29.975428 17.295998
3.600586 30.406427 15.820001
68.339584 26.808428 20.078
67.21959 25.535427 18.275997
4.449585 0.16443634 16.579998
5.7905807 104.96343 16.467999
68.94059 103.99143 18.336998
68.614586 102.890434 20.202
56.976578 28.371428 40.772
55.23958 28.184427 39.576
50.385582 19.350428 2.848999
51.549583 17.994427 4.0319977
3.645584 86.06443 21.669
2.751587 87.89743 20.848
66.20258 85.02143 23.141
64.406586 84.56443 24.723
52.199585 11.051437 39.594
53.103584 10.948433 0.41399765
61.65358 16.90443 37.716
60.95658 17.172428 35.878002
69.00159 9.077438 0.05199814
69.32858 11.060432 1.2439995
5.322586 13.271435 0.94400024
5.673584 15.039433 2.2059975
61.232582 64.770424 19.066998
60.619576 65.893425 20.648998
67.27359 71.519424 15.815
68.55059 72.36143 17.71
45.55258 71.325424 28.834
45.26458 70.99343 26.949999
38.006584 65.30143 26.279999
38.019585 62.773426 26.231
53.852585 32.59343 36.106
52.89058 31.040426 34.758
47.356583 26.837427 1.0489998
45.66658 27.476427 0.5089989
3.147583 106.22743 3.7209969
2.6795807 1.5254364 3.2529984
12.218582 5.460434 0.19199753
12.435585 6.0604324 2.289997
38.841583 102.62943 18.016
37.537582 102.460434 20.157
32.83658 94.222435 23.915
30.77958 94.84043 25.639
27.019585 22.328432 29.128
27.391579 20.542429 29.717999
18.996582 16.857433 34.891
20.162582 16.235432 36.239
16.333588 89.43843 11.8
17.546585 87.831436 11.533998
23.630585 91.27343 4.9089966
25.645584 91.40743 5.3729973
32.61158 42.479427 20.186996
33.783585 40.382427 20.077
43.15458 37.97543 21.691998
44.02858 40.083427 22.244999
50.51158 85.54643 27.149
49.97358 87.31243 28.049
57.563576 93.27143 22.545
58.76358 93.291435 24.348
22.146584 99.848434 12.348001
21.786583 101.77343 10.918
29.11058 0.6564331 11.935998
29.57058 1.9624329 12.748998
18.825584 99.94043 7.0239983
19.40258 100.00943 8.856998
11.834587 98.10844 14.452001
10.101585 99.28643 14.913999
25.384583 33.493427 27.314
25.077583 32.537426 29.637
32.80758 38.765427 29.275
34.48658 40.42743 30.965
71.54958 1.4654388 1.4639969
72.48158 1.524437 3.5109978
66.20258 100.181435 6.215996
64.88358 101.529434 6.8079987
0.2515869 89.11743 12.4609995
71.30559 87.47843 11.804997
62.423584 89.90044 17.571
62.440586 89.10543 19.356998
70.742584 70.683426 20.597
69.130585 71.89843 20.399
61.894577 66.43143 24.899
59.95758 67.74743 24.113
27.539581 76.945435 28.397
26.753578 78.41443 26.82
36.240578 80.14843 24.175
35.962578 79.33343 22.482
30.002579 7.0684357 9.081997
31.409584 7.9834366 10.731999
40.79258 10.367439 9.526997
42.04458 8.953438 10.866998
13.158585 85.460434 38.889
14.329582 84.85743 36.847
22.87458 88.90543 38.403
22.577583 90.01843 36.32
44.40558 104.859436 1.276001
46.41358 105.14843 1.9919968
53.119583 4.128433 38.448
55.37758 3.3964386 38.554
36.70958 24.402428 23.476
34.99858 26.386427 22.452
27.914581 20.075426 24.813
27.817581 21.205427 26.48
35.740578 84.90543 27.921999
37.52658 87.123436 27.966
47.05658 88.38043 28.495998
47.701584 88.443436 26.514
52.73358 76.74743 14.414998
54.21058 74.91243 13.919999
62.726578 75.67743 8.640999
63.188576 77.57643 7.609997
60.824577 89.722435 13.979001
60.12258 89.16143 16.225998
53.59458 82.87743 20.258999
52.704582 81.78843 18.321999
13.478584 54.989426 5.246998
12.336586 56.234425 6.2719955
5.376587 52.418427 10.312997
3.9035873 54.224426 10.769998
34.44258 95.85043 37.293
32.72158 97.42844 38.734
24.98658 90.65044 39.466
25.634583 89.37043 38.215
44.425583 89.24043 9.739998
43.58358 91.48143 9.203999
50.83158 96.22743 7.912998
50.532578 97.58943 6.256996
30.877579 25.702427 40.894
31.025581 23.364428 1.409996
23.928581 19.220427 5.503998
23.006584 19.694427 7.308998
47.175583 17.19743 36.268
47.51358 17.791431 33.821
54.94458 23.630426 31.018
57.226578 22.88943 31.201
2.0655823 36.47743 21.369999
2.1585846 38.02543 19.392998
11.455582 41.26143 19.248997
12.803581 41.67743 17.674
54.10958 90.18343 2.1799965
52.967583 91.24343 0.47999954
59.80558 98.01043 37.342
61.29258 96.89943 35.864
32.101578 77.80143 0.73400116
30.215584 76.89443 0.11600113
29.619583 82.47943 4.7549973
30.726578 83.02743 6.631996
15.398582 84.487434 2.2879982
16.423584 83.56143 0.54299927
24.477585 90.474434 1.125
25.442581 89.890434 2.8539963
36.09458 96.248436 39.204002
34.74858 96.29643 40.835
27.32058 90.60243 0.86100006
27.22158 88.37743 40.361
13.728584 54.515427 33.117
15.1225815 52.391426 32.913002
22.008583 59.208424 30.018
21.681587 60.134426 28.449999
41.58558 23.009426 24.713
40.073578 24.799427 23.763
49.813583 27.830427 20.016
48.603584 29.125427 18.069
35.38658 102.526436 11.831998
36.20858 104.514435 11.2909975
37.54358 98.373436 5.732998
35.52858 98.793434 5.0079956
16.282585 8.696434 13.877
15.629585 10.973434 13.931001
24.856583 15.29443 11.848001
24.205582 16.796429 14.037999
29.297585 105.63143 38.008
30.90158 104.62043 37.793
40.50358 106.53743 37.361
40.55358 1.3134384 35.833
24.77958 60.278427 31.587
24.238579 60.521427 29.286
33.005585 64.17443 29.07
34.15458 63.577427 27.378
12.795586 50.870426 33.876
11.514587 53.326424 34.287
1.5325851 50.814426 34.268
72.47359 48.844425 34.913002
18.715584 91.30344 27.285
18.270584 93.22943 26.154
25.26358 100.22943 26.186
26.036583 99.65743 24.609
70.34459 53.571426 32.771
69.839584 51.643425 31.328999
61.898582 48.491425 37.776
60.202576 47.181427 36.47
23.906586 25.137426 15.155999
25.062584 23.712427 16.382
32.11158 23.970427 9.663998
32.29358 25.717426 9.128998
48.045578 33.743427 19.406998
49.563583 35.53343 19.341
57.33658 39.43443 19.039997
57.90558 40.416428 20.342999
53.740578 27.210426 30.813
53.176582 25.361427 31.077
45.393578 21.581427 31.921
44.315582 19.894426 30.765999
40.492584 19.119434 18.053997
41.25058 17.22443 18.295998
50.43058 21.488428 17.059998
51.08658 22.366426 15.303998
18.270584 28.737427 9.602997
20.22158 28.763428 10.447
28.066582 31.242426 6.1119957
29.788582 33.500427 6.734997
64.42959 20.975428 5.027996
65.83359 20.896427 3.4799957
70.88258 29.407427 3.6919975
72.686584 30.476427 4.937996
11.854584 88.28243 1.9179993
12.299583 89.265434 0.29499817
20.399582 93.11443 38.58
21.600586 91.78944 38.042
1.1905823 66.08143 7.501999
1.1365814 65.09143 5.155998
8.903587 64.19243 39.97
10.275581 63.764427 0.82899857
9.385582 85.10143 37.181
7.9975815 83.85143 37.137
0.8155823 79.848434 0.077999115
0.3025818 81.54643 1.1559982
62.44458 70.99843 2.5259972
63.200577 69.48843 3.7349968
55.827583 65.614426 8.600998
56.20558 66.21743 10.405999
46.80458 47.369427 35.357
46.41558 49.181427 34.242
53.866585 56.059425 32.593
53.63858 57.330425 34.051
2.899582 17.199429 32.602
2.6465836 15.745434 34.757
65.004585 16.19843 36.647
65.06659 15.726429 38.982002
57.647583 86.06543 4.484997
57.03958 87.59043 3.1489983
62.41758 94.50243 38.802002
64.29558 93.26144 38.636
18.606583 70.36243 35.871
17.497581 71.34343 37.45
8.669586 67.59643 39.988
6.7805862 67.42443 38.834
17.743584 77.89143 1.8519974
16.280586 78.63443 1.0169983
10.411583 69.61243 4.928997
8.018585 69.98143 4.1139984
26.533585 25.703426 33.215
25.503578 26.567427 31.066
15.704582 22.483427 34.266
14.272583 23.477427 32.756
25.646584 39.82243 3.305996
23.45858 40.70443 2.3219986
31.478584 45.620426 37.109
30.630585 44.845425 35.597
15.754585 79.85443 39.022
17.334587 78.28443 38.787003
24.210579 80.89443 32.948
26.062584 79.28943 33.94
22.690582 49.502426 18.638
21.37358 51.334427 18.591
14.244583 46.078426 23.435
13.037582 47.406425 22.088
57.688576 34.42843 8.450996
57.785576 36.44043 9.593998
64.71358 41.41343 5.378998
66.55159 42.14443 6.053997
57.783577 46.78343 30.671
59.324577 46.861427 31.810999
52.81758 40.56043 35.403
53.106583 39.44843 33.285
17.750587 44.912426 33.548
17.630585 43.752426 35.425
8.133583 41.404427 37.642002
8.536583 39.27643 38.883
0.79958344 58.717426 3.8399963
0.87958527 59.943424 5.638996
10.019585 63.814426 4.331997
11.163582 64.52643 6.334999
29.991585 29.318426 5.2339973
29.892578 27.510427 6.511997
21.900581 23.155426 9.894997
20.654587 24.646427 9.279999
46.379578 38.53343 22.292
47.14158 40.278427 22.703001
56.03058 41.722427 22.096
56.579582 43.972427 21.473
72.115585 93.96843 22.505001
70.98359 93.86843 20.255
61.493584 91.32743 25.427
60.718586 93.16243 25.989
35.800583 13.144428 3.5449982
33.579582 14.639431 3.3779984
25.91758 8.178436 4.1939964
25.192581 8.913437 2.2359962
45.047585 9.803436 18.641998
43.283585 10.415436 19.403
35.07258 4.9214325 19.185997
32.731583 4.9524384 19.725998
18.99858 61.005424 24.134
16.905586 61.589424 24.227
10.574585 53.868427 26.719
9.399582 55.687424 26.017
65.71059 64.44243 1.5579987
66.60558 62.597424 3.322998
70.07059 56.877426 40.283
71.13459 58.834427 0.11100006
70.95459 56.974426 33.47
68.463585 58.544426 32.724
2.6775818 62.416424 26.501
4.9175873 63.085426 27.837
30.794579 66.94043 23.073
31.230583 66.66643 25.419
23.075584 60.027424 24.802
22.336578 58.332424 26.088
23.196579 103.71543 26.364
23.718582 102.18943 25.039
17.335587 95.71343 26.168
15.425583 95.10143 27.928999
44.85958 35.88543 14.359998
44.315582 37.110428 16.285
36.785583 32.457428 20.054996
37.107582 31.536427 22.088997
19.412582 81.59543 9.990997
17.80458 80.02743 8.812996
8.501587 78.26943 11.697
8.70858 76.42243 11.291997
12.377586 44.851425 14.307
12.484581 43.772427 12.509
20.733582 46.937428 7.699997
21.13758 44.935425 8.442997
51.396584 23.811426 12.785001
53.13858 24.410427 14.722001
60.963577 27.068426 9.567997
61.327576 25.903427 7.923996
10.336586 21.821426 20.403
10.977585 21.872427 22.29
1.7215805 19.360428 24.415
0.71858215 19.348427 26.198
49.467583 34.106426 23.638
51.40058 33.32443 24.136
59.25058 39.45643 25.338
59.952576 41.81043 25.75
23.171585 64.66543 3.468998
23.267586 62.516426 3.5599976
17.071587 59.156425 11.028996
15.949585 58.285427 9.358997
44.685577 5.833435 14.043
45.868584 4.2214355 13.903001
54.97458 7.3934326 12.314
56.65358 8.734436 11.488
27.354584 14.64143 16.494999
26.88958 12.595432 17.577
19.19358 7.119438 20.109997
18.556587 6.9784393 18.029
62.006584 42.723427 34.927002
61.984585 44.628426 35.384
71.322586 45.79743 34.034
71.95258 46.001427 31.89
67.12259 57.442425 28.23
66.55759 59.642426 27.667
1.984581 62.112427 23.809
2.2685852 63.657425 22.829
55.77758 49.90143 27.036999
54.34658 50.285427 28.355
51.232582 42.01043 33.516
51.104584 40.64343 31.564999
30.035583 3.1794357 10.360997
28.968582 4.6664352 9.522999
20.566582 0.29743195 11.102998
18.835587 1.6564331 10.283998
13.646584 74.78843 25.354
14.205582 75.20943 27.484
20.576584 82.87743 26.102
21.935585 82.89343 23.974
2.7715836 44.340427 35.112
4.643585 44.251427 33.43
9.935585 51.539425 28.237999
10.495583 53.064426 29.814
38.75158 24.482428 19.594997
39.185577 22.445427 18.711998
49.312584 24.636427 15.743001
50.938583 25.931427 16.671997
29.867584 26.560427 38.031002
31.219582 26.245426 36.142002
38.77958 31.976427 34.25
38.30758 33.99043 35.133
44.69358 98.87743 28.974998
44.299583 97.92143 30.719
41.992584 102.653435 28.893
41.702583 104.570435 30.435999
30.59858 6.627434 17.984997
28.644585 7.1794357 17.272
22.54158 105.708435 18.23
23.037582 103.56043 19.147
16.016586 41.867428 26.962
17.694588 43.425426 26.271
24.36258 46.17943 21.497
25.385582 44.500427 22.532
49.546577 93.721436 32.773
51.54458 94.10143 34.417
58.81658 98.08843 32.035
57.742577 99.445435 30.47
18.478584 26.663427 8.030998
16.055588 27.103428 7.5969963
12.980583 19.715427 13.252999
10.737587 19.200426 13.134
66.32859 83.09743 21.327
66.91659 80.95443 22.158
57.76758 77.28443 26.688
57.573578 77.417435 28.931
47.201584 62.477425 25.059
47.814583 61.604424 27.43
40.47058 57.564426 31.069
38.76658 56.852425 30.026999
14.978584 66.03543 13.78
14.116585 67.16343 11.498998
20.631584 73.84443 14.098001
22.522583 72.80443 14.03
11.456581 37.14943 5.343998
10.028587 36.313427 3.9889984
1.7015839 31.689426 7.579998
1.1925812 32.201427 9.771996
20.160583 71.100426 38.862
22.029587 71.56543 39.231
28.961578 74.22443 33.614
29.988579 72.45142 33.205
12.456581 61.279427 7.105999
14.692581 59.805424 7.1869965
21.504585 67.43243 4.9259987
21.591583 69.33543 3.6209984
26.038582 44.198425 20.007
25.382584 43.335426 18.170998
16.938583 38.146427 18.085
17.202583 36.321426 19.268997
7.959587 44.384426 9.826996
10.542587 44.263428 9.871998
15.104584 51.819427 7.7289963
17.050583 50.572426 7.907997
9.600586 62.843426 37.685
10.978584 62.147427 39.418
20.441582 65.879425 35.524002
21.730583 66.894424 36.506
67.64959 92.44743 8.799999
67.41859 90.805435 7.449997
65.25858 95.79943 2.0429993
66.37559 94.137436 2.4159966
67.072586 37.450428 4.6829987
66.13158 39.01143 5.652996
59.435577 32.687428 9.3429985
58.23358 30.919426 8.776997
67.48259 70.09143 6.6989975
65.42058 70.80643 6.5719986
58.522583 65.016426 10.766999
58.185577 62.691425 11.0409975
62.274586 12.535435 24.41
62.717587 11.694431 22.256
70.76059 16.37643 20.045
71.36958 16.68443 18.091
53.69458 0.44643402 24.338
54.48458 1.2024384 26.518
62.315582 7.272438 24.529
63.158577 9.212433 23.166
63.547577 12.430431 32.315
62.69258 13.395435 34.475
53.827583 10.280434 37.428
51.29258 10.557434 36.997
36.28058 80.93943 18.588997
37.05258 79.70143 19.733997
45.57258 84.876434 15.320001
47.06758 85.069435 16.967
32.94158 37.19043 13.981
30.839584 37.83643 14.264001
36.772583 44.100426 13.229001
38.67858 44.719425 14.672997
55.76158 81.98143 37.101
56.83658 80.56543 38.317
66.37159 84.554436 38.039
66.188576 84.23443 35.97
63.703583 62.206425 31.078999
65.047585 63.518425 32.219
70.80459 67.05043 26.636
0.29958344 68.006424 26.956999
8.26358 52.761425 26.048
9.646584 50.666428 25.715
0.47958374 47.91543 25.18
72.740585 46.02643 24.161
47.476578 45.236427 32.641
47.009583 47.313427 32.118
53.589584 52.961426 28.062
53.13658 55.361427 28.019
67.48058 19.311436 8.480999
65.73758 19.296429 7.251999
59.09558 13.94643 12.063001
56.94758 13.205433 11.739999
8.104584 63.223427 35.319
10.406586 63.763424 34.306
14.687584 69.99743 32.45
15.712585 71.54943 33.41
25.507584 69.46643 9.002998
25.272583 71.33443 7.931999
34.283585 74.00843 4.352997
33.56658 73.74743 2.666996
46.562584 48.079426 40.832
45.481583 46.437428 0.91600037
36.93358 42.55843 0.34999847
37.08258 40.72443 1.3260002
37.00258 22.105433 16.776997
38.367584 20.473429 16.616997
30.226578 13.721432 20.272
29.258583 14.545429 18.584
7.5395813 39.596428 33.556
6.3825836 40.91943 31.831
13.742584 45.912426 28.952
14.816582 46.766426 30.616
66.90459 3.326439 29.265999
67.225586 5.4574356 28.403
4.9265823 7.003433 31.220999
4.607582 7.7754364 33.014
34.742584 38.354427 26.691
35.423584 39.08743 28.49
43.46158 43.221428 27.962
45.17958 43.098427 29.47
28.97358 44.645428 31.57
26.803581 46.082428 30.901
22.548584 40.028427 36.241
22.395584 38.436428 38.721
69.60458 91.625435 4.5949974
69.99558 91.70443 6.558998
2.9135818 98.85844 3.6749992
4.657585 100.18543 5.225998
66.947586 87.209435 33.81
67.614586 86.958435 31.942
0.8705826 94.42043 31.65
1.949585 95.01643 29.487
42.337578 6.5864334 12.422997
41.518578 5.873436 14.663999
33.535583 106.08743 12.342999
31.246582 0.032432556 13.560998
12.236588 25.679426 25.877
11.781586 26.157427 23.613
18.183586 32.35743 19.865
18.474586 31.580427 18.069
61.644585 100.85143 36.984
62.385586 99.38043 35.18
71.78658 102.03243 30.896
70.76259 103.043434 29.612
37.05858 3.1924362 26.807999
37.093582 4.732437 27.916
29.105583 0.66043854 34.047
27.274582 0.8544388 33.836
0.22958374 38.28843 7.7789955
1.0335846 36.12943 8.664997
8.401581 41.74843 9.206997
8.397583 42.104427 6.741997
14.737587 33.939426 6.1139984
14.473587 33.861427 3.409996
20.033585 39.12943 40.607002
21.961586 40.55843 40.373
51.436584 20.15543 11.678998
51.45958 17.94843 12.672997
41.091583 16.076435 13.693997
39.18158 17.66943 14.065
63.460583 0.55443573 13.711999
63.513584 2.3104324 11.826001
0.9455795 4.845436 10.352998
1.5255814 3.1084366 11.877999
13.651581 83.95543 40.853
13.862587 81.86943 39.815002
5.7935867 77.06543 1.2299995
5.935585 76.32343 3.0379982
57.13758 18.842426 18.07
59.200577 19.763428 18.196
63.894577 25.159428 17.447998
65.12558 27.474426 17.967999
24.426582 42.708427 14.261998
23.664581 40.528427 14.857999
13.741585 42.612427 15.057
14.199585 40.64943 15.676
33.883583 82.42943 14.403001
34.82258 81.19943 15.679997
42.745583 87.418434 10.916997
43.420578 88.318436 12.745999
12.544586 15.2134285 7.378998
12.882584 16.387432 9.185997
21.122581 21.381433 8.133999
20.574585 22.839434 6.270996
26.600578 97.180435 17.681
25.939583 97.75543 19.515999
18.323586 89.94843 21.502998
16.635582 90.91143 20.470997
44.632584 59.496426 13.696
42.35058 59.850426 13.590001
35.79258 54.217426 17.161999
35.43358 52.515427 16.106998
39.547585 46.234425 12.143998
38.397583 48.266426 12.440999
45.67958 51.857426 7.874996
45.24758 52.931427 5.4609985
54.841583 84.56043 38.022
54.15058 82.81243 39.083
44.16958 80.72943 38.423
45.050583 79.31243 39.805
63.587585 17.245434 1.1749992
65.94659 17.05943 0.57899857
1.2795868 20.909433 38.292
3.2825851 19.096432 38.592
70.031586 24.228428 29.814
69.02659 26.345427 30.619999
59.729576 21.478428 31.359999
59.90458 20.728428 33.218
33.286583 103.44743 12.717999
31.831581 104.31644 14.826001
24.850586 98.44244 16.148998
23.287582 98.38543 14.976998
65.98558 13.106434 1.6189957
64.57258 14.125431 2.7269974
55.561584 11.385433 5.614998
54.175583 11.843433 3.8739967
58.47058 73.93043 34.164
57.91858 75.62943 32.934002
64.49558 81.861435 29.491999
64.924576 81.52343 27.362
9.317581 94.44743 11.789998
10.440582 92.679436 12.772
4.058586 85.83643 12.973001
3.3165817 85.499435 14.987
25.48658 15.356434 9.363998
25.619583 15.03043 7.3569984
33.254578 19.986431 2.9139977
33.257584 19.32243 0.3239975
65.49658 9.877434 33.307
64.26358 10.222435 34.641
55.063583 6.0154343 36.583
54.50158 3.9414368 36.041
52.534584 38.35843 39.948
54.36258 37.12143 38.799
62.852577 41.69843 39.494
65.10958 40.58743 39.87
29.452583 73.20243 28.807999
29.86258 73.85743 30.535
39.76658 78.71943 27.114
38.47458 80.37143 27.946
68.909584 84.34643 38.334
71.353584 83.612434 38.8
7.751587 86.18943 35.376
7.09758 88.32543 35.775
7.33358 56.743427 19.524998
9.396584 56.510426 18.879997
15.086586 62.092426 22.193996
15.99958 63.174427 19.942997
17.982582 77.196434 5.0949974
19.907585 77.29543 3.2209969
25.799583 80.92643 40.327
27.642578 80.49943 39.976
34.172585 7.755432 25.493
31.950584 7.5414352 24.395
26.824585 0.5344391 29.171999
25.186584 0.6594391 28.060999
47.184578 40.20543 20.129997
45.90058 42.696426 20.157997
51.256584 48.752426 16.148998
50.675583 51.123425 17.011997
9.257584 104.20043 16.056
10.371582 101.96143 14.78
17.474586 105.15743 10.017998
19.372581 104.221436 9.621998
68.77459 49.730427 29.112
67.08559 51.287426 29.969
59.426582 47.477425 28.605
58.52758 45.255424 27.888
52.936584 85.56343 31.373
53.686584 83.75943 30.001
58.94458 91.52243 28.688
61.62758 91.710434 28.015999
22.071587 75.74343 13.037
21.578583 77.75743 12.876
31.574585 77.74443 11.1919985
33.65358 78.61543 11.132997
15.831581 35.56543 17.190998
16.329582 37.13543 15.662999
24.076584 40.618427 11.942998
24.308578 41.17643 9.814999
5.3015823 102.012436 7.374996
5.317581 102.264435 9.658997
70.407585 97.54743 11.646001
70.46959 95.360435 12.023
0.737587 98.57343 25.995
1.060585 99.596436 28.233
11.2595825 101.62143 26.753
11.085587 103.61543 26.421
62.83058 1.3144379 8.319996
61.966576 3.5044327 8.382996
69.59859 3.9044342 3.152996
69.19659 4.0444336 0.4109993
34.02558 85.82943 22.192
35.41658 87.584435 21.158
44.75158 90.96643 23.84
45.66658 90.20443 22.019001
46.99858 17.26643 39.238
46.897583 14.987431 39.937
38.00058 13.590435 0.7630005
36.644585 11.951435 0.86100006
51.29058 14.239429 4.4649963
53.27758 14.199429 4.9189987
59.73358 20.545427 39.425
60.95758 21.172426 0.1590004
3.3545837 94.707436 33.139
3.9905853 94.33843 31.146
12.376587 101.38243 32.519
13.118584 100.53843 33.962
46.95858 99.22943 35.036
46.840584 100.14543 32.742
56.69758 102.333435 32.726
56.22258 104.23344 33.322
17.530586 102.32443 5.551998
15.911583 101.91343 4.3029976
9.682587 96.06143 9.056999
10.916588 94.55344 9.723999
43.93258 56.999424 7.9939957
41.25258 57.449425 7.739998
36.190582 50.204426 12.401998
34.090584 50.732426 11.078
56.90058 3.472435 1.2819977
57.02658 4.8934326 40.183002
57.53958 1.3544388 33.694
58.495583 105.87244 33.827
30.32058 55.532425 8.258999
28.70958 56.551426 9.4679985
22.684586 49.52643 14.114999
21.914581 49.878426 16.203999
35.534584 31.281427 27.088
36.119583 30.043427 25.554
26.962578 25.935427 28.253
27.88858 24.719427 29.868
19.574585 86.041435 18.001999
19.212585 87.834435 18.769997
28.446579 91.93343 15.106
29.517578 92.52343 17.230999
37.424583 69.62343 4.492996
40.240578 69.18043 5.0339966
47.70958 74.20643 1.5109978
46.449585 75.890434 2.1219978
33.406578 48.892426 6.8829956
31.51558 49.906425 6.147999
21.613586 45.706425 5.569996
22.24858 43.977425 4.1899986
33.54358 28.585426 16.295998
32.19158 30.266426 15.9419985
23.65158 26.661427 17.342999
22.323586 25.779427 18.932999
44.148582 39.73843 16.060997
43.479584 42.020428 15.856
50.551582 45.892426 11.071
51.607582 45.578426 13.099999
3.3085861 15.86343 28.646
2.5295868 15.817432 30.311998
66.46558 12.066433 34.765
65.420586 13.717434 35.389
27.687584 45.835426 23.098
27.57058 46.057426 21.215
34.020584 52.534424 18.65
35.06858 54.014427 20.158
30.830582 87.30043 19.698
30.199585 85.60844 18.99
23.978584 81.86043 25.525
22.86158 82.946434 27.271
44.673584 14.1034355 25.395
45.560577 16.134434 25.887
53.41458 20.03143 25.192
55.895584 20.70643 26.418
60.10958 50.300426 38.708
58.325577 48.92943 37.754
49.44758 45.964428 40.799
48.12258 46.79743 1.6869965
53.423584 13.895435 9.182999
51.770584 13.421429 7.6299973
46.060577 11.660435 14.759
45.23358 13.448429 13.294
71.074585 43.968426 22.015
71.20358 41.89943 22.328001
65.66459 36.619427 28.561998
66.09459 37.28143 30.897999
32.49858 54.318424 15.653001
32.09558 53.373425 13.794999
26.961578 48.567425 21.413998
24.794579 48.990425 20.355999
0.37358093 62.046425 2.0269966
0.70158386 59.934425 1.3889961
7.244583 60.843426 34.496
9.295586 59.542427 35.269
69.77258 69.16043 18.64
69.34959 69.408424 16.517998
63.115585 61.761425 21.355999
62.055584 63.697426 22.425
12.282585 106.60143 38.381
11.896584 0.7644348 40.088
4.088585 102.138435 39.302002
1.9215851 102.53143 39.27
27.469582 64.74743 14.904
25.69358 65.51443 16.258999
19.528587 61.244427 21.543
17.463585 60.906425 20.754997
55.159584 31.478426 32.315
57.23858 30.290426 32.324
63.143578 36.550426 28.421
63.24858 38.98943 27.851
59.70558 81.056435 7.077999
58.412582 82.61443 5.3899956
49.994583 79.13343 6.5619965
49.477585 77.56743 8.588997
13.718582 15.422428 19.646
15.532585 16.257435 20.383999
22.45758 23.37243 17.288998
23.562584 21.551432 16.252998
68.86958 62.798424 1.7639961
71.062584 63.431427 0.90999985
2.147583 66.66643 33.432
4.4975815 65.66443 33.625
56.491585 27.107428 31.526
57.94258 25.491426 32.255
65.98558 30.776426 30.241
67.643585 30.334427 31.396
34.675583 23.947428 13.570001
37.148582 23.148426 14.147
45.188583 28.712427 13.551
45.327583 28.261427 11.514001
24.505585 81.44943 19.881
22.530579 82.42643 19.388
29.688583 89.431435 20.973
29.182579 90.24543 19.129
14.750587 72.71743 29.797998
15.966583 71.02243 30.404
25.411583 72.907425 26.975
25.620583 71.94643 24.652
47.16558 69.63843 31.154999
48.259583 68.98843 33.153
55.399582 74.55643 32.117
56.55358 75.57843 30.609999
40.787582 4.760437 6.529999
41.23558 5.7734375 8.3239975
30.947578 4.2474365 12.604001
31.172585 5.623436 14.371999
55.80258 24.441427 28.469
56.93258 22.818426 28.630999
66.19158 26.849426 27.361
67.15259 27.147427 25.282
13.067581 36.279427 11.363
14.133583 36.096428 9.450996
21.744583 41.06043 5.154999
21.547585 42.640427 6.570999
0.71858215 29.371428 8.765999
1.9545822 28.054426 8.6609955
69.87759 19.171427 9.501999
69.05058 19.826427 11.551999
72.02459 92.916435 14.903001
0.36558533 93.15543 16.404999
7.4295807 96.38243 10.587998
7.9005814 98.34243 10.496999
45.268578 14.310429 21.634
46.76358 14.967434 22.960001
51.866585 21.626429 19.454
52.88658 20.770433 18.265
32.241585 93.67844 31.032999
31.39058 91.57643 32.461
22.728584 90.52243 33.21
23.359581 91.78443 34.322
20.378586 44.056427 35.471
19.125587 46.855427 34.87
27.868584 50.958427 33.93
28.405579 52.717426 34.091
43.899582 92.082436 6.5219955
42.910583 91.10844 4.7559967
51.940582 93.78743 1.3269997
51.16558 94.709435 3.4979973
71.82059 16.387432 22.884
72.65259 17.208431 24.797
63.429585 13.851429 28.182999
64.73058 13.374432 30.029
11.953583 49.495426 28.105
13.069588 51.103428 29.331
18.77758 56.522427 24.036
21.474586 56.049427 23.975
17.666588 49.086426 34.568
16.209587 50.728428 34.772
23.288582 58.167427 32.319
25.101585 57.742424 33.988
18.493584 42.40143 28.713999
18.253586 44.130424 30.855
27.439583 48.154427 28.171
28.16758 49.064426 30.224998
25.656578 58.132427 29.887999
26.91558 57.941425 28.022999
36.397583 57.497425 26.987
38.297585 58.417427 28.021
52.48658 63.580425 1.1019974
51.30758 62.663425 39.895
42.895584 60.696426 1.6219978
42.85858 58.559425 2.7729988
14.771584 20.205427 22.056
15.929581 20.078426 23.668
24.31958 22.408426 22.546
24.74958 24.596428 23.562
53.337578 100.34444 22.318
52.841583 102.53443 23.691
43.44658 100.598434 26.623
41.911583 101.932434 25.307
66.94059 16.985432 6.2299957
67.26359 17.255428 4.1429977
1.1165848 22.078432 0.78899765
2.9975815 22.170427 1.7499962
59.091576 73.34343 29.303
60.505577 74.40043 27.418
68.09058 75.45543 22.525
67.18858 77.69743 22.058
59.906578 4.5374374 6.5359955
58.57158 3.2044373 4.760998
50.51558 105.68543 9.390999
49.83258 103.748436 7.741997
9.022583 74.98443 16.835
8.715584 72.91043 15.969998
0.5815811 68.84943 18.314999
72.14758 70.02343 17.404999
15.689583 14.420429 22.396
13.914581 13.174435 21.526001
5.2695847 10.040436 26.307
6.704582 9.172432 28.088999
3.633583 80.33343 8.843998
3.720581 79.75843 10.717
68.39858 74.95543 13.751
66.77358 75.69743 15.618001
10.532585 22.508427 16.197998
9.423584 20.880426 15.201001
0.98358154 21.304426 22.709
72.49959 19.675426 21.363998
8.787582 44.727425 12.546998
6.44458 43.305428 11.611001
1.5815811 37.34943 17.003998
0.015586853 38.76843 16.858997
66.18259 50.669426 12.588998
65.58059 50.407425 10.212997
1.5655823 53.114426 5.4729958
2.1765823 55.606426 5.544998
50.86058 70.40443 2.3329964
49.59958 68.46643 2.230999
41.823578 67.62643 6.8479958
41.44658 68.23843 8.701996
51.76158 11.645435 2.9959984
52.227585 9.969437 4.140999
44.35858 5.252434 9.629997
43.451584 3.769432 8.089996
63.38658 103.40643 8.030998
61.743576 102.807434 6.7649956
55.811584 98.956436 15.260999
56.40158 96.83943 14.293
49.920578 87.78843 31.960999
50.48758 89.50943 33.43
59.869576 91.82343 31.154999
60.66958 94.01043 31.035
24.25158 11.666431 39.994
25.970581 11.86343 0.33499908
35.087578 14.134434 0.076999664
35.69458 15.232433 38.98
53.84758 45.068428 11.5669985
54.54458 46.457428 13.568997
63.69558 51.885426 12.647
63.51258 52.254425 9.972996
38.47358 22.821428 21.889
36.313583 23.256433 20.895
28.177582 19.00343 20.525
28.52858 16.52943 20.322
22.879585 35.396427 33.087
23.211578 37.08143 34.291
19.528587 39.62243 33.244
17.303581 40.83643 33.28
24.29258 70.49743 13.815999
23.468582 68.86943 14.939
17.863586 62.950424 14.514001
17.803581 61.730427 16.182
22.962585 71.12243 6.296997
22.331581 70.72443 8.419998
13.146584 67.934425 9.169998
12.676582 65.74343 8.325996
14.375587 92.24744 20.622
12.190582 91.71543 19.677
5.225586 89.75743 21.696
3.84758 89.903435 23.228
17.02758 12.069431 23.745
17.357582 13.674435 24.86
26.300583 17.538433 22.336
26.29258 19.706432 22.181
71.82959 22.689426 26.479
71.57159 25.164427 26.039
2.8965836 32.161427 20.219
1.5245819 34.31043 19.782
41.587578 46.693428 29.692
40.356583 47.890427 30.987
32.93058 42.55443 30.734
32.590584 42.743427 32.920002
11.843582 56.353424 32.659
10.368584 54.505424 32.265
0.6305847 52.966427 32.916
72.628586 54.565426 33.163002
63.71058 6.073433 20.842999
63.32158 5.7494354 18.884998
53.78058 2.3804321 17.800999
52.690582 1.8484344 19.348
70.83159 95.09143 16.279999
69.02359 96.49143 15.865998
60.45758 91.985435 21.453999
60.379578 90.79443 19.487999
28.19458 49.92943 25.443
27.439583 51.934425 24.477
33.27658 55.261425 18.23
34.01458 57.371426 17.972
25.420586 83.58843 39.789
26.379578 85.57343 40.62
18.492584 83.18543 7.4839973
19.148582 85.32543 8.602997
67.211586 100.50843 16.351997
68.87759 99.07343 16.906998
4.4415817 105.48143 14.102998
4.1185837 0.37643433 13.024999
55.204582 63.608425 5.996998
54.160583 65.85543 5.737999
62.05658 68.52743 1.3859978
61.843582 67.77343 40.219
24.937584 68.70443 17.216
23.909584 66.91843 17.636997
15.516586 65.13843 21.848
16.043587 64.16443 23.869999
4.0595856 74.66243 4.2559967
5.788582 73.058426 3.7599983
9.473587 70.226425 7.3309975
10.86058 68.641426 8.131996
51.48458 48.195427 9.709999
53.295578 48.368427 10.815
59.50058 50.845425 5.506996
60.379578 52.764427 5.369999
50.69658 8.025436 36.315
51.450584 6.163437 36.478
42.79058 1.9414368 40.669003
41.14258 3.1104355 39.785
27.217583 74.769424 29.821
25.244583 76.21443 30.525
17.806587 72.67342 34.705
16.717583 73.71643 36.262
16.933586 28.880426 5.5079956
17.856583 31.339426 5.607998
24.794579 35.94943 2.8599968
25.936584 36.485428 4.3639984
13.185585 23.675426 23.150997
14.878586 22.701427 22.807
21.036583 26.930428 16.342999
20.222588 29.008427 15.522
29.424583 69.464424 23.858
31.65358 69.48143 24.916
37.93158 74.825424 19.408
36.981583 76.03943 18.06
61.424576 102.361435 1.3009987
59.46058 103.75543 1.0389977
52.02658 96.82943 2.0899963
51.73558 98.40643 3.7959976
30.772583 55.446426 1.2739983
31.632584 53.600426 2.0229988
40.551582 59.811424 3.0439987
40.16358 60.232426 0.8540001
61.080585 69.142426 28.518
63.419586 68.86143 29.168999
69.76259 73.712425 28.810999
71.23058 72.367424 27.727999
62.200577 59.189426 22.74
62.715576 57.116425 22.513
53.825584 53.577427 25.314
54.26358 51.455425 25.749
53.25158 75.02343 16.786
51.717583 77.10943 16.864998
44.740578 70.29343 19.966
43.84958 72.435425 20.011997
23.663582 59.883427 2.4069977
24.286583 58.256424 1.0540009
17.900581 51.887424 3.7719955
16.170586 53.555424 4.7079964
72.70659 64.919426 18.391
0.13058472 62.329426 19.104
64.76159 59.200424 23.379
65.433586 58.187424 25.247
19.90258 74.214424 3.5159988
18.547585 74.27643 5.291996
11.414581 66.908424 4.4729958
10.334587 65.84943 2.6279984
31.025581 71.34343 35.628002
32.924583 70.115425 36.321
23.978584 66.921425 38.699
23.93058 69.018425 40.364002
33.494583 13.125431 34.177002
31.883583 12.921429 32.549
23.077583 9.201439 36.124
23.997581 8.507439 34.275
20.88758 43.735428 1.6709976
20.954582 45.980427 2.7419968
30.982582 47.316425 0.23600006
31.203583 46.936428 3.171997
26.503578 18.175434 16.175999
28.357582 17.30643 15.856999
34.33058 22.51343 11.020997
36.64158 21.980433 11.668
55.743584 80.34543 32.836
57.563576 78.89643 32.537
65.99158 84.609436 32.735
65.27058 84.10143 30.705
49.184578 96.36643 34.173
46.587578 96.722435 34.064
40.83558 90.27143 37.054
38.90358 89.415436 37.52
46.09558 58.535427 10.986997
47.82258 59.619427 11.954999
53.95958 62.354424 8.060997
55.727585 62.872425 9.875996
35.746582 8.429436 31.243
34.06758 8.714439 29.217
24.899582 6.2134323 32.74
25.242584 3.5724335 31.699999
32.463585 19.555428 36.524002
31.62558 21.458427 35.922
38.587578 27.265427 32.771
40.089584 26.615427 31.611
39.30758 92.53343 2.1049957
41.647583 92.584435 2.159996
49.281578 97.529434 40.906002
47.97558 99.596436 0.6269989
70.16659 17.25243 13.1849985
67.89859 17.759434 12.731999
59.91458 12.990429 15.462998
59.87558 10.999435 16.364998
19.097588 88.36543 27.751
19.358582 86.970436 29.208
12.281586 79.667435 30.165998
10.458588 81.06743 30.206999
66.28558 10.917435 30.983
68.242584 11.108437 31.569
2.8655853 11.452435 26.942999
4.2635803 11.412434 28.640999
7.433586 14.106434 40.199
8.050583 12.508434 0.17599869
17.424583 17.177433 37.475002
18.529587 16.694431 39.425
63.920578 89.820435 32.68
61.754578 89.38644 33.489
55.08558 82.821434 32.041
53.21058 83.31343 33.188
20.417587 35.923428 33.648
18.56858 34.895428 34.059002
12.256584 31.494427 38.683002
10.560585 33.141426 38.73
71.309586 48.475426 30.536
0.29858398 47.510426 29.984999
6.090584 54.518425 26.244
7.0545807 56.328426 26.945
58.024582 68.96043 25.332
58.105576 69.54143 27.376
49.02758 64.69243 29.542
47.03958 65.24743 28.597
3.0535812 93.887436 35.954
1.3085861 95.138435 35.324
66.48459 94.82643 39.06
64.58159 95.930435 39.974
10.848587 95.109436 13.987
11.99958 94.27343 15.635999
6.48658 88.457436 17.172997
5.1015854 86.998436 17.974998
15.416588 51.125427 39.807
15.024582 50.28343 38.064
4.6465836 49.712425 40.688
3.0785828 50.521427 39.931
60.050583 8.824432 15.086999
61.590576 7.576439 14.293
55.908585 106.31043 17.973
55.309578 0.28043365 15.842
30.891579 18.875431 33.437
29.86258 16.645435 32.417
23.510582 15.150433 39.103
22.713585 16.175434 0.17399979
26.74958 69.506424 23.714
24.61058 69.58243 22.909
17.630585 68.33443 30.039999
16.256584 66.47143 29.116999
23.294579 83.390434 33.134
22.90158 83.60043 30.743
14.242584 79.04443 34.712
12.461586 79.92543 33.46
10.244583 106.71843 21.661
9.119583 1.8294373 21.978
16.532585 9.242439 25.077
16.446587 9.518433 22.847
13.393585 58.477425 9.928997
11.502586 58.428425 8.0739975
1.3765869 57.011425 9.518997
0.9145813 58.291424 11.613999
26.398582 39.45643 15.627999
26.843582 38.05243 14.102998
19.420586 32.236427 15.113
19.246582 30.640427 13.655
8.190582 1.708435 33.012
8.595581 2.4424362 35.37
3.3495865 100.67143 36.137
3.810585 98.16043 37.636
25.109581 94.57643 13.175
24.74958 94.74744 15.613
15.108582 93.39443 17.837997
13.579582 91.65543 17.135998
44.98358 91.90943 28.119999
46.684578 91.25543 30.229
37.55658 90.14943 31.844
37.47058 88.60043 33.452
63.382576 86.89443 26.087
63.93158 85.83044 27.219
56.72558 79.63843 29.851
54.285583 79.74343 29.119999
4.7855835 46.846428 4.9649963
7.459587 46.351425 5.3949966
12.070587 55.540424 3.020996
13.844582 55.181427 1.1629982
64.76159 89.359436 28.737999
65.95859 87.75543 27.730999
2.0435867 89.44244 25.151001
2.6815872 91.47643 26.720999
67.339584 80.76943 18.095997
68.658585 78.86043 18.556
4.5945816 81.945435 19.373997
4.6015854 83.58643 20.489998
53.53058 13.800434 11.78
53.60058 12.393429 13.767999
46.798584 9.085434 16.254997
46.33158 7.135437 16.223999
20.40158 78.68743 8.776997
21.538582 79.945435 10.352998
27.924583 86.00943 5.713997
28.206581 86.97643 7.6109962
53.68158 87.51043 40.815002
52.19658 89.208435 39.484
43.26258 85.09444 0.38399887
42.051582 86.57643 1.5179977
38.61458 4.502434 33.226
39.078583 2.7274323 31.679998
31.530579 103.48943 35.25
32.337578 101.43743 36.448
14.131584 43.702427 19.574997
15.62458 42.29043 20.803997
24.43158 45.960426 18.501999
24.37558 47.753426 17.708
53.20558 58.319424 31.147999
54.772583 57.625427 29.408998
64.36258 59.615425 29.248
64.06758 61.367424 27.501
24.633583 63.819424 1.0400009
25.661583 61.499424 1.1399994
34.380585 66.02543 40.336002
34.07058 66.89943 38.556
49.79458 59.335426 10.056999
50.021584 58.166424 7.4749985
56.69358 57.308426 4.7339973
58.215576 56.304424 5.704998
19.411583 57.226425 21.133
17.606583 57.739426 21.682
9.340584 56.990425 21.736
8.43058 56.062424 23.588
0.11858368 7.7734375 9.305996
2.1415863 6.7474365 8.716999
9.2595825 11.249432 5.4189987
10.769585 11.962429 6.7719955
40.269585 68.46542 11.717999
40.39058 66.27743 12.736001
29.70758 65.81843 16.230999
30.176582 63.812424 16.739998
39.62258 60.848427 28.397
39.45658 60.013424 30.686998
48.940582 64.69343 32.947
50.30658 63.030426 32.842
63.690582 66.600426 38.625
63.648582 65.85543 40.61
54.92958 62.640427 0.071998596
54.563583 60.529427 1.3869972
17.309586 11.32143 31.949999
16.800583 9.017433 32.559002
9.105583 4.5724335 28.988998
8.719582 5.5744324 30.831
23.245583 100.41444 8.626999
23.899582 99.138435 10.450997
29.913582 106.139435 9.351997
29.476578 106.13043 6.806999
39.118584 72.40343 15.522
40.04058 73.27143 13.931001
49.76358 76.39743 13.6849985
50.799583 76.70443 11.646001
4.3165817 37.298428 25.466
5.2995834 35.68543 26.546999
68.48759 37.013428 32.106
68.04159 35.23443 30.824
14.619583 102.90044 38.597
14.659584 105.03643 39.433002
24.29058 0.8494339 35.855
24.80658 2.701439 34.361
55.20558 105.734436 22.343
56.462578 104.76743 23.711
65.05958 106.31143 19.279
65.09758 0.8934326 17.689001
36.45758 28.023426 20.324997
37.45558 29.664427 19.595997
45.731583 33.56043 17.585999
47.08058 31.752426 16.842999
0.60258484 55.012424 11.118997
0.9765854 53.329426 12.268998
69.98359 47.978428 17.870998
69.808586 46.778427 15.837998
63.694584 58.927425 12.365998
62.374584 60.332424 10.641
71.60759 61.547424 4.834999
71.85959 63.141426 6.0179977
17.716583 53.602425 8.470997
17.393585 55.296425 7.1939964
26.300583 56.986427 2.218998
28.338585 57.501427 2.5599976
22.12358 85.35243 25.912
20.869583 86.94244 26.195
29.14058 93.73143 23.254
28.719582 95.05843 21.747
57.324585 106.05244 36.727
56.29458 104.11643 36.223
47.33558 100.50243 38.964
45.87558 101.99543 39.688
5.7075806 95.31543 40.206
7.520584 96.152435 40.851
13.633583 100.612434 36.891
15.784584 99.584435 36.298
61.329586 19.777428 37.156002
62.533585 20.418427 34.949
0.4295807 21.138428 34.557
0.65058136 23.627426 34.543
8.935585 27.053427 24.612
9.837585 26.987427 26.462
2.5415802 23.359426 32.209
2.9035873 21.166428 33.596
3.899582 47.937428 7.6829987
2.2275848 46.689426 6.2749977
65.700584 47.362427 7.181999
64.26159 46.678425 5.6279984
36.467583 59.048424 24.977
38.675583 57.993427 25.319
45.323578 63.724426 21.381
44.65558 63.306427 19.634
12.996582 3.7904358 6.5249977
11.911583 5.6534348 7.0059967
5.1845856 1.899437 14.914998
4.7125854 4.033432 15.599999
61.551586 41.46143 28.129
62.651585 41.45343 29.741
70.76159 46.698425 25.949
70.82059 47.143425 28.156
4.1325836 106.471436 10.261997
5.331581 104.860435 11.519998
15.856583 0.9494324 8.530998
14.389587 0.53543854 7.131996
72.436584 24.584427 28.609
0.9865799 22.798428 28.146
7.0915833 26.879427 22.555
7.2925873 28.560427 23.199
12.155586 92.53843 8.251999
13.075584 94.32543 7.386997
21.170586 98.26943 7.537998
22.86058 97.68943 6.9939957
40.69158 52.903427 31.344
38.980583 52.215427 29.9
30.16658 51.330425 32.392002
29.212578 49.139427 32.492
27.871582 84.57243 36.972
27.185577 87.04743 37.129
35.05858 89.610435 33.135002
35.561584 91.83743 32.531002
18.852585 47.785427 2.3329964
17.427582 48.061428 4.383999
11.620583 41.689426 9.830997
11.017586 39.78843 8.246998
52.366585 37.56743 3.1729965
51.270584 37.236427 1.1889992
42.952583 34.869427 5.5029984
43.15158 33.715427 6.9839973
52.12858 63.373425 35.001
53.370583 61.821426 33.64
60.62758 68.68143 31.085999
62.482582 67.10743 30.883
40.51158 27.425426 29.053
41.799583 26.086428 28.460999
49.38758 32.237427 25.549
51.357582 31.040426 25.708
3.270584 3.7194366 17.884998
0.80558014 3.885437 16.670998
67.076584 103.873436 13.912
65.68159 103.276436 15.62
41.37458 79.31043 37.298
42.86358 78.20043 37.804
35.03958 70.00843 37.62
37.284584 70.04943 39.615
72.39059 25.688427 36.716
1.1525803 24.412428 37.065002
8.990585 28.755426 31.984999
8.270584 30.260427 30.137
45.41458 65.81543 22.976
47.19158 64.66143 23.328001
56.10058 68.32843 23.082
55.478584 68.94643 20.505
14.822586 47.953426 36.979
13.787582 49.40143 35.874
5.6725845 45.632427 37.957
6.070587 43.253426 38.593002
45.728584 70.02343 33.754
45.494583 69.63343 36.078
38.824585 62.640427 36.609
38.796577 63.269424 38.417
68.59659 51.387424 20.697998
69.032585 52.778427 19.5
3.1375809 56.027424 14.342
0.8515854 56.242424 13.863999
58.757576 105.09444 38.530003
60.08558 104.945435 36.163002
68.309586 105.60543 33.314
