33.29049 4.0913925 37.760418
18.81149 94.93539 84.46142
20.85649 93.630394 85.06642
34.654488 92.73339 86.43942
35.84749 91.39739 85.82642
12.764488 2.215393 55.47342
13.345486 3.7183914 57.43642
37.01249 10.2043915 55.99942
36.37949 9.654396 54.54742
3.4544868 67.30139 33.589417
1.6554871 67.77839 34.43942
29.232489 77.58039 40.664417
29.145489 76.95839 42.30042
7.1254883 105.60639 3.68042
5.6134872 0.578392 5.204422
28.67949 2.9833908 10.056418
26.98749 2.8263931 9.2664175
24.52249 20.144394 96.92042
22.464487 19.145393 95.69342
6.1354866 17.659393 100.36542
4.7484856 16.777397 100.12142
38.59749 33.055397 44.11642
1.0984879 33.388397 45.97942
17.926487 29.279396 46.09142
18.790485 29.450386 47.43042
13.873489 75.33539 89.63242
15.76549 75.84439 88.32642
32.00349 67.38839 87.95342
32.237488 66.80439 86.27642
25.97049 66.22539 52.77042
24.19649 64.96739 52.93342
9.670489 67.49439 57.80542
8.150489 67.29439 57.184418
23.891489 2.264389 4.63842
24.02949 4.545395 4.4434204
10.038489 6.9593887 13.7664175
9.502489 5.2093887 13.410422
34.16349 65.32439 89.81842
33.12149 64.43439 87.603424
10.808487 61.34339 88.78642
10.974487 59.72939 89.22742
7.513489 17.549393 112.26442
7.115486 15.94239 110.86042
29.451488 22.876396 107.44642
28.18849 23.757393 108.63142
38.849487 50.570396 27.553429
1.4694862 48.739395 29.06643
17.904488 42.132393 25.387428
18.615486 43.318398 26.317421
2.1664886 41.78739 52.82942
2.7294884 40.203392 53.24242
17.547485 37.609398 43.59242
17.206486 36.738396 45.28042
32.97549 36.514397 111.83242
32.49349 38.611397 112.83842
17.214489 38.502396 3.4114227
16.76549 38.839394 4.932419
12.711487 24.765388 113.05842
13.341488 24.70539 0.35642242
10.014488 21.208397 111.33242
8.808487 21.151398 112.44042
3.3424873 0.767395 99.71042
4.6254883 0.7713928 97.91042
18.836487 99.67239 98.57342
19.905487 98.63739 99.34542
4.695488 103.13839 110.61742
4.9484863 105.14639 111.12242
21.239487 101.86839 109.38142
22.71649 102.55039 110.08442
19.110489 37.043396 41.29242
20.468489 38.339394 42.219418
37.31149 35.887398 40.35442
36.77749 34.535393 41.371418
6.824489 42.840393 70.36042
8.625489 41.596397 70.34942
24.14649 40.063393 65.61042
24.35949 38.48139 66.16642
31.31349 92.89339 47.996418
32.55949 93.92239 49.30142
7.718487 89.34439 45.56942
9.516487 88.46239 44.782417
23.838488 28.08239 83.27942
22.094486 26.799385 83.59642
6.7054863 29.385384 83.95842
5.8714867 28.94239 82.52342
30.31649 4.076393 21.080421
31.05049 4.6453934 22.988426
8.712486 4.2893906 20.253418
10.016487 5.6273956 20.40342
34.98349 39.666397 112.86742
35.69249 37.74739 114.41842
11.5504875 34.863396 109.83442
12.213486 34.105392 111.33142
26.34749 55.342384 66.25442
27.53649 55.867393 68.01342
3.8834877 51.903397 62.10442
3.8714867 53.180397 60.54842
29.49049 100.15739 30.520424
29.70949 102.51239 30.818428
13.714489 102.14239 37.812424
12.773489 103.46439 37.241425
16.604488 40.541397 114.10342
16.733488 39.041397 0.8574219
30.48749 35.12139 0.4034195
31.68449 34.619392 114.09642
7.744488 20.335396 0.060424805
8.737488 22.142387 0.24742126
35.51249 31.245384 10.045417
34.495487 32.558395 10.559417
3.5084877 0.9003906 106.71942
4.4624863 105.366394 105.745415
20.442486 103.34639 103.22842
21.118484 101.90439 103.51242
18.32149 32.376396 35.80242
18.43949 30.889397 36.757423
35.33349 30.650383 30.920418
36.38849 30.363396 32.281425
35.53249 19.509392 43.29142
36.13149 18.361397 40.971416
14.011486 12.552391 39.774418
14.700485 12.315392 41.25042
13.303486 61.00439 97.87342
11.197487 60.83239 97.01442
36.10249 65.68839 102.27742
35.72749 65.02239 103.71942
19.751488 66.10639 6.3964233
19.255486 68.31039 6.912422
2.5144882 66.10239 13.818419
2.4724884 65.23139 15.523421
29.260489 55.59639 98.52342
29.22749 57.28139 96.62142
12.9374895 59.64639 94.742424
11.856489 58.47239 95.33042
20.784489 21.880394 70.63641
22.47349 23.176384 69.246414
38.01349 18.852394 67.47842
38.86149 17.896393 66.42242
28.85249 79.02439 53.233418
29.71049 76.61439 52.67942
4.985489 74.22939 45.08242
5.624489 72.79239 45.04342
25.284489 87.145386 25.598427
24.75549 85.77239 27.16143
8.797489 91.66539 30.279427
8.158489 93.26639 29.795418
4.6184883 15.596397 81.71242
5.650486 16.184395 79.95942
19.037487 7.453392 76.07442
20.234486 6.4213943 76.72142
0.26748657 61.67139 13.798423
0.7164879 63.67939 11.661422
17.380486 60.82039 11.862418
18.190487 59.25439 11.713424
7.011486 17.642395 0.9054184
5.976486 16.565392 114.19642
30.88049 22.454384 6.395424
31.82149 21.999397 7.8654175
21.441486 19.168396 73.86442
19.254486 19.684395 74.08342
5.2294884 21.982384 77.36542
4.4304886 22.040398 75.89642
6.959488 18.243393 104.898415
5.1374855 18.972397 103.85842
28.70949 22.109398 102.675415
29.13749 22.745384 101.35242
29.23749 19.31739 0.14942169
29.416489 17.857391 113.397415
6.502487 13.916389 114.715416
7.7814865 14.134392 113.54242
27.22449 48.033394 76.70442
27.551489 46.619392 78.24442
5.5694885 44.611397 79.70442
6.244488 43.000397 80.77542
12.671486 59.58039 101.98242
12.631485 59.76039 104.25542
35.175488 59.35239 102.94642
34.49149 60.67339 101.772415
30.15749 65.771385 78.64342
31.94949 65.48539 80.24442
10.319485 60.96339 76.97242
10.996487 59.23739 77.242424
12.512489 102.99939 26.949425
12.957489 102.09239 28.535423
28.71049 104.21639 23.449425
29.569489 104.29239 21.780418
29.43149 69.95839 74.58542
29.992489 68.80539 72.715416
5.639488 66.54439 66.98642
6.172489 67.17839 65.17042
0.6374855 27.927391 53.135418
0.5504875 25.697395 52.357418
16.435486 22.174385 51.42542
17.998486 21.881386 52.28742
5.3614883 4.1573944 100.86742
6.5994873 4.52639 102.10842
21.214485 0.25138855 100.42142
21.806488 0.5553894 101.925415
31.016489 19.158394 31.876427
30.59149 17.543396 30.12542
15.594489 21.324394 32.52842
14.109489 21.554398 33.30343
3.6004868 34.736397 73.89942
2.1684875 36.25939 73.74142
26.00049 37.711395 78.36142
26.12749 39.526398 79.29042
12.836487 98.90439 58.72342
12.017487 100.95839 58.46342
36.16749 102.37539 59.34742
35.99849 103.70039 58.18142
20.025488 16.137398 55.49242
20.67249 18.299393 56.45742
35.49949 17.041397 54.10642
35.88149 15.644394 53.13642
21.295488 16.829391 61.08942
22.222488 18.800392 61.94742
38.09449 21.691383 59.32742
0.027488708 22.01139 58.024418
36.64249 3.5973892 53.80842
36.60449 5.130394 55.60542
13.371487 0.94239044 58.75042
14.116486 0.24339294 59.98042
14.690487 67.51339 103.32342
13.832485 68.73239 104.74042
37.40649 68.71039 109.27542
36.49649 69.99639 108.77542
32.356487 100.51639 49.857418
30.47649 100.91639 48.63842
15.695489 1.3173904 53.27942
15.368489 2.380394 54.802418
37.67149 72.160385 110.58142
37.47849 73.94439 110.13542
15.786489 72.77539 106.02442
17.124485 73.71239 106.45642
2.584488 59.27739 28.442421
1.4664879 57.66339 29.354424
27.11549 64.812386 33.10943
26.030489 64.02839 34.54142
17.25149 86.37339 84.56042
19.239489 87.57639 84.56442
32.758488 77.99839 88.60942
33.981487 79.30739 89.42042
13.848488 104.40639 66.77842
13.219486 102.10939 66.24042
35.515488 102.62739 65.74242
34.27749 104.34339 65.72542
10.02249 97.13239 27.890419
9.744489 95.727394 29.47042
26.23649 91.26539 29.131432
26.77849 92.13639 27.471428
34.08849 57.94239 105.31642
32.65849 56.69639 104.244415
17.431488 62.77139 107.70942
16.16149 63.39839 106.480415
21.545486 78.61839 13.888419
21.184486 78.63539 11.670417
5.6094856 81.85939 14.232421
4.452488 83.00839 14.782416
19.843487 5.3533936 90.45742
19.289486 4.7873917 88.42042
4.134487 9.877396 87.60142
3.940487 9.20639 86.05942
35.06949 99.20339 64.10841
34.78249 97.81639 62.72242
12.467487 98.21939 63.677418
13.451485 99.52439 64.38942
36.98549 31.033394 42.23142
36.02749 33.026398 43.57942
19.657488 34.781395 44.260418
18.71749 34.348396 45.49442
12.924489 7.9003906 22.343422
14.60049 7.1333923 23.61242
27.84849 2.7423935 15.131423
26.735489 3.1223907 13.767417
4.7764854 31.298393 83.86442
4.3524857 32.502396 81.95142
26.93649 30.861397 84.228424
25.47249 30.12339 84.24842
38.45549 91.65439 108.606415
37.05849 90.43839 109.95742
21.146488 91.19039 112.798416
21.528488 91.09839 114.536415
37.36749 57.02639 0.95941925
36.83749 58.31139 114.384415
20.770489 63.12339 3.9504242
19.94649 64.700386 4.188423
31.51349 58.07239 81.84842
31.68249 57.346394 84.07742
8.209488 54.460396 81.05642
8.258488 53.021393 81.71142
22.746489 87.27939 1.5224228
24.48349 86.14339 2.1754227
1.5124855 87.34539 2.8794174
2.8514862 88.21539 3.178421
4.183487 69.55139 32.10943
2.9794884 71.07839 33.167427
26.45949 76.950386 31.241432
25.39749 75.86539 29.945427
22.648489 55.77339 57.25142
22.60149 55.87539 54.90542
8.380489 58.22539 61.56942
9.031489 57.93539 63.219418
24.61649 97.80339 7.397423
26.77449 96.37539 7.2974243
2.7604866 90.85139 6.6294174
2.950489 90.74639 4.9814224
34.81149 4.5813904 42.288418
34.91749 5.2853928 40.09742
11.393486 0.50239563 34.955418
11.750484 106.16639 33.345417
9.609489 11.539391 11.222419
11.139489 10.603394 12.088424
25.21949 9.47139 6.6894226
26.65849 8.917389 7.190422
3.2624855 53.796394 51.77742
3.3584862 52.771393 54.01442
25.62649 56.13839 54.83342
25.06449 56.698387 53.57142
26.85849 55.773384 78.46642
26.86649 55.445396 80.73342
10.379489 55.684395 76.98442
9.245489 56.84339 76.56042
20.43249 33.77539 49.96742
21.67249 35.244392 51.088417
38.11549 31.062386 48.20442
38.79549 31.219383 46.61842
23.94649 71.69439 41.788418
23.853487 70.03339 40.46642
6.888489 70.49839 40.69742
6.8684883 71.52539 42.178417
34.105488 90.46439 71.173416
34.47849 88.33639 71.66742
11.827488 89.26639 64.50642
12.485485 89.68239 63.052418
14.170486 77.38239 99.38742
15.2884865 79.08339 100.53142
0.54748917 81.48339 101.97542
0.032485962 82.89639 102.93642
15.179489 17.623398 38.57742
16.382488 16.623398 39.364418
30.13449 9.0153885 36.899418
31.59349 9.5153885 36.00242
34.273487 11.467392 41.66742
36.28549 11.65139 43.12042
13.005486 8.69339 42.71842
13.516487 10.246391 43.38742
16.786488 80.53939 94.60142
16.063488 82.27939 93.35942
38.11449 82.41939 96.21042
38.78149 84.42839 96.08342
10.619489 74.56939 56.941418
10.589489 72.57139 57.83242
26.75049 70.535385 55.288418
28.110489 70.19639 56.26442
37.23449 26.67939 54.851418
37.19049 26.354393 56.65942
21.695488 21.52539 58.948418
21.810488 22.960396 60.03642
10.234486 17.978394 9.129417
10.036488 18.256393 11.736419
35.72549 24.172386 17.355423
37.18749 24.814384 16.86242
22.282488 7.1053925 98.51242
21.048485 5.380394 97.72442
6.282486 7.977394 100.42642
4.9984856 8.799393 99.63742
27.71649 69.99739 47.067417
27.75749 68.81539 49.05442
3.5864868 60.64139 47.63942
2.7224884 59.05639 47.441418
3.0714874 4.2183914 102.30642
1.8634872 3.8983917 100.22142
24.72649 5.9213943 99.85742
24.017488 6.99839 101.01542
31.298489 104.86539 23.754417
31.94749 0.42339325 22.599419
5.624489 101.52739 15.445418
5.542488 99.75939 15.272422
22.511488 51.714394 48.40942
21.849487 51.035393 46.84242
5.0594864 55.462395 50.38342
3.575489 55.80239 49.84942
29.63049 11.870392 16.29242
29.180489 10.996391 18.33442
12.3454895 17.017395 16.247421
11.292489 18.312393 15.347419
28.218489 57.71139 71.60941
28.25449 58.95539 70.549416
6.9374886 60.97939 66.801414
7.447487 59.77639 68.091415
4.4824867 64.38739 38.790417
5.1024857 65.29139 40.69742
22.206488 62.88539 38.623417
23.624487 63.39539 37.936417
21.47049 91.53039 104.20942
23.52949 90.93839 104.89242
35.898487 82.14239 97.98842
36.195488 80.50339 97.33442
13.5624895 75.31039 72.26342
13.827489 75.08439 74.32142
27.63449 66.44239 76.21342
27.55349 64.92939 77.47242
19.264488 20.559395 54.246418
20.649488 21.172394 55.93242
36.12949 23.629387 49.68142
35.81949 24.801384 48.350418
5.638489 22.434395 91.34342
5.624489 21.665398 89.04642
28.28549 26.971397 91.89942
27.02549 26.09739 93.25142
30.239489 103.15139 40.81242
30.14049 103.69439 38.734417
12.957489 1.30439 38.28542
13.544489 2.981392 38.429417
20.81449 11.872391 64.60142
21.431488 13.830391 64.37942
36.273487 11.810394 57.84142
37.34649 11.362389 59.14542
6.264488 94.64139 9.146423
7.1944885 95.36439 11.071418
23.368486 97.30739 11.169417
24.55749 96.82939 10.069419
31.72749 30.405388 4.489418
31.37749 32.562393 5.5244217
15.764489 31.900383 7.020424
13.843489 32.28739 7.3064194
22.566488 63.20139 12.700423
23.29949 65.04239 14.864417
37.47849 63.82139 13.504416
38.86549 64.31739 14.15042
23.58849 47.24539 78.38542
23.30749 46.81639 80.85042
9.484489 42.253395 83.22442
8.9044895 43.346397 81.97042
21.661488 80.242386 7.293419
21.182487 82.06939 8.427422
5.398487 81.28539 8.392418
3.761486 80.672386 8.064423
14.9374895 4.7653885 52.99142
15.467489 5.9403915 51.04442
31.971489 1.4073944 49.164417
32.53549 2.7093887 48.11342
37.10049 38.115395 18.29242
0.20248795 36.77339 17.019424
16.273487 31.729393 21.868423
17.243484 33.139397 21.09742
6.268486 71.54139 32.296425
6.9374886 72.65839 30.775429
22.54349 75.29439 34.22843
23.934488 74.46039 35.28443
9.197489 91.588394 17.563423
9.583489 93.80939 18.50142
22.77849 91.26439 21.343422
23.08149 92.05539 19.799423
30.666489 20.85839 10.196418
30.64949 19.661392 12.1674185
15.59149 25.659386 17.717422
14.514489 24.676384 18.588425
4.8194885 76.10739 23.785423
3.315487 77.62539 23.293419
24.23049 75.36239 22.382423
23.475489 76.65839 21.441422
35.96849 76.98439 95.79442
36.862488 77.32739 93.60942
12.882488 70.62039 92.20942
13.880486 71.22639 93.29242
8.931489 57.277393 67.75242
9.113489 59.33739 65.86042
23.76949 50.798393 67.452415
24.940489 50.12139 66.33942
12.523489 86.55839 66.75242
13.267489 88.38239 66.493416
31.61349 85.41339 62.04042
31.99749 85.10639 60.413418
1.8564873 55.364388 47.48642
1.2964859 57.079384 48.39842
24.60449 51.887398 50.199417
23.24549 52.544395 50.900417
4.9744873 51.307396 50.73642
6.346489 51.169395 52.33242
21.857487 47.240395 47.41742
22.066486 46.258392 46.04342
36.53249 85.80039 96.38242
34.912487 84.16239 96.33942
20.413488 88.40539 99.92142
19.302488 89.82339 100.55142
31.11149 76.89839 62.899418
32.487488 78.25839 61.62042
8.578487 77.85639 60.57942
9.214485 78.47539 59.11742
1.5074883 48.199394 44.54342
0.010486603 46.839394 43.56442
21.732489 49.80339 43.83142
21.718489 51.459396 44.25742
13.444485 11.94239 27.771431
12.668488 12.811394 26.275429
34.43049 12.77639 29.927422
33.445488 12.88739 31.48742
7.5504875 75.54939 61.83542
6.1704865 76.58239 60.885418
29.34249 72.56939 62.677418
28.31849 73.84439 63.61042
36.12949 2.31839 66.80542
37.11849 4.3553925 66.854416
15.776486 1.4903946 63.46342
17.206486 0.37939453 63.69042
11.730488 60.99539 91.50042
11.428486 62.61739 92.86842
32.48349 64.701385 95.71742
32.18049 63.16139 95.23442
25.34449 99.19439 11.343421
25.96649 100.86539 12.061423
3.5484886 94.83539 8.863419
4.1094856 95.61039 7.473419
5.056488 29.433388 79.27942
2.9294891 29.086388 79.12742
26.58449 34.838394 80.77142
25.864489 36.438393 80.74342
31.65149 94.40139 60.75742
33.439487 94.68539 61.92842
11.968487 94.15139 62.85642
13.102486 95.15039 63.58442
20.785488 45.514397 43.83642
20.400486 47.614395 42.23442
3.4834862 47.862396 48.89442
3.761486 49.339394 49.420418
18.396488 82.74739 112.578415
18.301487 84.37539 111.31842
2.2764854 85.97139 104.61242
0.6734886 85.30139 104.28242
25.57049 91.94639 34.150417
25.17049 93.29039 35.80842
12.204489 97.65439 43.899418
12.025489 98.01139 42.27042
29.534489 56.656395 78.90442
31.55249 57.47539 79.23742
4.992489 59.40739 72.552414
5.950489 60.583393 73.46542
1.6654892 15.340393 83.15742
1.1984863 17.757393 83.68742
24.81149 17.883392 85.01642
24.73749 18.90039 86.52642
16.222488 52.958397 112.78742
17.743488 52.99639 114.07942
35.18749 51.226395 114.93542
36.09649 50.966393 1.2404175
19.865486 18.453392 59.01542
19.515488 19.02539 60.93342
2.3554878 21.115395 67.51542
1.4914856 22.62539 67.19542
29.59749 38.84339 99.93942
31.18649 40.189392 98.19542
8.277489 32.653397 100.54542
8.769485 33.242393 102.16842
35.627487 69.82239 102.21242
33.96249 68.26539 102.13942
18.225489 70.89839 108.326416
17.68949 70.64939 109.88942
36.85449 38.130394 35.84942
37.800488 39.416397 36.831417
20.70349 44.73239 40.610416
19.74149 46.14839 40.143417
29.25049 87.23139 49.06342
30.805489 85.34539 50.37442
6.4844856 81.47639 45.892418
6.790489 80.55039 44.62742
10.89749 66.69839 72.22242
11.883489 68.01439 71.60841
27.30449 61.62439 70.968414
28.26249 62.48139 70.010414
3.155487 21.221397 70.64442
3.6964874 21.263397 72.509415
21.175488 18.016396 71.146416
21.889488 18.945396 69.760414
17.200485 45.842392 37.325417
17.750484 47.85739 38.13442
2.4024887 48.478394 40.66942
0.8234863 48.20639 41.50542
28.666489 23.270393 98.67142
28.79949 23.322395 96.02542
4.954487 19.518394 95.39742
5.7034874 21.259392 95.37542
2.0604858 38.212395 63.69542
3.9034882 36.514397 63.97742
20.233486 38.545395 59.94642
21.711487 37.700394 61.149418
12.640489 35.486397 106.967415
12.666489 33.262398 107.39542
29.003489 29.177391 104.673416
29.38449 30.088387 103.19542
4.2394867 43.921394 62.177418
4.278488 42.113396 62.64842
26.55749 40.105392 69.15742
24.88749 39.682396 68.75142
0.39248657 14.089394 65.66942
37.78349 13.049393 66.22642
22.03649 11.925392 71.68242
21.596489 10.586395 72.495415
37.62249 8.371391 76.08442
37.24849 10.472389 75.96242
20.45649 8.312393 73.68542
19.025488 8.468391 72.38942
24.43849 0.30239105 101.67242
24.99749 0.5713959 103.57442
2.431488 1.4113922 102.22842
3.3484879 106.20739 102.83742
11.058487 54.31039 96.24042
11.202488 56.43639 97.04242
33.64649 61.11839 98.74142
32.793488 62.80939 97.95042
5.4184875 79.95639 32.06243
3.9814873 81.69739 30.822426
25.70649 83.54439 28.325432
24.77249 82.506386 27.285423
2.6414871 47.244392 36.298424
3.2524872 44.74739 36.769424
18.880486 43.597397 33.782417
18.859486 44.823395 34.75643
38.106487 10.601395 67.326416
1.5234871 11.480392 66.94942
17.025486 10.930389 62.55142
18.412487 12.000389 62.594418
35.46249 60.25239 112.04042
34.571487 59.91039 110.17842
17.910488 62.00139 112.106415
16.438488 62.11539 111.04342
31.80449 103.95739 44.810417
30.204489 102.41739 43.82642
13.934489 2.3263931 45.92442
13.068489 3.6083908 46.177418
28.030489 72.33139 66.25642
27.14749 71.464386 68.38842
12.305489 80.12439 66.79342
12.438489 79.85439 65.191414
7.2744865 55.77439 87.79242
5.952488 57.43839 87.18042
30.891489 58.817387 87.08042
29.48849 57.890392 86.64342
27.75549 88.64139 15.577422
28.395489 88.13439 17.530418
5.667488 88.68439 21.314423
6.853489 89.24739 20.23442
38.08849 36.38539 46.59942
36.51249 37.950394 46.08442
21.468489 38.076393 50.70242
20.40149 37.235397 49.56442
9.229489 78.34739 47.45442
9.396489 79.95739 45.79242
25.50949 77.23039 44.89742
27.15049 77.78639 44.864418
34.01149 100.36039 66.454414
34.09649 99.33139 68.11142
18.83549 100.04939 74.33742
18.08849 99.81339 75.79442
8.431488 91.93939 38.09242
8.589485 90.19139 38.741417
30.95549 91.34239 40.152416
30.648489 89.93439 41.53542
34.65949 84.94339 61.19442
35.45149 83.51839 62.489418
9.412487 86.59039 54.46442
10.680485 85.26039 54.65242
17.323488 23.121391 35.85842
17.660488 20.960396 35.19242
31.62049 14.020393 35.532417
31.47649 15.864395 35.69242
10.554489 40.377396 96.50442
10.543489 38.640396 95.37142
26.20549 34.520393 91.50242
27.52449 33.700394 90.95142
13.0314865 7.736389 48.60342
12.750484 5.8553925 47.54342
35.67349 10.10939 45.726418
35.16649 11.558395 45.63742
30.430489 38.308395 106.25242
32.00649 37.601395 107.07242
9.430485 34.937393 104.091415
10.164486 36.151398 105.33942
25.32049 45.284393 78.12042
24.11849 44.048393 79.13442
8.57449 41.44239 75.70542
7.869489 40.780396 74.31642
29.266489 64.02139 71.90041
29.28949 63.14039 74.43242
6.907486 64.25139 70.79742
6.665489 64.79539 68.884415
16.999489 94.519394 76.62042
17.035488 92.54739 77.96042
33.85149 89.48439 77.89342
34.17349 88.87639 79.44542
10.862488 75.25139 65.62642
9.423485 74.06039 64.90442
31.03849 72.840385 67.51142
30.29549 74.18039 66.99741
8.280487 103.72539 17.516418
8.990486 104.44739 19.25042
30.51449 2.842392 17.713425
30.08449 3.6713943 16.372421
37.30149 52.167397 4.3044205
1.0934868 52.679398 4.5854187
15.063488 46.878395 1.404419
14.499485 45.169395 1.0544205
37.362488 2.125389 86.55342
37.97149 3.9763947 87.04642
22.43649 0.88139343 93.72142
21.104488 0.34838867 92.55342
4.403488 79.46839 27.324425
3.9134865 78.22439 25.708427
24.45949 78.97639 26.65342
24.95249 77.78639 27.63543
29.06449 83.45639 34.142418
29.30949 85.45339 34.25242
4.1334877 82.52939 27.31643
5.067486 81.87339 28.29142
1.6044884 27.010384 60.13742
0.17748642 25.564384 61.59642
22.600489 27.481392 61.46842
21.257488 28.727394 61.73642
11.002487 90.91539 54.10642
9.749485 92.29139 54.25242
33.09749 89.06039 59.25242
31.80949 88.36239 60.108418
29.280489 102.18039 18.559418
30.225489 102.21239 16.850418
6.473488 100.82539 12.675422
6.4394875 99.14939 11.726417
37.320488 13.33239 63.663418
37.73649 11.186394 63.48742
20.21049 8.69339 68.85042
20.146488 9.740395 70.28142
6.0664864 47.628395 79.07642
6.235489 49.65039 79.27842
29.09949 53.74739 84.93542
28.18149 52.881393 86.22142
35.33349 51.309395 23.091423
34.891487 49.646393 24.770424
24.513489 58.622387 31.203423
24.159489 60.524387 31.407417
27.06349 8.881393 114.33542
27.82449 9.61039 112.33042
2.3614883 105.02439 107.591415
3.2454872 103.98939 108.37142
15.81749 65.38839 97.84642
15.6284895 67.69739 98.01842
30.60549 59.80339 96.51542
32.21449 60.14039 96.62742
35.938488 58.03539 108.674416
37.16749 58.68239 110.20842
14.171486 57.10439 107.94942
15.215485 55.70739 107.78942
11.785489 65.83439 86.534424
11.507489 63.95239 86.24042
27.59049 64.02739 81.22642
26.27249 64.54539 79.74142
37.58349 34.80339 31.208427
36.41749 33.084396 31.404427
19.28649 35.822395 35.115425
19.465488 37.320396 36.087425
3.3304863 84.37539 6.662422
3.129486 86.35739 6.744423
27.662489 92.43639 5.770424
26.142488 91.80339 5.5904236
25.37349 3.6493912 107.55542
27.38049 4.538391 108.66842
2.299488 103.64639 102.53842
2.596489 102.06339 102.12642
0.47848892 102.54539 87.00042
1.3954887 103.48239 85.22742
17.410488 98.78439 82.91842
17.127487 100.60139 83.006424
0.2394867 5.0793915 89.19142
1.3554878 3.5013885 88.53542
18.474487 0.4983902 85.72342
18.580486 1.0503922 84.25542
38.53249 20.69239 62.46442
38.74149 22.676384 62.22242
24.89949 25.066383 62.53342
23.51849 25.23539 61.89742
34.36549 28.902397 23.876427
33.21849 27.516396 24.805428
18.83849 32.24539 31.546425
17.556488 31.487389 32.61843
30.218489 73.85539 72.22342
29.673489 71.78039 72.133415
14.795489 77.65339 77.95442
13.424489 77.80239 76.73542
36.81549 67.62739 104.22042
37.07249 69.53039 104.63542
13.985485 63.27839 100.82942
13.547485 61.85339 100.66242
9.502487 94.38239 37.617416
7.4534874 94.00739 36.357418
31.46949 98.88939 40.817417
30.117489 100.25939 40.207417
1.6514854 25.877388 63.73742
2.8494873 23.764397 63.99242
20.049488 21.340393 63.56742
19.873486 21.790398 61.71042
36.22049 77.33739 104.87142
34.918488 78.26639 106.38142
19.931488 80.10539 106.08942
18.544489 79.37239 105.870415
14.79649 42.556396 105.493416
15.55849 41.255394 107.048416
12.586489 38.69039 105.13942
13.259489 39.924393 106.01142
33.53349 18.065392 31.297432
35.216488 18.061394 33.34243
12.6564865 16.738396 30.244423
14.023487 16.179398 29.803429
6.461487 3.8933945 7.4714203
5.096489 3.106392 9.117424
30.99149 11.4923935 13.005424
30.805489 12.753395 13.92842
22.523489 34.013397 71.50342
22.548487 35.46839 72.94842
6.1524887 33.20539 74.89042
4.700489 32.16239 74.56242
20.913486 32.633392 61.13142
21.146488 31.132393 62.70042
4.240486 34.17639 59.61642
3.5934868 33.181396 60.67142
32.22649 92.03939 66.757416
30.93849 92.91739 65.16642
15.9444895 96.53439 64.99842
14.60749 97.28739 65.246414
4.808487 72.15739 21.04242
4.5084877 70.47439 22.379417
24.90649 69.54239 22.02642
23.78249 70.576385 22.800423
12.198486 65.895386 91.12742
11.389488 63.73139 90.17842
34.35949 70.43139 94.13442
33.730488 70.72539 95.62942
18.563488 96.31739 81.93442
19.659489 97.96239 81.53242
35.10949 91.90139 78.52742
36.78149 92.58539 79.30442
21.858488 104.102394 93.79142
22.451488 102.25739 93.68942
37.02849 103.21139 90.13542
38.67949 102.88739 89.94742
5.459488 44.826393 68.76842
4.870487 43.683395 67.551414
25.56149 46.239395 69.91541
24.43649 46.472397 68.65041
9.031489 24.644386 98.534424
8.658489 24.84739 100.97642
25.99849 25.126396 98.81742
26.59249 24.652397 97.39842
2.9924889 29.662392 59.76942
3.440487 28.564384 61.39042
20.044487 25.014397 59.29042
21.406487 25.898384 59.54742
28.92749 80.64839 48.88842
29.555489 82.145386 48.06442
5.4724884 76.87839 43.88142
6.3234863 77.97339 45.240417
34.16449 98.10039 59.63742
36.23549 97.53839 60.08242
10.589485 99.89739 53.024418
11.667488 101.34539 52.65142
9.842489 23.533394 108.77442
9.465489 23.762398 106.312416
24.766489 14.811394 104.104416
26.148489 15.920395 103.87242
33.327488 21.99839 10.187423
33.21349 20.065392 11.527419
9.116486 14.195389 9.87242
9.392487 14.418396 8.01442
4.454487 73.32839 33.81643
4.3234863 73.68239 31.41642
27.593489 79.16839 31.155418
26.891489 80.73939 31.74543
20.026485 54.449394 36.71642
20.039486 54.825386 38.492416
3.440487 49.867393 37.84942
1.9434891 50.499397 37.735416
37.35049 83.83739 104.97242
35.84449 82.50339 106.98542
21.13749 83.66439 102.75642
20.031488 84.87739 103.45542
31.43149 28.448387 9.853423
30.69349 30.529396 8.69342
16.364489 32.888397 13.034423
17.167488 32.113396 14.593421
36.44849 79.450386 108.73742
35.45649 78.02739 109.51342
22.039488 84.65039 115.08742
20.41149 84.15639 114.78142
12.824486 86.07839 74.94742
12.831486 85.25539 76.64442
33.779488 85.67439 74.42942
33.88249 84.04639 74.87642
6.8564873 70.812386 56.61842
5.952488 69.27439 57.90042
27.67149 64.951385 57.816418
27.95649 66.13439 59.01542
29.09149 64.80139 68.441414
30.048489 62.85239 67.38842
6.0414886 66.28139 61.663418
5.1804886 67.67539 62.67442
16.146488 29.10839 13.959418
18.45349 29.283394 14.116424
33.49149 25.242393 11.986419
34.04149 24.613396 13.41542
18.019485 68.86039 0.6424179
17.688488 70.618385 1.4004211
3.1284866 74.00139 10.163421
3.0404892 74.50339 8.599419
0.695488 5.12339 91.992424
38.24949 6.3103943 91.76342
22.600489 7.578392 90.51942
22.583488 6.736389 89.11142
28.05449 31.008385 94.45642
29.457489 29.670387 93.46942
8.358486 28.931389 92.19342
9.552486 29.010384 93.23542
11.399489 80.30039 58.39742
12.190489 79.23839 59.88042
29.86249 75.77539 59.32942
30.85449 76.80239 59.89742
25.253489 4.9523926 2.0744247
26.57149 2.8603897 2.4694214
4.362488 104.73039 113.70742
5.4114876 105.97939 114.342415
10.315489 69.15539 60.79042
9.553489 69.99039 63.25442
25.70949 65.28639 60.47142
25.39649 63.66039 61.45942
11.264489 49.930397 89.89242
10.714489 48.776398 87.97242
25.32049 41.140396 88.09542
25.92149 42.310394 86.35842
34.87449 41.363396 108.731415
35.07349 39.264397 107.59642
11.442486 39.973396 109.633415
12.345486 40.832397 108.45942
13.880486 4.4303894 22.228432
14.173485 3.7523956 24.371422
11.131485 1.5983887 21.99942
9.541485 0.6573944 21.482422
11.293488 42.09439 99.19942
11.201485 43.932396 100.62842
34.47249 46.610397 106.05842
32.77649 46.362396 106.19942
28.114489 81.39939 51.247417
27.687489 81.56739 53.50242
10.892489 86.33139 51.622417
9.8784895 86.87039 50.22842
2.1724892 57.172386 25.313423
3.1794891 59.025387 25.98542
18.843487 48.573395 26.353432
18.081486 47.309395 27.40342
18.63049 21.112396 44.08642
19.50849 22.04139 45.81442
35.77449 21.416397 45.51442
36.16749 21.902397 47.25742
11.001488 88.80239 68.24142
11.280487 88.30039 70.68242
36.543488 97.42939 70.70641
35.25449 96.92039 69.00142
28.291489 14.983391 1.8514175
25.912489 13.880394 1.3054199
11.764489 17.502396 6.045418
10.924489 18.852394 5.74942
7.7254896 45.69239 77.40042
8.60049 46.69039 79.10942
24.687489 45.368393 73.88742
25.30649 43.91239 73.28642
1.8044891 19.139397 87.54042
1.8714867 17.466393 86.09742
23.89049 16.24739 91.73342
23.603489 15.382393 93.30242
38.682487 88.09839 109.99942
2.0084877 89.52739 110.29142
19.541485 85.93439 107.96142
20.446487 87.18839 108.40542
21.972488 32.148384 58.62642
23.183489 33.63439 59.61642
0.28848648 35.716393 53.50842
0.49048615 34.198395 53.53642
1.9064865 55.318398 27.95742
2.221489 53.783394 26.382423
17.084488 44.348396 29.006432
18.522488 44.80239 28.372429
7.2464867 3.80439 10.759421
7.641487 5.8013916 11.459418
30.624489 8.5303955 18.368423
29.225489 8.09639 17.454422
6.699486 90.71039 17.015419
6.421486 93.30639 16.975418
27.648489 92.89239 16.850418
27.20649 91.29339 17.279419
9.390488 32.617393 95.37342
7.9724884 33.409393 96.52342
29.756489 36.379395 95.08542
29.41149 37.221397 93.56842
25.273489 104.56039 1.7584229
25.506489 102.79439 1.3654175
2.1584854 99.07139 110.605415
3.3954887 98.62439 109.31742
20.43949 44.810394 30.46743
20.820488 46.27339 28.979424
37.49749 45.006393 27.69442
37.81549 44.975395 29.38842
5.0014877 73.47039 37.602417
4.2344856 72.09939 36.260418
30.35149 80.56639 43.41042
28.98749 79.30039 43.50742
9.141487 86.56739 36.906418
8.736485 88.18939 35.365417
29.621489 86.40339 39.61342
29.46249 87.36439 41.26342
38.731487 32.501396 30.09243
38.36449 30.255394 30.032417
11.571487 21.284393 25.052422
11.138485 19.779396 24.17643
6.4044876 0.67139435 11.160422
5.601486 0.71339417 8.814423
29.385489 104.92539 18.100418
29.364489 105.67939 19.561424
14.103485 36.33039 111.48742
13.061485 38.201393 111.632416
35.79549 38.449394 3.6374207
34.904488 37.715393 4.9574203
32.61749 32.971397 3.0764236
33.855488 32.946396 1.2024231
12.835487 31.833397 114.51642
13.775486 31.785393 0.82642365
37.223488 46.076393 19.786423
38.703487 47.047394 18.162422
14.195488 41.684395 14.940421
16.113487 42.312393 14.967422
3.7984886 1.4143906 111.69142
3.3924866 3.4853897 111.646416
29.22949 10.177391 4.697418
28.555489 11.410393 3.756424
30.829489 95.01239 53.281418
30.263489 94.57939 51.107418
14.18549 99.49839 56.580418
13.251489 98.20439 56.052418
13.173489 101.37339 50.281418
14.032489 103.34239 51.30842
29.183489 98.59939 50.34942
30.06049 97.38639 51.08542
0.5124855 61.56539 20.537422
37.36649 60.75439 19.257423
24.287489 63.33939 22.358421
23.61349 64.62339 21.532417
15.984489 76.68439 97.534424
16.471489 75.82639 99.25942
33.12249 73.55739 98.53142
33.94749 72.618385 100.08442
26.916489 5.7163925 14.774421
27.83049 5.7233887 16.946419
14.387489 10.5303955 25.794426
13.828489 9.198395 24.853432
2.9084854 16.090393 74.50442
2.9564857 15.937393 72.396416
18.666485 14.093391 67.48942
19.670486 13.904396 66.29642
10.328489 3.0843887 11.53942
10.304489 2.604393 13.975417
26.864489 103.16639 13.406417
26.58149 101.81639 14.449424
28.67949 47.614395 84.07542
29.75549 47.742393 86.10542
6.4654884 47.545395 82.90442
7.528488 47.73239 81.40642
4.7694855 78.353386 19.22042
3.169487 77.061386 18.08442
20.415485 75.92839 14.06742
20.713486 74.35139 13.604423
1.5524864 78.56539 1.928421
3.0094872 77.29939 0.39642334
16.994488 74.19339 111.64142
17.726486 73.79539 110.17942
12.839485 28.426384 27.04943
13.180485 29.119392 29.224419
1.096489 38.699394 33.14942
0.33148575 38.695396 34.53042
25.56049 38.779396 73.27142
24.52449 40.570396 71.95842
8.301489 47.05139 74.94642
8.591489 48.201393 76.09842
22.589489 82.52839 5.7334213
24.701488 83.64639 6.053421
37.94049 81.16639 111.90442
38.57449 82.79039 111.95642
13.086489 25.959389 5.008423
13.415489 24.135384 5.487419
29.117489 21.158394 2.065422
29.38749 22.168388 0.8824234
10.917488 17.853394 20.086418
10.395485 19.797394 21.743423
34.16349 18.722397 28.492424
32.94849 19.768394 27.631432
27.75249 17.545395 1.1864243
26.954489 19.16439 2.5744247
13.017489 20.352394 10.85842
12.698489 18.946396 11.825423
14.238487 76.27639 86.08642
12.500484 76.93139 87.33642
35.39449 81.94839 83.26042
35.81649 82.81839 84.67742
6.343487 26.411385 89.37642
7.136486 24.266396 88.91742
23.490488 22.612389 87.12342
23.99449 24.284386 86.69442
10.018489 84.38739 38.66942
11.009489 85.68739 39.99542
27.80649 83.68039 38.207417
29.16449 84.46839 37.442417
2.690487 41.798393 55.62542
2.452488 44.096397 54.91942
23.86349 42.542397 56.43242
23.35449 40.990395 56.04942
30.36849 18.006393 8.534424
32.09649 19.441391 7.0944214
8.379486 16.30339 5.3004227
9.471485 16.904396 6.8824234
19.533485 99.93139 108.93142
19.734486 100.10639 110.731415
6.994488 103.08239 115.05542
6.9204865 101.96239 1.1694183
23.38949 89.18439 10.032416
23.152487 90.27039 8.337418
6.0084877 91.62239 9.215423
4.8714867 90.36039 9.081421
3.3554878 64.48939 28.363426
2.8454857 62.03239 29.92443
17.534485 58.48639 20.946419
19.097485 57.93539 20.103424
14.898489 54.127388 103.493416
17.006489 54.01339 102.44842
29.74549 46.071396 103.19842
30.32849 45.69039 105.231415
23.77249 77.99839 12.204421
24.05749 77.66039 9.895423
37.556488 71.59239 5.0164185
37.90849 71.660385 3.3774185
26.38449 26.958397 96.12242
25.15049 28.450386 95.09642
10.736489 28.992393 97.76042
9.447489 28.862389 98.92042
10.166485 84.534386 58.226418
10.330486 84.047386 60.69742
33.61149 83.76239 64.59441
32.40749 84.74439 64.966415
38.87149 58.38139 18.201424
2.0014877 59.17439 19.657417
17.144485 52.674393 22.09842
17.509487 51.182396 23.033424
4.2834854 69.25039 44.91842
2.9324875 67.409386 44.76442
28.02449 71.74739 49.92942
27.49349 72.77239 51.23142
5.468487 22.226387 86.55142
5.943489 24.199394 85.95442
23.09149 21.031395 81.99342
24.534487 21.562393 82.81442
18.580486 60.78439 2.664421
18.210487 58.46139 2.5684204
0.9844856 63.41939 3.7964172
0.6274872 64.72239 4.9134216
22.33149 59.499393 40.17642
24.159489 60.718388 40.066418
38.12249 51.726395 36.427418
0.65748596 51.89939 35.496418
36.62549 34.840393 16.20742
36.16749 36.868393 15.621421
20.05749 34.479393 21.65142
18.778488 34.63639 22.678429
7.282486 76.85639 48.96542
7.1544876 78.70539 49.080418
28.35149 76.74939 47.115417
28.13449 76.05139 48.79242
26.60549 3.0963898 20.011421
27.80049 4.7353897 20.294418
14.145489 4.453392 27.014427
13.035489 4.293396 28.27343
20.937489 99.77239 90.48742
21.310488 97.57039 89.39442
36.495487 98.38139 89.20542
38.03149 98.67639 89.98642
19.767487 8.791389 82.92842
19.222485 9.394394 84.47142
2.150486 12.167389 81.29742
0.5734863 11.74939 81.67342
26.22349 42.826393 82.20742
27.19249 41.346397 81.79542
5.146488 38.180397 79.19642
5.596489 36.87039 79.97442
11.848489 89.27239 56.29742
11.979489 87.78139 54.434418
28.26449 86.42039 53.06942
28.576488 87.59139 51.81242
0.96748734 34.380394 48.462418
1.7524872 35.764397 46.969418
18.501488 34.125397 53.92242
17.813488 32.950394 55.38942
1.7334862 104.44039 90.63542
2.2044868 104.78039 88.52142
18.362488 97.85439 90.06042
18.402485 96.57239 88.92742
2.4914856 28.31939 72.340416
1.5024872 28.771385 70.70741
24.839489 36.03739 75.034424
23.70249 34.543396 75.65542
8.221489 59.96539 72.20842
8.190489 58.750393 70.71242
23.12749 52.603394 70.801414
24.68249 52.14839 70.08141
15.351489 71.34139 100.01242
16.389488 71.66639 101.80742
31.62849 66.85539 96.94842
33.26849 66.81739 97.46942
36.52849 101.01339 83.55842
37.28849 99.77139 82.14242
14.184486 93.20639 79.06842
15.346486 92.36839 79.95642
7.1804886 91.62539 21.86242
6.8304863 93.29939 23.353432
27.59549 92.62839 19.968422
27.30649 93.31139 21.502419
5.3314857 77.78039 40.241425
5.905487 78.83139 38.16442
28.246489 80.673386 33.95942
28.65649 81.36939 35.499428
7.764489 55.492393 57.49342
8.245489 56.47239 59.41542
24.46049 55.479393 62.74442
25.694489 55.877388 63.726418
22.983488 90.02939 4.170418
21.232487 90.11239 2.8524246
4.5414886 91.90539 2.0784225
5.266487 92.23439 4.3124237
21.457489 67.38939 9.740417
21.348488 65.52239 8.248421
36.81949 58.44839 6.6894226
37.890488 59.36639 7.869423
19.699486 30.036385 49.949417
19.448486 31.689384 51.77642
2.2984886 31.199394 50.768417
1.4514885 31.649391 52.38642
3.8594856 23.141396 81.09142
1.8974876 23.76139 79.59842
25.24349 26.124397 82.20942
23.83149 25.936394 81.34642
15.410489 44.873398 113.493416
17.174488 45.601395 0.22042084
33.85149 46.110397 110.48642
33.62949 45.989395 108.85142
28.46749 96.04739 24.103432
30.10849 96.88439 25.715431
6.9134865 95.44939 26.032417
7.9304886 96.52639 26.655418
36.56149 77.32339 100.54642
38.18349 78.992386 101.67742
14.309486 72.65539 97.66342
15.421487 71.88839 97.00042
27.96349 97.79739 21.79242
28.10249 95.75439 21.36042
6.7834854 95.65939 18.826424
7.872486 96.88439 19.254417
6.9854894 20.385391 101.09942
7.8674893 18.960396 102.54242
23.09549 13.44339 99.62042
24.66749 13.572395 100.438416
18.84949 81.85639 92.23542
18.986488 83.99139 92.81642
33.890488 77.53039 93.49342
34.60249 78.46339 92.21742
22.90849 56.648384 37.743423
22.596489 54.671394 37.213425
37.92949 50.71939 31.562431
37.80449 51.380394 29.908424
6.7654877 80.37939 36.257423
8.249489 81.87439 37.09842
21.688488 75.20839 31.335426
22.400488 73.73639 30.391426
25.20349 94.24639 6.2314224
23.523489 95.38139 7.5784225
6.200489 94.79839 5.3444214
5.650486 96.58039 4.662422
18.329487 38.797394 28.43943
17.821487 39.951393 30.10743
1.9674873 45.032394 31.339424
0.38248825 45.727394 31.227425
12.064489 100.69039 33.407417
12.238489 99.727394 31.35743
28.87249 97.91539 28.418419
30.155489 96.70739 28.613426
22.014488 16.327393 74.16642
20.396488 16.959396 75.62642
5.2584877 18.917397 78.34242
3.907486 18.160393 79.19542
27.82349 66.13539 72.551414
27.15149 67.90039 73.29842
13.085489 76.12039 67.47342
12.510489 77.36139 66.30842
23.930489 43.35639 66.26242
24.87049 42.174393 64.174416
2.207489 39.978394 59.61642
3.6794891 40.711395 59.816418
13.203487 10.599396 38.185417
11.736485 10.619392 36.582417
35.99049 14.349396 41.58542
35.12249 15.793396 41.32142
17.92149 77.66139 100.62242
19.194489 79.23739 101.03942
34.286488 79.56639 104.23942
34.946487 79.25439 102.64542
22.56149 92.57239 2.7974243
23.273489 92.47639 0.43241882
1.5424881 92.16139 2.1304245
2.0744858 90.74439 2.2344208
16.446487 41.94239 5.595421
15.287487 40.49639 6.3724213
13.188488 40.854393 114.26842
14.287487 40.943398 112.856415
18.31149 40.27339 32.82543
20.096489 41.458397 32.53042
37.83249 39.756393 30.484428
38.26349 39.268394 28.933418
14.549489 14.714394 27.058418
15.235489 16.531395 26.361427
28.885489 8.6783905 21.839424
28.763489 7.4683914 20.344421
22.180489 15.119392 86.85242
22.322489 13.412392 88.23142
1.8664856 10.575394 88.98042
2.7464867 9.8903885 90.19342
22.30749 58.91039 26.991432
20.442486 57.94139 25.322426
5.5244865 66.70239 28.128426
6.0274887 67.63639 29.512428
31.96349 82.05539 74.45342
30.63449 83.03139 72.69442
14.52249 83.88039 74.73542
14.649489 82.95639 73.41342
37.38249 32.717392 33.91442
0.40548706 32.032387 34.80343
16.037487 30.711388 35.31942
15.887486 29.482384 33.740425
18.789486 103.54039 87.86442
17.940487 101.57739 88.03742
2.2554855 1.8253937 85.64642
1.7814865 0.9703903 87.10742
33.30249 81.48039 80.05742
31.38049 80.41739 78.93342
17.538488 88.56239 82.51742
16.30749 89.53939 82.03942
38.03549 93.21839 89.24942
37.94149 92.39339 86.895424
14.902485 87.87239 86.77342
16.711487 87.50539 87.24342
14.58149 64.55139 91.20542
15.002489 64.44339 93.23342
30.27249 61.31639 84.61642
29.607489 59.52039 84.67942
22.49049 95.02939 104.05642
23.34749 93.366394 103.897415
38.376488 88.131386 99.26042
38.33749 87.18339 97.67642
2.860489 71.77239 12.189422
4.0554886 71.32039 14.092422
20.256485 75.91639 11.402419
21.212486 76.40839 9.849418
18.608486 34.647392 48.094418
18.405487 37.068398 47.86242
5.188488 43.896393 55.43542
5.5004883 44.739395 57.184418
14.142489 50.041397 100.965416
15.012489 51.669395 101.83742
30.589489 47.890396 97.84342
31.40349 47.925392 99.33742
37.26349 19.158394 46.74142
38.79849 21.002396 45.080418
15.390489 19.009392 49.82542
16.149487 17.215393 50.296417
29.076488 80.41439 38.33142
29.944489 82.22339 39.284424
5.747486 83.80239 31.297432
7.3544884 84.21639 31.723427
11.755486 77.66939 73.27242
10.715485 78.05239 75.21742
33.620487 83.95439 72.02641
32.28449 85.006386 70.898415
34.49049 101.15739 61.78342
33.54749 103.05539 62.517418
17.538488 104.99639 66.36042
16.32449 104.19339 67.647415
31.65149 101.241394 57.25442
31.08149 99.23439 57.79942
15.085489 100.77739 59.16242
15.38849 102.34239 59.49542
17.773489 83.97639 98.26742
19.68249 85.71739 98.70942
33.911488 80.54639 94.09942
35.31149 81.65139 94.80742
3.2624855 10.506393 97.06542
5.3264885 10.469391 97.94442
19.887486 5.0273895 95.20842
19.786488 5.1153946 93.59242
32.76949 23.905388 15.97042
33.29149 25.02639 17.795418
15.610489 27.933388 22.728432
15.000489 27.512398 20.990417
38.38049 25.51339 49.92342
38.83049 26.644386 48.04042
15.527486 22.309395 43.81742
15.592488 21.337395 42.32042
8.746487 98.05639 36.634422
9.008488 99.90239 34.977425
31.780489 102.16739 36.79042
32.466488 102.88739 35.30343
20.846489 30.17939 53.135418
21.47749 28.439384 52.150417
36.030487 27.908394 47.69042
36.43649 27.01339 46.60542
29.14049 91.13139 49.22942
28.18149 89.33339 48.05542
12.450489 94.80539 56.71442
11.02249 93.54939 56.538418
36.53949 95.00039 83.62242
36.74849 92.68139 82.62242
14.042488 88.85939 79.59842
15.337487 89.86739 79.18242
11.806489 64.92139 81.80342
11.466489 66.03339 83.56142
27.92549 70.83439 79.54542
27.59049 71.15139 77.93742
3.6894875 85.19839 21.033424
4.589489 82.88839 20.920418
21.485485 79.47139 17.795418
22.273489 81.00039 18.494423
1.7224884 37.609398 54.59542
0.4684868 38.977394 53.63942
23.84749 38.095398 57.094418
22.60549 38.868393 58.08142
10.445488 9.81739 14.695418
8.843487 9.414391 12.863418
32.53449 17.532394 11.5164175
31.03249 17.018394 11.464423
11.293488 85.72039 64.55542
11.025486 84.17039 65.69842
36.63049 90.894394 74.65142
35.14249 90.81539 73.99842
4.136486 78.63939 11.771422
5.9674873 80.520386 12.146422
20.914486 73.83639 7.174423
21.156487 71.78839 7.025421
5.403488 100.19939 6.395424
4.0274887 102.102394 7.1844177
28.746489 103.84339 11.201423
28.96249 104.85439 12.462417
32.34649 73.89339 87.84642
31.20249 75.04539 86.44142
18.343489 84.56939 90.04742
16.80749 85.30639 89.50842
20.233488 51.05139 32.820427
21.333488 49.532394 32.940422
38.30449 46.905396 35.17443
0.4744873 46.082397 34.14843
10.612489 103.99839 21.878418
9.072489 102.394394 21.48542
25.90749 94.34739 25.585426
26.214489 92.70939 24.72242
26.91749 2.8913956 110.54142
25.90049 0.71939087 109.689415
1.5944862 98.10139 106.22242
3.0724869 99.05239 106.04342
26.05949 40.216393 84.24042
27.77549 40.38639 85.36542
4.8504868 35.99539 83.00542
5.987488 35.167397 82.270424
6.581489 102.57839 8.300423
7.3804893 100.16839 8.687424
24.50949 101.09139 3.5964203
25.072489 100.18639 2.1554184
8.924488 50.458397 79.42442
10.140488 49.000397 78.48842
7.789486 52.004395 76.381424
7.3874855 53.42839 75.54542
35.751488 32.28739 23.900429
34.23249 31.80439 25.052422
19.58849 36.349396 30.053429
19.278488 34.90039 30.92643
27.69549 55.785393 86.02742
26.77549 57.816387 86.41742
11.546489 56.811394 88.67842
10.256489 55.728386 88.76842
24.74549 19.087395 70.32142
23.333488 16.780396 71.82442
36.54749 9.551392 69.62442
35.95149 7.9823914 68.965416
37.23649 102.07539 80.38442
35.67649 101.59539 78.58342
20.643488 105.491394 87.15242
19.560488 105.92539 88.53842
25.787489 88.40739 10.620421
26.24049 90.08239 11.909423
3.6944885 87.88939 12.433417
4.563488 89.05239 11.584418
22.774488 85.31739 19.593422
22.374487 83.784386 18.049423
5.891487 87.00839 14.851417
4.9634857 85.63639 14.38642
35.752487 85.47039 90.49142
34.238487 83.75939 89.41142
19.808489 88.79039 95.02842
19.295488 90.01139 93.95442
9.894489 78.05539 40.435417
10.478489 80.53139 41.725418
26.84749 79.16439 39.304417
27.45249 77.81839 38.374416
26.30049 71.88539 37.36342
27.81449 72.451385 39.089417
1.8624878 63.10139 37.28542
3.2154884 63.91539 36.422417
13.995489 50.09339 105.15242
14.288489 49.157394 103.28242
29.25249 41.555397 99.82542
29.07849 42.613396 101.00142
35.84749 67.74939 113.72442
36.81249 65.70239 113.52942
14.715485 66.99439 111.049416
15.282486 68.24639 110.15242
33.62949 32.111397 14.919417
32.731487 31.785393 12.843421
16.06049 36.056396 17.121422
16.313488 36.035393 18.899422
16.033485 56.322395 110.43142
14.814487 54.18139 110.81042
38.113487 52.618393 1.8604202
38.82249 54.11039 2.706421
31.68849 2.1093903 55.11642
31.53249 1.0253906 53.57642
17.153488 2.9713898 57.212418
15.768489 4.321396 56.88442
1.4664879 39.033394 43.91742
3.5204887 39.225395 43.06942
17.734486 32.826393 43.379417
17.824486 32.627396 41.39642
13.114487 52.02339 103.58642
12.700485 53.05139 105.18142
36.90649 52.281395 112.29042
35.17949 52.057396 111.73942
4.9094887 97.08639 105.63042
6.563488 98.49339 105.64042
21.107487 91.32239 107.16442
20.780487 90.45439 108.495415
31.42049 82.66139 58.78242
32.702488 84.14439 57.94542
5.9024887 74.27139 52.72042
5.7624855 72.53939 52.97342
18.883488 2.4893951 90.21542
18.441486 0.5643921 91.17342
3.1004868 8.770393 92.94742
1.787487 7.7403946 92.36042
33.21349 79.41139 71.94442
34.18349 78.14239 73.68942
11.074486 75.35839 75.95342
12.146488 74.31539 76.45742
17.446487 75.83639 113.94642
17.112488 73.81039 115.00042
0.33748627 76.50439 4.253418
38.662487 76.52839 2.6494217
24.27149 58.88339 51.621418
25.07749 57.29739 49.81842
3.681488 60.52139 50.831417
4.7104874 61.54339 51.782417
8.020489 88.75139 31.238426
7.341488 90.57739 32.35543
28.43649 89.45539 31.071419
27.030489 89.81239 32.04342
4.4274864 28.271385 67.96342
4.6074867 29.76339 66.064415
20.647488 27.743385 64.40742
20.867485 27.76139 66.01242
0.60248566 11.833389 78.88442
38.49649 9.86039 78.30442
21.239489 12.480392 76.97942
19.65849 12.113396 76.50442
23.118486 63.67539 34.14842
21.273487 62.78039 35.33442
5.867489 70.19239 37.874416
5.775486 68.67839 38.69042
21.25149 103.73039 98.94542
23.06149 105.21239 98.21342
0.6604881 100.44839 94.75042
1.1994858 98.84839 94.992424
27.801489 64.729385 65.61042
26.378489 65.12539 67.07442
9.5694895 65.98339 67.61242
8.188489 65.86939 66.50442
2.539486 18.146393 66.69842
3.539486 18.401398 68.69442
19.485485 20.316391 67.52742
20.656487 19.069397 67.23341
13.237489 79.21639 71.243416
14.48949 78.05339 72.675415
30.06849 80.381386 71.83342
30.42849 78.84739 71.18342
14.566489 6.731392 41.51242
14.436489 5.003395 39.97342
31.00149 6.142395 45.17542
30.784489 5.9143906 47.08642
28.596489 87.72339 28.989418
28.346489 89.91939 28.23542
6.567486 88.53039 26.032417
6.584488 87.67139 27.323418
14.329487 15.497391 34.600426
13.102486 13.927391 34.492424
34.640488 18.166397 36.383423
33.952488 16.924393 35.505424
0.8724861 18.853394 54.88342
2.386486 18.341393 56.79642
18.010487 17.857391 54.62342
17.549488 18.549393 52.92842
23.03249 69.92139 13.6444235
23.173489 72.41639 13.385421
37.77449 70.03039 7.1894226
38.02649 68.27539 6.2554245
33.19349 0.7063904 44.78442
34.18649 1.1493912 46.55442
11.445488 102.29839 46.17542
12.908485 101.66239 45.371418
26.51149 25.086388 90.61142
25.68949 24.584389 88.76942
2.9094887 20.866394 85.61542
4.108486 21.163391 84.55242
7.4514885 81.11539 30.659431
7.5554886 81.17539 28.473427
22.621489 80.93139 23.644432
22.32749 79.96939 25.478432
29.99349 35.45539 107.285416
28.815489 33.83039 108.09942
15.9444895 42.671394 111.01242
14.761489 41.90039 110.15142
33.96349 95.06339 84.20342
34.29549 95.71939 86.60742
35.085487 88.34239 90.95442
35.189487 87.83239 89.24842
8.090488 40.813393 84.94942
5.5504875 39.215393 84.80642
28.096489 43.85839 86.81642
28.32349 45.74539 86.93942
1.8074875 86.47539 97.48942
1.6054878 86.05739 95.14242
16.068485 81.14439 89.14442
17.220486 80.14739 89.43942
1.2884865 13.877396 73.24642
1.207489 14.236389 75.40242
22.398489 14.629395 78.25942
22.468489 14.8673935 76.56742
4.219486 83.29039 12.212417
3.3214874 81.41539 10.913421
26.84049 86.24839 12.395423
26.395489 85.60839 10.653419
35.55849 66.39839 111.20542
35.53149 68.701385 111.313416
21.048489 75.23639 113.521416
20.04049 74.33039 112.10242
34.06849 31.165398 18.927422
33.16049 32.519394 17.49842
19.24449 32.086388 24.726418
18.65849 30.803383 25.871422
29.96749 45.96839 91.85842
30.364489 47.909393 90.34742
7.872486 43.488396 89.478424
7.518486 44.558395 88.25742
19.739487 86.99139 102.049416
17.989487 86.01239 100.72042
3.3654861 93.71239 102.72442
2.8564873 95.33239 102.33042
38.35049 81.87339 106.687416
37.43549 80.21539 106.049416
15.894486 78.561386 104.757416
17.003487 79.01539 103.466415
