17.530506 40.185146 37.683174
18.344505 42.142147 38.072174
92.094505 5.108143 14.907181
0.28850555 6.98415 15.36718
5.1585045 9.689144 4.68618
6.910511 11.450146 4.806175
66.15851 22.622143 24.047176
64.096504 21.351147 23.306175
60.758507 16.671146 33.848175
62.225506 15.821148 35.818176
7.910511 54.236145 53.255177
5.8635063 53.269146 53.968178
0.12850189 52.236145 64.460175
90.6945 51.699146 64.34218
29.717506 28.040146 60.468178
30.759506 27.287146 62.430176
27.091507 26.866146 0.6481781
25.020506 27.142145 1.9111786
46.249508 29.491144 34.593174
48.163506 29.116144 35.085175
45.550507 24.504145 46.894176
44.608505 26.304146 46.614178
53.06151 51.640144 8.869179
54.194508 52.059147 10.658173
51.495506 48.074146 21.29918
52.980507 46.961143 21.791176
25.322506 38.628143 5.843178
24.681507 37.440144 4.1891785
35.375507 41.926144 66.60117
33.703506 41.450146 64.39918
27.937506 50.591145 10.275177
28.784506 50.908146 12.354179
21.866507 50.880146 23.337181
20.910507 48.887146 22.483177
69.568504 34.982143 11.147179
69.2835 33.909145 9.535179
79.148506 35.700146 4.162178
79.5225 34.879147 2.0551758
76.291504 14.153149 9.153175
74.763504 15.003147 7.709175
84.0635 18.830143 1.5421753
85.360504 20.294147 1.0071793
11.703506 33.704144 33.900177
11.767507 34.916145 35.552177
5.8955064 31.169146 43.197174
3.4745064 30.402145 43.284176
45.430508 40.937145 69.47817
47.073505 39.645145 69.48218
51.371506 47.014145 59.612175
53.092506 47.021145 60.426178
47.055508 2.1701431 41.922176
48.264507 0.4951439 40.380177
54.328506 7.28915 31.977177
56.002506 6.5221443 31.013176
62.534508 14.45615 55.101177
62.123505 15.860149 56.827175
62.57551 19.06715 59.631176
65.0155 18.08115 59.346176
4.8115044 18.72015 58.955177
2.5475006 19.55415 58.976177
88.2155 12.47015 66.22717
87.7125 12.174145 68.63418
73.2805 10.905148 58.903175
72.1135 12.184147 56.84218
75.0575 18.538143 46.959175
76.4235 16.980145 46.696175
78.038506 26.190145 30.286177
76.7675 27.477146 28.800177
82.5615 26.795145 19.203176
84.3825 27.019146 20.343176
76.343506 48.819145 57.424175
77.4075 50.331146 58.545177
72.1575 46.710144 68.211174
73.483505 47.001144 0.49917603
36.52651 14.521145 24.298176
36.745506 15.903149 25.950176
27.150507 13.652149 32.285175
27.821507 13.076145 34.675175
61.017506 20.266148 38.655174
59.087505 20.81715 39.513176
54.666508 13.3811455 48.350178
55.94351 13.744144 49.645176
65.066505 11.448147 3.1371765
64.844505 13.673145 1.5691757
73.499504 13.300144 62.551178
73.2695 15.205143 61.030178
78.594505 38.970146 1.7771759
79.150505 37.011147 0.35417938
84.943504 40.957146 59.57818
84.929504 43.327145 59.93918
28.160507 34.558144 6.358177
28.840506 32.349144 5.9481735
37.069508 35.899143 66.028175
35.333508 35.936146 65.11817
1.4505005 40.109146 9.972176
1.6045074 42.150146 9.153175
3.7155113 47.106144 68.40018
5.2535057 49.280144 67.432175
56.338505 56.037144 44.970177
55.375507 0.3701439 46.083176
51.737507 55.239147 58.701176
53.31851 53.210144 58.010178
91.344505 54.123146 31.819176
91.1135 51.881145 32.050175
83.912506 53.365147 42.010178
84.6855 54.910145 43.168175
66.42251 11.017147 36.935177
64.5885 10.772144 35.318176
67.5745 20.058147 25.219175
69.4535 18.72015 24.837175
69.7445 36.189144 50.202175
71.2715 34.667145 50.132175
69.565506 34.251144 62.865177
69.0315 32.912144 64.40717
42.667507 21.542149 9.705177
44.437508 21.987148 11.776176
51.964508 25.425144 2.322174
51.241505 23.421146 0.91417694
74.9535 52.781147 60.374176
77.0755 52.577145 59.89018
74.59251 50.846146 2.2041779
73.0345 49.569145 1.3341751
63.024506 6.7701454 52.054176
64.4035 5.3171463 52.990177
57.262505 2.0041428 61.952175
58.857506 1.5841446 63.552177
56.662506 51.839146 61.396175
57.490505 50.682144 59.448177
58.944508 55.884144 49.130177
60.122505 54.536144 48.090176
56.157505 32.247147 39.519176
57.348507 31.022144 38.065174
62.57551 38.230145 30.003176
61.281506 40.102146 29.713177
57.638508 12.523144 52.394176
56.90151 10.548145 51.471176
49.334507 8.445148 60.820175
49.774506 9.371143 63.27918
35.772507 31.870146 28.296177
36.631508 30.266146 29.059175
31.443506 24.917145 39.505177
29.886507 23.499146 38.483177
33.051506 47.695145 48.468174
31.335506 48.681145 49.327175
28.119507 43.936146 59.04318
28.921507 43.054146 60.62718
57.225506 11.060146 64.85818
56.824505 8.912144 64.13418
60.869507 10.791149 52.511177
62.666508 10.208149 53.756176
35.336506 39.951145 13.875176
34.844505 37.919144 15.036177
32.478504 37.898144 26.574177
31.201506 39.052143 27.602177
8.2625065 51.299145 0.5231781
8.867506 51.944145 2.7011795
1.5425065 47.357147 10.415176
-0.46049356 46.380146 10.940178
53.301506 6.215145 12.790176
51.215508 7.071148 12.993176
49.65851 4.495144 25.517176
47.247505 4.958145 24.398176
36.27651 44.805145 65.49217
35.414505 43.563145 64.10217
43.028507 42.347145 53.241177
41.201508 42.246147 51.919178
91.2275 22.957146 20.24118
92.2565 24.425146 20.591179
3.7795067 28.212145 10.216179
2.9685097 26.272144 8.614174
56.452507 40.667145 59.534176
55.716507 42.826145 60.639175
49.527508 35.601147 67.95217
50.806507 33.881145 68.709175
58.286507 6.7801437 49.85618
58.816505 8.421146 51.025177
55.855507 4.0981445 61.169178
56.329506 4.3811455 63.233177
18.843506 39.417145 2.6341782
18.851505 40.999146 4.0051727
15.154507 34.947144 14.098175
13.160506 35.331146 15.303177
20.094507 13.146145 48.463177
18.944506 13.339146 50.25818
15.846506 8.67915 59.409176
16.105507 10.228146 61.130177
73.734505 56.451145 57.998177
73.027504 1.2071457 59.76618
70.12051 56.254143 0.7511749
68.9765 1.323143 1.6821747
55.712505 36.145145 4.2691727
54.152508 37.930145 5.605179
49.977505 32.557144 16.676178
50.32551 34.238144 18.03218
23.015507 45.071144 5.892174
22.248507 46.053146 3.9311752
31.204506 49.379147 66.613174
30.135506 49.760147 64.74117
64.99551 25.545145 3.3321762
64.2275 24.015146 1.4331741
65.6435 27.247145 61.604176
67.762505 27.656145 60.895176
16.797506 36.143147 35.993176
14.625506 36.108147 36.422176
6.9605064 34.212147 45.045177
7.7225065 35.946144 45.745174
70.3555 43.630146 17.441175
68.4465 44.374146 17.271175
67.7275 35.267143 25.334177
66.6135 34.109146 26.928177
14.539507 11.758144 25.768177
16.003506 13.860149 25.448175
22.659506 11.602146 14.106176
22.119507 9.825146 12.327176
38.736507 31.185144 30.866177
38.688507 29.276146 30.607176
36.066505 23.353146 40.769176
36.80451 24.432146 43.209175
73.705505 9.688145 44.455177
74.84251 7.6791496 45.206177
64.86951 9.738148 51.792175
64.676506 8.183147 53.589176
37.312508 19.061146 25.933176
38.278507 17.546146 26.988176
32.448505 14.264149 35.738174
30.548506 15.704144 36.439175
26.432507 11.407146 14.006176
27.186506 13.49815 15.189177
19.254507 11.351147 26.196177
20.002506 9.671146 27.218176
77.8675 7.7371483 46.097176
77.5165 5.5911446 46.018177
68.7935 4.328144 54.694176
67.2115 4.840145 53.732178
61.307507 54.807144 31.998177
62.150505 53.604145 33.323177
54.631508 51.641144 43.562176
55.553505 49.821144 43.394176
88.1255 32.070145 41.632175
87.7715 29.914145 40.792175
81.7845 25.950146 49.787178
79.761505 26.741146 49.492176
70.9205 22.852146 46.052177
68.6555 23.817146 47.060177
62.259506 20.445148 56.935177
63.597507 18.966145 56.62018
29.153507 7.701145 52.237175
27.315506 7.731144 51.914177
24.052505 0.36514282 62.118176
22.218506 1.8081436 62.878178
41.359505 11.335148 57.287178
43.131508 10.06815 56.50918
52.238506 11.849148 48.951176
51.654507 13.926144 47.914177
56.656506 56.856144 63.858177
56.380505 55.213146 64.74117
48.502506 50.123146 4.213173
48.046505 52.065144 5.711174
27.156506 41.418144 58.281178
26.116507 39.733147 57.721176
31.622507 41.468143 46.653175
30.073507 41.325146 45.495174
27.661507 21.501148 19.281176
27.306507 21.92915 21.579176
20.963507 20.72115 31.500175
21.824507 20.697147 33.079178
27.502506 24.467146 2.0711746
28.899506 25.876144 2.223175
34.644505 26.729145 61.330177
34.630505 24.718145 60.103176
51.376507 17.722149 66.71317
53.138508 19.073147 66.99518
58.203506 24.853146 59.098175
56.519505 25.470146 57.487175
86.135506 41.194145 42.762177
85.5065 43.260147 42.786175
79.5475 38.865147 51.81418
79.8105 39.422146 53.862175
33.752506 3.1411438 1.2401733
33.092506 1.7371445 69.362175
39.969505 5.569145 58.111176
37.877506 5.3671455 57.03618
36.630505 8.231144 21.456177
38.306507 8.031147 22.890177
29.535507 8.274143 31.810177
29.661507 9.061146 33.938175
29.945507 45.112144 10.378174
27.691507 45.943146 9.415176
34.696507 49.474144 0.9191742
35.514507 51.303146 1.2101746
12.648506 42.430145 35.947174
13.026506 44.497147 37.744175
3.9175065 41.351147 45.016174
4.3925066 42.319145 47.190174
48.223507 6.8761444 27.778177
46.944508 8.500149 29.272177
40.979507 4.406143 39.229176
41.613506 6.8711433 39.757175
1.6775064 4.649143 69.306175
2.2305064 6.663143 0.25717926
10.101506 12.046146 62.871178
8.569507 13.195148 62.501175
5.326506 17.295147 3.912178
3.4145064 17.405148 2.9681778
5.9625063 22.306149 62.817177
5.2515063 24.050144 61.109177
34.937504 11.099148 53.018177
33.159504 13.003147 53.78618
35.171505 14.183147 41.927177
37.139507 15.124149 42.436176
24.657507 33.370144 41.377174
23.003506 32.973145 40.358177
20.531506 27.815145 48.437176
19.981506 27.299145 50.340176
70.997505 3.3501434 39.851177
72.4885 2.215145 40.942177
65.2675 51.031147 48.466175
66.7685 51.074146 50.093178
81.2785 11.629147 64.319176
79.6395 12.705143 64.903175
74.1855 11.48415 5.218178
74.5215 9.341145 5.6721725
30.351507 14.710148 1.8601761
28.463507 14.828144 0.14517975
34.588505 17.982143 59.848175
36.263508 17.522144 57.965176
42.184505 4.4751434 56.829178
41.557507 6.2541428 56.035175
43.17951 6.9311447 43.749176
44.998505 8.025143 42.854176
7.2485085 48.619144 18.439177
7.126507 46.376144 17.681177
90.6745 43.668144 26.488176
90.4725 41.137146 26.070177
1.6715064 15.002148 19.832176
3.6515064 13.108143 19.179176
7.4395065 20.323147 9.9481735
5.7495065 19.219143 8.486176
50.437508 39.242146 36.585175
49.259506 37.765144 35.536175
56.687508 38.351147 26.898176
58.451508 38.676144 26.437176
23.003506 8.491146 66.51817
21.752506 9.906147 67.60417
15.694507 8.532146 8.000175
16.805506 6.9711494 9.215179
64.344505 31.150145 43.675175
65.7815 32.518147 44.746178
72.9175 35.329144 33.906178
74.1725 36.698143 35.314175
31.783506 33.794144 45.132175
32.283504 34.744144 47.534176
24.871506 36.688145 54.72418
22.578506 36.119144 54.336178
86.942505 37.545143 5.9411774
88.5165 36.418144 6.199173
92.1005 39.724144 65.02017
0.76750183 41.463146 65.92618
8.857506 46.796146 50.162178
10.385507 47.328144 47.917175
15.659507 50.751144 41.216175
17.526506 51.440144 39.699177
33.274506 14.562145 38.422176
32.849506 12.602146 38.557175
28.034506 11.116146 50.221176
29.704506 10.211147 51.469177
13.388507 32.615147 31.973177
15.612507 31.653145 31.781176
17.586506 35.727146 21.367176
16.655506 35.587147 19.548176
19.549507 7.453144 10.169174
20.214506 9.787144 10.430176
28.320507 12.036144 0.6611786
30.543507 12.025143 1.6041794
88.274506 44.446144 8.384178
86.915504 44.723145 5.9601746
91.5045 51.574146 67.027176
1.4055023 51.965145 66.56117
24.885506 33.640144 59.205177
25.540506 31.430145 58.445175
24.899506 24.522146 0.42417908
26.312506 23.138145 68.90118
17.094505 55.013145 39.917175
18.550507 54.145145 38.131176
21.180506 3.6651459 28.075176
23.415506 3.6781464 28.210176
83.0295 15.391148 30.631176
82.6985 17.097149 29.773176
86.430504 15.883144 18.049175
87.4915 17.514149 17.218176
28.272507 20.899143 38.504177
26.990507 19.828144 37.586174
24.844507 17.691143 50.95318
26.907507 17.889149 51.899178
19.261507 17.316143 11.824173
20.927505 17.468143 12.639175
24.860506 19.500149 1.6471786
24.584507 21.48415 1.1731796
9.673506 28.748146 45.243176
11.382506 27.392145 44.423176
17.656506 33.506145 35.130177
16.273506 33.766144 33.202175
77.692505 2.644146 23.814177
79.4085 3.4871445 24.888176
84.4465 9.010143 16.014175
83.0705 10.210148 14.560176
75.9875 14.398144 63.75918
73.954506 14.596149 64.708176
72.1055 8.702145 4.350174
70.4755 7.805149 5.721176
25.140507 13.3321495 12.412178
26.191507 15.310146 13.4131775
33.203506 20.936146 5.4561768
34.684505 22.419147 6.6511765
49.404507 35.856144 39.444176
51.110508 37.230145 40.066177
44.237507 38.790146 49.80018
41.744507 38.222145 49.099174
67.8125 48.500145 68.59218
68.8495 50.533146 67.849174
72.331505 54.201145 58.406178
70.9865 54.525146 56.255177
24.192507 55.982143 48.100178
22.749506 0.49814606 46.567177
14.209506 53.664146 53.851177
14.490506 52.713146 55.986176
70.7305 40.218143 63.253178
69.3545 38.230145 62.704178
75.6845 36.466145 53.013176
74.747505 38.313145 53.047176
71.1695 34.896145 65.07517
70.7705 33.614143 66.92618
64.2825 34.552143 6.0191727
64.89751 34.184143 8.092178
4.73151 8.070148 2.7791748
2.454506 7.354145 3.275177
89.96751 3.092144 12.610176
92.107506 2.894146 13.871178
39.060505 26.711143 28.642176
40.446507 26.270145 29.864176
33.382507 19.452145 36.774178
34.685505 19.577145 38.523174
49.756508 37.947144 21.842176
49.358505 36.223145 20.581177
42.566505 32.241146 30.816175
42.844505 29.669146 30.317177
67.9225 32.647144 46.886177
66.5305 34.029144 48.387177
61.147507 30.979145 58.058178
58.842506 31.121145 58.355175
6.5415063 21.848148 7.355179
5.754506 23.807144 6.0871735
12.079507 23.187145 65.735176
13.573506 24.767143 67.16218
87.5015 31.249146 5.7241745
85.260506 31.382145 5.4391785
80.7255 24.269146 14.31118
81.3895 25.755146 15.568176
63.310505 53.754147 30.678177
62.491505 51.963146 29.565176
65.33951 55.275146 17.314177
65.0975 0.06814575 17.353176
20.379507 48.861145 42.117176
21.397507 50.052147 43.566177
15.013507 45.377144 52.054176
13.834506 43.535145 51.970177
49.859505 12.412144 65.36817
50.628506 9.971149 65.725174
50.069508 3.783146 4.4861755
48.862507 3.847145 6.7841797
83.2695 33.309143 54.402176
82.0325 32.980145 52.201176
89.5425 35.084145 43.099174
87.9595 34.998146 42.223175
21.041506 22.256145 14.11618
22.885506 21.787146 14.821175
27.877506 28.338144 6.1611786
28.078506 29.797146 4.852173
86.9045 45.833145 59.782177
88.3905 46.461143 60.262177
4.4095116 47.321144 50.618176
4.9155083 48.725147 49.233177
56.721508 12.117146 35.665176
55.68651 10.652149 34.590176
48.350506 6.6661453 41.657177
47.677505 8.475147 42.790176
78.4755 43.765144 56.607178
78.413506 42.569145 58.220177
76.0995 36.288143 67.28117
74.2935 35.321144 67.02318
42.966507 0.008144379 39.958176
43.494507 1.4731445 41.410175
40.485508 52.986145 51.518177
39.634506 50.473145 51.67518
23.293507 39.694145 4.0901794
21.651506 40.816147 3.6071777
26.718506 47.336143 62.518177
28.452507 46.200146 61.865177
4.7485085 8.880146 55.760178
6.464512 7.6901436 56.893177
0.32650757 7.602146 67.38217
91.0715 6.3181458 67.377174
1.6185064 31.141146 7.2241745
3.9365065 31.465145 6.2201767
10.403506 33.362144 66.85317
10.506506 35.361145 65.556175
89.596504 48.117146 45.088177
91.5295 47.462147 45.025177
1.638504 54.726147 35.093174
1.2655029 54.011147 33.269176
25.195507 23.533146 22.001177
25.916506 25.503145 23.926176
20.969507 28.642145 33.924175
20.073507 26.731146 33.827175
12.9465065 41.553146 16.54818
13.026506 39.754147 15.220177
20.825506 43.149147 6.4011765
22.818506 42.369144 5.4701767
35.336506 47.076145 31.910177
35.393505 45.753147 30.159176
42.444508 47.571144 21.333176
43.607506 49.219147 22.065176
4.654506 29.327145 25.058176
3.7275064 30.147144 22.925177
10.440506 34.397144 14.524177
11.628507 32.973145 14.132176
16.820505 1.6601448 42.602177
15.878507 56.544144 43.429176
7.0965066 0.93514633 51.116177
6.603506 56.267143 51.831177
78.7575 38.371143 16.391182
78.1675 40.735146 16.444176
80.9645 39.621147 4.7701797
79.0195 38.355145 4.376175
36.081505 8.908146 55.33518
36.986507 10.949146 54.726177
41.629505 11.607143 44.219177
41.437508 14.141148 43.667175
49.079506 38.009144 53.16118
48.941505 39.977146 52.083176
55.207508 42.793144 42.594177
55.247505 40.697144 41.469177
16.421507 46.938145 39.009174
16.488506 48.157146 40.534176
7.3365064 41.980145 48.697174
8.394506 42.918144 50.452175
46.863506 20.616146 46.193176
48.682507 20.927143 46.732178
52.480507 24.341145 36.196175
52.697506 26.835144 35.502174
79.4495 20.861149 32.646175
80.261505 22.19315 34.179176
79.068504 19.67915 45.867176
77.3215 20.155148 47.674175
1.7685064 48.713146 14.07518
1.6845064 51.213146 14.2621765
7.1285067 54.258144 2.9921799
9.007506 54.425144 3.4961777
69.2555 21.822145 26.067177
70.915504 21.325146 24.650177
77.372505 27.548145 17.019176
78.9245 26.791145 16.187176
73.8135 48.190144 21.557177
72.359505 46.628147 21.286177
67.398506 43.983147 31.385176
66.899506 41.896145 31.912176
68.3645 14.702145 57.916176
66.2645 14.190144 58.310177
64.040504 7.80315 68.626175
64.6285 9.691143 0.092178345
47.722507 41.010147 54.607178
47.481506 39.261147 56.114178
38.214508 36.776146 63.327175
39.215508 37.480145 65.041176
67.8095 42.426144 63.876175
66.650505 40.585144 62.50218
71.1985 47.611145 52.41118
71.609505 46.068146 51.375175
85.60651 21.812145 18.788176
86.608505 20.872143 20.362177
78.7135 20.189144 30.176176
78.4485 17.879147 30.009176
8.323506 43.311146 15.892177
6.305506 42.298145 15.248177
1.7605064 37.643147 26.086176
-0.85549355 37.804146 26.088177
62.664505 0.85014343 49.050175
62.955505 55.620144 48.380177
70.0305 7.467144 40.941177
71.5705 8.0441475 43.049175
68.9195 49.499146 50.00218
69.9355 47.196144 49.503178
77.0845 49.294144 40.119175
78.2655 51.382145 39.939175
6.392506 1.6501427 53.681175
5.3495064 2.6631432 54.998177
3.1215065 56.667145 66.739174
3.1695065 1.1641464 68.60417
37.372505 36.700146 30.221176
35.377506 36.828144 32.345177
33.274506 27.410145 40.548176
34.643505 28.284145 41.747177
81.926506 21.759144 67.09518
82.7425 20.05415 65.42417
85.4945 20.06815 53.73118
87.3685 21.229145 53.95318
64.165504 13.261143 38.832176
62.805508 14.372143 38.177177
58.333508 10.096149 48.559177
56.366505 11.110149 48.637177
63.395508 3.1871452 16.024176
61.735508 4.6921463 15.809176
56.968506 0.7091446 28.329176
55.472507 2.3221436 28.571177
77.2575 57.004143 22.952177
76.110504 1.3521461 21.994177
84.9935 4.3311462 13.197176
83.038506 5.4401436 12.709176
6.6735115 5.116146 20.541176
6.487507 7.1331444 22.372175
89.873505 3.4111443 29.908176
90.2975 1.6851463 31.094177
84.301506 21.128147 16.151176
86.122505 21.569149 15.671181
88.471504 18.774143 3.4191742
87.192505 18.295147 1.1421738
49.323505 25.569145 16.237177
47.803505 23.733145 16.267176
42.349506 22.590145 26.784176
42.992508 22.875145 28.817177
4.1735063 14.867146 3.5261765
3.3785064 13.327145 2.0091782
10.742506 21.06715 64.253174
9.334506 20.855145 62.540176
70.3095 27.981146 47.036175
68.773506 26.773146 46.540176
65.5015 27.527145 58.866177
64.08951 25.859146 59.477177
43.359505 16.589146 44.383175
42.978508 18.608143 43.338177
46.82551 25.339146 33.429176
48.829506 24.652145 32.886177
52.522507 23.606146 50.994175
53.574505 25.590145 50.324177
62.225506 26.707146 42.467175
62.670506 29.003145 43.182175
21.139507 36.169144 37.692177
21.907507 35.482143 39.666176
13.860506 30.854145 47.221176
11.593507 31.097145 46.921177
43.313507 4.4781456 4.332176
42.446507 3.6501427 2.1941757
49.555508 4.7091446 62.558178
50.996506 6.6361427 63.012177
63.899506 43.649147 30.251177
64.2385 41.520145 31.259176
59.174507 35.639145 41.541176
60.045506 35.647144 43.774178
85.4365 37.947144 22.615175
85.6405 39.658146 24.346176
79.85651 40.467144 35.542175
79.095505 38.390144 35.757175
36.954506 31.046144 63.055176
36.754505 29.589146 60.816177
46.086506 34.129147 53.040176
45.306507 32.514145 51.388176
54.729507 24.539146 19.281176
52.19351 24.027145 19.857176
46.416508 18.436146 27.424177
44.163506 19.800144 27.032177
73.2295 23.872143 30.697176
74.053505 22.329144 31.184175
73.60651 20.406147 42.853176
72.623505 22.212147 43.831177
5.3785057 28.805145 61.979176
4.707508 27.208145 63.171177
91.9115 23.699146 3.841179
92.277504 22.044146 5.317177
21.775507 30.976145 55.111176
22.979506 30.985146 57.07818
17.947506 24.531145 67.36617
15.926506 24.043146 66.86617
76.012505 35.635143 0.6201782
73.7865 35.897144 69.49718
69.191505 31.235146 9.570175
67.4335 29.178144 9.658173
76.872505 16.828144 62.653175
77.8765 16.113148 60.905178
78.4745 20.756145 50.02218
79.4085 22.293148 51.281178
61.336506 49.138145 45.715176
61.814507 48.327145 48.014175
56.579506 46.765144 58.826176
57.639507 45.307144 59.855175
70.4095 31.949144 30.487177
71.415504 31.443146 31.983177
64.5845 28.314146 41.506176
65.137505 26.498146 41.510178
78.5065 53.212147 8.452179
79.1165 55.671143 9.280174
76.3655 51.927147 20.819176
74.5225 50.572144 20.431175
78.7715 3.5641441 27.364176
76.912506 2.6921463 26.344177
72.4735 52.551144 34.713177
73.273506 50.951145 36.335175
47.348507 49.016144 6.360176
46.506508 50.286144 8.037178
38.469505 46.142147 16.113174
36.986507 47.248146 17.151176
37.794506 56.043144 56.40418
36.668507 55.978146 54.610176
28.312506 56.378143 62.646175
26.203506 55.386147 64.307175
60.101505 45.010147 11.268173
59.461506 47.006145 9.523178
65.7255 49.361145 0.5521774
64.6165 51.828144 69.47617
2.0815065 43.056145 64.266174
3.2555065 41.732147 64.38117
9.216506 43.551144 53.18918
8.874506 45.323147 52.27218
54.511505 32.144146 2.775177
53.947506 33.350143 0.9061737
56.758507 37.738144 60.332176
58.662506 36.609146 60.278175
45.214508 35.522144 34.353176
43.810505 36.183144 33.006176
54.302505 38.494144 25.840176
54.232506 41.167145 26.674177
14.6305065 40.503147 35.189175
16.812506 39.475143 34.831177
19.317507 42.828144 24.484177
17.594505 43.291145 23.200176
29.933506 46.802147 45.939175
30.340506 46.487144 47.757175
34.210506 43.644146 49.041176
35.395508 42.335144 48.631176
13.662506 26.447145 47.992176
13.676506 24.528145 46.825176
20.049507 28.535145 36.677177
21.220507 30.256145 36.295177
89.4355 23.654146 38.340176
89.901505 24.592146 40.468174
82.9455 23.237144 50.999176
83.6425 24.987144 52.748177
26.648506 10.982143 68.07818
28.718506 11.436146 67.34017
35.553505 11.269146 57.130177
37.426506 12.570148 56.84918
47.196507 42.016144 3.7921753
46.025505 40.470146 3.3931732
43.683506 36.242146 14.628181
44.729507 37.304146 16.07418
80.34251 43.881145 54.912178
78.6545 43.857147 53.650177
85.5635 49.861145 45.701176
87.872505 50.183144 46.214176
65.48051 4.290146 33.947174
64.7685 2.4961433 33.246178
69.4925 6.5931435 22.229176
68.2145 8.900143 22.148176
1.2905045 37.602146 44.582176
1.902504 37.962147 46.728176
89.2235 35.295143 57.74518
87.247505 33.932144 57.483177
89.3485 28.137146 2.5281754
88.5445 30.169146 2.2791748
89.791504 30.175144 60.538177
89.9225 29.083145 58.454178
14.1305065 53.347145 19.204178
14.940506 51.223145 19.31218
20.359507 51.506145 7.6371765
18.556505 50.140144 7.294174
88.6045 10.697147 49.222176
90.7585 9.816143 49.938175
2.916504 14.265148 39.131176
4.063511 15.981144 39.902176
19.437506 5.4211464 44.197174
17.253506 6.198143 44.793175
13.528506 56.601143 54.313175
11.292506 55.524143 54.080177
80.651505 36.583145 20.164177
82.3915 35.370144 20.805176
76.3795 34.902145 31.131176
75.4755 35.221146 33.171177
15.176506 27.071146 31.428177
15.673507 28.581144 33.181175
10.8545065 20.194145 42.415176
11.969506 20.462145 44.543175
9.529506 7.677143 23.779177
8.157506 5.899143 24.021175
4.0255065 3.389145 35.622177
1.9105065 2.623146 34.599174
66.32651 51.126144 66.12118
64.64751 52.969147 65.291176
67.4665 0.022144318 55.188175
67.0485 1.9431458 54.55018
14.731506 46.857147 55.628178
13.626507 48.694145 56.37718
7.0795064 47.466145 66.98017
5.2685065 45.689144 66.74017
1.3515065 55.712143 50.827175
3.6265063 56.226143 49.916176
8.201507 2.5891457 39.803177
8.997506 4.4351463 40.815174
18.699507 1.0701447 44.283176
19.444506 55.997143 43.690174
11.747506 53.242146 52.65418
10.067506 52.123146 52.608177
9.4795065 32.879147 62.768177
7.8455067 31.642145 62.538177
12.769506 29.543144 52.034176
13.002506 31.273146 50.589176
32.432507 16.219143 22.471176
32.211506 16.379147 20.04618
41.080505 18.784145 12.897179
40.268505 21.007145 11.990181
12.226506 20.641148 28.247177
10.212506 21.216145 28.072176
7.0905066 14.155148 38.160175
7.8175063 13.466145 40.041176
16.028505 16.236149 10.927177
17.803507 15.74815 10.237175
22.197506 19.719143 1.0441742
21.069506 19.204144 69.08717
5.7425117 1.1951447 36.637177
3.7135048 0.013145447 35.879177
89.164505 54.126144 44.925175
87.957504 52.340145 44.365177
69.290504 26.075146 62.610176
69.7235 27.886145 63.62018
68.4385 24.842146 6.180176
69.3615 23.418146 7.148178
22.020506 48.009144 58.47418
23.019506 46.676144 59.49518
19.930506 44.918144 2.6811752
18.779507 46.815144 3.211174
86.2945 21.03915 51.38418
86.8145 18.51315 50.915176
4.1255074 24.591145 43.564175
2.5945053 24.737144 42.336174
78.2955 37.288143 54.26518
78.374504 35.315144 53.278175
71.2265 29.348145 61.643177
72.0995 29.381145 63.700176
73.6255 12.67815 7.8471756
72.650505 10.926144 7.150177
69.5745 9.091145 19.56018
69.1675 7.0361443 19.473175
11.099506 3.2661438 21.258177
9.803506 3.849144 23.639175
3.5555065 55.330147 31.905176
2.1455064 0.19514465 33.307175
55.882507 44.563145 23.998177
55.569508 46.598145 22.810177
59.676506 49.697144 12.458176
61.610508 48.573147 11.162176
91.2245 52.872147 48.405174
90.0185 51.026146 48.605175
86.8065 50.856144 61.112175
84.5585 51.779144 61.235176
91.74551 26.231146 39.244175
92.164505 24.058146 38.816177
2.2945023 26.913145 25.930176
4.5265083 26.379145 26.123177
87.344505 23.449146 20.227177
87.360504 22.587145 22.475176
83.1575 25.175146 33.187176
80.7275 24.308146 32.915176
41.808506 43.725147 49.71718
43.144505 42.278145 49.47418
47.642506 42.447144 38.672176
48.865505 40.633144 37.973175
4.59251 2.3191452 18.259176
2.3215027 1.8061447 18.736176
91.705505 56.143143 29.904177
89.8525 56.367146 29.358177
15.327506 37.537144 33.177177
17.204506 36.451145 33.348175
20.763506 40.552147 23.756176
19.691507 41.251144 22.093176
45.261505 43.967144 52.41818
44.241505 44.414146 50.570175
51.138508 44.311146 40.351177
50.442505 42.206146 39.509174
64.344505 3.245144 13.532181
64.3385 1.2741432 12.77018
74.2545 56.804146 5.5951767
75.137505 1.123146 6.5501785
76.288506 4.2441444 44.156178
74.0355 5.080143 43.776176
68.388504 0.19114304 52.55718
67.7825 55.283146 52.931175
54.697506 14.487148 13.68718
56.073505 13.446148 14.916176
55.946507 5.9501457 11.5381775
55.959507 3.7881432 11.40918
89.24551 46.011147 46.484177
90.8075 45.010147 47.165176
83.9395 48.064144 57.167175
81.9115 46.420147 56.94618
2.2725065 37.671146 62.160175
3.9295063 36.114143 61.653175
7.2515063 40.295147 50.989178
7.9395065 38.209145 50.739178
68.5465 42.065144 49.702175
66.3945 43.328144 48.994175
61.41551 36.882145 60.11318
60.742508 35.821144 58.440178
35.202507 31.679146 43.159176
34.262505 33.583145 43.385178
41.760506 34.240147 34.626175
41.822506 34.413143 32.479176
83.73151 53.370144 27.957176
85.4345 54.427147 29.557177
81.3805 50.561146 39.666176
82.6825 48.235146 39.722176
79.846504 51.086143 57.910175
81.912506 51.604145 58.393177
88.6945 55.152145 49.895176
88.886505 54.696144 47.560177
53.977505 56.445145 27.680176
51.869507 56.278145 28.400177
46.955505 53.874146 37.346176
47.545506 55.577145 38.626175
13.502506 47.757145 0.9421768
14.431506 46.728146 2.5021744
3.7255063 43.835144 9.658173
4.3205066 41.786144 9.910179
35.374508 16.351147 40.359177
34.847504 16.852146 38.556175
40.909508 16.104145 28.157177
42.903507 14.811146 29.592176
64.5285 35.043144 46.510178
63.486507 33.133144 46.107178
54.716507 32.560146 53.81418
55.817505 34.508144 55.151176
32.265507 44.626144 46.980175
34.167507 45.405144 47.011177
35.597507 49.427147 34.909176
33.963505 49.281147 33.327175
55.40151 44.417145 57.841175
54.031506 45.722145 56.27318
57.634506 43.396145 43.983177
56.440506 45.547146 43.690174
46.622505 54.677147 57.219177
46.06851 54.492146 55.28618
51.013508 0.8721428 44.219177
49.198505 2.2461433 43.586174
65.1975 48.288147 49.251175
66.8925 47.388145 50.608177
61.45051 46.256145 62.061176
63.746506 45.090145 63.031178
52.971508 34.855145 54.124176
53.887505 36.724144 55.09218
57.065506 39.272144 44.138176
58.841507 37.901146 45.238174
64.816505 10.680149 38.908176
66.274506 11.49815 40.052177
64.75951 5.6541443 50.186176
64.84251 3.4001427 50.84218
30.657507 49.217144 11.216179
31.635506 47.385147 10.643173
40.899506 52.891144 4.0261765
41.764507 54.626144 2.313179
8.794506 34.048145 28.736176
10.281507 32.644146 28.815176
13.275506 33.038143 17.077177
15.702506 32.496143 17.035175
64.872505 29.780146 10.231178
63.835506 27.700146 10.044174
60.738506 26.373146 20.287178
58.592506 26.700146 20.802177
78.5155 55.443146 59.317177
79.232506 53.513145 58.573177
84.7435 1.1681442 48.723175
83.9515 2.6861458 47.207176
64.846504 49.287144 67.35618
65.88251 47.676144 66.90717
60.110508 39.724144 6.968178
59.136505 41.110146 8.662178
44.588505 9.690144 24.983175
46.475506 8.910145 23.826176
50.79751 9.992146 13.084176
49.996506 9.138149 11.738176
27.977507 39.655144 44.204174
27.909506 37.191143 44.648174
19.258507 36.802143 52.244175
17.186506 35.811146 51.908176
16.264505 48.856144 1.2671738
14.764506 50.219147 0.6311798
15.856506 54.207146 58.730175
14.075506 55.067146 57.983177
48.148506 27.116146 68.08018
46.191505 28.398146 68.197174
42.274506 23.587145 7.5781784
41.954506 25.443146 8.445175
30.475506 25.645145 5.277176
29.686506 27.252146 4.4171753
32.688507 29.185144 62.658176
34.055504 30.606146 60.971176
24.711506 32.304146 1.3511734
24.651506 34.318146 2.4301758
29.931507 37.082146 62.637177
30.506506 39.076145 63.212177
45.948505 5.5131454 42.713177
43.413506 4.5441437 42.819176
42.050507 55.313145 53.940178
42.527508 56.734146 55.031178
27.833506 32.708145 42.846176
26.745506 34.179146 43.126175
20.769506 31.250145 52.699177
19.825506 32.716145 53.619175
89.774506 12.050144 18.310177
90.8415 11.520145 19.972176
84.2145 9.491146 29.245176
83.5295 11.666149 29.947176
65.8355 37.777145 30.620176
64.63351 38.765144 31.854176
62.358505 30.759146 40.972176
61.617508 31.401146 42.937176
2.5855026 5.2541428 37.133175
1.4625015 3.4091454 37.250175
85.1565 3.505146 44.867176
83.5305 5.170143 44.889175
75.0175 34.256145 16.678177
73.553505 32.975143 16.668177
73.4115 28.665146 28.589176
71.734505 29.248146 29.628176
65.4615 52.159145 31.812176
67.428505 51.263145 31.259176
70.5225 49.731144 20.707176
68.9225 50.456146 19.088177
67.7265 37.830147 48.295177
68.2395 39.174145 49.612175
64.7245 33.522144 60.35618
63.27651 31.649145 60.346176
37.798508 4.479145 37.130177
37.272507 5.2251434 35.382175
45.010506 8.03915 26.999176
45.954506 5.9921455 26.618176
-0.49849367 18.11015 53.591175
-1.5534935 18.173145 51.67518
9.0715065 21.285145 44.600178
8.033506 19.800144 43.366177
26.436506 7.880146 13.534176
26.407507 6.366146 15.506176
21.581507 3.3431435 25.270176
20.872507 1.592144 26.127176
47.485508 18.528149 65.81718
48.006508 17.070148 68.308174
44.266506 14.093143 7.9371796
43.157505 12.277149 9.490173
18.717506 56.776146 26.307177
18.544506 0.6791458 28.272177
8.785506 52.408146 34.497177
9.982506 50.552147 35.036175
45.476505 32.938145 34.156178
43.282505 32.197144 33.339176
40.789505 25.196146 44.366177
42.531506 25.063145 45.536175
22.535507 54.092144 44.370174
22.134506 56.320145 44.093174
28.910507 1.2331429 33.318176
30.354506 56.425144 33.437176
48.958508 52.764145 38.933174
49.891506 50.799145 38.562176
59.285507 55.797146 30.618176
59.551506 54.042145 29.875175
0.13750648 36.669144 42.098175
1.9035064 34.947144 41.194176
7.7365065 37.459145 31.163176
8.334506 38.952145 29.811176
24.551506 26.988146 53.637177
24.196507 27.312145 51.831177
31.210506 28.265144 42.429176
29.906506 29.793144 41.322174
48.238506 9.261143 45.344177
49.932507 7.7661476 45.886177
45.937508 0.9911461 55.78618
45.953506 2.3791428 57.357178
44.521507 48.506145 36.436176
43.701508 46.636147 37.052177
34.786507 50.768147 46.516174
35.282505 49.304146 48.437176
75.98151 38.340145 1.5301743
73.5895 38.300144 1.1181793
73.9455 39.794144 13.196175
72.136505 38.137146 12.704178
91.4765 55.176144 34.556175
90.6715 56.815144 33.450176
88.48151 56.815144 45.379177
86.6715 56.559143 46.907177
16.870506 19.446148 50.332176
14.808506 19.80415 49.908176
8.014506 15.494144 59.406178
6.129506 16.044147 59.232178
37.798508 31.793144 43.418175
38.101505 32.884144 41.195175
37.034508 34.565144 42.809177
38.145508 34.582146 44.734177
61.346508 23.662144 20.149176
61.317505 21.780148 22.051176
54.988506 16.94215 32.070175
52.743507 18.548145 32.082176
57.229507 49.893147 26.474176
57.170506 48.071144 24.693176
61.277508 51.122147 14.268176
60.296505 53.089146 13.535176
26.797506 49.865147 26.218176
25.875507 49.208145 24.559175
35.038506 50.376144 17.051176
37.103508 51.300144 17.324177
11.593507 39.205147 67.571175
12.989507 40.854145 68.07317
15.350507 38.579144 55.501175
15.918507 36.640144 56.66118
11.760507 16.27715 43.974174
13.044506 16.071148 42.248177
16.314507 20.368145 31.574177
15.747506 19.716145 29.677176
2.690506 11.90115 4.8191757
1.9835052 9.937145 3.4131775
86.8825 8.90115 13.649178
86.4605 6.467144 14.035179
31.309507 50.516144 47.246178
32.726505 49.180145 45.871178
40.056507 51.247147 37.017178
39.162506 53.157146 36.131176
67.1985 19.279148 40.097176
67.2955 17.353146 40.697174
62.960506 14.586147 52.32118
63.349506 12.524143 52.982178
82.246506 22.530148 17.572176
81.4175 21.141148 16.602177
72.8275 19.079144 25.604176
73.1955 21.021145 26.137177
49.733505 17.713146 30.618176
51.91551 18.115147 29.616177
57.105507 19.875149 18.008177
57.91551 17.80415 17.616177
32.327507 37.527145 45.005177
30.741507 36.710144 43.903175
37.730507 38.555145 33.000175
39.626507 38.456146 33.862175
9.554506 25.182146 44.072174
8.213506 26.634146 45.572174
2.0845065 21.338144 55.761177
3.1105065 21.874146 57.243176
13.260507 13.721149 40.386177
12.980507 11.427143 39.226177
17.295506 13.382145 28.047176
19.170506 13.995144 26.955175
72.191505 16.021145 7.983177
72.0875 17.509144 9.680176
68.791504 11.615147 20.197182
70.3245 11.444149 20.942177
16.439507 35.149143 54.541176
14.704507 33.347145 54.150177
12.179506 27.567144 63.366177
13.177506 27.384146 65.60217
0.5735016 34.759144 7.096176
0.26650238 37.355145 7.346176
5.3405113 44.150146 69.042175
6.114506 43.184147 67.26218
35.31151 12.104145 39.966175
36.479507 11.811146 41.495174
31.661507 7.460148 51.066177
32.312504 5.8461456 52.787178
12.392507 2.059143 39.689175
12.235506 1.2371445 37.632175
16.266506 4.8881454 27.125175
17.809505 6.4451447 28.553177
10.374506 17.149143 24.870176
9.317506 16.010143 25.770176
2.9365065 13.056149 35.602177
4.082506 12.5441475 37.264175
40.052505 0.4251442 55.547176
38.833508 0.029144287 53.112175
40.853508 3.6381454 42.804176
40.952507 2.3451462 40.603176
83.4365 12.01215 50.09918
81.4665 12.117146 49.128178
72.7585 7.757145 57.17518
71.0975 6.3391457 57.257175
34.956505 13.048145 21.348177
34.146507 14.111149 23.240175
24.794506 13.024143 31.021177
22.652506 12.411144 29.611176
39.070507 12.214146 41.049175
38.043507 13.305149 39.669174
44.339508 17.154148 30.622177
45.732506 15.79015 29.929176
6.778507 33.603146 64.03217
4.907505 34.513145 64.597176
91.5475 26.533146 3.6571732
92.1845 25.944145 5.683174
90.0215 38.003143 61.423176
89.148506 39.677147 62.910175
84.0875 36.534145 1.9291763
81.9115 36.349144 1.4401779
87.8915 42.382145 44.564175
89.0145 43.217144 45.770176
84.579506 36.006145 54.345177
82.3555 36.001144 53.973175
18.355507 55.143147 59.631176
17.821507 0.5521431 59.711178
24.709507 4.212143 49.48118
24.275507 6.646145 49.176174
10.088506 19.439144 9.106178
12.470507 19.005146 8.994179
18.064507 25.555145 1.1341782
16.376507 26.477146 68.46217
32.531506 30.030146 26.302176
30.636507 29.697145 26.229176
28.002506 29.542145 37.149178
28.518507 27.376144 38.131176
89.4325 28.253145 39.164177
90.6575 30.326145 39.519176
2.954506 33.105145 28.554176
4.0795097 34.678146 28.811176
69.858505 32.794144 27.626177
71.469505 35.007145 26.842176
73.136505 37.527145 15.756176
73.094505 35.514145 15.401176
57.945507 40.625145 41.666176
59.248505 42.605145 42.118176
64.5025 44.922146 32.541176
65.5005 46.172146 30.884176
12.911507 37.067146 34.268177
13.224506 38.470146 35.882175
4.0085063 38.673145 44.868176
4.9105062 36.518147 45.106174
86.3365 17.419147 67.81518
85.1815 18.900143 66.750175
92.6125 21.573147 57.688175
92.081505 20.795147 55.725178
76.3495 11.596149 62.473175
77.816505 13.113148 60.735176
78.1875 15.847149 49.101177
78.900505 17.615147 47.845177
1.3075027 30.480145 23.945175
1.7225037 29.548145 26.454176
85.928505 25.219145 34.254177
85.7525 26.300146 36.513176
10.1635065 12.030148 7.739174
10.563506 12.8811455 9.806175
5.4435062 4.910145 17.804176
3.1885064 5.7721443 17.956177
5.9515114 38.331146 46.947174
6.169506 37.243145 49.135178
1.0705032 34.786144 60.493176
91.6715 34.967144 60.478176
57.988506 17.477146 51.562176
55.795506 19.224148 52.399178
60.320507 22.698147 40.775177
60.542507 24.641144 41.243176
38.453506 12.898144 22.274178
37.574505 14.556149 21.079178
45.739506 18.386143 13.683182
45.035507 17.493145 11.930176
11.508507 12.531147 42.904175
12.221506 10.005146 43.374176
6.8185062 10.619144 54.902176
6.3015065 13.032146 54.94618
5.313511 44.014145 49.88318
6.089512 45.167145 51.590176
92.344505 39.249146 61.963177
1.0295029 40.802147 62.999176
77.3545 41.531147 35.976177
78.5445 43.465145 36.271175
78.415504 48.717144 24.119177
80.2125 47.545147 23.735176
21.128506 24.707146 18.413176
20.564507 27.042145 18.867176
14.085506 20.584145 24.863176
15.016506 20.564146 27.058176
87.1865 8.242146 66.92818
86.4445 9.690144 68.18517
83.2655 8.274143 8.679176
83.152504 9.34515 10.774178
10.652506 42.968143 34.274178
11.944507 44.568146 33.190178
20.483507 48.259144 25.525177
21.913506 46.259144 25.442177
86.1045 4.0321465 32.079178
83.956505 4.880146 31.375175
77.4595 3.0961456 42.217175
76.73151 1.2201462 42.504177
0.565506 2.703144 51.269176
91.2085 3.1791458 51.090176
87.5345 2.0451431 63.221176
85.596504 3.033146 62.498177
0.42850494 46.428146 64.64718
91.9805 44.465145 65.403175
87.8755 39.852146 7.2521744
88.1185 41.087147 8.40918
45.465508 46.634144 2.8581772
46.498505 48.524147 2.9571762
53.043507 50.152145 61.879177
51.507507 49.599144 60.215176
27.472506 34.574146 59.126175
28.774506 33.521145 57.720177
35.431507 38.066143 49.608177
35.827507 37.695145 47.280174
8.733506 44.836143 33.958176
7.2575064 44.357147 33.050175
0.9755064 42.113144 44.420177
-0.7604935 42.595146 45.060177
23.586506 15.180149 52.091175
24.509506 13.413143 52.93918
18.998507 9.961147 61.461178
20.208506 9.042149 63.290176
35.038506 46.475147 14.127182
35.681507 48.695145 12.785179
41.873505 50.520145 2.961174
43.953506 48.897144 2.7431793
5.1195107 28.763145 45.554176
3.8905067 27.485146 44.347176
89.927505 22.309145 54.316177
90.4805 20.644146 53.376175
65.8785 21.339146 38.776176
64.9325 19.321148 38.399178
70.7375 22.225147 28.391176
72.5505 21.73415 28.737177
85.7235 1.8741455 27.809175
87.4905 2.3721428 27.874176
1.0475006 6.1401443 19.532177
92.2815 7.2611427 18.506176
62.468506 28.846146 59.172176
60.552505 27.637146 59.195175
61.081505 23.093145 2.1071777
58.840508 21.704145 1.7131729
78.9475 12.621143 47.643177
76.2285 12.715145 46.742176
71.094505 9.699146 56.22418
69.4035 10.908146 56.449177
41.043507 29.997145 28.135176
42.034508 28.058146 27.868176
48.57551 30.285145 18.854176
50.245506 31.978146 19.446177
34.793507 39.731144 46.109177
33.182507 40.309147 44.852177
38.830505 48.396145 35.256176
37.250507 47.499146 33.791176
6.754506 7.654148 38.380177
6.9705067 9.440144 37.594177
11.810507 15.744144 27.255177
13.264506 14.13715 26.535177
2.6955063 11.63715 54.290176
3.8775065 13.1431465 53.215176
3.8685064 16.947147 43.008175
3.8445065 18.299145 41.579174
60.735508 33.198143 6.271179
62.042507 34.019146 4.360176
66.45051 33.634144 64.319176
64.665504 33.644146 63.18218
54.912506 23.781143 1.664177
53.801506 22.033146 1.0701752
60.707508 21.226147 59.452175
62.006508 23.215145 59.250175
57.578506 1.0431442 47.606174
59.465508 0.1431427 46.329174
66.247505 4.5791435 36.920177
67.1695 6.7531433 37.916176
56.284508 5.170143 14.066176
57.378506 4.219143 15.718176
52.707508 56.161144 24.914177
50.238506 57.006145 25.353176
29.484507 16.170147 52.530178
28.164507 15.223148 51.19618
29.932507 20.157146 40.634174
31.023506 20.016148 38.344177
88.5625 11.238148 51.792175
89.1955 12.033146 53.483177
85.7255 11.878147 65.25818
84.845505 9.753147 66.04018
55.329506 27.856146 21.057177
56.199505 25.616146 21.345177
51.709507 23.668146 31.655176
49.990505 22.876144 31.157177
30.290506 2.1731453 15.925177
30.553507 4.2771454 17.150177
25.120506 1.2651443 27.067177
25.854506 1.9121437 28.946177
4.1965065 52.111145 50.438175
4.0835075 54.121147 51.907177
91.8955 49.940144 62.649178
89.5885 50.366146 62.31418
30.247507 2.1871452 0.6821747
29.145506 0.13614273 0.31017303
27.762506 48.889145 8.211174
25.832506 48.956146 8.730179
73.121506 33.159145 65.697174
75.0335 33.260143 65.557175
80.6975 41.239147 57.39718
82.1855 41.269146 58.566177
32.194504 0.3001442 15.032181
32.254505 56.439144 13.018181
40.878506 4.622143 7.521179
41.066505 5.8181458 5.7031784
7.5595064 17.660145 7.1251755
9.706506 18.476147 6.6411743
8.366507 24.998146 6.3991776
8.757506 23.205143 7.489174
79.9935 12.712147 32.348175
80.180504 10.185146 31.293177
74.0355 6.4751434 41.535175
73.5155 4.6921463 41.232178
91.8975 32.169144 60.128178
91.0455 31.578144 58.412178
4.600506 34.258144 48.442177
4.0665092 34.010143 46.251175
23.079506 45.618145 42.044174
22.508507 46.012146 39.961174
27.289507 51.342144 28.787176
28.875507 49.590145 28.451176
85.7505 17.365147 53.056175
85.996506 15.667149 52.31418
80.4445 7.035145 60.051178
80.6725 8.40115 61.443176
7.0205064 25.222145 9.023178
5.898506 26.662144 10.155174
0.7755065 21.419147 20.12918
0.43450642 19.26215 19.83818
26.640507 40.730145 6.874176
25.491507 41.444145 5.452179
31.972506 43.639145 65.03818
31.152506 42.099144 63.603176
65.84051 8.839146 2.8731766
63.671505 8.78915 2.664177
60.413506 2.351143 12.055176
60.485508 3.2751427 13.823181
49.123505 55.975143 7.058174
49.082508 0.8261452 8.334175
42.143505 52.347145 17.667175
39.69351 51.966145 17.248177
21.518507 1.6261444 10.139175
19.768507 0.38514328 10.14518
12.372506 57.023144 19.49118
13.415506 55.562145 20.489182
90.566505 32.193146 21.581177
89.8755 34.142143 21.17318
2.4455032 41.659145 12.096176
4.487507 41.500145 12.652176
66.5305 19.656145 22.674175
68.1855 20.886145 22.974176
73.055504 27.517145 13.617176
74.85651 28.044146 13.799176
35.386505 17.049145 5.503174
35.814507 15.92815 7.4621735
34.403507 13.077145 18.693176
35.265507 11.008144 18.64618
18.662506 18.903149 30.032177
18.529507 21.334148 29.942177
21.349506 20.62415 16.634176
23.278507 19.617146 17.640177
84.9395 47.100147 44.465176
86.0635 46.637146 46.142178
82.665504 43.124146 56.35618
83.912506 44.119144 57.51518
70.1875 51.389145 17.044182
68.956505 52.963146 17.26818
76.0745 53.697144 7.6631775
75.5865 55.922146 7.942177
1.0685043 11.080143 35.784176
1.501503 9.335148 37.012177
86.7815 10.102146 47.144176
87.301506 8.488148 47.709175
54.931507 47.763145 45.186176
53.82551 46.039146 44.001175
51.183506 44.965145 56.582176
50.233505 46.707146 56.36318
81.8245 28.368145 67.67818
81.7855 26.048145 67.28317
85.747505 27.336145 56.64718
85.5765 26.140144 54.777176
8.989506 34.866146 31.264175
7.851506 35.220146 33.657177
0.11350655 30.368145 41.304176
1.4925064 28.513145 41.703175
66.80051 26.300144 45.019176
66.9625 23.907146 44.863174
60.478508 18.34515 52.769176
61.376507 18.74815 54.44618
37.708508 56.236145 35.165176
39.770508 55.035145 34.285175
48.432507 2.0951462 26.354176
47.489506 1.9491463 23.915176
22.509506 11.281147 31.866177
20.945507 11.195148 30.906176
16.026506 10.675144 42.621178
14.1305065 10.30315 41.532177
1.8055038 31.437145 62.959175
2.1315079 28.770145 63.007175
90.59251 22.081146 2.2051773
88.262505 21.754145 3.3491745
48.324505 42.580147 56.77918
49.537506 43.749146 58.271175
45.706505 35.021145 67.028175
46.853508 36.101147 68.16118
87.6755 53.243145 65.89818
88.8345 52.738144 67.50417
80.595505 52.321144 6.892174
82.541504 52.527145 7.202179
65.360504 56.496143 33.663177
66.8065 0.053146362 32.064175
68.8005 54.708145 19.382175
67.6405 56.093143 18.515177
81.718506 41.919144 3.341179
80.4235 43.483147 2.834175
85.1005 48.538147 62.112175
86.971504 48.112144 61.728176
53.163506 33.480145 21.452177
54.924507 31.733145 22.318176
47.434505 25.416145 30.472176
45.156506 25.534145 31.009176
29.016506 19.252146 16.68518
27.892506 21.449144 16.383179
36.578506 25.884146 7.759178
35.281506 26.776146 6.5971756
66.6955 24.241146 41.876175
68.485504 26.171144 41.187176
77.09251 27.931145 34.248177
79.2305 26.551146 33.090176
18.241507 56.363144 62.587177
19.449507 56.105145 64.251175
13.169506 1.5421448 3.7031784
11.033506 0.22614288 3.966179
16.165506 16.338146 62.527176
17.742506 17.806149 62.206177
22.823507 19.354145 51.853176
23.220507 21.33215 52.079178
29.857506 9.412144 15.68718
28.515507 9.775143 13.960175
28.795506 15.471149 4.2501755
27.550507 16.295147 2.3021774
16.433506 4.766144 61.178177
16.702505 3.986145 58.719177
25.766506 9.931149 52.075176
25.529507 9.805149 50.160175
33.557507 21.018147 54.839176
31.675507 19.038143 54.083176
32.714504 20.313145 41.755177
34.469505 18.822147 41.036175
13.669506 14.034145 43.964176
14.726506 13.162144 42.573177
19.600506 19.15215 35.377174
19.073507 20.323147 33.589176
32.673504 9.30315 17.901176
33.481506 9.079144 20.183176
27.573507 7.634144 30.021177
25.208506 7.3631477 29.997177
73.6445 46.949146 35.403175
72.566505 48.174145 33.899178
80.9945 53.907146 27.955175
81.0875 52.819145 25.320175
13.683506 45.313145 35.038177
15.156507 47.170147 34.907177
23.953506 51.040146 27.924177
23.714506 50.271145 25.887177
20.991507 20.945145 50.573177
23.547506 21.369144 49.207176
27.409506 30.080145 42.293175
26.147507 29.473145 40.723175
86.1435 54.077145 45.328175
84.4455 55.476147 45.817177
77.5905 48.739147 54.806175
77.898506 46.407146 54.348175
24.417507 42.845146 25.233175
25.080507 42.045147 27.043177
19.818506 38.700146 37.512177
21.756506 38.988144 38.026176
27.879507 52.214146 46.222176
26.445507 53.159145 45.109177
35.659508 54.269146 34.691177
35.370506 56.222145 33.921177
54.892506 53.368145 8.299179
53.277508 54.496147 6.4981766
58.246506 54.815144 67.264175
58.469505 56.598145 65.874176
41.56851 36.913143 68.28517
40.469505 35.124146 67.86517
36.514507 32.366146 9.174179
35.985508 33.800144 11.016174
41.855507 36.649143 65.529175
40.238506 34.859146 64.70418
47.014507 35.791145 55.153175
49.239506 35.557144 54.292175
38.757507 21.035145 45.713177
38.826508 23.700146 45.485176
34.793507 21.718143 57.005177
33.247505 23.102146 56.862175
60.560505 40.173145 25.913176
61.418507 38.175144 25.108175
63.195507 43.153145 14.106176
65.28351 42.628147 14.232176
21.757507 13.279148 67.263176
22.986506 12.463146 68.22018
22.325506 15.272144 11.444176
21.536507 13.392147 12.418175
29.919506 31.594145 8.114174
29.877506 29.573145 7.560173
26.556507 24.192144 19.072182
24.725506 24.868145 19.76918
3.1025064 50.155144 65.888176
2.4815063 50.910145 64.180176
12.593507 51.209145 56.380177
11.180507 50.587147 54.44618
80.3475 30.886145 35.774178
81.4375 31.400145 37.558174
75.7565 28.284145 47.550175
75.440506 29.826145 48.441177
10.099506 16.29115 46.511177
10.949506 18.379147 47.214176
1.9605064 18.594143 55.329178
1.1325065 17.259144 57.205177
14.929506 38.421146 17.378176
13.8215065 39.655144 18.534176
8.453506 36.749146 27.970177
5.721506 36.984146 29.152176
79.984505 0.94514465 60.366177
77.7295 1.0371437 59.89118
73.3505 55.281147 0.59817505
74.4195 56.741146 2.7081757
31.625507 27.198145 58.201176
33.620506 26.716145 58.236176
40.446507 28.343145 48.937176
39.909508 30.650145 48.199177
87.9515 38.210144 42.364178
87.900505 38.785145 40.008175
3.9365044 41.630146 30.402176
4.872509 43.320145 30.854176
15.544506 21.215145 47.961174
15.840507 23.546146 47.892178
21.031506 23.789146 35.955177
19.385506 25.489143 36.198177
11.353506 53.712147 1.6861801
