17.75862 15.953262 100.48689
16.86962 13.861267 99.650894
0.79561996 16.887276 102.68089
-0.4923799 15.765266 102.455894
1.06162 43.547264 77.4069
1.0076201 42.225273 75.6879
18.14062 41.33927 70.7649
17.97962 42.22027 69.4099
25.15462 81.14626 87.414894
23.96562 82.891266 86.5339
6.39962 79.98326 89.509895
5.78862 78.52226 89.025894
28.589619 72.09426 0.704895
29.89062 71.393265 3.5348969
6.5826197 69.34226 1.6898956
8.105622 69.83126 2.452896
10.42562 20.94027 54.373894
10.81262 20.241264 52.128895
25.58062 16.416267 53.803894
26.54662 15.758263 55.155895
28.75162 26.390266 43.583897
29.56262 25.75727 45.062897
5.628621 21.499275 36.396896
5.8326197 22.393272 34.990894
29.86462 95.212265 103.8119
28.72062 93.70927 103.621895
14.04762 99.87026 104.27789
12.83062 100.49626 105.0909
27.35262 69.95126 3.1098938
26.499619 68.50726 4.8118973
10.47362 74.82027 9.722893
9.06662 73.95226 10.051895
34.07462 17.977272 81.023895
33.58962 15.974266 81.04189
16.15362 19.50927 79.302895
16.42062 21.105263 79.1739
8.01562 84.227264 92.246895
8.38162 86.28526 92.8629
25.57462 83.36926 95.706894
24.95862 81.946266 95.98989
13.98062 44.445274 40.154896
16.17462 45.00127 39.680897
27.88962 40.493263 31.143894
26.769619 40.06127 29.892895
31.33862 61.653263 23.987892
30.18962 63.648266 24.656898
13.15262 61.305264 23.849907
12.37562 60.287266 22.9589
31.43162 86.13626 19.011894
31.73262 87.865265 20.726906
15.40662 86.48526 23.386894
15.266621 84.99926 24.0989
17.91362 5.835266 10.891899
18.91162 4.790268 12.542892
34.50462 1.4922638 9.194893
34.79062 111.199265 8.995895
34.23162 98.75626 15.633896
32.06162 98.20626 14.567894
18.25762 100.37326 20.176903
17.20662 101.82027 19.7649
37.68462 11.183266 1.954895
37.73462 13.210266 2.242897
22.50062 20.242271 0.7118988
22.41462 20.770271 2.7008972
22.044619 19.587273 9.744896
23.27962 21.211266 8.9938965
37.861618 14.481262 4.805893
39.04362 14.971268 3.7438965
25.777618 32.66027 23.068901
28.044619 32.807274 23.656898
4.54762 33.911263 22.8769
5.0306215 35.421272 22.1959
32.89962 100.06626 103.0349
32.61262 97.94326 103.622894
15.582621 105.63927 104.204895
14.17962 104.185265 104.36189
16.73262 77.81326 44.023895
15.51262 79.518265 44.550896
0.59062004 72.64726 45.852894
-0.21837996 71.42826 46.369896
-5.0193796 79.62226 27.638893
-4.1313796 81.16026 28.505898
12.160621 77.05627 20.1249
13.65462 76.31426 20.328896
31.495619 60.714264 28.959892
30.718618 62.545265 29.610893
16.047619 66.80727 28.3639
15.219621 65.782265 27.200905
8.42962 60.017265 104.64089
8.73862 57.936264 103.26489
25.66762 54.569263 103.30989
25.291618 56.077267 103.6309
18.144619 7.0882645 18.7779
17.915619 8.673264 17.204895
2.86762 16.760262 17.625893
1.07962 16.489265 17.772896
29.78862 103.66226 72.8269
30.77162 105.11227 70.6309
7.2896204 98.59827 68.884895
8.72062 98.53526 69.5489
-6.13638 97.419266 94.3809
-4.58138 96.350266 95.41789
11.57962 95.77927 94.6999
12.43062 97.32027 94.261894
37.18062 41.893272 84.605896
36.18662 39.477272 85.2809
34.43262 33.45327 76.925896
33.26262 32.462273 76.3549
-5.05138 85.558266 20.242897
-4.67438 85.47227 18.117897
11.07262 88.23026 16.070892
12.36762 89.34226 16.385895
27.20662 52.324265 105.4099
27.66362 52.678265 103.17089
4.760621 53.809265 96.43289
4.687619 53.539265 98.23889
6.573621 9.432266 49.368896
5.599622 10.731262 50.499897
29.103619 10.295265 50.991894
28.21562 9.614265 52.300896
12.90762 33.920265 65.2549
13.40062 35.810265 66.0859
-2.91138 40.806267 69.8829
-3.17538 40.116264 71.4049
10.50662 76.32027 104.15389
12.00062 75.19427 102.774895
27.235619 74.63326 101.662895
26.29562 73.14526 102.23989
-0.097379915 10.893265 4.4858932
0.99961996 12.630264 5.1938934
16.64962 10.745262 107.71089
16.17362 9.107262 107.2689
31.981619 101.52426 4.9138947
31.68062 100.12126 3.266899
15.12062 104.075264 3.791893
13.81462 104.116264 2.669899
14.04862 105.99826 0.3388977
13.44762 108.06626 0.17489624
-2.6263802 108.94126 4.294899
-2.78038 108.533264 6.089897
38.38762 70.12226 71.009895
36.35162 68.378265 71.5719
22.433619 70.099266 75.09789
21.93562 69.67626 73.427895
-4.5983796 13.564262 79.678894
-2.6733801 12.764267 78.328896
12.70662 9.821266 80.4059
13.97962 9.162262 79.6139
-3.31438 84.22327 26.331902
-2.89238 84.711266 24.049904
13.91862 82.61227 18.4889
13.88562 83.42826 16.954895
25.97962 3.825264 52.946896
24.849619 5.665268 53.257896
9.75262 9.549263 56.625896
9.05362 9.405266 58.136894
14.445621 99.42726 1.4628983
15.31962 101.55226 1.5988922
30.453619 94.03726 0.2708969
30.88962 92.40926 0.40189362
6.3186197 83.30326 89.147896
5.80462 85.36826 89.080894
28.87362 89.571266 89.6129
28.50162 91.09326 88.747894
10.170621 80.55727 2.817894
10.5376215 81.783264 4.6898956
32.66862 85.88426 6.0388947
31.704618 87.31826 6.4778976
30.44262 44.651268 27.368904
31.41062 42.999275 25.6809
8.724622 43.50927 23.080894
9.196622 44.94527 23.892906
4.30862 27.182274 104.1309
4.19362 26.557274 101.91889
20.12962 28.949272 102.74989
21.96562 29.269264 102.62689
7.5586205 68.99927 96.564896
8.48862 71.447266 96.43389
23.99662 68.032265 94.272896
25.422619 67.77326 95.0359
11.4266205 8.651268 82.77689
12.155621 10.944267 82.7709
-3.0733798 15.3122635 89.1049
-4.0653796 14.256264 89.966896
34.82162 73.04826 44.310894
33.576622 71.40427 43.369896
18.79262 76.310265 47.888897
18.30962 74.644264 47.933895
31.47362 41.417274 23.412895
31.533619 42.583275 21.354897
8.007623 42.568275 13.000893
9.016622 41.758263 11.938896
30.60462 66.93027 33.155895
30.27562 65.463264 34.597897
15.29062 64.782265 37.912895
14.49662 66.433266 37.207893
-4.64738 9.381264 76.8499
-3.8443801 7.5522614 77.3209
12.02162 11.151268 74.97289
13.13862 12.236267 75.581894
3.3986213 56.057266 93.147896
3.4336212 58.343266 93.1289
28.59562 66.15227 100.9249
27.73362 67.59426 100.31889
17.34762 45.825268 45.827896
18.89962 47.216267 46.909897
29.44162 41.536263 36.587894
29.02862 39.900276 35.628895
25.55662 21.445274 24.100899
23.67862 21.933266 25.894905
8.66562 29.576271 30.415894
6.93262 28.99427 30.658897
32.90462 75.44527 34.669895
32.62262 75.37226 32.739895
14.91862 74.09026 34.684895
15.45562 75.14726 35.705894
17.44162 8.335266 97.36089
16.32462 9.157265 98.842896
-0.8413799 10.169266 99.6179
-1.7333801 9.835266 98.15389
5.86562 76.79926 93.9379
6.0146203 76.87627 96.18089
23.55062 78.02726 90.74989
24.10462 77.09727 88.91689
1.0866203 87.48126 58.725895
0.7656212 86.60626 56.861897
24.69262 91.89726 60.609894
23.884619 90.560265 60.284897
21.47662 28.887276 95.706894
22.322618 30.933266 94.97489
37.778618 27.183266 88.6019
38.709618 27.93827 87.2439
-2.58438 72.587265 42.112896
-1.8783801 73.57626 40.103893
13.54062 70.351265 35.732895
14.36762 69.05126 36.174896
25.58162 22.170265 27.481895
27.06362 20.368263 26.465904
3.0356216 19.919273 27.968895
4.015622 20.16027 29.168907
27.52562 86.838264 82.79089
28.311619 86.52426 80.5719
5.154622 80.04026 86.7949
5.321622 80.40226 85.0569
26.225618 109.962265 59.640896
23.84762 109.37226 58.288895
9.84262 3.0562668 68.2279
9.87162 3.5102615 70.0189
-1.7513802 41.212273 61.478897
-1.9683802 41.67527 59.432896
13.42562 36.366264 57.235897
12.48962 35.152275 56.425896
3.64162 58.282265 78.7439
4.32562 56.400265 77.911896
20.047619 53.312263 79.136894
20.92762 53.747265 77.5609
25.85162 88.76527 78.43089
27.92162 89.30126 79.3229
3.371621 85.574265 79.3119
4.008622 84.13426 78.7259
26.849619 51.192265 9.670898
27.93062 52.914265 7.914894
11.17162 56.930264 8.693893
9.90662 56.944263 10.017899
32.13862 68.41126 26.918907
31.210619 68.53926 24.588905
13.9526205 70.005264 26.226906
14.43762 68.80226 27.489906
29.89362 17.858269 62.460896
30.09762 16.138268 60.608894
8.152619 18.31527 56.620895
8.437619 20.066261 56.041897
7.4236193 79.56826 97.3829
5.564622 79.684265 96.6029
29.80662 84.39027 98.7429
29.18962 83.27026 99.7999
8.80062 65.21726 8.5159
9.65162 63.840263 10.363899
25.790619 61.608265 4.0828934
26.84862 60.484264 3.4178925
6.7666216 25.117271 41.010895
5.562619 25.497276 42.999893
30.30962 30.279274 44.625896
30.09862 28.622276 44.427895
31.63262 14.400269 73.1439
31.475618 16.239265 74.6459
15.99162 24.349266 73.8959
15.45562 25.474266 75.205894
6.24862 23.278267 102.7719
6.69362 21.023262 103.231895
21.78662 23.414268 106.801895
22.74162 23.575264 108.2289
11.25562 80.30727 7.671898
12.36962 80.960266 6.4068985
27.61562 73.671265 9.966896
28.42462 72.62527 11.063896
21.328619 56.874264 77.538895
21.98962 58.224266 76.0429
38.92262 60.226265 72.163895
0.26861954 61.829266 73.011894
14.820621 90.20126 21.487892
15.66662 91.84727 22.791893
32.15362 92.06426 17.986893
33.48162 91.947266 19.030907
-2.33438 4.0392685 100.75189
-3.14238 3.9812622 98.3269
14.50062 3.8862686 97.5189
15.27662 5.3202667 96.940895
3.64362 75.252266 67.247894
3.10762 73.489265 66.05589
18.48462 71.91426 62.433895
19.12162 70.45927 62.027893
17.88562 56.235264 51.257896
18.76862 54.559265 51.751896
33.64462 48.243263 45.747894
34.42062 47.074265 46.682896
-5.38138 76.878265 25.9179
-4.9123797 74.52927 25.052895
11.09562 73.01026 18.531898
11.20462 71.531265 19.957893
9.1436205 74.47926 1.5078964
7.3606195 75.32726 0.4738922
30.440619 78.02126 3.395897
29.29662 77.21726 4.624893
4.347623 38.78727 12.0299
3.8146217 37.13227 10.789894
26.75862 35.991264 11.527893
25.72262 37.12327 11.010895
2.13762 7.2672653 27.116905
2.44062 5.224266 26.375893
18.78262 3.023262 22.193901
19.41362 1.264267 22.9179
6.5186205 6.686264 51.609894
6.031621 8.607262 52.312897
27.68862 6.059265 53.507896
27.87562 7.6352615 54.229897
12.91362 62.927265 32.747894
10.90262 62.856266 31.729895
-5.66938 67.589264 29.656895
-6.61738 68.267265 31.016895
15.67062 22.436272 70.384895
15.42062 24.20327 71.091896
33.77462 24.056267 72.9199
34.55862 24.893272 74.3959
2.2976189 108.91926 36.059895
0.38661957 110.16726 35.421894
24.32662 5.2092667 38.581894
22.81362 4.955261 37.638897
9.53862 89.34026 88.47189
10.84362 90.94226 90.2949
26.87362 87.282265 93.634895
28.60462 87.95826 93.3669
11.438621 92.25626 98.606895
11.936621 94.475266 97.994896
29.811619 96.29327 94.579895
30.63062 96.43926 95.98789
12.7026205 51.224266 38.673897
11.93462 50.234264 37.365894
11.49362 39.173264 41.641895
12.372621 38.561264 42.876896
9.46562 36.487267 27.762901
10.48762 35.295265 26.313896
23.943619 30.993263 19.755898
25.57462 31.219261 20.290901
-1.9353802 4.1502686 4.825897
-1.51138 3.313263 2.6898956
14.95562 109.09826 3.9698944
13.818621 109.67826 2.1878967
7.45862 89.64626 84.8119
9.04162 90.40126 83.4799
24.14362 87.13226 85.01289
24.36462 85.38927 85.6049
5.194619 41.305275 17.465897
6.052621 41.396263 20.050896
29.43462 37.53327 25.472893
29.585619 38.626274 26.711906
19.04962 73.474266 55.077896
18.40062 71.40327 55.627895
0.34662008 71.25626 52.575897
-0.83938 72.45426 52.120895
28.071619 32.56127 28.9609
29.002619 32.862267 30.896896
5.948621 30.720268 26.659904
6.9876223 29.961266 27.696907
5.2916193 94.59827 68.064896
3.3986213 95.950264 67.5469
29.245619 99.851265 70.231895
29.710619 101.44326 70.594894
21.89762 78.72126 69.6289
20.55362 78.046265 71.386894
4.26962 81.339264 71.6449
3.8226202 81.311264 69.7529
20.34462 74.030266 68.2539
21.84562 72.99827 70.4239
0.63962173 72.03726 66.2819
1.2866211 70.988266 67.70889
6.74262 54.611263 101.0489
8.02962 54.619267 98.7579
23.90462 49.364265 100.65389
25.26762 49.513264 99.65589
4.42362 63.786263 78.024895
4.78162 61.713264 77.772896
19.08162 54.654266 74.3489
20.23762 54.604263 72.9489
28.894619 65.87026 6.8048935
28.88662 66.933266 4.942894
7.746621 69.02827 7.164894
8.55462 70.724266 6.919899
7.3116198 22.995262 54.335896
6.432622 21.596275 55.503895
30.821619 26.431267 58.765896
30.704618 25.709267 56.861897
7.2326202 54.977264 104.76789
8.98362 56.474266 105.88889
23.51762 50.300266 105.57189
25.26562 50.592266 105.356895
24.72262 23.475273 15.924896
25.762619 25.358269 17.014893
2.8346214 22.291267 13.476898
3.2766197 22.50927 15.007896
13.43562 75.01427 23.991905
15.43462 75.38727 24.672905
31.544619 72.77326 25.700905
31.20862 74.336266 25.209892
36.75962 65.23226 54.164894
36.757618 67.09226 53.986897
21.276619 68.422264 61.851894
20.64762 67.224266 63.085896
26.520618 86.34326 89.9639
25.12262 85.98326 91.74989
8.26662 83.66526 87.273895
7.6076202 81.961266 86.9049
15.12662 88.55727 33.306896
14.77562 89.49226 31.298895
-0.9993799 94.20726 33.849895
-2.69338 93.547264 33.810894
1.11162 75.047264 62.847893
2.63362 76.672264 61.472897
18.27962 74.01126 57.658894
19.429619 74.45727 58.959896
-4.9343796 1.9212646 84.6819
-4.21938 3.8152618 84.2419
12.10662 110.65126 85.41689
12.65862 1.2212677 84.9239
19.12662 10.177261 9.907898
16.90562 11.209267 10.409897
3.36262 17.851265 11.127899
3.40762 19.130272 12.295898
29.804619 29.997276 47.181896
30.87162 31.853264 47.592896
6.92962 29.497276 41.692894
7.85262 27.717262 41.671894
37.354618 100.70126 34.308895
38.14962 102.628265 34.741894
22.69862 105.32027 32.716896
21.76862 105.197266 31.257895
5.83462 5.4652634 37.265896
6.38462 7.384262 38.189896
21.96662 0.58426666 38.384895
21.93062 1.6832657 37.042896
23.93462 2.7942657 42.696896
22.856619 3.512268 44.372894
9.06462 5.835266 41.827896
7.51862 6.248268 41.886894
24.506618 74.50626 79.3669
25.11462 72.27727 79.192894
1.1916199 75.78726 74.855896
1.7106209 74.46726 75.9629
1.44462 49.508266 69.02689
0.74862003 47.566265 68.899895
15.30462 45.033264 61.433895
15.16462 46.170265 60.173897
30.638618 60.501266 10.7659
30.502619 58.337265 10.218895
7.90162 61.655266 10.107895
9.28962 60.982265 9.548897
26.54662 11.679268 55.301895
24.58462 11.129265 55.798897
10.00362 13.510262 55.974895
9.69962 13.652267 54.373894
33.28462 108.59126 0.4828949
32.34862 108.603264 2.4918976
17.32562 109.22926 6.131897
16.49262 107.85626 6.109894
35.74562 87.52726 43.838894
35.97462 85.67726 44.263893
19.16362 87.15026 50.146896
19.28862 88.79926 49.103897
29.231619 67.46926 109.5499
29.512619 66.838264 2.018898
6.696622 62.478264 103.65189
7.1226206 61.277264 102.4929
29.763618 98.33427 91.898895
29.10462 100.29126 90.536896
13.86862 99.42926 95.1599
12.59262 99.114265 96.2149
18.91462 60.365265 52.868896
17.96262 58.516266 52.842896
1.51262 64.19327 54.788895
1.73562 62.424263 55.012894
7.2316203 44.84327 15.559898
9.45862 43.644264 16.623894
25.346619 43.55227 15.514893
25.51762 43.94126 17.074898
31.085619 87.40126 10.711899
31.14262 86.93227 12.985893
10.146623 88.03626 11.517899
11.091622 89.40026 11.603897
19.96262 9.142265 105.6739
19.079618 7.123268 104.48489
35.23162 4.4022675 103.3679
36.31262 4.2332687 104.69389
21.495619 29.857262 99.54189
22.436619 31.834267 98.813896
38.56562 28.11927 95.0749
38.72562 30.074272 95.15389
-3.07038 97.52126 17.288895
-1.9223802 96.82626 19.130898
12.84162 94.41026 11.259895
13.19262 92.76427 11.050896
34.36162 23.87127 67.759895
34.43562 24.377266 70.052895
36.40262 27.085274 73.287895
35.78262 28.789268 72.552895
17.97662 9.215263 5.0018997
17.16362 9.245262 2.7368927
1.45762 15.570267 9.481895
1.51162 17.18827 9.057899
24.05562 67.10926 85.3969
23.97962 65.59026 86.6009
5.48462 65.24326 87.608894
4.79862 63.925262 88.5489
11.42562 103.57027 78.2419
13.43562 102.294266 77.9459
27.634619 105.030266 71.5459
28.75762 106.239265 72.009895
23.48962 69.700264 84.510895
22.794619 69.41326 86.8409
5.78162 71.030266 86.469894
5.1856203 71.12427 84.8949
13.891621 90.47926 14.3808975
14.811621 91.97026 13.239899
31.13562 90.34226 15.948898
30.936619 91.70726 15.003899
7.607621 61.421265 5.353897
5.946622 62.488266 4.694893
32.23962 67.18027 12.4938965
32.40362 66.01227 13.761894
25.41862 82.01226 78.5769
23.940619 80.919266 79.2989
8.60562 87.09526 78.6169
8.58662 88.50926 79.4889
-3.9083798 85.05326 28.873894
-2.68738 87.21626 28.924904
12.92162 79.09727 25.275902
13.88762 77.671265 25.162895
14.02662 60.592266 37.217896
12.81562 60.461266 35.492897
30.39062 59.136265 32.597897
29.41162 57.606266 32.575893
6.30562 59.062263 84.289894
6.80762 57.434265 82.66589
22.693619 56.524265 83.6549
23.231619 57.747265 84.676895
28.55062 63.047264 100.43389
28.90662 63.080265 102.620895
5.121621 61.886265 98.98589
4.38762 63.310265 98.42089
22.551619 29.359276 13.579895
20.56662 28.374275 13.082893
6.78162 35.476265 11.522896
5.2836204 34.768272 11.236893
1.9486198 43.054264 93.4099
1.3836212 43.234264 95.4639
25.651619 47.277264 96.370895
24.638618 46.913265 98.05889
21.34162 82.60826 59.663895
21.12962 81.62426 61.678894
3.71862 86.630264 61.063896
3.09562 88.24926 60.750896
26.100618 23.057274 35.886894
27.384619 24.816261 35.423897
2.901619 17.215263 34.279896
3.8996208 17.917274 33.121895
39.056618 31.860268 90.983894
38.320618 31.456276 92.8369
23.165619 37.10427 91.9789
23.321619 36.512276 90.009895
25.638618 67.73126 82.08389
25.686619 69.463264 82.6559
3.5226219 72.447266 83.2409
4.4786196 72.766266 81.718895
11.91162 67.08026 16.624893
12.188621 69.12026 15.916893
29.763618 65.613266 16.8359
31.23962 66.12327 16.372894
7.1596193 97.81226 79.426895
7.8566217 98.68127 81.232895
31.54962 98.91526 84.607895
31.04562 98.27626 82.9329
20.55362 72.92526 61.515896
21.67362 74.35726 60.570896
37.51562 70.36826 57.546894
38.93062 71.94026 57.157894
4.840623 48.197266 90.6729
5.5946207 50.596264 91.1869
28.85562 56.471264 98.4629
28.471619 57.031265 99.9239
15.990621 53.200264 41.718895
16.41062 54.699265 40.131893
32.79662 56.899265 40.145897
32.95662 55.376266 39.813896
32.11162 78.877266 15.730896
31.53862 77.17626 16.681892
14.26262 79.20826 15.3688965
12.40762 79.200264 15.805893
28.71562 13.270264 60.975895
30.67362 13.884262 61.525894
8.07562 12.101265 58.445896
8.6626215 13.726265 58.941895
26.31962 109.73826 67.591896
26.516619 107.558266 67.02689
10.41662 109.98526 72.5159
10.63762 109.78926 74.1979
13.728621 52.647266 42.916897
14.266621 53.248264 45.182896
-1.79438 58.682266 51.686897
-2.34538 57.142265 50.484894
9.88762 100.47126 82.50089
12.02062 101.017265 81.08389
28.16362 99.20326 77.220894
27.92762 98.212265 75.5729
20.15062 46.032265 73.7999
19.888618 46.488266 71.6819
2.7866201 51.247265 75.121895
1.65362 51.113266 73.6279
25.94962 105.39726 58.853897
27.217619 105.28726 60.905895
4.892621 107.519264 60.678894
5.691621 109.39226 60.162895
-0.93138003 74.627266 49.841896
0.60161996 75.06626 51.157894
15.851621 72.962265 47.906895
15.79662 71.28526 47.439896
2.57062 93.74826 57.244896
4.89362 93.266266 57.361897
19.19462 88.573265 55.536896
20.27862 88.92726 54.197895
14.12862 96.66226 11.294899
15.02962 95.65926 9.691895
30.31262 90.48226 8.365898
31.12862 89.016266 8.542892
38.37062 2.2422638 15.254898
37.452618 0.9682617 16.649895
20.77862 5.9142685 14.7178955
19.38362 5.3282623 15.294899
25.35562 105.935265 51.718895
26.84462 107.70526 51.954895
3.4976203 1.6142654 48.923897
5.1396227 2.1412659 50.317894
10.62862 42.31327 14.740898
10.37762 44.546272 13.803894
25.159618 43.920265 12.294899
26.922619 43.17527 12.2818985
21.21262 106.99426 35.038895
22.88562 105.94426 35.603897
38.87262 108.06426 37.286896
0.89162064 108.23226 38.663895
15.40062 5.9732666 77.4219
14.728621 8.234268 76.9649
30.81662 8.863266 71.3389
30.592619 7.8642654 69.9609
31.31662 59.023266 25.158897
31.68862 56.991264 24.4869
9.729623 56.818264 22.357903
11.19962 57.251266 23.456902
18.151619 21.017265 95.82289
18.26562 23.302269 94.5209
3.28162 30.518272 99.00089
3.97662 29.20327 99.88889
22.919619 70.78926 79.7559
22.113619 72.66527 80.177895
22.58862 77.02026 82.634895
23.19862 78.39826 81.564896
36.46962 39.749275 74.76289
34.99262 38.546272 73.31889
20.59462 37.987267 82.1539
20.35862 37.56727 83.7559
21.56062 67.38727 67.216896
21.77262 69.962265 67.4759
37.979618 68.17726 69.039894
0.30361938 67.06927 68.2139
23.60262 87.157265 75.97289
24.36462 88.516266 74.259895
6.50562 88.93127 74.2999
5.51062 88.669266 75.5299
31.57762 94.76126 10.432899
29.88062 94.64926 9.103897
15.18262 99.490265 15.639893
14.34762 98.53826 16.598892
26.13662 63.374264 5.976898
25.43062 66.060265 6.694893
9.22762 68.47926 9.448898
9.45362 67.44527 10.606895
22.516619 20.804268 14.333893
21.20262 19.49627 13.147896
7.05762 23.534264 19.544899
8.21862 25.039268 19.752907
20.27562 28.631264 90.6999
20.419619 28.663261 88.453896
36.69862 23.810265 85.398895
36.69962 24.408272 87.1039
38.27662 63.703266 65.0359
36.604618 63.115265 64.218895
22.39962 66.08026 73.593895
21.69462 67.310265 74.4599
23.98462 51.572266 88.6959
26.26062 52.408264 89.86189
2.939621 53.170265 86.188896
3.83862 53.823265 87.342896
36.23562 58.343266 59.388897
34.37262 56.031265 58.811897
19.217619 60.657265 64.2809
18.97262 60.465263 62.622894
8.112622 93.18726 81.397896
8.119622 93.49226 83.676895
31.35562 92.96726 87.369896
32.13862 91.44426 88.231895
5.23062 84.460266 64.9499
5.8176203 84.54126 67.30589
21.961618 81.20826 69.56989
22.35262 81.41526 68.0199
9.68262 21.279274 58.483894
11.629621 21.136269 58.861897
27.343618 25.015266 53.425896
27.09462 26.905266 53.524895
32.91962 56.712265 31.215895
33.37362 58.769264 30.341894
10.46462 55.352264 29.625895
11.89462 54.611263 30.179895
21.224619 106.085266 45.175896
21.64662 108.37126 45.098896
5.6986203 0.50626373 41.719894
4.56962 0.97826385 42.737896
0.18562008 31.478264 86.2139
1.17262 30.913261 84.6469
15.443621 29.655266 77.3529
14.81962 28.59327 76.122894
24.929619 84.95126 71.9339
25.68762 86.601265 72.8679
2.2656212 78.66727 70.9249
2.446621 77.13126 70.1029
6.20162 19.737267 33.890896
6.7776203 17.573265 34.235897
22.72962 20.10427 30.220896
22.697618 18.75927 29.086895
15.11962 87.65327 20.888893
12.971621 87.27226 22.518898
-4.4613795 88.059265 20.937904
-4.66838 89.60426 20.5299
3.21362 7.127266 38.451897
3.7946212 7.998268 40.527897
25.59162 11.267265 40.532894
24.82762 11.0622635 42.096893
26.190619 88.23326 86.6709
25.70962 89.09827 88.5159
11.55262 91.76527 86.803894
10.18562 90.823265 86.147896
38.68662 49.065266 71.0619
37.38762 48.982265 72.900894
21.59862 50.356266 74.954895
20.502619 51.530266 75.8939
-4.41738 100.74426 105.49889
-4.60738 102.38826 104.00189
11.72562 98.30526 100.52989
13.02162 99.09626 99.5219
0.33161998 33.383263 83.86089
-0.41237998 35.195274 83.3949
17.137619 33.84127 80.274895
17.91862 34.986275 81.0999
4.08662 10.323265 32.161896
3.83862 9.675262 30.334892
18.00262 1.2042618 26.519905
19.21662 0.66726685 27.712898
6.7926226 57.807266 101.5359
5.696622 56.227264 103.011894
27.901619 59.329266 104.72289
28.55362 59.746265 106.55689
26.59462 16.438263 45.440895
26.67862 15.972267 43.116894
5.194619 13.598267 44.448895
6.3706217 12.322266 43.188896
21.68162 91.364265 53.358894
22.28862 89.28826 51.854897
37.61362 84.48526 52.295895
0.07461929 84.14726 53.449894
16.94962 97.23026 19.453896
17.33262 97.47327 21.728905
34.07762 93.603264 24.4329
34.67462 95.074265 23.720894
31.571619 94.04026 13.957893
30.85262 93.171265 12.236893
14.57462 92.585266 16.523895
14.59262 92.589264 18.269897
20.613619 10.373268 21.868904
18.95162 11.719261 22.887901
4.3506203 16.407265 23.743904
3.5236201 17.411263 22.7109
-3.50538 2.028267 107.2409
-2.6523802 4.0602646 107.369896
14.12662 108.950264 106.563896
14.48862 109.95426 107.827896
-5.1443796 101.17626 2.6048965
-4.2553797 99.575264 0.5398941
11.53862 98.49426 2.242897
12.46562 97.37126 3.3708954
24.106619 78.40427 71.9929
25.25462 77.838264 70.2689
1.1366196 77.99726 65.59789
2.2716217 77.352264 67.0039
29.224619 57.389263 23.416893
28.339619 55.745266 23.513893
11.76062 56.663265 26.872902
10.29262 57.592266 26.444893
28.71562 80.710266 0.12889862
29.60162 79.20927 108.3379
8.273622 77.491264 109.023895
8.452622 76.36926 107.5629
28.47362 83.572266 109.3529
28.34762 86.05226 0.1588974
11.75562 85.66326 2.5988922
11.12162 84.462265 3.8108978
12.92762 5.0642624 83.4039
12.20862 4.0842667 84.67989
-3.7393801 11.218262 83.594894
-5.10338 11.894264 84.5449
7.326619 14.314262 53.267895
6.175622 12.429268 52.861897
29.808619 9.151268 56.416897
28.35162 9.707268 56.023895
13.844621 5.2202682 88.23489
13.22062 6.1362686 86.398895
-1.9473798 9.486267 90.7709
-3.54438 8.919266 90.8259
15.78962 36.308266 58.053894
15.70162 38.202263 56.987896
32.74762 41.26127 53.176895
33.95762 42.600273 53.686897
24.159618 15.096268 12.460899
24.95162 15.415268 14.978897
37.44862 7.7392654 17.454895
38.84362 7.7512665 18.475899
15.346621 1.613266 108.81989
14.12162 0.6092682 0.19889832
-1.6243799 6.7532654 4.091896
-2.77938 8.378265 3.5808945
12.12562 58.668266 37.244896
9.89962 58.549263 36.149895
-4.31138 62.411263 37.961895
-4.28638 64.04127 38.427895
6.4456224 83.61026 83.37389
4.85962 83.04026 84.5169
30.77862 92.16126 84.8539
29.499619 92.796265 84.12589
22.398619 33.047264 101.119896
22.43162 33.528267 103.12689
5.74262 40.881264 104.7279
5.01862 40.088264 103.3829
38.02562 105.59526 28.634895
36.80762 105.797264 26.483894
21.29562 107.89826 31.077896
21.20662 109.01326 32.6019
21.74662 60.624264 77.4619
21.731619 59.204266 79.6869
5.20662 64.30627 80.9359
4.37562 65.294266 82.4599
11.03762 48.837265 22.403893
11.18962 50.685265 21.009895
28.33862 49.250263 19.444893
28.82362 48.499264 20.9049
30.34162 102.31226 77.1709
31.86462 103.18826 78.73589
8.225621 101.490265 73.09789
8.7616205 100.09026 73.9079
16.460619 70.45226 41.561893
17.32062 71.60526 40.345894
32.701622 68.74726 40.086895
33.96462 67.45827 40.334896
22.94462 23.498268 1.5488968
22.90762 25.186272 0.69189453
0.96961975 21.393272 108.10089
1.321621 20.648262 0.21089935
15.641621 78.267265 36.381897
16.356619 77.20226 38.299896
32.56462 77.52827 36.925896
34.11862 77.50926 36.090897
3.8156211 15.959267 27.043907
3.3636215 14.408264 25.648903
25.92762 12.242264 28.774895
24.86662 10.807266 29.015907
0.35361862 110.93326 32.573895
0.86761856 1.5342636 33.180897
22.73362 6.315262 33.898895
22.30062 6.321266 35.529896
19.32462 26.954262 96.1049
19.01562 29.210274 97.25289
3.14462 31.388268 101.65389
2.1286201 31.866264 102.732895
33.25862 41.155266 48.933895
31.547619 39.95527 49.642895
15.28262 41.795265 53.071896
14.14262 40.727272 53.631897
11.09862 53.154266 26.194893
12.44462 54.032265 27.661903
28.05562 51.583263 23.3359
28.079618 49.830265 23.044899
38.76762 104.76527 31.886894
38.74062 105.169266 33.916897
25.47362 1.2422638 36.308895
24.492619 0.8722687 37.456894
24.19462 94.627266 61.608894
23.61862 93.60626 63.798893
8.82962 93.09426 64.9629
7.1996202 92.502266 64.5329
3.51062 35.653267 107.00189
3.63062 33.48127 107.13889
22.089619 31.234276 107.497894
22.839619 30.588264 106.09889
11.43762 91.405266 103.2689
12.85662 93.141266 103.5739
27.016619 86.73727 101.0469
28.56462 86.113266 100.6599
6.128621 66.61726 99.00389
5.8376207 64.77627 99.8689
29.31362 66.60626 106.969894
29.24462 68.28626 106.537895
30.35862 109.589264 78.8409
31.25762 0.4162674 78.5989
15.07662 6.6662674 82.6879
13.65462 7.556267 82.202896
8.552621 6.8972626 55.254894
7.2636194 7.901268 57.113895
32.18862 10.275269 64.13889
31.04962 9.095268 64.539894
29.70162 41.400276 33.428894
30.725618 39.320274 32.756897
7.0496225 37.64727 29.185896
8.621621 38.183266 29.718895
12.6106205 99.84226 4.478897
13.19062 101.85426 4.502899
-4.5723796 105.07027 4.083893
-4.8353796 103.47026 4.1228943
12.96562 12.684265 86.495895
13.91362 14.599266 87.6319
-0.59538007 19.530266 89.605896
-0.8213799 20.482262 88.2149
2.3866196 34.122276 1.7108994
2.01062 34.812263 109.413895
25.68462 38.588264 108.1039
25.513618 39.85427 109.3259
15.54362 87.21826 40.818893
15.69162 89.27126 40.888893
2.0466201 98.669266 44.640896
0.8266201 98.69126 43.462894
8.427621 99.92926 84.9599
8.40062 100.02626 86.8219
32.55462 102.95226 87.12489
31.86462 102.18127 88.608894
15.30362 1.2852631 96.32089
15.75562 110.93326 94.84789
33.10662 110.449265 95.955894
32.55762 110.40026 97.5189
18.67762 110.52526 34.885895
19.30962 0.72026825 32.937897
4.08862 2.839264 32.679893
3.15662 2.262268 31.513895
20.82362 23.822273 93.6139
21.12262 25.452263 94.3529
36.952618 23.264275 89.690895
37.63062 24.722267 89.4489
-1.2843802 84.811264 39.149895
-0.46438003 83.68127 37.306896
14.19262 82.40327 30.549894
15.08362 81.71526 29.160894
-3.56438 100.86926 12.085899
-2.30738 102.62026 12.561897
13.91662 99.33326 10.006897
14.20162 99.32826 11.582893
24.572618 4.4282684 46.067894
25.87962 4.1852646 43.850895
3.9866226 4.790268 39.339893
5.65162 4.2882614 39.825893
3.25862 77.49326 74.2709
3.16662 76.26327 72.384895
18.363619 70.67526 68.3929
19.23462 69.488266 67.552895
18.17562 98.83226 40.723896
17.613619 97.02226 41.823895
2.43362 103.86826 38.477894
2.9676201 103.95826 40.040894
24.89662 23.982262 33.671894
23.73962 22.094261 34.412895
7.7836204 27.679268 36.448895
6.51262 26.379265 36.318893
26.56762 102.795265 64.2549
27.10262 103.06526 62.346893
5.6736193 101.851265 60.486897
6.3226213 100.00926 60.474895
5.913621 45.553265 10.363899
5.33862 47.598263 10.544899
28.33062 43.600266 17.702896
28.54662 44.347263 19.194893
14.12362 98.69126 6.511894
14.80462 97.63126 7.9758987
16.87862 105.101265 18.112892
17.960619 104.35426 19.5839
17.12562 55.049263 55.547897
17.36662 55.952267 53.888897
-0.19637989 59.356266 56.137894
-1.7443798 58.876266 56.013897
19.77162 56.519264 70.8209
18.76162 55.248264 69.1189
3.6486201 62.229263 73.633896
3.61462 62.815266 75.11189
11.101621 94.935265 86.1279
11.87062 94.18826 88.274895
29.03962 94.087265 86.65289
29.17462 95.09126 88.0869
25.047619 42.650276 1.0038986
24.10262 42.071266 108.7829
6.6206203 47.234272 2.504898
5.49662 46.466267 1.6328964
4.934621 44.588264 104.692894
4.501622 44.915264 102.98489
27.659618 47.199265 105.509895
26.725618 48.411266 105.29589
5.6266203 0.055267334 38.927895
7.1126204 1.9422684 39.057896
20.78162 104.08226 35.285896
21.27262 102.461266 35.535896
33.74962 106.77326 94.12889
34.430622 107.79126 92.6829
9.239621 97.73226 90.135895
10.466622 98.461266 90.579895
5.7516203 49.287266 107.24889
5.8496203 48.102264 108.857895
23.061619 47.858265 106.62889
23.57662 46.289265 106.855896
29.46562 6.2152634 64.941895
31.28262 6.162262 63.640896
7.6176195 1.6922684 60.920895
7.571622 0.056266785 60.598896
26.589619 28.677269 27.162895
26.39962 29.251274 29.520895
9.54762 36.493263 31.797895
9.24862 36.644264 33.588894
28.078619 70.63526 105.9509
28.65762 71.09827 107.7989
6.64462 66.89726 106.76289
7.8416224 66.39027 105.72489
33.71062 74.83026 21.886894
35.46462 75.35626 21.287895
8.90162 66.22327 19.967903
10.37362 65.712265 20.338905
37.96862 91.77927 50.035896
36.99662 92.43227 48.183895
22.84062 96.31226 55.171894
22.60562 95.13626 56.392895
24.235619 80.86127 91.3919
23.35262 79.52726 93.148895
8.11262 82.20226 95.95989
7.65662 83.56526 94.83489
-2.3153799 5.865265 86.5319
-2.08938 8.1612625 85.5439
12.924621 2.5462646 89.0889
12.88362 2.5552673 87.497894
22.773619 45.885265 87.913895
23.94262 46.178265 86.175896
1.3676186 50.588264 82.6559
0.6546211 50.051266 80.8929
2.99862 33.70527 97.52989
3.87962 34.181267 95.51289
20.262619 37.592262 92.9759
21.56062 36.89927 94.077896
1.2016182 64.53526 69.3969
38.459618 64.59126 68.3799
22.46662 61.926266 73.12589
21.447618 63.222263 73.6299
26.134619 43.905266 20.036903
24.676619 45.65727 19.537895
11.570621 40.852272 21.704903
10.25662 40.05126 22.241905
9.02562 11.122269 53.695896
8.69262 9.198265 53.426895
25.603619 9.055267 50.749897
24.83862 7.7092667 49.465897
1.86862 103.183266 32.699898
1.68262 101.59727 34.550896
16.07762 97.18227 26.298897
16.84662 97.338264 24.784904
-1.1653798 25.319267 76.7379
-0.7263801 23.96627 78.274895
12.99162 20.435265 73.2549
13.88762 19.014275 73.761894
34.28462 7.153267 87.094894
33.50862 5.3382645 86.7289
16.86462 13.527267 86.1009
16.533619 14.879265 87.2409
36.12962 0.5072632 11.364899
36.667618 109.95926 12.641899
19.08762 2.4682617 14.916893
18.30562 0.8312683 15.332893
18.25762 85.28826 51.966896
16.43762 83.239265 51.266895
2.38162 90.697266 51.728897
2.07162 92.266266 51.771896
-0.25837994 61.333263 66.6469
0.81861997 63.030266 66.9599
17.09162 60.303265 66.4939
18.61862 60.755264 66.9519
2.35162 73.45226 57.427895
2.96862 74.55527 59.008896
19.534618 68.50726 58.430897
19.88662 69.70827 59.657894
17.762619 55.511265 61.688896
19.39062 54.269264 60.512894
35.02262 55.777264 55.408894
36.02462 56.895264 54.422897
13.08862 2.012268 82.3549
15.46562 1.7142639 82.4599
29.981619 107.379265 75.703896
30.36162 107.322266 77.413895
-3.3753798 50.234264 59.684895
-1.5733798 49.182266 58.605896
12.78162 47.735264 60.242897
14.63562 48.795265 60.273895
10.169621 48.928265 28.924894
9.77562 48.829266 31.146894
32.88462 51.974266 36.940895
33.14062 53.357265 38.025894
6.13462 44.239265 107.00189
6.54562 41.91227 107.6989
22.898619 37.555275 107.827896
23.898619 36.187263 107.7709
27.113619 28.262276 41.675896
25.51762 26.635262 42.454895
10.96662 30.338264 43.693893
9.52062 29.683266 43.517895
0.69662 12.775269 105.456894
1.85862 11.237267 106.3399
17.54262 13.274261 102.32289
17.33762 13.455261 103.97589
16.37662 60.636265 48.351894
15.820621 59.089264 46.869896
-2.0663798 61.316265 49.099895
-3.68138 61.132263 48.197895
18.32362 4.021263 17.454895
17.08662 5.500267 16.469894
1.13662 6.2032623 21.064903
0.8136201 7.9442673 21.306892
6.076619 18.491264 45.918896
5.6056223 16.424263 45.115894
28.336618 18.529274 50.005894
28.35462 18.798271 51.775894
16.77562 110.838264 9.483894
16.13962 109.06326 8.6568985
-1.9693801 110.09626 9.736893
-2.3893802 108.822266 8.635895
15.016621 73.45326 45.305897
15.13262 72.49726 43.241894
-0.86938 69.36027 45.058895
-2.1273801 68.16426 44.920895
23.45862 21.159264 17.162895
23.318619 22.837273 18.289894
8.19362 28.934273 20.365898
8.32562 29.960274 18.966896
13.04062 81.433266 24.209892
13.36862 81.97926 26.1529
-2.76638 91.45326 26.123894
-4.1773796 90.77526 26.443901
17.04862 45.631268 49.832897
19.35162 45.94527 50.365894
32.11262 42.431267 41.686893
31.56762 42.752266 40.027897
20.33462 69.504265 55.373894
20.71662 67.56927 55.538895
36.61662 60.271263 53.915897
37.32462 61.215263 52.584896
37.28362 54.951263 64.7559
35.95562 56.004265 65.967896
21.47962 57.056263 68.41689
21.45862 58.460266 69.1319
29.85962 60.910263 17.188896
31.58162 62.003265 18.014893
7.2306223 61.285263 15.756897
7.0726213 61.048264 17.3779
21.08162 15.668266 3.0568924
22.56962 16.97927 3.5078964
37.71462 12.895264 6.8358994
37.16262 13.578262 8.264893
13.14062 32.047264 62.199894
11.24562 32.626274 63.619896
-2.72838 40.209267 63.728893
-2.7823799 41.47027 64.663895
11.78462 85.503265 10.820892
13.22962 87.419266 11.384895
27.61862 78.45226 8.468895
27.530619 76.49827 8.766899
-3.31338 36.103264 73.2289
-2.14938 36.777275 74.702896
14.259621 30.098274 70.7859
15.6766205 30.141273 69.817894
27.14062 38.05126 27.979897
26.453619 36.077263 29.040901
10.64162 40.45426 29.689903
9.90562 40.133263 28.234901
14.68262 71.74326 29.723894
15.96662 70.02026 29.250895
30.655619 69.85726 29.067896
30.86162 71.10826 27.938894
9.93162 7.7612686 60.194897
9.83762 6.8032684 62.257896
6.8706203 105.61926 61.575897
6.19762 104.79327 60.294895
4.53262 83.09226 62.448895
4.79062 81.71826 64.1699
20.679619 80.28726 66.178894
20.954618 80.02326 64.6819
20.65362 53.126266 82.175896
20.52162 51.135265 81.4109
4.9886203 51.955265 78.580894
6.01162 50.727264 78.8639
27.79962 58.444263 4.7278976
29.509619 57.291264 4.060898
6.79062 52.508266 2.5888977
6.536622 50.857265 1.6888962
13.40462 105.47227 92.2659
11.65662 106.532265 91.4089
-2.57138 108.950264 96.8379
-3.87838 108.114265 98.0739
0.689621 79.019264 52.811897
0.4556198 79.54126 54.890896
22.43462 79.253265 60.204895
22.058619 79.05326 61.955894
24.096619 29.671272 2.4378967
21.863619 30.409264 3.466896
4.93962 33.184273 3.9988937
3.54762 32.13627 3.7838974
7.5086203 102.73126 66.34789
8.41362 104.933266 65.9519
24.86262 100.42726 64.4459
25.69262 100.864265 65.954895
9.94862 98.518265 71.8789
11.22562 96.71826 71.678894
26.69462 94.740265 74.7439
27.09562 96.66226 73.468895
9.47062 49.799263 19.214897
8.542623 49.239265 21.551903
30.26562 45.166264 21.369896
29.00762 46.135265 22.1399
0.79261994 105.62426 25.099907
2.07562 107.03626 26.746895
13.96862 100.810265 18.264893
14.52462 102.46826 19.035896
29.00162 82.99726 10.616898
27.73362 82.55026 12.1409
16.370619 83.14926 20.454903
15.12162 83.91426 21.579903
24.902618 26.534264 27.932896
24.64262 24.289268 29.348894
7.92562 24.073265 32.507896
6.88762 24.867271 33.977894
15.33062 20.491264 87.5309
14.66162 22.743263 87.815895
-1.1173799 22.64927 83.1709
-0.13838004 24.253273 83.024895
-0.70138 95.80126 38.312897
0.71862006 97.04327 39.218895
15.320621 94.405266 39.259895
14.12162 94.90327 38.460896
0.5106201 53.792263 74.50089
0.6976204 55.698265 73.744896
22.59162 58.908264 71.6329
21.658619 58.867264 73.204895
1.24462 56.479263 67.15189
-0.35337996 57.153263 65.469894
16.804619 54.847263 59.081894
17.80862 53.974266 57.986897
14.61162 25.547264 77.9089
13.287621 25.70327 79.48489
-0.047379963 29.032265 83.3489
1.32462 28.157265 83.983894
19.74162 60.000263 71.97289
19.30062 61.914265 72.188896
2.81562 66.058266 73.2699
2.08362 64.628265 74.1849
11.820622 106.545265 82.5899
9.349622 106.002266 83.9759
32.673622 106.47126 85.69489
31.42462 105.558266 86.1169
36.257618 7.0462646 105.50189
36.51162 6.932266 107.620895
21.19262 11.066261 5.327896
19.777618 11.5362625 4.3188934
3.730622 13.346268 35.830894
3.6306198 11.449265 36.621895
27.013618 16.888268 36.631897
27.07662 15.424263 36.997894
14.7946205 47.186264 46.708897
14.160621 49.365265 48.200897
-1.81938 52.979263 52.944897
-2.5333798 53.926266 54.027897
24.80062 87.95326 82.551895
24.34562 89.156265 80.55489
8.70262 91.63226 78.036896
8.37262 91.061264 79.775894
25.25462 9.805267 38.533894
26.62862 10.832268 37.363895
1.4406204 5.1692657 29.150894
0.9286194 3.662262 29.892895
8.36762 58.284264 7.8968964
7.9016204 57.604263 5.9868927
6.17162 47.200264 7.9018936
7.5126204 47.027264 6.756897
31.35962 21.652275 64.1559
29.21662 20.736275 63.802895
14.85762 24.97927 65.702896
14.11462 25.461266 67.19489
12.04162 5.745262 70.88889
12.778621 5.682266 73.20889
27.68962 5.8002625 70.091896
28.787619 6.2492676 68.802895
36.341618 1.0082626 19.5149
34.35262 0.7682648 20.847893
20.77962 9.572266 16.984894
21.75162 11.0012665 16.5169
22.332619 10.279266 23.765907
24.106619 10.208267 25.735893
37.883617 14.348267 19.5839
38.79162 15.800262 20.193901
32.680622 103.63726 99.149895
31.75062 105.05326 100.8809
16.58962 108.55526 103.80789
15.23462 108.26427 103.0049
27.443619 39.58027 15.825897
27.84062 39.990273 13.334892
4.8676195 38.582268 8.711899
6.1956224 39.165276 7.6498947
5.9096193 26.543266 29.739899
4.97762 25.734276 27.9889
27.31662 22.903267 25.479897
26.72062 24.14927 24.1399
-0.20738004 94.36726 30.505896
1.25262 96.335266 30.493895
18.79862 93.13426 34.953896
19.00662 91.781265 36.127895
4.31062 25.056267 6.544899
4.5876203 23.833275 7.982895
20.054619 21.19027 8.2799
19.72362 22.338264 7.2518997
6.8016214 16.204262 49.567894
6.2476206 14.431267 50.569897
29.367619 14.947266 54.353897
29.443619 16.205261 55.508896
13.80762 103.49726 101.33289
13.76062 101.69226 99.37689
30.502619 98.37326 97.80689
32.19062 98.88126 98.425896
27.58062 16.415268 61.481895
26.398619 15.078262 60.340897
10.73162 18.289268 59.095894
9.56462 16.704262 58.796894
29.467619 20.844261 55.550896
28.117619 19.103264 56.712894
14.44762 23.034264 61.700893
14.6366205 24.749275 62.850895
36.18562 20.771263 82.4499
36.02462 22.222267 80.467896
19.87862 27.25927 82.550896
18.59062 26.307274 81.775894
24.86962 29.170265 108.8949
25.346619 30.474266 107.3969
2.0776215 24.125267 103.7829
3.1616218 23.130272 102.913895
6.44062 72.726265 93.1019
6.93762 74.92726 92.37589
24.58062 72.64626 92.3779
25.89962 71.463264 92.5159
5.81862 86.408264 69.6859
5.9416203 86.988266 71.63789
23.262619 84.614265 74.331894
23.77562 83.11926 73.7239
0.66962004 1.0732651 28.571907
2.26062 111.27326 29.804893
18.606619 106.67826 27.296898
19.95662 106.519264 28.573906
21.25762 32.500267 82.078896
20.09862 33.211266 80.2279
33.923622 33.169273 72.5209
35.16362 34.202263 71.4039
9.7496195 92.56526 88.66689
9.614621 93.70526 90.3919
32.37962 95.69226 92.3809
31.45162 94.91326 90.981895
24.56362 89.311264 71.593895
26.74462 88.44026 70.428894
2.2326202 87.10926 63.859894
2.7946205 85.86227 64.98689
2.07562 82.975266 57.772896
2.45162 84.61826 56.597897
19.93262 85.42526 56.767895
20.43862 84.13726 55.373894
7.251622 51.837265 12.277893
6.1976213 51.080265 10.535896
29.13562 49.260265 11.296898
29.051619 51.106266 11.7558975
28.367619 55.331264 13.871895
25.93462 56.100266 14.220894
9.06862 58.335266 15.510895
9.41262 59.685265 16.536896
6.82562 4.3582687 50.116894
8.60262 5.835266 50.049896
24.100618 5.023262 49.067894
25.21262 4.7492676 50.441895
8.11262 65.14826 103.428894
9.67462 66.77226 102.84889
25.054619 59.004265 103.69689
26.25462 58.850266 102.5739
17.224619 110.79326 109.522896
16.90562 108.63526 108.0069
33.15862 102.38126 106.996895
33.88362 101.586266 108.2439
0.33362198 107.822266 28.752907
37.514618 108.54826 26.845894
22.127619 0.738266 31.951897
21.81762 0.55326843 33.421898
21.06062 10.631264 34.690895
20.81262 8.295265 34.867897
6.68862 8.747269 41.377895
6.1726203 9.601265 39.910896
-1.64838 93.91727 23.901894
-0.29437995 93.628265 25.628899
14.311621 94.212265 24.155907
14.30262 94.241264 22.232903
20.273619 60.828266 69.45789
22.679619 61.410263 70.05589
38.12962 58.484264 69.3359
38.299618 56.669266 68.83389
0.55862045 34.55126 86.1969
38.52062 33.766273 87.6979
22.99762 38.59527 96.11289
22.77262 38.447273 97.9379
26.412619 67.835266 86.189896
26.22062 66.31226 88.483894
3.8616226 67.878265 86.6429
5.5356226 68.294266 86.59789
18.071619 1.8272629 8.671898
18.20962 0.7232666 6.8128967
33.03362 0.07826233 1.9768982
34.87462 0.7142639 1.768898
9.29762 75.17726 12.856895
7.8606195 74.05326 13.834892
34.24662 80.18726 21.239906
34.42762 80.894264 23.095894
8.027619 97.296265 74.690895
7.6996202 98.86227 76.147896
31.613619 100.99526 82.9179
30.513618 102.49626 82.843895
-0.72438 9.147263 107.52889
0.12861992 9.989265 109.4239
16.61062 5.674263 105.577896
17.283619 6.7722626 106.636894
17.474619 79.67326 42.330894
18.20862 81.31726 41.016895
34.83162 76.54227 40.280895
36.251617 76.29127 41.499893
32.708622 16.141266 71.4519
32.96862 14.901268 69.952896
10.951619 13.780266 66.0019
10.9926195 12.525269 64.662895
21.74862 86.85926 58.579895
19.99462 87.849266 58.329895
3.42462 90.68127 56.922897
2.21662 89.84626 57.590897
25.332619 79.06526 83.482895
24.83762 78.59526 85.6289
3.6156204 74.78726 84.786896
3.4936225 73.09827 85.650894
11.09762 95.88626 104.51589
11.24262 98.36127 104.19789
-5.3493795 97.98627 106.1469
-6.37438 96.630264 106.17989
19.92062 19.189262 97.039894
20.71562 21.616264 97.633896
37.29362 21.687263 97.9359
37.82662 21.261269 99.26589
31.81762 69.171265 22.171898
30.624619 67.280266 21.325905
13.64962 68.933266 20.7369
13.51362 68.86027 22.427895
12.53162 20.885262 61.667896
13.96862 20.652275 60.172897
30.02262 17.516273 65.383896
29.31962 18.314262 66.6989
26.50462 83.82926 92.79189
28.00362 85.102264 94.566895
5.170621 82.06826 94.9499
4.795621 80.533264 93.97389
14.42362 106.95626 16.495895
14.06562 105.310265 18.031898
0.020620117 109.37526 19.441902
-0.77638006 110.948265 20.8899
0.90962005 16.878273 1.5398941
2.33462 16.262268 2.7788925
18.97162 13.332268 1.4708939
18.97962 11.757263 1.6978989
16.21962 57.529266 43.979897
15.15262 59.285263 42.898895
-2.5353801 56.516266 47.503895
-3.29438 57.910263 46.528896
21.29862 44.289265 81.8119
22.756618 46.312263 81.93089
0.55261993 45.907265 81.1729
0.50362015 46.085266 79.398895
16.120619 101.267265 22.144905
15.287621 99.047264 20.802895
0.75562 98.477264 28.556892
0.11962009 96.98326 28.071907
20.44862 8.836266 7.3428955
22.17362 10.212265 7.633896
37.38462 9.532265 11.915894
37.980618 9.700264 13.367897
4.626622 88.83126 69.4199
5.87362 90.07926 71.4109
30.006618 94.10826 73.939896
28.97662 93.22327 75.1749
6.585622 63.572266 12.4678955
6.5876207 64.45126 9.982895
30.35162 70.601265 10.575897
31.10562 69.59026 9.1308975
10.37362 19.488274 63.164894
9.473622 20.876274 61.883896
32.98762 25.367271 62.721893
32.85862 26.924263 63.470894
19.41162 40.53826 74.0309
17.93362 40.31127 75.939896
3.45662 48.995266 78.9489
1.8666201 48.50427 78.980896
-3.6853802 40.206276 51.449894
-2.1443799 41.620262 49.688896
12.12462 38.568275 54.252895
13.22062 37.911263 55.247894
16.73062 94.503265 25.4029
16.49062 92.406265 25.449898
33.80062 87.86826 26.942894
35.06862 87.13326 26.331902
16.24662 81.130264 32.499893
17.33462 80.769264 30.028893
31.277618 77.65427 22.466896
31.672619 76.43926 23.847893
19.80062 79.22227 49.035896
17.92062 78.97227 48.061897
1.08062 81.38726 50.011894
0.16061999 81.56826 51.671894
25.24662 59.616264 106.302895
23.27462 59.331264 106.188896
8.41862 60.703266 2.454895
7.84662 60.289265 0.79089355
4.4236193 87.155266 73.789894
3.9266212 84.85626 73.5459
27.224619 86.41126 77.8489
25.63562 85.906265 77.511894
20.49162 99.80727 41.451897
21.85962 98.20826 40.321896
36.382618 97.046265 36.527897
36.855618 95.52226 36.008896
28.87862 100.11726 83.0909
28.467619 98.45426 81.428894
11.20862 101.02827 87.2979
10.29962 100.253265 88.5739
19.346619 96.224266 33.785896
20.912619 94.475266 32.793896
35.417618 93.38226 27.827894
37.26062 94.56626 27.936895
8.305619 73.419266 7.4608994
6.6596193 72.613266 8.709892
31.73262 82.224266 8.604897
31.31962 81.27626 9.975899
34.58262 102.505264 25.477898
33.00962 101.77526 24.414894
18.53462 110.31326 24.947899
17.83862 110.00626 23.551903
31.85962 33.961266 49.304897
31.412619 35.671272 47.939896
8.145619 31.597267 46.860897
9.433621 31.176262 45.782894
17.98662 11.172264 95.75389
18.68562 9.139267 94.231895
33.71662 7.019264 89.7409
34.49762 6.5922623 91.3629
16.88262 90.644264 30.122894
17.62762 90.37627 32.126896
33.26862 86.70927 29.684895
32.51762 88.171265 29.469894
19.52562 24.765266 6.238899
17.863619 23.568275 5.575897
3.26662 27.281273 4.805893
4.04062 27.907265 6.1748962
0.60562134 74.39926 60.336895
38.64362 76.503265 60.439896
23.453619 81.44426 65.29189
24.151619 82.82726 65.980896
-3.8163798 51.258266 45.027897
-2.52938 50.246265 43.196896
13.21062 49.603264 43.571896
14.55762 49.986263 42.645897
3.7536209 63.241264 92.0719
4.295621 61.552265 90.5199
28.502619 57.263264 95.78189
27.95562 55.630264 96.0209
13.063621 0.6172638 94.760895
13.41662 110.671265 93.4509
-3.53838 109.85726 93.88789
-4.76638 111.08426 93.18089
31.197618 97.37627 3.2498932
30.45262 98.52326 5.081894
31.676619 101.755264 8.857895
32.451622 102.29327 7.4958954
25.39962 54.258266 95.997894
24.58862 54.523266 98.09889
6.55562 55.356266 94.997894
5.81462 54.499264 93.7019
4.4006205 45.862267 108.01389
3.6176193 44.093266 108.5619
26.24662 47.596264 4.2098923
25.620619 48.996265 4.044899
17.79962 17.679268 103.022896
16.30762 15.9372635 102.7419
1.55962 13.087265 108.32089
0.6616199 12.592262 0.26289368
31.207619 44.130272 36.532894
32.11962 42.542274 37.593895
10.20662 41.137276 33.142895
10.934621 42.09527 31.876896
35.403618 104.18726 23.574898
35.18562 104.655266 21.673897
19.54862 109.04426 18.690895
18.29862 107.724266 18.369896
29.57062 23.887276 47.698895
30.06762 26.150276 48.042896
7.781621 26.502266 46.280895
7.4906206 25.167274 44.696896
33.07262 30.543266 66.87589
32.90862 31.072273 68.968895
18.65062 32.31727 77.7649
16.98062 32.282265 77.094894
11.481622 18.159264 67.5159
10.973622 19.544273 66.105896
33.07562 20.985268 66.4769
31.860619 20.02227 66.2999
-0.9413798 41.78826 72.2829
0.76162004 42.734276 72.9349
15.311621 40.943275 66.5309
14.38762 42.28727 65.954895
32.76162 93.63326 2.3218994
33.86162 92.63826 3.5478973
11.2876215 86.683266 5.8308945
12.20062 87.877266 6.8588943
28.14362 72.616264 95.4379
27.95962 71.63626 97.2999
5.9106226 70.07826 98.438896
6.0636225 71.53726 97.525894
10.638619 92.58427 109.564896
10.542623 91.21626 1.8708954
32.36862 93.406265 107.842896
32.83462 94.10926 106.28189
17.790619 30.974266 88.8249
16.519619 31.838264 90.2849
17.21462 33.584267 93.869896
16.290619 33.849266 92.23489
3.8476226 41.96926 1.2778931
3.5966194 40.05227 2.1378937
27.77462 39.26026 6.282898
26.943619 38.351265 7.371895
