20.643 87.823 62.521
18.168 88.624 62.866
16.757 90.087 61.419
9.725 74.805 67.077
7.54 75.236 65.802
5.327 76.439 66.715
4.875 76.423 69.248
18.083 59.826 49.434
19.132 60.328 51.946
19.794 62.325 52.777
21.423 63.214 51.686
86.818 64.795 65.402
86.466 62.954 63.472
85.862 63.579 61.048
85.16 65.596 60.258
34.152 1.082 59.427
34.636 1.536 61.718
36.675 3.114 62.937
37.104 5.41 62.163
22.039 11.364 71.893
20.556 11.765 73.74
18.694 9.863 74.917
17.57 8.165 73.829
65.299 58.272 52.79
63.245 57.343 51.707
62.224 54.958 51.797
63.202 52.735 52.375
18.541 54.482 48.245
17.638 55.253 50.226
18.664 57.006 52.248
20.938 58.383 52.205
71.934 32.163 58.008
72.772 34.228 59.11
74.527 36.005 58.56
75.809 36.169 56.169
73.53 18.811 1.96
74.925 17.137 -0.089
73.916 14.857 -0.887
72.149 13.595 0.066
31.327 85.179 59.56
33.875 85.554 59.499
35.504 84.623 58.317
35.945 82.725 57.399
7.74 36.074 45.081
7.766 37.809 46.766
9.588 38.184 48.567
12.179 37.739 48.308
18.955 53.063 1.528
20.734 53.513 0.517
22.373 55.071 1.597
22.398 55.404 4.166
19.338 75.47 64.035
17.518 76.864 63.227
15.799 78.653 64.733
16.106 79.577 66.719
70.787 4.328 49.071
69.559 5.358 47.551
66.869 6.038 47.477
65.161 5.998 48.936
86.713 82.668 94.186
87.655 81.213 96.003
89.768 79.821 96.034
91.411 79.163 94.257
58.748 9.709 79.551
59.061 8.9 77.056
59.54 6.5 76.377
59.516 4.369 77.399
19.848 73.89 80.458
20.848 71.736 80.767
23.594 71.052 81.417
25.356 71.949 79.6
40.385 63.863 70.239
40.843 63.263 68.105
43.159 64.213 66.618
45.165 64.916 67.231
28.767 6.637 47.853
26.388 7.625 47.598
24.326 7.82 49.144
24.07 6.871 51.348
51.604 13.298 79.741
52.096 14.073 82.245
53.988 16.061 82.691
54.407 18.134 81.384
26.863 62.179 72.844
25.327 63.296 74.357
25.723 65.458 75.695
27.12 67.396 75.588
6.39 44.133 78.97
6.423 46.61 79.452
7.913 48.262 79.253
10.509 48.05 79.997
0.149 80.752 71.528
0.31 78.188 71.454
1.382 76.51 69.968
2.704 76.642 68.017
60.999 76.396 42.828
61.353 76.361 40.927
60.741 74.421 38.905
59.506 72.331 39.258
20.457 45.514 42.094
22.04 44.454 43.24
22.634 42.104 42.94
22.812 40.575 40.986
53.045 56.118 33.635
54.848 55.961 32.578
54.889 54.866 30.068
53.753 53.225 29.157
71.274 45.563 67.741
70.085 47.522 68.54
70.52 49.423 70.596
72.883 49.87 70.647
9.67 69.962 58.703
8.882 70.758 61.132
5.99 70.64 62.105
4.584 68.927 61.672
18.099 1.916 95.904
16.115 3.481 95.423
15.86 5.82 94.395
17.969 7.547 94.335
61.14 48.034 49.975
60.951 49.495 48.695
60.185 52.418 49.006
60.176 53.479 51.056
39.53 90.557 85.19
38.942 89.779 83.187
37.939 87.332 82.293
37.526 85.451 83.296
18.358 67.48 58.157
19.588 69.709 58.82
18.583 72.099 58.286
16.354 72.756 58.36
10.623 70.339 14.823
12.596 68.99 14.634
13.226 67.005 13.117
12.303 65.682 11.588
42.258 0.455 6.574
44.821 0.468 6.34
46.16 0.007 4.633
45.793 -0.62 2.044
66.642 4.524 41.301
67.967 5.46 43.24
70.525 6.537 42.923
71.826 7.076 41.215
39.748 58.958 67.72
38.844 61.428 68.043
38.005 62.613 70.069
38.055 61.846 72.732
33.878 91.403 65.986
33.196 90.73 64.068
35.04 89.968 61.646
36.822 88.678 61.729
87.244 65.695 67.804
84.93 64.309 68.113
82.745 65.279 69.313
82.694 66.851 71.17
65.889 8.864 68.381
67.759 7.338 67.965
69.918 8.086 66.259
70.415 10.58 66.929
14.236 88.714 71.174
13.427 90.032 69.353
14.466 92.184 68.058
15.713 93.694 68.819
2.149 12.245 13.774
0.144 11.326 14.72
-0.673 8.798 15.084
0.087 6.681 14.011
79.089 7.783 88.906
78.329 9.764 90.077
75.836 10.817 90.028
73.803 10.378 88.997
88.51 32.669 19.705
88.783 33.338 21.945
87.395 34.785 23.688
84.778 34.308 23.707
12.18 52.817 53.41
11.518 53.907 55.663
10.966 56.202 56.257
10.181 58.132 55.269
65.772 69.063 84.578
68.151 69.043 83.037
69.191 70.659 82.092
68.589 72.819 81.078
72.157 78.029 84.533
71.321 80.324 84.057
71.198 82.331 85.636
70.995 82.493 87.652
-0.701 11.889 92.567
-0.311 12.32 90.421
1.264 14.792 89.826
2.315 16.123 91.072
63.042 63.354 57.988
61.737 63.097 55.913
61.846 61.157 54.176
62.795 59.111 54.096
64.675 42.152 47.236
62.696 41.712 46.294
61.111 39.355 46.46
62.187 37.281 45.785
73.279 57.587 1.663
74.706 59.382 1.268
76.882 59.775 0.014
78.067 57.95 -1.406
32.058 44.106 10.531
31.152 42.57 11.56
28.53 42.555 12.528
26.658 43.83 12.337
10.24 57.97 60.492
11.628 58.81 58.371
13.482 57.155 56.995
14.66 55.262 57.619
23.828 55.2 89.672
26.112 55.225 89.675
28.17 54.376 87.864
27.966 52.916 86.301
38.742 74.303 73.322
40.279 74.809 71.53
41.821 76.976 70.959
42.024 78.93 72.31
55.253 46.446 45.41
57.128 46.724 47.333
58.284 48.755 48.159
58.626 51.288 46.939
28.78 63.5 94.714
26.751 62.643 94.931
26.186 59.661 95.239
27.528 58.033 94.727
83.602 3.98 60.505
83.815 4.04 58.252
85.36 2.573 56.396
87.696 1.591 57.468
32.674 86.734 84.727
30.736 87.514 84.027
28.44 88.595 85.534
27.944 88.131 87.65
46.946 29.094 73.223
48.685 30.084 71.749
50.219 29.236 70.066
50.353 27.079 68.832
61.372 81.146 47.626
58.782 80.763 47.105
57.184 81.772 45.369
57.278 83.828 44.232
27.214 74.162 35.331
27.43 74.148 32.948
29.404 74.716 31.317
31.902 75.288 31.992
79.2 54.491 39.333
79.941 52.185 38.972
81.665 51.273 37.678
83.419 51.822 35.797
85.943 35.747 51.883
87.943 37.017 52.656
90.433 36.581 52.998
91.683 34.471 52.997
2.869 76.733 97.468
2.503 77.121 95.339
3.87 76.59 93.357
6.183 76.563 92.861
45.427 58.969 62.925
46.233 60.716 64.046
43.952 61.545 65.176
42.164 60.142 66.01
2.558 48.875 81.777
4.064 49.76 80.141
6.567 50.491 80.133
7.639 51.66 81.863
15.597 50.134 72.565
18.25 49.731 73.174
19.767 47.93 72.517
19.527 45.645 71.248
74.608 82.351 6.88
76.896 82.033 7.073
78.672 81.082 5.445
78.749 80.442 3.23
26.188 47.189 43.105
28.576 46.861 42.986
30.444 48.439 42.06
30.143 50.422 41.681
62.149 87.579 -1.197
59.849 88.226 -0.493
58.668 87.808 1.753
58.532 85.638 3.111
35.052 14.074 71.578
32.838 13.58 71.235
30.561 13.801 72.332
30.008 15.447 74.469
0.316 33.025 75.861
-0.687 31.787 74.289
-0.012 29.517 73.046
1.676 27.573 73.628
87.373 66.273 89.978
87.499 64.65 88.423
89.314 65.12 86.723
90.201 67.359 85.749
25.993 86.388 82.121
28.57 86.463 82.488
30.027 88.359 81.441
28.884 90.123 80.713
4.236 76.377 90.555
3.22 74.302 89.745
1.653 73.859 87.934
-0.378 75.004 87.195
10.39 88.53 70.267
10.14 90.583 71.754
10.894 92.88 71.054
12.419 93.079 69.296
16.698 91.94 18.109
16.302 89.717 19.933
13.95 88.604 20.285
12.228 88.141 18.497
7.234 52.752 4.894
9.782 53.418 5.078
10.836 54.496 7.372
9.467 55.988 8.877
73.498 68.644 99.952
71.918 66.672 100.164
71.589 64.675 98.657
73.176 63.815 96.986
20.298 62.883 72.263
22.372 63.405 73.678
22.91 65.326 74.976
21.545 67.524 75.777
12.141 67.418 39.452
12.978 65.716 38.167
15.562 65.026 37.367
17.653 65.946 38.347
33.693 71.558 69.929
35.601 70.253 70.328
36.641 68.109 69.341
35.573 66.35 67.637
16.049 50.158 76.492
16.195 52.587 75.344
14.885 54.877 76.153
13.212 54.885 78.103
-0.004 69.982 94.13
-1.298 68.981 92.159
-0.495 67.196 90.625
1.247 65.259 91.297
17.021 13.473 97.492
18.97 14.588 98.816
20.819 15.43 98.207
21.967 16.692 95.93
58.94 3.048 31.595
57.919 3.686 29.562
57.782 2.876 27.349
58.339 0.608 26.199
69.918 17.976 47.514
72.088 17.832 47.787
73.382 15.522 47.39
72.611 13.09 47.532
23.314 60.208 97.241
21.976 58.284 97.696
19.495 57.862 98.289
17.455 59.267 97.631
75.418 84.863 42.645
75.487 86.179 40.437
76.916 86.368 38.671
78.983 85.102 37.754
9.152 3.587 71.574
8.742 4.979 73.919
6.678 5.345 75.21
4.109 4.744 74.564
17.31 88.642 46.158
16.047 87.412 44.497
15.257 84.693 44.663
14.866 83.407 46.819
70.138 12.985 70.847
68.883 11.249 69.738
67.079 9.856 70.431
65.378 10.207 72.233
76.406 82.862 76.761
75.735 81.862 78.939
73.952 82.74 80.609
73.123 84.955 81.193
23.876 26.937 31.294
26.007 27.687 32.123
26.956 30.063 32.573
26.494 32.043 31.631
56.756 21.684 87.396
54.719 22.22 86.383
52.605 21.057 85.993
51.593 19.017 86.658
14.986 10.592 26.454
17.036 9.211 26.492
18.924 9.028 24.723
18.844 8.969 22.317
84.074 27.782 2.551
83.318 29.827 2.795
82.264 31.231 5.076
81.525 30.626 7.084
35.364 11.585 -0.552
36.152 13.927 -0.448
35.084 16.074 0.219
32.977 16.509 1.143
7.214 34.637 40.936
7.535 32.443 42.312
5.844 31.793 44.563
4.513 33.239 45.185
85.636 85.258 4.91
87.829 85.054 3.49
90.319 85.03 4.314
91.212 85.737 6.482
17.462 91.981 93.673
16.786 89.457 92.493
17.458 88.928 90.028
19.547 90.093 88.444
78.084 81.734 80.821
78.428 79.924 79.333
80.728 78.809 78.2
82.691 79.761 77.822
22.833 86.232 62.443
24.661 87.245 63.578
27.094 87.727 62.943
28.436 87.488 61.159
29.401 74.866 73.602
27.19 74.004 74.322
25.522 74.633 76.152
25.969 76.173 78.386
29.388 65.692 26.097
29.456 63.68 26.745
30.846 61.635 26.046
33.02 61.572 24.14
44.605 64.738 89.866
47.245 65.191 88.855
47.844 64.007 86.756
46.72 61.504 85.921
61.497 43.744 67.752
62.945 45.097 68.807
64.176 47.404 68.304
64.048 48.9 66.361
30.301 91.957 62.36
29.57 89.847 61.782
31.086 87.82 60.097
33.381 88.594 60.103
51.255 81.956 -0.852
52.033 79.726 -2.121
51.137 77.724 -2.709
48.738 76.604 -2.299
84.249 68.423 45.466
82.155 69.153 47.174
79.897 68.051 47.311
78.864 66.364 46.06
69.293 85.876 84.16
71.303 84.212 83.372
70.835 81.985 81.729
69.269 81.75 79.759
30.87 70.272 55.898
28.427 69.585 55.581
26.442 69.235 57.303
26.509 69.757 59.953
65.522 73.027 4.398
67.859 73.45 3.807
68.834 75.124 1.801
67.633 76.687 0.403
44.686 80.12 27.515
44.38 81.345 29.04
45.76 83.516 27.887
47.19 83.191 25.597
74.048 56.9 73.759
74.833 58.275 72.282
75.925 60.631 72.009
77.13 62.047 73.309
17.567 73.941 62.254
19.046 74.133 60.151
21.122 73.508 59.697
22.895 72.051 60.425
26.466 20.015 1.764
26.087 20.281 3.853
23.84 20.514 5.358
21.75 19.971 5.352
84.338 31.502 23.352
82.684 31.144 25.034
81.652 29.16 26.12
81.469 26.599 25.211
55.871 15.353 61.909
56.792 17.283 60.494
56.861 19.552 61.051
56.969 20.802 63.534
53.111 69.376 61.954
50.963 67.932 62.464
48.646 69.101 63.903
48.036 71.089 64.075
15.908 93.386 23.201
14.036 92.608 22.705
13.002 89.935 22.655
14.251 87.834 23.313
54.474 29.306 67.763
52.516 28.026 66.641
52.068 25.488 66.607
53.732 23.505 67.247
64.033 90.3 21.911
65.499 91.95 21.824
68.078 92.131 21.354
68.937 90.392 20.4
17.563 22.696 8.78
17.255 23.151 11.402
17.1 25.553 12.457
17.723 27.12 11.294
1.842 10.251 32.453
1.707 12.186 33.658
4.344 12.97 34.721
6.572 12.326 33.549
18.084 3.8 25.985
18.112 4.193 23.566
19.183 6.083 23.0
21.506 7.447 24.321
-1.688 18.614 17.003
0.586 18.767 16.272
2.911 19.717 17.877
2.509 21.476 19.604
74.37 32.546 29.827
75.099 30.863 28.213
76.276 28.63 28.377
75.725 26.835 29.92
74.427 86.614 37.426
73.039 87.454 38.971
70.827 85.893 40.218
70.156 84.073 40.002
86.451 30.569 25.051
88.506 31.239 23.806
90.453 29.611 22.955
90.927 27.118 23.286
86.583 48.983 4.716
86.255 50.115 6.711
85.219 52.204 7.345
83.955 53.965 6.176
61.019 35.107 44.864
62.402 35.055 42.993
64.972 33.784 42.42
65.389 31.396 43.262
51.323 25.911 37.114
50.504 25.396 39.252
49.438 26.727 41.143
49.309 29.115 41.634
48.167 19.31 12.896
49.025 17.316 12.309
50.744 16.723 10.196
51.276 18.435 8.577
36.91 30.789 56.589
37.106 31.308 54.114
38.109 29.669 52.194
40.153 28.097 52.482
76.237 14.989 17.354
75.24 15.65 19.79
75.358 17.959 20.944
76.094 20.139 20.283
52.416 70.827 12.664
50.149 70.595 13.767
49.518 67.879 14.434
49.895 65.797 13.083
61.165 30.194 36.947
60.006 28.832 39.054
58.295 26.955 37.688
58.813 25.083 36.592
17.675 21.862 14.661
19.564 22.863 13.126
19.966 25.655 13.062
19.691 27.216 14.905
51.177 28.456 43.644
49.047 27.269 44.298
48.056 26.852 46.441
47.742 28.426 47.851
4.424 16.688 36.1
5.843 14.677 36.448
8.21 14.299 36.054
9.795 15.177 34.507
68.441 4.24 21.667
70.397 3.976 22.334
72.453 5.824 22.15
72.264 8.01 20.343
76.326 35.445 4.863
77.187 35.567 6.974
75.758 36.07 9.143
74.383 38.166 9.613
55.932 7.753 31.015
56.317 9.909 29.858
56.922 12.08 30.618
56.536 13.201 32.946
56.507 25.219 32.596
54.98 24.012 34.427
54.012 25.057 36.703
53.896 26.931 37.355
55.507 80.274 22.606
57.666 79.785 21.319
59.894 80.907 21.293
60.786 82.939 22.021
44.353 50.824 32.086
43.977 48.373 32.14
44.574 46.356 30.183
45.72 46.377 28.286
52.65 14.576 62.516
50.538 13.394 62.714
50.418 10.68 62.211
52.185 9.377 61.602
3.13 4.547 36.197
2.285 6.672 35.795
3.103 8.605 34.275
5.449 9.003 33.201
65.56 68.672 36.061
66.241 67.671 33.916
66.464 65.149 33.117
65.226 63.015 34.135
20.896 2.732 47.459
21.529 0.44 46.234
19.848 -0.752 44.471
17.438 -0.675 44.262
54.155 59.943 83.019
56.223 61.334 82.908
57.985 61.351 81.471
58.002 62.557 79.003
-1.355 86.093 29.873
-1.136 88.657 29.311
0.19 90.601 30.556
0.779 90.696 32.988
-0.615 4.863 77.53
1.719 4.186 78.409
3.927 5.3 78.302
5.063 6.865 76.793
40.769 22.732 94.721
39.621 24.84 95.741
40.7 26.881 96.69
42.818 28.336 95.882
31.102 1.948 11.81
28.809 1.99 12.138
27.53 3.38 13.792
28.126 5.576 15.115
35.543 85.061 2.935
33.869 83.403 3.544
31.957 83.826 5.729
32.364 85.644 6.887
2.115 31.32 24.036
0.416 32.545 24.931
0.655 34.58 27.002
2.895 35.692 27.713
61.89 55.266 33.162
60.949 54.938 30.65
62.627 55.563 28.431
64.39 56.505 28.832
23.193 67.897 28.318
22.6 65.99 27.613
20.809 64.651 28.968
19.102 65.687 30.688
75.399 39.398 12.128
74.817 36.734 11.856
75.835 34.89 12.894
78.501 34.75 13.632
39.452 71.218 19.946
41.748 72.17 20.493
43.834 71.488 18.692
43.798 69.861 17.396
20.034 27.651 38.632
18.492 28.513 40.428
16.025 29.486 40.057
14.316 28.843 38.641
56.291 44.648 18.804
55.616 42.473 20.237
54.204 42.396 22.296
52.979 44.202 23.497
32.324 45.07 44.751
30.161 44.322 44.419
28.591 46.202 45.725
29.776 48.042 47.231
2.841 91.991 27.929
2.059 89.68 28.861
3.377 87.62 28.924
5.154 86.685 27.584
38.864 87.793 10.324
39.652 88.27 8.064
41.799 88.557 6.935
44.138 88.697 7.496
31.358 11.772 43.741
33.501 10.878 43.807
35.128 9.55 42.224
34.776 8.722 39.726
85.818 82.744 6.167
83.554 83.659 6.348
81.392 82.602 7.038
80.53 80.168 7.224
86.33 14.561 39.945
87.795 14.68 41.667
88.247 12.651 43.654
88.695 10.097 42.912
65.557 18.561 26.489
63.542 17.485 28.27
62.739 19.148 30.509
62.452 21.275 30.412
58.343 14.591 4.518
57.717 13.396 6.497
55.485 12.829 7.724
53.108 13.763 6.902
62.628 80.44 22.095
64.696 81.131 20.835
65.88 83.403 20.83
65.146 85.579 21.682
65.228 14.158 96.312
66.619 12.065 95.496
66.369 10.48 93.987
64.6 8.947 93.996
66.947 13.992 2.261
65.5 13.534 4.302
65.637 14.506 6.833
66.552 17.118 7.498
7.086 33.134 48.203
7.744 33.685 45.968
9.634 32.638 44.354
10.16 30.126 44.704
44.278 79.796 54.42
45.865 82.045 55.388
47.381 83.526 53.889
47.396 83.685 51.204
57.386 19.309 12.343
58.824 20.885 11.294
61.672 20.17 10.724
62.083 18.147 10.774
65.426 78.275 35.749
65.481 77.852 37.784
67.478 77.517 39.487
69.538 78.449 39.688
65.691 25.905 12.208
66.881 27.861 10.841
66.563 30.216 10.919
65.731 31.691 12.539
49.705 8.314 13.626
47.08 7.803 13.405
45.15 8.854 15.131
45.549 11.136 16.026
34.72 82.309 8.745
33.553 81.578 6.415
33.921 80.035 4.652
35.249 77.706 4.752
81.404 75.936 48.499
83.17 74.506 48.409
85.902 74.605 47.789
86.482 75.916 46.122
53.123 12.898 9.519
52.058 14.348 10.589
53.047 16.957 11.583
54.94 17.556 11.068
46.997 33.734 47.081
46.367 30.95 47.188
46.486 29.337 45.19
46.791 29.668 42.843
59.802 78.852 39.143
59.594 77.083 38.431
61.003 75.656 36.15
62.246 76.316 34.463
69.563 1.058 87.896
67.495 2.067 88.879
66.922 4.429 89.654
67.981 6.795 89.097
80.639 33.989 27.163
80.887 31.796 27.074
79.379 30.007 26.718
77.317 29.563 25.96
73.567 55.755 21.194
72.258 53.787 21.069
70.17 53.616 22.262
68.716 55.361 23.291
38.486 40.427 35.17
36.871 42.26 36.208
37.058 43.626 38.165
38.367 43.639 40.414
36.006 20.806 21.581
37.839 19.554 20.95
38.575 16.923 21.952
37.182 16.317 23.674
47.53 45.203 30.709
46.795 43.143 29.306
44.874 41.116 30.721
44.265 41.577 32.454
50.174 90.667 31.805
48.584 91.768 30.082
46.361 93.019 30.363
44.538 92.727 32.218
83.576 27.909 27.662
82.212 29.498 28.956
79.568 28.664 29.218
78.696 26.479 29.306
42.592 50.309 13.456
41.776 51.991 11.841
42.815 53.369 9.969
45.24 54.321 10.129
69.329 28.027 12.428
69.906 28.749 10.167
72.44 29.397 9.461
74.454 28.873 10.7
68.651 7.646 46.29
70.28 8.323 45.068
72.955 9.181 45.167
74.15 9.97 46.888
70.097 28.71 5.528
72.18 28.431 6.63
74.135 30.065 7.168
74.285 32.37 6.664
79.087 29.792 7.739
76.845 29.346 8.949
75.05 27.688 8.213
75.699 25.266 6.969
26.155 46.713 49.478
23.527 46.734 48.287
23.297 45.67 45.691
24.783 44.677 44.333
50.864 6.819 11.587
48.926 5.892 10.372
47.26 3.895 10.97
47.13 2.384 13.124
60.806 17.278 4.028
63.087 15.758 3.848
63.538 13.909 2.193
62.139 12.748 0.245
92.019 79.88 1.829
90.884 82.355 2.182
88.296 82.563 2.556
86.751 81.132 3.877
20.669 36.465 14.807
21.709 38.127 13.337
24.255 38.971 13.189
26.119 38.496 14.082
86.863 69.588 43.863
88.437 71.517 43.254
91.171 71.262 43.18
92.526 69.144 42.908
82.483 69.524 49.906
81.074 71.006 50.934
78.367 70.528 51.394
77.195 68.525 51.374
70.936 56.627 24.983
69.115 56.453 26.512
67.032 58.229 26.829
67.083 60.603 26.478
59.994 11.465 32.104
59.22 13.65 31.672
60.353 16.071 31.539
63.418 16.365 31.797
74.51 43.43 33.215
75.565 45.041 35.395
77.584 45.69 35.851
79.918 45.233 34.761
65.329 54.019 46.225
67.23 53.939 47.798
69.835 53.296 47.572
71.296 53.951 45.737
82.208 6.134 81.811
82.264 5.89 84.409
80.322 6.294 86.222
78.639 7.993 86.017
51.313 1.776 32.799
53.186 2.584 30.983
55.523 3.213 31.306
56.816 3.989 33.35
73.364 11.301 0.46
73.305 10.029 -1.824
75.212 9.411 -3.454
77.648 9.529 -3.402
1.714 20.287 -1.985
1.795 22.493 -2.976
-0.085 24.358 -2.496
-1.567 24.596 -1.152
39.774 77.982 23.104
41.266 75.7 22.467
40.255 73.305 22.881
38.046 72.455 24.211
61.804 67.68 32.464
63.365 68.869 33.4
63.474 70.376 35.543
61.461 71.026 37.178
33.273 53.512 22.77
32.162 55.068 23.384
31.086 55.486 26.058
30.342 53.857 27.158
63.915 36.442 39.637
62.426 36.895 40.871
63.032 37.841 43.35
64.896 38.555 44.102
48.779 59.865 16.014
46.533 60.195 15.2
44.239 59.752 16.402
43.622 58.125 17.11
56.415 42.574 23.727
56.821 40.208 23.316
55.676 38.087 24.275
53.771 38.684 25.075
57.224 61.642 58.693
58.842 62.924 57.272
59.383 62.672 54.547
58.85 60.853 53.328
89.042 35.095 29.14
88.329 37.38 28.686
89.987 39.568 29.276
92.257 38.311 29.59
28.072 81.852 37.545
26.593 80.727 36.487
25.34 78.51 36.7
25.043 77.076 38.631
43.944 34.401 75.151
42.415 32.825 74.989
40.78 31.565 76.909
40.369 32.314 79.163
19.84 39.317 63.157
17.734 38.449 63.681
16.211 39.568 65.333
16.213 41.797 66.297
23.573 49.648 28.5
23.838 50.965 26.238
25.933 51.464 25.046
28.125 52.674 26.228
70.407 17.282 27.842
71.934 18.663 27.67
74.317 18.268 26.348
75.79 16.21 26.205
63.645 8.432 2.876
64.898 8.399 0.684
66.349 6.549 -0.572
67.177 4.567 0.284
3.704 29.096 46.901
4.947 31.612 47.411
3.929 33.582 48.532
1.976 33.602 50.646
51.048 42.786 25.128
48.793 42.99 26.023
47.876 45.063 27.643
49.035 46.961 28.903
56.53 88.76 0.145
54.858 87.862 0.91
53.672 88.032 3.646
53.721 90.525 4.747
66.951 46.877 19.889
65.448 45.054 19.192
62.771 45.332 18.959
61.062 46.56 20.29
52.745 34.917 25.634
53.01 36.422 23.85
53.139 35.217 21.166
55.223 33.273 21.571
43.526 44.138 28.645
44.034 41.963 28.095
45.343 41.088 26.001
46.47 42.579 24.044
84.707 58.122 20.858
83.379 56.345 19.397
81.133 55.631 19.68
79.078 56.182 21.245
24.81 43.066 14.444
23.553 41.48 15.467
21.159 40.479 14.33
20.01 40.897 12.616
77.436 38.123 30.926
77.014 35.828 31.639
76.707 33.8 30.518
76.492 33.244 27.753
10.684 22.589 16.238
12.411 23.884 15.483
14.275 23.594 13.627
15.134 22.084 12.473
42.902 12.518 91.733
43.721 13.261 89.489
45.574 14.819 88.753
46.813 16.76 90.62
61.918 79.915 40.405
64.353 79.767 39.825
66.286 81.531 39.966
66.174 82.724 41.872
30.509 18.739 29.966
29.539 20.911 29.964
27.437 22.016 28.885
25.238 20.631 28.22
86.968 34.979 27.331
85.647 32.898 26.303
83.79 31.519 27.416
82.105 32.768 29.357
68.049 30.22 6.889
69.571 31.658 8.694
68.355 33.049 10.452
65.971 33.723 10.796
87.965 13.795 37.114
89.39 15.543 38.007
91.535 14.716 37.26
92.934 15.169 35.121
59.561 61.521 9.797
61.05 60.034 8.742
62.409 60.133 6.356
62.795 61.412 4.845
7.798 42.62 27.202
7.275 42.271 24.886
8.546 41.119 23.155
11.305 40.564 23.469
31.778 51.059 46.945
31.743 49.635 45.724
33.565 47.264 45.573
35.697 46.801 46.663
65.054 42.51 20.401
64.319 42.628 17.841
64.992 41.313 16.04
65.404 39.077 15.893
73.8 37.027 82.461
72.138 35.34 82.136
72.202 32.732 82.331
74.333 31.282 81.511
52.562 40.325 22.005
51.593 40.194 23.902
49.229 39.22 24.535
47.189 39.374 23.639
53.396 88.588 7.285
51.214 89.921 6.525
50.205 92.361 7.34
51.128 93.407 9.251
75.251 84.975 6.984
74.036 85.299 9.064
73.769 87.236 10.847
74.873 89.386 11.103
21.623 39.114 10.602
23.15 40.775 11.558
25.61 41.532 10.947
27.13 40.928 8.852
67.751 49.481 66.648
69.277 48.145 65.694
68.952 46.007 64.1
67.192 44.962 63.203
59.164 48.389 19.47
59.035 50.606 18.85
61.244 50.727 17.211
62.495 48.479 16.311
81.793 26.23 65.124
83.122 24.343 66.333
85.337 23.485 65.994
87.272 23.858 64.655
88.257 18.534 14.246
89.266 16.5 13.929
88.128 14.025 13.494
86.034 13.247 12.847
17.823 37.229 39.071
18.346 35.112 38.993
17.235 32.803 38.185
15.01 32.153 38.37
60.381 23.021 7.261
60.33 20.769 8.115
62.214 18.863 7.273
63.181 18.29 5.424
29.924 59.288 29.266
29.339 58.01 27.323
28.492 55.825 26.713
26.758 54.579 27.702
75.834 58.753 42.303
77.123 57.104 43.631
78.085 54.897 43.023
77.8 53.248 41.069
61.394 12.731 28.923
60.233 10.414 29.468
58.201 9.286 27.991
57.121 10.12 26.311
67.135 37.083 35.202
65.389 35.79 36.731
64.004 33.724 36.204
64.543 32.623 34.279
70.042 53.549 18.324
70.177 51.67 19.567
68.353 50.069 20.364
66.299 49.357 18.941
32.611 31.005 28.047
31.523 29.008 28.584
30.255 28.128 30.903
29.482 29.392 32.819
-0.986 1.121 36.304
-1.936 3.487 35.438
-1.347 5.828 36.098
0.46 6.567 37.879
79.575 85.22 58.39
77.807 83.582 59.223
76.592 83.473 61.489
77.092 84.56 63.596
87.589 55.211 37.04
88.82 53.138 37.15
89.281 51.155 35.665
89.159 51.279 32.851
69.034 65.661 2.996
67.877 63.694 4.486
65.517 62.61 4.355
64.159 62.099 2.095
58.925 28.495 41.858
57.825 27.309 40.361
55.066 27.693 39.53
53.241 27.959 40.934
1.045 33.329 21.045
3.101 32.386 21.176
3.926 30.222 20.568
2.605 28.127 19.277
65.391 63.424 6.82
68.113 63.466 7.221
69.505 65.572 7.871
68.856 68.077 8.061
20.486 81.383 41.851
18.922 83.421 42.391
16.385 83.476 42.315
14.788 81.392 42.186
18.893 49.954 76.068
20.791 50.664 74.634
23.165 49.715 74.617
24.081 47.402 74.861
60.215 23.398 9.985
62.285 23.919 11.088
64.116 25.827 10.215
63.604 28.039 9.177
58.545 69.46 66.443
56.791 69.482 64.646
54.633 68.789 64.255
52.994 67.081 65.41
87.611 40.545 82.806
89.516 39.436 81.573
92.059 39.465 81.78
93.353 40.269 83.734
52.06 67.965 15.56
53.526 70.001 14.972
56.081 70.486 16.009
57.301 69.627 18.102
58.144 35.762 24.868
56.84 35.302 22.414
58.129 34.583 20.215
60.417 34.675 20.344
42.013 74.774 19.962
43.911 73.669 19.942
46.585 74.823 20.266
46.984 76.44 21.29
36.918 33.625 50.268
36.181 31.346 51.189
34.314 30.918 53.182
32.765 32.245 54.142
60.376 84.468 19.821
62.645 84.694 19.355
64.238 86.681 19.362
63.871 88.972 19.381
84.877 62.254 15.849
84.495 59.979 16.916
84.257 57.553 15.717
84.13 56.986 13.095
40.813 42.132 4.603
41.328 39.515 4.757
43.512 38.438 5.005
46.023 39.248 4.983
25.792 77.793 10.352
27.092 77.839 8.805
29.977 77.642 8.95
30.961 79.086 10.149
20.669 35.047 92.01
22.918 35.934 91.685
24.438 37.234 93.578
24.911 36.797 95.922
58.505 16.747 7.406
59.775 15.558 6.403
62.514 15.152 6.58
63.889 16.465 7.658
63.389 47.866 47.137
62.854 45.433 46.042
61.125 43.99 46.745
59.771 43.704 48.854
40.839 0.475 29.232
41.282 -1.362 28.782
43.825 -1.918 28.935
45.886 -0.049 28.126
49.253 40.266 26.859
47.272 40.88 28.149
45.052 39.194 28.625
44.823 37.162 28.225
10.804 22.115 81.372
11.216 22.325 83.977
11.61 24.633 85.269
11.228 26.847 84.692
75.694 85.454 56.799
75.041 85.092 59.245
72.52 84.394 60.327
70.517 83.518 59.267
69.899 31.147 79.744
70.756 29.661 78.63
70.037 26.797 78.697
68.107 25.921 79.56
91.614 1.529 10.27
92.102 4.062 11.252
90.134 5.608 11.495
87.698 5.481 12.446
34.518 -2.62 5.011
36.197 -2.961 7.167
37.619 -1.44 8.088
39.122 0.298 7.102
70.943 33.365 13.711
72.256 31.83 12.706
73.139 32.137 10.081
73.468 34.28 8.916
15.65 74.06 19.914
16.303 75.302 18.048
16.863 77.919 17.635
17.056 79.862 19.197
77.748 65.029 5.561
75.657 66.737 4.787
75.088 68.798 5.649
76.495 70.87 6.476
77.822 91.397 40.878
76.387 89.218 40.707
74.964 88.111 42.289
73.57 89.245 44.181
66.312 85.396 89.345
68.396 85.475 87.501
69.273 84.035 86.182
67.893 81.843 84.671
42.62 35.914 53.585
41.466 33.511 53.293
38.625 33.66 52.572
36.949 34.937 53.654
3.96 21.634 87.553
1.963 21.355 89.318
0.71 19.174 89.758
0.491 16.964 88.612
81.279 -1.877 31.376
82.132 -0.119 33.158
80.896 1.072 35.139
78.301 1.126 35.547
75.938 13.487 93.383
77.735 12.294 92.278
78.488 12.417 89.549
78.517 14.841 88.358
87.088 68.789 46.504
87.254 71.392 47.091
85.36 72.226 48.749
84.174 71.356 50.514
44.63 78.88 71.316
46.466 79.735 72.506
47.293 82.009 73.29
46.625 84.172 73.342
41.743 87.33 4.737
38.968 87.356 5.453
37.384 85.929 5.569
37.685 83.082 5.469
69.426 92.008 92.027
68.124 91.289 90.359
66.265 88.979 90.055
65.663 87.245 91.627
55.528 86.131 3.974
55.973 85.234 1.76
54.855 83.343 0.212
53.305 81.564 0.767
70.293 7.279 92.159
68.557 5.919 91.618
67.599 3.952 92.06
68.042 1.931 93.792
90.714 19.608 64.077
89.91 20.768 65.559
87.376 21.424 66.627
85.039 20.825 65.816
68.533 34.716 12.818
67.202 35.015 14.685
64.701 35.808 14.703
63.733 37.92 13.414
21.903 18.079 80.923
19.852 19.728 80.538
17.318 19.318 81.565
16.5 18.082 83.355
72.684 85.675 85.588
71.447 85.307 87.666
70.214 87.056 89.28
69.384 89.44 88.784
70.862 94.606 39.168
70.824 93.396 40.874
70.975 90.842 41.526
70.942 88.702 40.101
65.472 70.588 59.696
63.6 71.336 60.38
62.135 69.441 59.949
61.087 68.498 57.85
55.552 43.285 3.719
55.342 45.321 2.239
57.283 47.116 1.419
59.506 46.705 1.106
49.37 79.246 75.562
49.657 81.554 75.104
51.671 82.877 74.484
53.61 82.636 73.624
74.353 39.324 62.251
73.013 41.13 61.119
72.678 43.628 62.556
72.652 43.95 64.938
59.926 69.664 16.137
59.553 71.332 17.914
59.109 74.133 17.859
58.785 75.512 16.01
4.229 88.793 54.178
3.301 88.036 51.889
3.524 85.743 50.723
4.971 83.986 51.06
52.409 38.14 69.122
51.527 36.602 70.768
49.505 34.826 70.596
48.508 33.861 68.542
47.509 2.375 3.894
49.433 1.098 4.741
51.719 0.833 3.463
52.001 0.542 0.905
4.734 0.019 53.841
3.688 1.965 54.13
2.398 2.487 56.461
2.949 2.135 58.532
90.141 88.465 54.146
89.975 90.618 55.109
88.418 92.594 54.681
86.18 92.887 53.73
54.586 6.695 78.218
56.577 5.465 77.082
56.668 3.549 75.599
54.596 2.257 74.342
43.381 30.588 72.659
45.48 31.41 72.635
47.117 31.934 70.687
46.876 31.943 68.105
40.955 71.179 67.348
41.45 71.922 69.619
39.165 72.133 71.186
36.85 72.69 70.507
80.967 31.64 97.367
83.222 32.592 98.754
85.301 33.08 98.098
86.799 32.308 95.856
88.639 22.392 75.375
87.444 21.833 73.174
85.186 21.555 72.536
83.049 22.819 73.298
79.317 44.454 60.204
77.097 44.058 61.731
74.67 44.953 60.85
74.151 46.84 59.283
18.979 78.205 87.443
17.461 76.73 86.975
17.567 75.053 84.588
19.47 74.636 83.098
37.769 4.569 83.09
36.755 2.252 83.138
37.427 0.021 81.757
38.817 -0.219 79.755
73.729 6.849 68.98
72.102 9.038 69.29
71.82 10.627 71.121
73.859 11.584 72.679
40.934 47.342 82.021
38.838 47.454 83.449
36.763 46.199 82.978
35.859 44.554 81.231
49.159 92.543 11.205
47.057 92.334 10.529
46.613 90.34 8.287
48.57 89.472 7.284
85.398 90.541 76.59
85.938 88.415 77.294
86.721 88.01 79.836
86.437 89.923 81.578
85.67 58.941 66.821
86.93 60.192 65.237
88.75 62.36 65.681
88.94 63.371 67.484
39.36 4.9 85.498
38.708 2.643 85.084
40.23 1.255 83.571
42.42 1.438 83.088
79.864 39.621 38.445
79.201 41.049 36.369
78.466 40.183 34.211
78.568 37.789 33.263
86.604 9.183 57.824
85.985 7.025 57.939
85.231 5.321 56.214
84.055 5.57 53.859
36.934 4.446 39.776
35.277 6.1 40.531
33.215 6.215 41.724
31.954 4.573 42.972
44.314 57.469 59.138
43.378 58.287 61.33
41.834 60.391 61.768
39.971 61.527 60.511
83.456 13.36 88.408
81.653 11.521 89.078
80.209 9.876 87.381
80.633 10.168 85.226
70.471 72.917 84.353
71.605 72.536 81.885
73.586 74.321 81.223
75.648 74.865 82.415
0.08 47.517 79.207
1.957 45.99 78.784
4.255 46.174 77.712
5.548 48.274 77.461
26.163 39.474 81.533
25.996 39.149 83.889
25.266 36.874 85.389
24.248 35.081 85.015
49.381 41.587 72.214
50.677 43.402 72.719
50.5 44.948 75.072
49.045 44.988 76.795
55.847 25.054 64.254
56.582 24.974 61.98
59.004 24.077 60.954
61.183 24.218 62.453
26.525 7.009 44.635
25.526 5.373 46.39
23.512 4.194 46.722
21.638 3.677 45.178
65.845 23.524 9.996
64.12 22.306 9.347
63.751 19.56 9.225
64.87 17.757 10.358
47.256 53.049 83.838
45.633 53.155 81.965
42.939 53.119 82.101
41.484 53.104 83.604
66.377 29.693 82.012
66.976 30.515 83.875
66.352 32.723 85.179
64.17 33.61 85.763
67.616 33.044 34.428
68.831 34.869 35.641
71.363 35.086 36.36
73.196 34.209 35.56
34.299 28.181 79.705
35.527 29.222 77.978
38.198 29.912 77.606
40.079 29.585 78.794
74.192 16.441 69.95
73.794 14.097 69.646
72.138 12.665 68.653
69.995 13.0 67.978
81.85 5.079 56.524
80.024 4.767 58.104
78.004 2.934 57.772
78.406 0.393 57.751
70.713 1.999 66.882
72.064 2.408 64.459
74.17 3.257 64.238
76.351 3.84 65.89
17.503 85.237 40.702
19.06 86.293 41.112
19.736 89.062 41.366
18.211 90.878 41.89
25.08 40.519 93.021
23.202 39.141 92.029
21.045 38.957 92.689
19.11 40.751 92.555
59.387 22.916 82.566
57.867 20.898 83.325
55.246 21.219 84.037
53.516 22.34 83.023
73.265 9.605 42.332
73.208 11.736 43.998
74.052 13.781 43.83
75.958 15.012 42.742
26.166 13.565 76.332
27.349 14.787 74.944
27.404 14.237 71.962
28.2 12.23 71.243
17.263 85.228 65.574
16.278 87.722 65.756
14.155 88.39 67.205
13.065 87.279 69.052
56.153 38.0 67.923
54.63 40.33 68.938
56.144 40.905 71.225
57.803 41.84 70.854
42.792 48.39 83.624
41.355 50.182 84.735
40.154 50.29 86.917
39.069 48.629 87.687
64.379 79.305 66.77
62.732 80.288 65.62
60.0 79.566 66.604
59.735 79.271 68.955
38.435 33.952 77.115
37.106 32.959 78.848
34.259 33.728 79.035
33.389 35.886 78.57
53.472 19.17 65.038
53.206 17.658 63.311
51.102 16.726 62.259
48.59 16.808 62.673
36.201 82.528 54.366
37.275 84.714 54.914
39.784 85.658 54.022
41.301 84.137 53.051
72.518 47.696 19.244
69.935 47.941 18.521
68.37 46.537 17.66
68.269 43.812 17.333
85.563 77.257 94.864
87.743 78.365 94.562
89.463 78.148 92.538
89.64 76.418 90.73
52.798 41.917 74.884
53.384 44.494 74.998
55.857 45.492 74.22
56.752 43.739 72.498
51.925 27.083 89.196
53.567 26.147 87.795
53.003 24.531 85.53
50.817 23.061 85.274
46.321 29.734 75.996
44.215 30.553 75.136
41.805 29.762 75.305
40.642 27.943 76.446
61.313 92.45 72.72
58.602 92.664 73.832
56.694 91.305 73.13
56.617 89.22 71.568
58.789 44.157 69.002
56.744 45.277 70.44
56.804 47.597 71.304
57.967 49.815 70.126
62.675 26.494 64.263
60.164 26.153 65.546
58.535 28.631 65.259
59.68 30.719 64.338
67.758 41.363 62.343
70.248 41.616 61.106
71.281 43.465 60.069
70.693 45.674 59.193
80.242 53.87 70.531
78.002 53.937 71.093
77.232 56.075 72.46
78.184 57.521 73.837
78.23 53.946 68.13
75.986 53.786 68.441
74.314 51.86 68.541
74.555 49.511 68.559
72.905 61.367 48.405
74.853 61.843 47.89
76.898 63.291 49.322
76.478 64.964 50.961
68.842 10.489 41.59
70.471 10.779 43.69
71.239 13.133 44.872
70.215 15.134 44.958
4.691 46.901 55.16
4.631 48.224 57.141
3.711 50.707 57.498
3.316 52.447 56.05
88.055 38.708 5.86
86.698 41.021 6.187
84.743 41.405 7.392
83.402 39.415 8.014
68.083 63.09 78.538
65.878 64.118 77.736
64.402 65.862 79.195
64.527 66.59 81.35
29.817 84.767 61.79
30.875 86.623 63.003
33.223 86.944 62.632
34.783 84.662 61.717
29.941 57.316 20.48
30.417 58.243 22.278
30.911 60.722 22.998
31.328 62.54 21.745
57.663 7.644 50.82
58.805 5.52 50.024
60.33 5.157 47.82
61.304 6.479 46.177
34.388 73.352 48.47
33.375 71.732 49.4
32.896 69.003 47.848
34.521 69.216 46.311
51.973 33.002 65.787
50.49 32.101 67.647
48.975 30.186 67.599
49.905 28.434 66.554
13.877 34.782 72.012
12.295 35.508 70.972
9.748 35.08 70.827
8.198 33.768 72.289
56.24 7.715 79.91
55.985 10.134 79.921
53.864 11.64 80.641
52.467 11.507 82.174
6.796 87.641 44.721
6.295 86.753 47.037
4.258 87.631 48.587
3.191 89.182 48.133
63.624 61.353 79.712
61.077 60.858 79.05
59.512 59.392 80.497
59.701 58.636 82.562
58.528 65.163 54.914
57.62 65.351 56.956
56.865 67.877 58.105
57.191 70.125 56.91
2.847 34.084 75.762
2.495 34.138 73.241
3.911 35.575 71.379
6.358 35.957 71.434
71.283 23.89 74.062
71.285 24.836 76.173
71.785 27.56 76.546
73.029 28.901 74.74
72.983 26.559 48.001
72.173 24.998 50.141
70.496 24.928 51.307
68.465 26.462 51.849
70.338 27.297 53.623
69.004 26.582 55.586
66.851 27.462 56.534
66.023 29.824 56.514
56.567 91.166 53.372
54.268 90.273 52.754
53.307 88.18 52.673
54.043 85.831 52.462
83.549 18.726 47.942
81.02 18.133 47.505
78.949 17.981 49.112
78.466 19.656 50.936
37.761 83.733 78.614
38.108 85.022 80.319
39.499 87.238 79.995
39.647 88.974 78.28
5.911 54.264 35.096
4.526 52.628 34.286
2.049 52.485 35.17
1.457 53.898 36.59
92.486 38.848 72.603
91.532 37.847 74.001
90.367 38.762 75.889
89.01 40.981 76.055
72.119 79.268 61.188
73.956 80.071 61.067
74.022 82.671 61.77
73.072 83.628 64.064
81.116 93.04 38.958
81.495 91.342 37.452
80.636 88.65 38.136
78.955 88.93 39.52
22.909 66.264 56.769
22.541 68.369 57.184
22.159 69.744 59.445
23.079 69.362 61.674
35.885 53.361 16.469
35.581 54.04 14.096
34.453 52.846 12.214
34.111 50.313 12.285
61.852 23.514 85.011
62.652 25.958 85.112
64.139 27.331 83.809
65.743 26.93 82.041
37.29 8.685 86.448
37.089 6.476 87.327
35.406 4.394 86.614
34.731 3.637 84.655
86.466 11.852 93.782
84.761 12.789 91.936
82.512 12.709 91.378
80.58 11.68 92.349
57.1 15.395 56.344
56.293 17.631 56.946
57.251 19.403 58.291
59.842 20.133 58.444
69.653 78.01 60.694
67.246 77.267 60.796
65.882 75.811 59.093
67.003 74.182 57.344
65.22 5.992 68.359
65.708 6.11 70.984
64.159 7.601 72.684
61.648 7.838 72.74
47.939 51.384 77.301
48.301 52.642 79.101
48.906 54.773 79.737
48.3 57.148 78.684
81.921 83.535 77.643
83.886 82.301 76.441
86.363 82.771 76.529
87.7 84.37 77.475
37.384 37.757 83.065
35.486 35.81 82.382
36.492 33.45 81.4
38.262 32.041 81.723
37.978 2.802 32.26
39.079 0.822 32.171
39.091 -1.241 30.589
37.419 -2.341 29.317
73.64 32.03 62.031
74.596 33.568 60.952
75.69 36.013 61.306
75.964 37.348 63.467
53.997 10.589 59.304
54.077 12.805 59.028
55.911 14.568 58.939
58.313 14.588 59.5
41.818 27.492 4.577
41.445 25.803 2.639
39.714 24.245 2.356
37.947 22.908 4.016
7.545 29.303 44.091
5.154 29.11 44.051
3.528 27.151 43.799
4.232 24.826 42.596
57.484 13.056 75.921
57.801 10.643 75.021
60.372 9.301 74.556
62.403 10.185 74.267
5.215 3.969 53.175
4.198 4.943 54.8
3.983 7.511 55.363
5.19 9.479 54.238
51.704 89.548 76.56
52.409 87.534 75.175
53.632 87.417 72.862
53.915 89.264 71.062
21.917 51.167 24.104
22.904 48.627 23.591
21.501 46.308 24.086
19.225 45.836 24.485
63.813 60.917 50.262
62.796 62.629 51.77
60.311 63.144 51.922
58.352 62.681 50.405
93.082 2.25 74.485
92.112 2.207 76.732
89.639 2.151 77.548
87.645 0.691 76.769
10.301 75.391 91.105
12.418 75.583 90.326
12.829 78.538 89.826
11.695 80.163 91.075
55.084 7.817 75.209
56.001 9.476 76.863
55.021 11.656 77.613
52.85 11.754 77.875
59.16 87.443 93.23
58.006 86.057 94.353
54.919 86.405 94.788
53.512 86.878 93.125
57.812 28.016 60.156
57.687 27.419 62.407
55.898 27.79 64.315
53.624 28.624 64.222
5.466 91.415 51.192
5.487 88.8 50.664
7.345 87.446 49.871
9.507 87.799 48.952
21.021 20.434 32.899
22.471 21.858 31.911
22.898 24.535 32.219
21.936 26.109 33.283
22.226 2.657 13.748
21.744 3.436 16.028
19.491 3.165 17.435
17.449 2.856 16.916
50.147 23.662 36.844
52.673 22.996 37.413
54.158 21.144 36.447
53.882 19.573 34.637
67.177 38.205 38.037
69.448 37.181 37.763
71.36 37.968 35.901
71.497 40.123 35.656
44.058 7.887 88.951
42.532 9.764 87.438
43.696 12.368 86.937
45.932 13.026 86.948
33.403 20.369 2.479
30.859 20.234 1.711
28.878 18.614 2.782
28.621 17.535 4.767
58.668 68.46 63.201
58.567 68.205 60.594
59.387 66.51 59.08
61.277 64.609 59.476
41.645 7.756 40.137
40.988 6.058 38.302
42.354 5.53 36.088
43.903 6.642 34.55
79.011 89.31 35.958
77.546 90.948 37.643
75.63 91.072 38.423
73.234 89.895 37.609
66.387 36.017 42.007
66.555 35.564 39.489
67.959 34.097 38.123
70.167 32.745 38.673
61.159 72.647 65.046
60.363 70.747 64.561
61.151 69.825 62.692
63.851 68.981 61.911
84.424 53.71 16.5
86.026 55.388 15.809
87.128 57.279 17.389
87.081 57.587 19.675
1.968 24.869 41.154
2.938 27.278 40.972
1.299 29.319 39.815
-0.937 28.555 39.519
65.725 35.683 86.958
67.698 36.269 87.219
69.644 35.811 85.348
70.183 36.487 83.732
55.707 13.777 82.988
55.818 14.209 80.702
57.121 13.427 78.674
59.213 12.588 78.257
77.456 20.48 75.148
78.334 20.888 72.8
80.374 20.511 71.702
82.638 20.042 72.234
67.782 70.722 29.543
69.799 69.369 28.4
71.155 69.848 26.447
71.266 71.725 24.993
53.251 21.852 65.108
54.652 22.229 62.889
53.87 23.21 60.596
54.144 25.19 60.92
83.602 10.664 85.163
83.889 8.394 84.454
84.618 7.369 81.84
86.048 8.715 80.083
66.857 9.887 91.372
69.189 10.251 92.055
71.313 9.433 90.424
71.587 9.192 88.221
70.7 36.427 89.802
70.47 37.148 87.589
72.119 37.333 85.425
74.248 37.26 85.068
83.124 39.249 83.182
84.642 40.006 82.093
86.617 38.731 80.637
86.731 36.013 80.179
46.013 58.851 34.631
48.548 58.351 35.3
50.448 57.174 33.584
50.011 55.532 32.832
77.797 60.634 42.652
77.108 61.425 44.956
76.19 63.686 45.775
74.393 63.965 45.241
28.731 71.532 74.727
29.955 71.967 73.136
31.754 70.233 71.678
33.195 68.521 73.05
57.407 7.972 73.966
56.52 6.238 73.586
57.819 3.607 73.012
59.901 3.464 72.749
43.307 10.73 19.479
43.616 12.086 17.679
42.421 12.308 15.181
41.277 10.842 13.901
64.459 52.188 42.541
63.953 52.099 45.109
61.655 50.856 46.045
60.38 49.223 45.073
68.933 23.019 50.039
71.457 22.509 49.947
72.955 21.698 47.95
72.033 20.199 46.122
33.46 11.499 93.435
35.568 11.759 91.713
35.389 11.313 89.088
34.055 9.201 88.034
85.288 35.585 54.832
86.341 37.472 54.752
85.43 39.815 56.027
83.937 40.071 57.847
83.219 35.094 52.62
82.958 36.598 54.396
80.968 37.99 55.49
78.928 37.928 55.557
42.855 51.456 55.501
41.706 50.257 57.508
39.638 50.704 58.64
38.252 53.054 58.984
64.735 75.176 34.226
64.583 72.483 34.241
64.88 70.856 32.49
65.238 71.095 30.075
50.134 46.088 79.85
49.768 47.874 78.098
51.545 47.773 75.852
53.848 47.855 75.972
62.526 3.092 74.291
61.301 4.549 75.281
62.203 6.913 75.325
64.847 7.554 75.281
5.153 36.016 44.424
3.918 36.376 46.436
3.618 38.348 47.78
3.859 40.869 47.27
2.74 84.883 20.571
4.017 85.113 22.462
4.468 87.355 24.075
3.402 89.194 24.46
55.818 62.964 87.199
57.378 63.061 85.093
58.703 60.891 84.124
59.479 58.744 85.392
48.728 74.322 21.828
49.547 73.082 19.747
50.905 74.12 17.602
52.033 76.185 17.573
36.997 33.183 74.79
38.822 31.818 74.332
41.109 32.048 72.889
41.767 33.486 71.102
73.981 27.317 56.293
72.949 26.343 54.266
73.915 25.146 52.106
76.01 24.106 51.91
23.039 65.141 53.478
23.825 67.234 54.482
26.256 68.207 54.62
28.424 67.522 54.255
67.829 24.09 52.705
67.407 24.659 54.947
65.329 25.24 56.4
62.919 25.783 55.777
38.703 14.338 46.897
38.819 12.451 45.475
37.614 10.582 44.969
35.139 9.76 45.971
68.114 7.541 71.557
69.701 7.957 70.268
70.87 6.058 68.803
71.368 3.751 69.202
32.046 25.215 56.517
29.841 25.9 57.584
27.583 25.529 56.892
26.679 24.15 54.73
86.326 6.097 86.869
86.023 6.209 84.519
85.566 4.228 82.677
85.537 1.601 83.264
49.95 7.603 61.153
48.106 9.497 61.622
46.379 9.919 62.874
44.792 8.592 64.601
56.572 41.743 44.448
56.889 44.138 45.533
58.959 45.445 45.563
61.031 45.895 43.959
7.287 8.652 77.246
8.785 7.32 75.912
11.108 6.533 76.244
12.4 7.38 77.646
17.686 55.267 76.354
18.801 53.476 74.809
21.631 53.841 74.153
22.549 55.752 74.381
67.872 63.096 75.498
69.995 62.649 75.179
71.482 60.49 75.11
70.816 57.977 74.995
84.218 22.641 43.879
83.196 21.249 45.547
80.883 20.334 46.018
78.548 21.15 44.898
62.107 27.649 88.034
63.06 28.535 86.55
65.61 28.837 85.632
67.532 29.119 86.725
42.288 8.728 13.006
44.474 9.978 12.815
46.297 9.504 11.535
46.4 7.243 10.578
80.342 32.469 9.681
78.136 33.67 10.0
75.77 32.859 11.093
75.16 30.964 12.182
60.062 7.02 52.901
57.823 5.976 53.072
55.921 6.338 54.826
55.907 8.197 56.678
18.132 63.532 75.021
19.53 61.855 74.923
19.313 59.209 75.774
17.329 57.93 75.697
64.341 64.671 30.754
64.047 66.402 31.455
66.243 68.291 30.439
67.447 67.688 28.548
41.727 47.168 30.129
42.515 44.952 30.921
41.141 42.74 31.684
39.427 43.059 32.705
61.738 79.538 45.36
61.868 78.819 42.991
63.759 77.768 41.589
65.973 78.578 42.156
83.067 53.681 41.959
80.676 54.657 42.587
80.281 56.473 44.163
81.172 57.52 45.745
86.24 52.813 9.823
86.053 53.361 11.982
83.938 53.484 12.481
82.018 54.053 11.156
82.769 88.391 36.123
83.137 89.018 33.719
83.472 87.607 31.57
85.512 86.978 31.567
25.852 17.833 29.983
24.354 19.725 30.866
21.979 19.021 30.85
20.742 16.812 30.915
26.535 90.791 41.634
24.796 88.986 41.829
25.396 86.308 42.288
26.971 85.01 41.213
9.263 31.565 16.346
11.098 30.551 15.681
13.51 31.505 14.102
14.257 34.196 14.43
56.417 72.404 36.352
59.111 72.114 36.382
60.72 73.295 34.795
60.425 75.148 32.994
61.814 40.462 16.369
61.72 42.255 17.835
60.166 44.078 18.359
58.525 45.212 17.036
43.267 2.631 29.807
41.591 2.008 31.67
40.334 3.398 33.492
40.228 5.447 34.086
14.423 9.225 28.712
14.372 10.917 30.311
12.775 13.057 30.284
10.144 12.934 30.403
0.104 84.04 -0.234
-0.069 85.672 1.408
1.525 87.05 2.913
4.083 87.072 2.522
77.599 19.061 43.534
76.253 18.891 44.956
74.285 17.335 45.619
72.698 16.107 44.085
35.337 75.35 28.262
33.667 76.266 29.439
30.881 75.934 29.347
29.781 74.481 27.66
-0.976 36.97 81.157
-0.902 36.014 78.847
0.996 36.169 77.117
3.487 36.287 77.346
67.617 48.649 15.58
65.398 48.467 16.442
64.056 46.042 16.673
63.802 44.099 15.496
10.492 31.61 68.727
8.196 31.686 69.82
5.823 30.366 68.69
5.791 28.839 67.055
59.639 39.037 19.588
58.174 38.92 21.229
55.686 37.601 21.184
54.011 37.642 19.538
55.763 9.305 51.936
54.428 8.1 53.462
53.747 5.749 52.76
53.961 4.679 50.522
33.454 59.893 18.631
35.82 59.918 17.806
36.8 57.768 16.264
35.832 56.591 14.54
19.853 65.068 58.829
20.659 64.699 56.558
18.79 64.104 54.429
17.08 62.906 54.382
-0.999 74.253 45.733
1.421 73.985 44.817
3.194 75.943 44.138
2.809 78.341 45.022
4.165 49.178 35.667
4.825 49.981 33.415
6.89 49.201 31.746
7.875 47.291 31.362
42.377 78.165 21.899
43.36 78.483 24.06
44.79 80.475 25.031
44.206 83.193 24.362
66.507 80.325 60.695
67.982 80.025 62.718
69.895 81.381 63.48
70.914 83.844 62.61
12.383 76.289 17.269
14.092 74.647 17.006
14.634 73.39 14.632
14.193 74.003 12.499
-2.608 54.271 13.935
-1.87 56.661 13.386
-0.351 58.214 15.031
-0.677 57.922 17.076
48.3 23.591 38.686
48.456 24.429 40.686
48.367 23.668 43.107
47.623 21.401 43.983
55.592 63.867 58.512
56.433 65.25 60.358
55.309 66.218 62.437
53.102 66.381 62.999
53.481 22.387 32.413
55.086 20.701 32.389
56.28 19.486 30.403
55.863 18.904 28.614
65.119 85.933 15.025
65.643 87.388 16.649
65.563 90.132 17.1
64.145 91.776 15.566
48.798 86.33 48.431
50.68 84.76 48.392
50.769 82.234 48.044
49.741 80.515 46.584
70.066 26.839 7.623
67.932 27.823 8.302
65.397 27.076 7.439
64.636 24.565 7.436
23.638 57.106 26.135
24.178 54.612 27.228
22.485 52.696 27.696
20.547 51.993 26.21
67.967 84.8 13.327
67.441 86.721 13.995
69.326 88.736 13.669
71.455 88.493 12.123
0.453 65.252 11.793
1.477 65.019 14.129
3.708 65.544 14.952
5.361 67.368 13.929
21.056 84.729 43.812
22.765 85.532 42.345
24.403 83.975 40.474
23.429 82.5 39.724
10.433 64.87 38.906
9.724 63.695 37.098
10.477 61.105 36.274
10.969 59.059 37.483
14.321 67.738 18.017
12.33 67.187 16.767
11.984 65.182 14.821
13.765 63.697 13.867
24.597 23.292 28.848
25.641 24.924 30.421
27.353 26.733 30.056
28.736 26.472 28.484
46.944 83.084 79.133
45.135 83.512 79.577
42.863 81.694 79.964
43.031 80.206 82.093
47.252 61.041 12.565
48.909 62.718 11.639
51.56 62.726 12.561
53.015 60.94 13.129
29.671 87.354 10.07
31.436 86.386 9.151
32.254 83.75 9.071
30.605 81.612 9.449
7.493 70.351 37.697
7.101 70.269 39.732
5.335 69.085 41.12
4.354 67.278 40.58
37.728 86.691 30.631
38.436 84.907 29.551
37.099 82.784 28.232
34.709 82.283 28.67
13.943 1.504 4.952
14.096 2.557 2.68
15.635 4.248 1.714
17.595 5.826 2.601
64.569 75.485 61.553
63.589 77.197 62.972
64.657 78.922 64.236
67.21 79.116 65.144
71.065 84.268 10.197
72.49 82.337 10.523
73.449 80.459 8.694
72.242 79.135 7.083
30.283 25.958 61.284
28.57 27.061 60.055
28.229 29.513 59.344
28.394 31.596 60.87
60.86 58.142 26.53
61.423 59.27 28.532
63.044 61.138 29.008
64.52 62.774 27.502
46.99 31.565 24.439
46.908 33.886 25.645
48.276 36.177 24.925
50.12 36.614 23.778
60.988 58.194 32.324
59.108 56.698 32.262
57.246 55.932 33.954
56.311 57.285 35.975
54.726 71.428 38.425
56.59 73.11 39.314
56.474 74.082 41.782
54.737 74.333 43.495
74.139 68.189 26.147
74.023 70.232 27.065
73.151 71.309 29.25
72.515 70.263 31.395
81.359 57.634 15.927
81.885 55.373 17.144
80.841 53.047 16.665
78.721 52.841 16.504
68.18 40.954 86.753
70.262 40.212 87.06
72.146 39.989 85.739
72.637 40.025 83.301
71.896 4.539 61.788
73.207 2.217 61.906
75.102 1.467 60.339
75.606 1.81 58.084
41.26 7.76 44.574
40.145 10.044 44.132
41.14 12.412 44.225
42.758 13.457 45.357
56.067 59.034 12.581
57.838 58.628 10.65
59.916 58.267 10.398
61.972 58.53 11.914
56.171 58.033 30.963
58.109 58.429 30.367
59.601 56.697 28.877
58.772 54.958 27.224
75.944 44.496 83.214
75.709 44.73 85.57
73.888 45.353 87.012
71.298 45.519 86.477
35.695 58.427 22.118
33.857 57.106 22.648
31.979 57.666 24.879
32.221 58.616 26.908
69.156 59.631 7.084
67.072 60.301 6.323
64.761 60.826 8.162
64.25 59.398 10.139
88.17 0.858 29.449
87.97 1.519 31.991
90.026 2.324 33.466
91.622 4.217 33.065
73.783 30.493 77.686
72.72 31.571 79.261
71.447 34.21 79.43
71.487 35.893 78.198
88.503 5.812 31.712
89.776 6.214 33.669
90.531 8.399 34.812
89.913 10.767 34.596
80.952 24.469 26.699
78.974 23.191 25.847
78.42 22.142 23.371
79.722 20.919 22.173
73.261 19.725 75.815
72.905 22.107 75.59
74.137 24.332 76.962
75.175 24.374 79.406
22.416 37.973 65.518
21.177 39.93 65.474
21.612 42.471 64.84
23.47 43.849 64.858
76.538 63.772 71.361
78.373 62.564 69.893
79.742 63.434 68.084
80.766 65.575 67.749
57.76 62.382 13.202
55.493 62.112 12.209
53.575 64.056 11.781
53.194 66.097 13.602
54.535 77.643 22.757
53.957 77.064 20.308
54.873 75.561 18.707
56.315 73.986 18.591
48.854 0.332 51.697
51.253 1.181 51.62
52.024 3.493 51.887
50.991 5.349 52.961
65.369 59.358 2.335
64.926 59.772 4.538
64.078 58.206 6.296
63.015 55.604 5.875
84.315 66.247 21.158
86.649 66.009 20.637
88.831 66.21 22.127
88.819 67.114 24.485
84.911 80.58 94.45
84.604 80.874 96.865
82.418 81.238 98.432
80.163 81.867 97.892
3.579 27.933 23.969
3.985 27.64 21.642
4.304 25.247 20.333
4.815 23.005 20.953
75.216 73.201 50.051
75.745 70.87 49.971
74.088 68.769 50.675
71.638 68.711 50.66
62.936 81.925 17.303
64.049 83.977 17.042
66.792 84.428 16.916
68.27 82.376 15.181
46.139 37.799 95.912
45.697 36.505 97.883
43.813 35.646 99.107
41.783 34.366 98.073
0.074 83.416 56.286
1.284 85.517 54.831
1.82 87.862 55.69
0.928 89.175 57.598
80.912 62.353 93.712
79.164 60.354 92.711
76.416 61.244 92.595
75.383 62.784 94.135
32.534 37.8 11.019
30.981 39.722 11.438
28.316 40.074 11.518
26.673 38.396 11.44
81.879 79.058 3.267
84.349 79.08 3.336
86.106 77.439 2.576
85.887 75.592 0.455
82.615 75.775 28.745
80.038 74.753 28.866
78.201 75.621 27.196
78.829 77.557 25.791
24.099 17.343 27.787
21.4 16.912 28.139
19.921 15.173 26.857
20.175 13.985 24.909
50.243 21.393 15.48
50.86 20.046 13.346
52.975 19.842 11.804
54.969 20.476 12.142
47.409 68.123 93.307
45.836 66.485 91.452
42.852 66.55 92.135
41.829 67.024 94.12
50.815 46.39 50.751
49.587 44.675 52.505
48.751 45.237 54.878
48.555 47.314 56.024
73.675 71.94 23.506
75.13 70.251 23.841
74.933 67.583 22.984
73.561 66.522 21.455
48.692 54.799 40.53
49.128 54.542 38.021
50.639 55.448 36.469
52.362 57.205 36.66
59.518 60.668 29.883
61.81 60.575 31.306
62.762 62.549 32.882
62.01 65.004 32.753
75.22 59.508 88.706
77.096 58.856 90.056
76.461 58.378 92.429
74.678 57.48 93.722
70.039 72.265 3.381
