20.331 67.912 55.554
21.132 70.308 56.814
20.751 72.517 56.429
12.578 67.614 13.936
14.436 67.056 13.8
15.569 65.431 11.844
14.453 64.613 9.811
41.632 85.682 4.323
43.24 87.366 5.227
45.525 88.299 4.306
46.803 87.969 2.553
63.552 5.176 46.131
65.624 5.072 47.107
68.196 4.689 46.375
69.505 4.627 44.586
41.553 61.489 60.676
40.607 59.516 62.016
42.036 57.395 61.565
43.435 56.743 59.91
35.104 90.792 60.998
35.096 89.273 59.281
36.874 88.126 57.821
39.295 87.863 58.311
87.426 62.805 67.074
85.302 61.807 66.489
83.014 61.197 67.879
82.198 62.323 70.044
66.301 12.546 68.813
68.231 11.092 68.884
70.617 10.977 67.836
72.15 13.1 67.642
12.68 0.477 72.579
12.675 0.91 70.299
15.106 1.351 68.357
17.345 0.386 69.043
4.086 12.21 17.079
1.881 11.058 17.998
1.42 9.431 19.563
2.843 8.208 21.266
82.415 7.143 87.277
81.474 8.704 88.872
78.886 9.612 88.679
76.797 8.267 88.194
89.858 31.136 22.133
90.246 33.899 22.535
88.375 35.639 22.961
85.79 35.121 23.042
12.677 48.848 47.58
13.205 49.532 50.301
11.229 50.011 52.117
8.773 50.001 52.031
71.378 68.514 81.795
72.782 70.503 81.926
71.755 73.19 82.124
69.316 73.311 82.152
78.358 83.419 85.201
76.367 84.817 84.567
75.107 86.713 85.729
75.036 87.142 88.254
2.821 12.695 88.91
0.945 14.406 88.86
1.056 16.988 88.952
2.497 18.831 89.73
63.588 63.386 58.661
61.473 62.133 57.408
61.602 60.868 55.175
63.424 59.892 53.827
62.841 40.943 42.598
63.839 39.391 41.924
62.796 36.861 42.529
62.036 36.073 44.697
83.993 64.929 -0.958
82.68 62.955 -2.059
82.019 60.601 -1.33
81.899 60.032 1.553
30.104 43.177 10.631
29.246 41.525 12.016
26.906 41.002 13.066
24.743 41.396 12.315
11.303 53.542 56.534
12.301 53.83 53.998
14.128 52.886 52.906
16.172 51.472 53.993
27.697 54.116 91.906
29.641 55.232 90.77
30.609 54.768 88.453
31.171 52.7 87.389
37.61 78.395 76.592
39.629 79.814 76.899
39.921 82.496 76.773
38.183 84.132 77.811
57.273 46.355 45.739
55.857 45.935 47.496
54.599 47.45 49.296
55.228 50.058 49.736
30.463 63.649 94.656
29.081 61.528 95.379
29.802 59.053 94.625
31.026 58.271 92.647
88.509 7.903 62.035
86.949 6.188 61.287
87.994 3.991 60.16
89.814 2.962 60.184
30.533 87.694 84.717
28.209 87.737 83.581
25.852 88.92 84.453
25.361 89.848 86.529
46.088 28.445 74.078
47.748 29.556 72.762
49.703 28.782 71.661
49.769 27.641 69.285
57.186 81.697 44.415
57.869 81.471 42.552
59.849 82.536 41.025
61.522 84.23 41.825
27.519 76.582 37.529
26.803 74.708 36.123
28.636 74.028 34.315
31.259 73.934 34.681
77.011 53.227 39.617
78.381 51.334 39.566
80.415 50.626 38.461
81.678 51.454 36.376
85.383 38.842 52.145
87.473 38.449 53.44
89.215 36.442 52.852
88.643 34.224 52.501
2.269 75.082 -0.452
3.467 74.223 -2.663
4.928 76.071 -4.312
6.132 77.987 -3.777
44.812 58.907 62.641
43.395 60.584 63.219
43.09 61.936 65.505
44.487 62.505 67.153
90.806 48.223 79.984
91.862 50.397 80.37
91.996 51.906 82.743
90.012 52.375 84.327
17.058 44.151 66.989
18.876 45.628 66.259
19.645 47.121 67.787
19.439 49.679 67.485
80.438 82.061 5.682
78.398 81.472 7.313
76.925 79.295 6.782
77.282 77.898 5.506
22.705 45.698 40.99
24.644 45.608 39.69
25.984 47.091 38.397
26.948 49.013 39.744
64.737 85.795 -3.52
62.85 87.226 -3.943
60.887 88.286 -2.827
59.7 87.886 -1.01
29.015 18.005 75.771
29.119 16.13 73.947
29.976 13.876 74.058
30.616 12.274 75.767
5.396 35.508 72.95
3.249 35.739 73.908
2.683 37.16 75.854
3.827 39.31 77.255
90.681 65.92 90.498
90.658 64.146 89.182
91.448 63.717 86.81
92.603 65.13 85.358
23.498 86.765 81.39
26.119 86.821 81.658
27.641 88.543 80.281
26.624 90.274 79.686
-0.762 80.498 90.131
0.909 79.898 91.902
1.954 77.916 92.29
2.49 75.803 91.231
14.667 -0.501 63.723
14.288 -1.13 65.982
12.888 -0.015 67.858
11.804 1.819 67.84
23.591 5.76 18.896
25.46 5.222 17.485
27.827 6.104 18.777
28.031 7.91 20.179
6.679 53.64 4.49
8.935 52.797 4.597
10.955 53.591 6.069
11.637 55.309 7.564
73.978 70.943 4.894
72.125 69.107 4.783
71.567 67.643 3.076
73.176 66.467 1.372
16.163 59.083 76.896
17.939 60.922 76.566
18.926 62.197 78.6
18.077 62.568 81.012
12.895 66.889 39.709
11.66 64.39 39.305
12.499 63.027 36.854
15.042 63.488 35.835
28.143 68.766 74.571
27.295 69.801 76.295
28.471 72.238 77.364
30.747 72.857 76.409
14.917 47.84 76.019
13.759 49.952 76.208
12.955 51.391 77.918
12.085 50.785 80.403
3.308 67.199 93.795
2.348 66.874 91.522
2.911 64.716 89.822
3.758 62.358 90.667
18.784 14.837 5.416
19.454 14.438 3.314
18.004 13.233 1.114
16.158 11.973 2.024
62.791 93.998 27.422
61.415 92.581 25.454
61.077 90.153 25.187
61.945 87.944 26.092
70.314 18.384 48.509
71.492 16.596 47.133
71.526 13.896 47.65
69.788 12.361 48.962
20.714 57.421 94.244
21.347 56.483 95.97
22.838 56.999 97.768
23.376 59.115 98.965
73.779 0.53 39.437
75.942 1.192 39.081
77.385 1.318 36.665
76.922 0.185 34.477
12.644 6.82 71.934
11.75 6.634 73.876
9.759 5.734 74.831
7.413 5.289 73.632
15.474 89.364 46.076
14.307 87.255 44.87
13.028 85.25 46.008
12.482 84.959 48.278
69.625 15.41 72.934
68.224 14.364 71.33
65.977 13.014 71.706
64.218 13.117 73.336
81.443 80.622 77.697
80.058 79.157 79.537
77.861 77.895 79.399
76.576 77.269 77.335
22.16 24.956 32.453
23.792 24.447 31.475
25.855 25.775 30.451
26.252 27.683 29.778
49.677 18.536 88.999
50.717 20.806 88.329
52.911 22.161 89.408
54.562 21.152 90.563
15.345 5.568 26.721
17.798 4.828 25.801
18.406 4.557 23.328
17.11 3.171 21.588
82.372 27.329 2.911
81.643 29.539 3.217
80.234 30.712 5.046
80.486 29.649 7.7
34.362 16.15 -0.618
36.266 17.534 -1.228
36.603 19.929 0.297
34.936 20.736 2.056
4.125 31.186 42.175
2.182 30.537 42.815
0.671 31.827 44.254
0.499 34.359 44.797
-1.177 83.742 7.465
-2.922 83.205 6.153
-2.639 81.923 3.502
-0.953 80.569 2.792
21.081 84.55 92.175
20.406 87.04 92.331
17.816 87.917 92.78
16.033 86.81 93.941
81.924 82.011 80.938
82.411 83.196 78.408
84.475 83.511 77.638
86.936 83.162 78.356
22.885 83.774 65.335
24.084 84.407 63.239
26.367 85.045 62.591
28.618 85.112 63.967
30.697 71.096 79.167
31.701 70.531 77.319
33.746 71.021 76.423
36.098 71.156 77.175
31.098 67.319 31.058
29.297 65.23 30.039
30.133 62.694 30.008
32.352 61.666 29.725
43.538 63.152 88.701
46.035 62.909 88.119
47.861 63.566 89.929
47.67 63.859 92.124
64.589 39.552 67.812
65.263 41.824 67.09
66.171 42.426 64.334
67.471 40.803 62.992
26.76 87.471 61.588
28.794 88.451 61.461
30.52 86.513 61.84
31.429 85.073 60.608
53.366 79.667 93.324
53.58 77.351 92.805
51.924 75.297 93.106
49.753 75.119 94.029
82.535 68.92 44.853
80.693 68.547 46.422
78.402 67.72 46.178
77.468 66.065 44.178
69.227 75.327 78.774
70.109 75.784 81.114
68.996 77.597 83.001
67.498 79.49 82.568
31.884 67.711 55.075
29.499 67.69 54.865
27.653 67.764 57.035
28.082 67.822 59.447
72.721 85.566 16.449
71.612 84.768 14.568
70.828 82.779 13.444
70.798 80.308 14.118
43.53 76.094 27.324
42.723 77.915 28.427
44.983 79.834 28.801
47.349 79.248 27.909
74.136 56.527 73.752
74.637 57.855 71.765
75.606 60.015 71.417
76.215 61.964 72.708
19.147 72.411 61.11
20.71 72.988 59.387
23.297 72.346 59.275
24.708 70.822 60.279
20.985 14.924 96.848
22.637 15.72 97.543
22.933 17.545 99.748
21.517 19.485 100.358
82.606 37.843 26.236
84.567 36.512 25.21
83.664 34.302 24.773
81.376 33.391 24.258
53.677 18.151 65.474
54.235 20.276 64.656
55.25 22.448 65.728
55.851 23.218 68.035
52.7 69.064 60.809
50.616 67.071 60.629
50.13 65.266 62.568
50.231 65.583 64.929
10.779 84.309 27.003
12.283 85.161 25.483
14.768 86.312 25.797
15.636 87.642 27.896
54.296 31.503 70.251
53.127 30.207 68.811
52.907 27.264 68.707
54.597 25.7 69.387
67.856 85.616 21.233
68.959 85.037 19.129
70.057 82.943 18.327
70.124 80.653 19.062
18.086 21.849 9.745
18.065 22.409 12.428
17.614 25.025 13.274
17.576 27.176 11.989
1.961 10.924 31.557
3.388 10.963 33.948
5.819 10.573 34.253
7.699 10.523 32.798
22.102 3.537 24.612
22.443 4.835 22.676
24.496 5.378 21.363
27.123 5.756 22.076
89.731 17.134 15.883
91.983 18.048 16.027
92.791 19.934 17.424
91.573 22.047 18.517
75.93 25.545 29.683
77.832 27.272 30.009
77.403 30.023 30.312
75.444 31.005 31.417
68.778 87.502 42.471
67.076 86.418 42.906
66.477 84.109 42.374
66.078 82.893 40.42
82.559 31.421 27.973
83.26 31.49 25.539
85.704 31.657 24.387
87.945 32.01 25.525
86.132 45.157 4.881
86.196 45.67 6.951
85.314 47.875 8.275
84.669 50.194 7.542
60.287 31.749 43.533
60.199 33.481 42.334
62.296 34.485 40.934
64.698 34.111 41.058
51.095 25.254 39.297
51.351 25.597 41.77
51.179 27.553 43.153
50.068 29.947 42.564
46.326 11.942 12.245
47.228 10.285 10.813
49.572 10.347 9.564
50.941 12.206 9.037
42.072 33.338 51.828
42.636 31.632 50.474
43.736 28.995 51.263
43.2 28.532 53.667
76.626 15.446 17.715
76.82 16.479 20.144
76.029 18.462 21.118
75.68 20.694 20.43
51.882 69.688 11.485
50.532 67.774 13.243
50.946 65.523 13.138
52.358 64.085 11.806
61.411 30.126 35.87
59.113 29.556 36.528
57.883 27.215 36.92
58.862 24.76 37.306
19.873 17.463 11.205
21.572 18.884 10.352
22.343 21.373 11.493
20.812 22.312 13.037
51.413 31.971 46.11
49.512 30.218 45.5
49.228 27.743 46.376
50.766 26.272 47.175
4.202 15.038 35.97
5.173 13.062 36.064
7.667 12.034 35.696
9.608 12.969 34.583
72.633 4.317 20.533
73.971 4.652 18.37
74.729 6.88 17.047
74.803 9.126 18.038
71.367 34.29 8.514
73.442 33.539 7.393
75.764 34.173 7.646
76.971 36.198 9.15
55.592 6.851 31.951
55.948 9.216 30.754
56.952 11.21 31.484
57.051 12.286 33.849
55.952 25.173 33.169
54.989 23.354 34.865
54.483 23.783 37.366
53.961 25.522 38.65
53.798 79.451 20.653
55.95 78.898 19.027
57.795 80.631 18.486
58.728 82.56 19.666
49.726 49.303 30.652
48.204 48.349 32.488
46.057 46.843 32.292
45.599 45.133 30.438
49.984 15.975 64.691
48.178 14.754 64.297
47.995 12.19 63.238
49.64 11.737 61.435
1.769 2.757 35.423
1.491 5.126 35.076
2.832 7.018 33.648
4.972 6.78 32.35
65.17 66.851 34.756
65.604 66.329 32.443
65.375 64.269 31.05
65.117 61.743 31.739
19.191 6.55 47.978
20.401 4.126 48.186
19.529 1.857 47.155
17.4 1.456 45.782
58.805 62.87 80.774
57.631 64.235 82.447
56.122 63.59 84.329
55.092 61.827 85.066
88.844 82.908 28.445
87.756 84.729 27.792
87.718 87.266 27.947
88.411 88.609 29.785
3.89 7.235 77.253
5.112 4.877 77.408
7.344 4.317 77.857
9.58 5.856 77.783
34.319 27.702 97.656
36.802 27.409 97.779
38.471 28.603 98.465
38.787 31.358 98.448
29.752 0.295 17.08
29.6 2.719 17.856
28.046 3.784 19.937
25.937 3.091 20.563
31.551 83.795 4.486
32.921 84.159 6.45
34.783 86.182 6.648
34.517 88.451 5.819
1.213 30.924 23.603
-0.118 32.162 24.541
0.126 34.293 26.022
2.517 35.077 27.042
68.488 56.464 25.722
69.774 55.52 23.575
71.974 56.142 22.875
72.913 58.208 23.291
23.366 68.382 30.232
23.139 66.069 31.083
21.011 64.81 31.552
19.001 64.42 30.191
66.445 36.94 14.673
64.294 36.194 15.13
63.164 35.088 17.072
64.155 33.63 19.046
40.247 68.86 21.353
42.38 69.905 21.111
43.835 69.629 18.895
43.361 68.177 17.515
15.274 25.419 37.007
13.447 26.746 38.038
10.949 26.628 37.854
9.397 25.195 36.044
57.651 43.992 18.05
56.395 42.226 19.165
55.349 42.278 21.702
54.283 44.071 22.662
41.199 39.396 35.085
39.486 40.877 35.461
36.89 40.795 36.412
36.118 39.022 37.939
1.295 87.673 28.047
2.031 85.075 27.305
3.987 83.919 27.031
6.182 84.4 27.817
43.656 88.872 11.82
41.603 87.752 10.101
42.563 86.695 7.933
44.758 85.787 7.253
32.284 10.544 42.318
33.887 10.027 41.381
34.403 8.231 39.082
32.57 6.943 37.917
87.299 80.548 6.881
84.86 81.211 6.753
82.901 79.573 7.063
82.301 77.591 7.869
75.337 12.913 42.291
76.532 15.375 41.486
78.835 16.182 42.506
80.647 15.151 43.75
62.547 16.902 31.91
62.738 16.953 29.432
62.85 19.23 27.945
63.849 21.308 28.431
60.549 15.712 5.147
60.258 13.21 6.034
58.565 11.627 5.484
56.423 11.695 3.531
61.434 81.379 20.665
63.309 81.872 19.702
65.458 83.514 20.391
65.489 85.139 22.076
69.063 13.661 97.492
70.574 12.184 97.223
70.588 9.98 95.209
68.575 9.042 95.188
71.048 14.152 3.034
69.031 13.996 4.903
68.806 15.789 6.848
69.04 18.212 6.867
1.98 30.065 47.123
3.389 29.614 45.112
3.729 27.293 43.722
2.11 25.392 43.682
47.132 82.521 53.359
47.519 82.376 51.174
47.961 80.25 49.336
48.931 77.808 50.022
56.676 18.36 8.894
58.173 16.608 7.837
60.755 16.496 7.831
62.498 18.068 8.67
64.39 77.324 36.576
63.741 78.59 38.663
65.026 79.519 40.534
67.537 80.449 40.712
62.236 34.386 20.737
61.01 32.695 20.024
59.335 31.298 20.993
58.679 31.19 23.48
52.2 6.255 9.276
49.745 5.37 10.001
48.096 6.711 11.436
48.153 8.368 12.456
33.793 83.35 11.999
34.68 84.678 10.348
35.268 83.494 7.575
35.308 81.197 6.832
83.177 74.968 47.199
84.973 74.462 46.479
87.272 74.292 48.088
87.472 75.036 50.458
56.684 14.881 9.691
58.761 14.039 8.536
59.745 11.508 8.237
57.62 10.063 8.101
48.067 35.825 48.049
48.148 33.375 48.086
47.445 31.424 46.273
46.08 31.567 44.575
59.213 76.564 36.651
59.927 74.79 35.556
62.548 74.893 34.359
63.847 76.724 34.174
71.146 -1.178 89.912
69.27 -0.131 91.17
68.265 2.482 91.083
69.172 4.146 89.529
79.582 33.638 26.503
78.309 31.567 28.256
77.856 29.599 27.659
79.261 27.469 27.723
67.512 56.439 21.914
66.92 53.94 22.118
66.659 52.004 20.517
67.139 51.784 18.125
39.801 42.086 37.691
37.666 43.093 37.662
36.669 45.347 38.941
37.23 46.314 41.136
40.189 22.099 19.5
41.517 20.364 18.498
40.656 17.594 19.029
38.449 17.168 19.819
44.128 42.023 34.238
45.627 43.276 33.037
46.538 42.602 30.718
47.405 40.628 29.656
48.356 93.457 31.101
46.458 91.597 30.829
45.151 90.307 32.524
44.915 90.86 34.549
79.224 24.639 22.192
77.1 24.395 23.608
76.582 24.052 26.013
78.245 24.003 28.136
43.956 50.917 7.027
43.071 50.511 9.47
44.335 49.099 11.333
45.426 47.236 10.297
60.333 32.338 11.732
61.735 30.497 10.737
61.003 27.929 10.734
59.178 26.91 10.853
65.029 7.776 49.353
66.543 7.411 47.779
69.213 6.747 47.771
70.866 7.87 48.994
66.917 28.941 4.508
68.818 28.697 6.334
70.435 30.642 7.332
69.496 32.866 6.89
74.09 28.416 6.862
72.045 28.458 7.885
70.542 26.844 8.495
72.561 27.373 9.976
26.339 45.034 42.559
24.182 44.719 43.073
22.626 42.596 43.772
23.053 40.712 44.89
51.179 6.39 6.148
49.275 5.175 7.319
48.86 2.819 7.676
49.498 0.935 6.817
63.14 14.79 4.557
66.007 14.46 4.185
67.228 12.663 3.151
66.32 10.904 1.344
-0.117 78.102 2.81
-1.982 78.585 4.282
-3.249 76.673 5.96
-2.354 74.19 4.697
19.99 36.681 15.935
21.552 37.91 13.979
23.924 38.314 13.756
25.874 37.348 15.192
87.291 71.442 43.549
89.668 71.856 43.19
91.506 70.4 43.509
91.79 67.872 42.902
82.706 68.28 48.408
81.394 70.056 49.17
79.206 70.06 50.885
77.681 68.141 51.092
67.137 58.026 23.963
68.425 59.281 24.838
70.53 59.928 23.554
71.04 60.683 21.348
60.236 10.86 32.425
59.57 13.185 31.79
60.059 15.511 33.058
60.676 15.989 35.115
73.619 42.201 34.418
75.394 42.618 36.197
77.704 44.091 36.02
78.971 44.839 34.047
63.571 52.542 50.464
65.658 52.893 52.018
68.135 51.465 51.74
68.982 50.713 49.219
80.727 7.678 83.93
83.165 7.116 84.663
85.199 6.233 83.362
85.494 5.213 81.135
57.645 91.012 25.896
59.229 92.581 26.983
59.894 93.325 29.511
58.533 92.599 31.699
76.864 7.876 96.107
76.858 7.733 93.577
78.535 7.765 91.698
80.887 7.531 91.704
90.361 20.938 -1.251
90.535 23.209 -1.275
88.172 24.633 -0.238
86.436 23.698 1.038
39.187 75.849 24.696
40.558 74.377 23.412
39.959 71.538 22.914
38.178 70.409 22.913
61.39 70.868 30.654
62.218 69.792 33.019
60.692 69.507 35.083
58.898 70.92 36.053
29.557 55.654 28.128
30.526 56.454 26.438
30.05 55.462 24.096
29.628 53.299 23.315
62.376 37.109 36.408
61.915 37.282 38.682
61.308 39.382 40.12
62.04 41.767 40.165
49.47 59.596 15.402
47.126 58.638 15.036
45.937 56.465 15.508
47.457 54.861 15.828
52.422 37.263 22.38
53.05 39.419 21.903
53.269 41.365 22.921
54.509 42.281 24.953
55.781 65.112 57.44
57.557 64.486 58.221
60.023 64.519 57.559
61.291 65.578 55.711
0.411 36.779 28.463
0.567 39.161 27.907
2.882 40.314 26.952
5.112 39.922 27.396
28.666 79.383 39.364
27.545 81.097 40.32
27.696 82.29 42.271
29.218 81.717 44.687
44.917 33.775 75.429
42.677 32.799 75.401
40.966 32.354 77.267
40.927 33.726 79.459
23.919 40.983 64.026
22.637 39.972 63.038
20.042 40.687 63.957
19.273 42.379 64.941
21.986 52.038 28.239
23.763 51.721 26.867
26.346 52.742 26.741
27.229 54.795 27.73
74.889 17.29 26.553
76.054 18.193 24.782
77.823 16.684 22.892
77.842 14.414 22.662
66.852 8.48 2.843
68.419 8.224 1.3
70.022 5.724 0.534
69.328 3.555 1.108
90.7 26.113 42.546
91.563 28.402 41.712
90.085 30.381 40.743
87.7 30.977 41.313
51.946 43.31 24.972
49.764 42.294 25.235
48.394 42.158 27.409
48.797 43.76 29.501
60.357 88.766 89.401
59.73 87.078 91.551
57.444 86.636 92.489
55.44 87.832 92.678
65.374 50.162 22.055
65.399 48.5 20.274
64.095 48.398 18.36
62.338 49.9 16.993
52.588 34.255 19.61
53.606 35.661 20.799
55.959 35.202 21.819
57.125 32.561 21.84
43.386 43.671 30.04
43.461 41.722 29.934
45.142 40.388 28.097
45.982 41.087 26.175
85.736 53.559 18.736
86.378 55.153 17.326
84.928 57.532 17.785
83.614 58.141 19.695
24.019 42.896 14.582
22.739 41.669 15.699
20.65 40.365 14.691
19.458 40.838 12.4
76.294 37.856 29.442
75.854 35.772 30.847
75.416 33.179 29.904
75.805 32.235 27.859
11.39 23.661 16.932
12.967 24.809 16.43
14.644 24.032 14.534
14.841 21.623 13.442
41.385 9.535 88.427
42.646 11.511 87.409
43.457 13.804 88.457
42.915 14.536 90.884
61.093 81.006 36.62
62.703 80.945 38.477
63.378 82.925 39.997
63.544 85.474 39.601
28.931 20.592 28.369
26.403 20.863 27.293
24.694 19.312 26.551
24.781 16.643 26.532
89.81 39.158 25.718
89.648 36.625 25.009
87.89 34.782 26.19
86.143 34.953 27.498
64.347 29.357 5.862
64.95 30.535 7.961
63.597 32.195 9.442
61.64 33.41 9.152
-1.352 14.618 35.925
0.73 13.145 35.89
2.772 13.341 34.339
2.749 13.758 31.991
60.131 61.551 8.76
62.161 60.388 7.862
62.888 60.446 5.124
62.809 62.214 4.045
7.423 42.419 28.99
8.289 41.314 26.929
10.388 41.257 25.912
12.542 42.511 26.396
35.806 48.058 39.296
33.838 47.374 38.498
31.799 46.069 39.654
30.931 45.953 41.905
66.902 41.98 19.957
65.255 41.093 18.2
63.629 39.364 18.103
63.19 37.286 19.699
75.223 36.967 82.745
73.05 35.022 83.387
73.316 32.603 83.796
75.092 31.056 82.581
51.548 44.076 22.169
51.809 42.097 20.696
50.465 39.895 21.491
48.734 39.591 22.981
57.719 89.589 -1.571
56.107 88.159 -0.704
55.389 87.933 1.678
55.928 89.659 3.919
72.133 86.138 8.504
73.201 87.114 10.444
74.809 85.393 9.515
76.514 85.499 7.427
20.559 38.583 11.213
22.697 39.465 11.356
24.802 39.256 9.761
24.898 39.092 7.681
70.214 48.126 65.476
71.461 46.393 65.757
70.679 43.614 65.093
68.682 42.91 64.107
57.578 43.57 14.812
60.011 43.891 15.906
61.348 46.003 16.352
61.291 48.164 14.828
86.679 20.277 62.624
86.605 20.203 65.03
84.888 21.477 66.644
83.176 22.953 66.384
90.981 15.927 13.426
91.755 14.091 14.561
90.822 11.883 15.251
89.397 10.493 14.127
14.171 32.22 39.681
15.149 30.544 37.907
13.382 29.114 36.524
11.436 29.185 36.97
62.743 17.537 5.425
64.116 18.671 6.442
66.787 18.289 5.259
67.05 17.735 2.67
26.223 60.121 29.984
28.336 59.686 28.418
30.404 58.412 28.846
31.795 59.232 30.369
73.798 57.247 42.245
74.5 55.516 43.794
74.784 52.798 43.582
75.46 51.723 41.271
60.407 11.046 29.691
59.32 8.987 30.356
57.23 7.524 28.913
55.797 8.488 27.339
65.857 37.201 32.955
64.602 36.251 35.193
63.438 33.979 35.248
63.446 32.476 33.803
69.657 46.609 14.768
68.532 47.85 16.469
66.079 48.922 16.586
64.248 48.704 15.167
34.638 27.327 29.008
33.67 25.492 28.649
32.597 23.385 30.263
31.998 23.643 32.591
89.697 -1.649 34.867
88.299 -0.286 33.651
89.278 2.222 33.66
89.814 3.669 35.309
73.99 80.455 64.056
72.08 81.926 63.154
72.192 84.502 63.097
73.567 86.205 64.479
88.058 55.018 35.271
86.746 53.107 36.286
87.398 50.674 35.002
88.66 50.778 32.745
68.887 67.926 3.291
67.601 66.489 4.914
65.925 64.884 4.747
64.665 63.986 2.926
59.754 27.852 40.411
58.078 26.297 39.942
55.508 26.157 40.651
54.288 27.609 42.52
2.147 34.281 21.531
3.03 31.736 21.777
2.683 29.946 20.019
1.494 29.961 17.57
63.403 65.64 6.533
65.59 65.326 7.468
67.172 66.736 8.866
67.425 69.339 8.421
17.847 82.438 43.334
16.167 84.088 43.978
13.636 84.106 43.631
11.905 82.124 43.132
19.049 48.361 70.383
20.698 49.775 70.333
22.914 50.144 71.884
24.108 48.545 73.168
69.999 28.804 10.146
68.206 29.545 8.981
66.25 27.797 8.126
65.698 25.568 8.818
58.273 67.219 61.6
56.986 66.197 60.287
54.561 65.502 60.454
53.334 64.159 62.397
-2.403 39.325 81.623
-1.537 40.191 79.534
0.818 40.589 78.456
3.047 40.403 79.753
52.876 68.079 15.065
53.519 70.011 13.6
55.841 71.712 13.794
57.301 71.938 15.637
51.528 26.64 15.342
50.284 27.594 17.424
51.398 29.744 18.995
53.726 30.49 18.007
42.205 72.836 21.126
44.18 72.022 20.035
45.921 73.085 18.861
46.606 75.241 18.237
35.429 31.682 55.117
33.789 30.221 55.016
31.499 30.085 56.415
30.632 31.558 58.201
59.638 84.603 18.227
60.7 85.111 20.67
62.569 87.125 21.055
63.638 88.572 19.567
81.243 56.801 18.235
81.298 54.646 17.526
83.194 53.497 15.34
84.428 54.485 13.785
42.529 37.59 7.923
43.726 37.424 5.936
45.532 35.468 5.102
47.373 34.773 6.902
24.886 79.525 11.812
26.064 79.538 9.543
28.448 80.018 8.774
30.337 81.098 9.567
17.415 34.849 93.081
16.842 33.334 91.219
17.827 31.087 90.229
20.316 30.334 90.335
61.316 14.447 9.494
63.077 13.286 7.557
65.113 13.772 6.978
65.965 15.863 6.712
57.738 44.904 49.655
56.822 46.214 50.759
54.42 45.493 51.874
53.598 43.432 52.651
40.259 91.066 28.469
40.304 89.055 29.465
42.195 87.148 28.671
44.25 87.614 27.243
48.966 39.842 26.244
47.131 39.166 24.878
45.153 37.513 24.969
44.451 36.195 26.787
8.263 25.025 82.613
8.077 24.992 85.121
8.256 26.797 86.767
7.764 29.082 86.812
69.629 82.801 58.528
69.361 80.433 58.713
67.249 79.01 59.163
64.866 79.374 58.718
70.838 32.845 81.987
72.031 30.58 82.4
71.473 28.026 81.646
69.444 27.234 80.086
7.698 4.152 9.267
5.866 5.374 9.652
4.689 6.164 12.436
5.898 5.154 14.655
39.797 86.949 6.264
37.821 87.175 6.825
36.984 89.183 8.05
37.726 91.69 7.974
66.937 35.22 12.527
67.6 32.645 12.109
66.83 31.629 10.018
67.066 32.444 7.596
17.058 72.196 18.461
17.698 73.2 16.275
18.259 75.718 15.489
17.251 77.428 16.878
75.7 68.932 7.891
75.023 71.265 7.446
74.672 73.227 9.444
75.928 73.393 11.399
77.35 92.244 42.865
75.566 91.029 42.853
74.153 89.678 44.684
74.415 89.252 46.895
73.803 85.061 89.625
73.338 84.27 87.32
73.128 82.46 86.112
72.718 79.917 86.601
42.351 31.651 56.324
39.967 31.4 55.22
37.687 31.582 56.257
37.072 33.055 58.359
2.101 24.776 88.297
0.389 23.513 89.23
-0.317 20.883 88.69
0.466 19.322 86.848
81.148 0.354 30.509
81.69 0.664 32.73
80.579 2.219 34.857
78.383 3.225 34.915
77.62 11.581 93.151
80.038 11.459 92.395
80.499 11.977 89.522
78.409 12.37 88.5
87.225 70.692 46.019
84.917 70.792 45.33
83.303 72.295 46.907
83.257 72.098 49.426
39.176 82.526 72.719
41.023 81.386 74.27
43.036 82.608 74.883
45.016 83.725 73.255
42.933 83.279 6.592
40.464 83.482 5.541
38.324 84.406 6.692
37.535 84.59 8.912
66.533 87.821 93.085
67.511 88.56 90.985
69.659 87.565 89.865
71.191 85.843 90.421
57.758 86.087 -1.147
58.769 83.971 -2.717
57.362 81.686 -3.168
55.555 80.842 -2.091
72.935 6.158 94.664
71.363 5.383 93.401
69.794 3.401 93.152
69.825 1.112 94.095
89.805 17.306 59.003
90.698 18.845 61.055
89.919 18.466 63.702
87.45 17.277 64.496
64.082 34.524 10.554
63.693 34.515 13.107
61.258 34.6 14.181
59.22 36.125 13.307
17.738 21.294 82.198
16.484 22.767 83.034
14.544 22.182 84.918
14.072 20.237 85.975
74.534 82.865 83.819
74.21 80.56 82.446
71.44 79.63 81.872
69.883 81.039 82.753
73.958 1.873 41.895
73.181 1.849 44.226
71.338 0.077 44.445
69.61 -0.664 42.738
67.202 76.356 60.63
65.036 77.008 61.733
62.909 76.982 61.422
61.405 75.546 59.728
60.961 44.72 1.051
61.331 46.605 -0.345
62.781 48.355 -0.292
65.201 48.513 0.613
43.437 79.03 76.924
44.634 81.355 76.936
46.281 82.13 75.207
47.884 80.829 73.719
75.846 37.387 59.734
75.678 39.82 59.884
76.069 41.408 62.109
75.824 40.983 64.47
58.874 74.348 16.178
57.422 75.603 15.431
56.945 76.777 13.245
58.6 77.686 12.187
2.045 82.423 54.324
1.717 82.187 52.295
3.354 81.507 50.184
5.701 80.661 50.003
54.154 41.747 69.556
54.754 39.844 71.193
52.488 38.436 72.54
50.651 39.038 72.699
50.116 87.556 97.589
52.17 86.917 97.977
54.196 85.885 96.226
54.123 85.503 93.785
2.457 0.677 54.101
0.481 0.803 55.793
-0.12 2.856 57.675
1.266 4.443 58.864
90.276 89.627 58.38
89.141 91.692 57.979
86.972 92.696 59.211
85.533 91.984 60.987
51.578 9.567 75.733
53.359 7.717 76.505
54.508 6.104 75.275
54.224 5.055 73.077
46.426 33.425 68.977
46.812 31.72 71.302
45.114 30.753 72.655
42.685 30.218 72.317
37.201 69.687 71.442
36.552 70.238 73.597
34.455 69.719 74.157
32.109 70.975 73.61
85.971 32.602 4.468
86.642 30.352 3.604
88.519 29.55 2.034
89.758 31.199 0.234
88.934 20.913 71.507
86.825 19.552 71.715
84.31 20.359 72.003
83.496 22.067 73.557
80.766 40.532 59.94
78.283 41.341 60.466
77.648 43.702 61.152
78.89 45.59 61.839
18.172 79.669 84.814
16.652 77.584 84.781
17.371 75.013 84.11
19.151 74.254 82.414
35.811 5.051 82.66
34.623 3.001 82.444
35.565 0.459 81.608
37.757 0.028 80.407
74.933 11.243 69.37
72.649 12.163 70.176
72.081 13.519 72.182
73.618 13.917 74.221
43.477 47.877 82.85
41.832 47.739 84.687
39.715 46.339 84.943
38.597 44.47 83.285
48.018 91.496 9.057
46.422 90.055 8.586
46.943 87.885 6.646
49.035 87.359 5.561
2.007 92.204 76.858
2.979 91.516 74.987
5.479 90.596 74.961
6.583 88.877 76.239
3.501 60.321 63.438
3.128 62.504 63.619
1.281 63.652 65.212
-0.11 62.938 66.928
37.097 6.212 85.244
36.423 4.31 85.211
38.288 2.341 84.703
40.916 3.136 85.065
80.28 42.452 34.521
78.29 41.313 34.587
77.594 39.349 32.541
79.139 38.546 30.62
83.662 91.924 57.159
83.193 93.214 59.359
81.545 92.781 61.225
80.039 91.343 60.988
35.259 3.615 39.167
35.284 5.756 39.66
35.236 7.086 41.97
34.509 6.437 44.392
46.098 57.65 60.409
47.173 59.584 59.497
49.447 60.988 60.519
51.3 60.036 61.621
84.985 14.509 87.846
84.636 11.896 88.152
83.324 10.317 87.055
83.348 10.093 84.719
74.547 71.954 84.138
75.441 72.503 81.615
77.251 73.788 80.874
79.541 74.49 81.885
5.973 49.614 75.836
5.291 47.954 77.021
2.817 47.426 77.951
0.723 48.265 77.491
28.037 32.565 80.964
28.736 33.848 82.367
27.508 34.725 84.749
25.098 34.907 85.126
49.711 41.659 75.6
51.55 43.357 74.449
52.506 45.351 75.421
51.689 46.828 76.951
58.167 27.072 65.153
56.318 25.609 65.068
56.67 23.538 63.814
58.905 22.425 63.263
26.067 9.083 47.472
25.636 7.344 48.484
23.613 5.218 48.238
22.538 4.471 46.49
69.402 21.389 7.331
66.885 20.981 6.532
64.613 20.946 7.589
63.854 20.505 9.809
49.558 55.987 81.022
48.179 54.777 79.684
46.041 54.058 79.875
44.549 52.9 81.599
66.757 27.102 80.692
67.039 28.367 82.499
65.288 30.16 84.1
63.25 30.969 83.565
66.539 33.543 33.175
67.841 35.376 34.196
70.528 35.21 34.88
72.067 33.921 34.15
34.304 30.282 81.227
34.902 31.103 79.093
37.293 31.136 77.714
39.353 30.426 78.119
74.419 19.18 69.842
73.472 17.043 70.661
71.742 15.425 70.054
69.368 15.97 69.41
84.559 3.448 56.53
86.582 4.071 57.221
87.464 6.182 58.36
86.451 8.309 59.097
70.004 4.33 69.984
70.135 4.086 67.377
72.14 4.229 65.999
74.343 3.318 66.064
16.874 85.751 42.079
18.323 87.317 42.423
17.988 90.159 42.721
16.054 91.12 43.517
21.469 40.124 89.134
19.811 39.64 90.689
17.556 40.948 91.338
16.32 42.622 90.176
60.132 22.265 83.049
59.37 20.618 84.212
56.793 19.361 84.237
55.262 19.145 82.633
71.197 7.232 44.395
70.199 9.554 43.977
70.981 11.555 42.703
72.663 12.095 41.052
21.935 13.011 74.437
24.35 14.211 75.565
26.564 14.766 74.024
27.649 13.338 72.666
14.135 83.112 68.982
15.33 85.308 68.046
14.545 87.551 68.06
12.416 88.554 69.075
63.19 42.34 69.428
61.591 44.203 70.259
60.305 44.411 72.498
61.163 43.995 74.128
47.965 51.564 83.817
45.454 50.807 83.268
43.579 50.481 84.648
43.294 50.526 87.065
58.719 78.163 70.566
57.305 79.797 69.906
57.499 82.472 70.143
59.104 84.078 70.89
39.272 35.584 77.455
37.843 34.366 78.999
35.448 35.688 80.17
34.956 38.112 80.16
50.895 19.885 67.639
50.288 18.695 65.939
48.006 17.773 65.014
45.857 17.353 66.739
36.4 83.74 54.067
38.591 82.74 54.341
40.53 82.481 52.807
41.195 83.435 50.637
70.809 46.519 20.516
68.676 47.043 19.346
67.27 45.356 17.649
67.414 43.172 17.185
86.587 76.691 97.329
89.188 76.443 97.516
91.001 76.878 95.285
90.775 76.3 93.094
54.576 44.022 76.055
55.647 44.316 74.027
57.35 46.412 73.362
59.261 46.966 74.203
55.948 26.298 88.411
57.502 24.652 87.154
56.567 22.253 85.627
54.622 21.425 85.251
44.671 29.415 76.173
42.91 30.301 75.11
40.208 29.386 74.642
38.904 27.996 76.153
59.143 3.984 71.003
57.408 4.032 72.623
55.113 2.36 72.832
54.27 0.661 71.423
64.104 44.264 65.069
62.48 42.919 66.498
60.616 43.647 67.916
59.041 45.443 67.457
61.989 27.055 65.891
60.651 27.38 63.248
60.579 29.132 61.996
62.303 30.113 61.235
70.138 40.022 62.23
72.503 40.2 60.755
73.819 42.256 60.176
73.426 44.655 59.978
77.503 54.047 71.251
76.455 56.342 70.335
77.684 58.706 70.365
80.176 59.195 70.791
80.128 52.714 68.528
77.564 52.835 69.009
75.834 50.811 69.542
76.132 48.558 70.0
71.26 59.016 48.746
72.67 59.712 47.007
74.734 61.543 47.097
75.869 62.851 48.987
65.809 8.758 44.539
67.667 9.456 46.037
68.512 11.788 46.763
68.252 13.977 45.562
3.034 48.062 53.816
3.82 49.449 55.553
3.93 52.004 55.484
4.826 53.379 53.424
83.483 34.956 6.77
83.033 36.478 5.049
84.58 38.742 4.119
85.831 40.221 5.249
70.043 63.628 76.623
68.564 65.228 77.018
68.808 67.204 78.687
69.143 67.0 81.069
32.438 88.434 63.791
32.992 88.165 61.642
35.023 86.918 60.45
36.281 84.914 61.182
29.855 52.985 19.196
27.964 53.514 21.003
28.196 55.954 21.832
30.206 57.552 21.029
56.682 8.072 57.198
56.106 7.233 55.073
57.389 6.356 53.114
59.544 6.609 52.302
36.27 72.578 49.639
34.561 71.095 49.813
34.584 68.539 48.284
37.182 68.501 47.452
50.656 34.975 70.196
50.942 32.967 70.957
50.547 30.552 69.801
49.968 29.832 67.77
7.784 29.158 66.67
7.963 31.361 67.795
10.192 32.322 68.575
11.967 32.193 67.623
52.592 7.215 78.965
54.112 8.946 79.507
53.459 11.592 80.008
51.427 12.479 80.945
4.792 86.08 45.776
5.239 84.585 47.811
4.051 84.687 50.101
1.859 84.584 50.759
68.011 67.422 84.477
66.947 66.282 82.819
64.975 66.531 81.438
62.974 68.138 81.538
62.656 72.817 58.404
64.044 70.892 57.386
62.041 68.47 56.695
59.958 68.586 56.516
8.761 36.866 71.488
8.864 34.905 69.889
10.339 34.852 67.596
12.006 36.541 67.034
78.692 27.093 78.24
76.631 25.612 78.752
74.358 26.177 79.812
73.841 28.653 80.586
74.786 23.791 50.355
73.046 23.377 52.086
70.938 24.706 52.953
70.265 26.995 52.305
69.29 30.802 58.223
71.572 29.966 58.255
72.893 28.937 55.963
71.911 28.585 53.667
57.692 91.24 50.328
55.141 90.929 51.088
53.63 89.278 50.757
53.239 87.428 49.541
79.727 17.764 46.574
77.532 16.974 45.445
75.272 16.17 46.868
74.161 17.048 48.319
35.023 83.963 81.02
36.53 85.089 82.072
38.19 87.106 81.522
38.658 88.299 79.678
1.603 54.037 36.78
0.306 52.184 35.979
-1.673 50.714 37.401
-2.548 51.816 38.951
90.014 38.764 72.407
91.446 38.858 74.562
90.675 38.495 76.915
88.843 37.563 77.823
70.712 87.964 64.707
71.326 87.103 62.218
70.518 85.835 60.565
68.69 83.964 60.743
78.056 88.275 37.665
75.959 88.714 38.235
74.736 88.907 40.378
74.4 87.613 42.553
22.797 65.416 55.251
23.031 67.744 55.399
23.834 69.067 57.762
25.347 68.227 59.719
38.913 52.285 17.823
38.953 53.573 15.611
37.721 53.498 13.518
36.048 51.825 12.569
62.293 21.234 84.892
62.879 23.627 85.387
63.989 25.554 83.559
65.903 24.881 81.727
34.847 8.857 85.31
34.379 5.962 85.758
32.91 4.641 84.271
31.12 4.986 82.812
86.987 12.98 91.502
84.955 13.158 90.966
82.727 11.694 91.429
82.655 9.342 92.08
55.984 17.318 63.413
54.41 18.898 62.402
54.745 21.141 61.127
57.012 22.696 61.075
72.953 78.125 59.082
71.545 79.903 59.895
69.789 79.841 62.156
68.557 77.845 62.634
66.151 9.225 68.121
65.439 9.055 70.699
63.506 10.01 71.854
61.16 10.667 70.692
46.358 56.987 75.504
47.434 55.546 77.146
49.953 56.673 77.853
50.915 58.519 77.277
86.581 84.742 75.802
88.407 83.574 74.802
90.819 84.181 74.409
92.318 86.182 75.511
38.724 37.536 85.195
37.646 36.55 83.35
38.133 34.462 81.76
39.808 32.828 81.723
36.127 93.799 32.018
38.041 91.589 32.716
38.419 89.825 31.664
37.71 88.6 29.249
74.426 29.09 61.217
75.382 29.397 58.88
76.23 31.376 57.755
76.839 33.877 58.785
54.343 11.035 58.856
52.286 12.232 59.579
52.076 14.528 60.892
53.5 16.069 61.807
43.833 32.601 97.019
41.482 31.687 97.68
40.73 29.324 97.302
41.293 27.752 95.039
2.714 21.866 42.139
3.098 24.083 40.818
4.907 25.172 39.722
7.096 25.112 39.809
58.889 9.352 76.95
58.769 7.633 74.954
60.767 6.456 73.757
62.662 7.538 73.306
88.958 4.097 55.813
89.84 5.797 57.433
90.888 7.946 57.14
92.659 8.659 56.247
46.509 87.667 73.153
48.936 88.492 73.082
49.994 90.343 71.897
49.07 92.291 70.516
21.868 51.658 24.585
22.061 49.219 23.768
20.472 47.15 24.065
18.061 47.109 24.558
61.903 58.681 51.67
59.553 58.151 52.045
57.431 59.545 52.938
57.588 62.1 53.539
4.61 1.223 71.373
5.851 2.196 73.056
5.147 4.502 74.643
3.023 5.252 75.093
9.525 75.17 93.247
11.167 75.086 91.206
13.466 75.778 90.906
14.327 77.944 91.607
55.531 8.967 73.422
55.976 8.736 75.761
55.715 10.355 77.658
54.307 12.03 77.325
63.874 84.84 90.616
61.977 84.536 92.016
59.197 84.36 90.919
58.398 83.38 89.215
57.912 30.016 63.651
56.21 28.846 65.373
53.924 29.414 66.119
52.639 31.192 66.333
1.33 91.122 51.625
1.478 88.857 51.677
3.738 87.204 51.324
6.075 88.002 50.573
21.37 18.189 33.304
21.91 20.343 31.905
21.035 22.561 31.878
19.56 23.874 33.889
18.676 4.517 19.831
20.473 3.394 21.202
22.739 2.163 20.439
23.738 3.025 18.757
50.752 22.501 38.977
53.184 22.432 39.046
54.781 20.407 38.042
54.364 18.784 36.379
65.357 40.725 37.12
66.555 38.845 36.469
68.871 38.674 35.03
70.099 40.339 33.945
42.025 6.317 85.486
42.703 8.291 84.184
44.635 10.066 84.34
46.506 10.091 86.194
31.879 21.223 5.84
32.37 20.833 3.56
32.076 18.438 1.772
30.209 17.223 2.415
64.017 68.45 59.501
61.739 67.788 59.189
60.278 65.84 60.171
61.226 63.413 60.275
37.627 11.704 39.215
36.777 9.45 39.961
37.453 6.861 38.945
38.254 6.295 36.96
79.723 5.139 36.154
79.18 2.956 37.829
78.307 2.81 39.937
78.448 4.189 41.891
65.23 36.883 40.973
65.117 36.795 38.371
67.019 35.315 36.88
69.186 35.093 37.182
59.443 70.933 65.575
59.449 69.223 63.376
60.441 69.097 61.382
62.405 70.876 60.299
84.302 48.329 18.099
83.862 49.399 16.226
84.805 51.541 15.171
86.835 53.081 15.709
1.546 21.116 38.924
0.094 22.878 40.461
-1.477 24.638 39.996
-2.475 25.447 37.578
67.868 38.747 81.405
70.295 38.787 82.044
72.284 36.817 81.496
72.111 34.92 80.341
54.717 11.682 83.169
56.058 11.958 80.742
57.573 10.763 79.61
58.254 8.485 79.555
79.126 18.777 76.412
79.6 19.995 74.172
81.206 19.282 72.092
83.397 18.058 72.199
68.08 71.04 30.514
69.959 69.75 31.228
71.521 67.756 30.089
71.279 66.694 28.018
49.549 22.621 66.812
52.126 22.716 65.887
53.704 24.72 65.472
53.11 27.025 66.15
86.233 12.741 84.031
85.857 10.288 84.117
86.17 8.645 82.5
85.721 8.222 80.184
71.387 4.939 90.44
72.997 6.843 91.79
75.316 7.401 91.385
77.356 5.926 90.157
68.649 37.422 86.629
70.102 37.164 84.514
72.404 38.425 84.044
73.495 39.372 85.348
83.242 37.635 83.08
84.718 38.567 81.543
86.927 37.77 80.371
87.927 35.671 80.175
47.338 50.596 29.111
47.828 51.247 30.925
47.883 53.804 31.76
48.341 55.809 30.669
73.882 60.19 42.361
75.624 60.643 43.629
76.189 62.974 44.879
75.02 65.252 44.589
31.01 68.165 76.017
30.955 68.369 73.618
32.388 67.139 71.806
34.218 66.065 72.404
61.515 7.659 69.625
60.34 8.212 71.484
57.618 7.718 72.415
56.153 6.232 71.636
43.672 11.258 13.234
45.075 9.387 14.747
45.863 7.1 13.624
44.831 5.981 11.66
62.931 50.663 52.382
60.289 50.569 52.657
58.645 49.516 51.22
58.596 47.92 49.573
72.58 22.858 48.45
74.414 21.474 47.44
73.765 19.105 46.295
71.752 18.423 45.107
38.686 14.701 90.289
36.69 15.648 89.547
34.537 16.351 91.194
34.132 15.759 93.182
84.152 36.617 54.623
84.407 39.081 54.566
85.247 40.932 56.358
84.5 40.703 58.529
82.29 33.879 54.536
81.267 35.807 55.223
78.563 36.583 55.088
77.185 35.157 54.203
39.35 53.523 60.169
40.387 55.503 61.119
38.803 57.249 62.798
37.238 55.817 64.147
66.435 75.777 33.302
64.958 73.631 33.861
63.963 71.789 32.347
63.884 71.394 30.232
53.073 48.656 78.162
52.721 50.167 75.913
54.33 50.182 73.715
55.719 48.743 73.436
58.823 0.595 74.506
59.343 2.944 74.087
59.086 4.865 75.453
59.181 5.436 77.699
4.462 34.36 44.475
2.625 34.068 46.495
2.464 34.87 48.732
4.325 36.709 49.925
6.385 84.28 23.007
4.512 84.957 23.892
2.355 83.332 24.71
1.391 81.401 23.555
61.012 61.964 81.801
61.353 63.46 83.648
63.727 64.469 84.369
65.549 63.989 82.908
48.329 72.842 20.157
49.556 71.983 18.327
50.932 73.179 16.316
51.104 75.668 15.966
37.572 34.659 75.344
39.009 32.806 75.328
40.973 32.118 73.437
40.967 32.277 71.17
77.69 27.23 54.226
75.984 26.371 53.357
74.444 24.644 54.054
74.704 22.382 55.199
22.886 64.81 51.37
23.527 66.492 52.866
25.604 66.745 54.046
28.042 65.974 53.29
68.304 25.486 54.066
68.626 26.202 56.189
68.2 28.534 57.388
66.688 30.311 56.846
40.035 12.489 44.207
38.842 10.783 42.851
37.253 8.989 43.346
35.792 8.782 44.993
67.654 10.703 71.914
69.674 11.477 71.437
71.27 9.774 70.056
70.81 7.48 69.512
30.753 25.638 55.836
29.191 26.699 57.248
26.962 27.265 56.985
25.235 26.901 55.005
88.793 7.499 84.233
88.3 6.923 82.003
88.215 4.786 80.549
89.848 2.891 80.839
46.528 8.735 60.497
46.021 10.878 61.451
44.79 10.885 63.968
43.807 9.095 65.23
57.554 42.449 41.058
59.749 41.722 41.548
60.576 42.33 43.666
60.144 44.926 44.925
10.594 11.559 77.323
10.641 8.84 76.498
12.414 7.255 77.644
14.005 8.446 78.515
17.267 49.298 76.103
19.23 50.15 74.852
20.72 52.344 75.5
20.896 53.709 77.435
68.582 62.655 74.597
70.458 62.011 73.337
71.988 59.934 72.936
71.205 57.389 73.651
80.44 21.09 42.971
79.028 19.924 44.726
76.655 19.564 45.163
74.738 19.498 43.909
62.475 29.809 86.184
62.471 27.428 86.237
64.658 25.66 86.345
66.829 26.965 86.527
45.112 4.014 7.418
46.399 5.554 9.229
46.883 8.016 9.418
47.856 9.29 7.804
75.895 29.653 8.729
73.809 30.885 8.107
71.862 31.834 9.56
71.243 31.14 12.041
53.739 8.571 60.412
51.193 9.375 59.505
49.237 8.429 59.807
48.142 6.852 61.941
17.262 57.168 78.524
16.991 55.177 77.45
16.394 52.416 78.311
14.951 51.992 79.923
62.077 66.448 29.222
62.784 68.15 30.316
65.234 69.141 29.926
66.776 68.454 28.081
39.842 45.77 33.883
42.114 44.863 32.724
42.384 42.113 32.244
41.006 40.443 32.697
60.211 79.558 42.543
60.782 80.212 40.455
60.856 77.92 38.648
60.692 75.778 38.974
82.648 54.058 42.428
80.07 54.064 41.493
78.156 53.571 42.533
77.415 52.882 45.042
85.823 50.184 10.72
84.851 50.826 12.5
82.751 52.377 12.449
81.472 53.427 10.194
78.194 88.818 35.23
79.973 89.51 33.473
81.541 88.548 32.456
82.887 86.053 33.005
22.636 14.809 28.601
23.322 17.122 28.433
24.465 18.746 30.846
24.634 18.163 32.929
24.526 90.585 43.406
22.823 88.668 44.298
23.134 86.396 44.735
25.168 84.834 43.885
12.927 34.895 12.595
13.888 33.482 14.6
12.901 31.438 15.696
10.215 31.049 16.179
57.365 73.916 34.293
57.765 74.33 37.222
56.294 75.436 38.5
53.478 75.37 38.502
61.937 38.687 13.466
61.012 37.764 15.376
59.244 38.729 17.257
58.09 40.598 17.563
43.991 2.809 34.376
42.015 2.169 32.551
39.902 3.059 32.223
38.262 4.414 33.962
15.896 5.019 29.256
16.507 7.586 29.411
14.625 9.504 29.585
12.267 9.137 30.173
-0.3 85.821 5.914
-0.953 88.051 7.159
0.296 89.356 9.057
2.709 88.987 9.817
74.673 17.32 42.402
73.927 16.703 44.258
72.017 15.006 45.057
70.382 13.879 43.89
33.191 74.798 29.511
31.298 74.137 30.801
30.824 72.105 32.096
31.858 69.777 32.4
89.732 35.805 72.241
91.96 36.477 72.272
94.285 35.151 70.944
94.494 33.437 69.76
64.893 44.855 15.415
63.434 43.201 15.613
63.681 40.426 15.168
65.117 39.333 13.734
11.609 36.0 64.327
12.234 33.838 65.347
11.301 31.473 64.704
8.702 31.046 63.857
54.307 35.216 17.766
55.509 36.742 19.323
55.221 39.085 19.924
53.842 41.057 19.14
56.251 13.412 56.763
55.938 10.922 56.632
55.597 9.442 54.271
56.169 9.708 52.058
34.511 56.745 17.401
37.035 56.86 17.412
38.707 56.264 15.681
38.798 55.875 13.234
19.841 64.687 56.33
20.196 63.18 54.358
19.066 63.001 52.52
16.68 63.937 51.616
93.205 74.726 44.108
91.431 73.395 44.676
89.157 73.716 45.434
87.723 75.228 45.373
0.816 48.974 36.762
2.781 49.206 35.475
4.021 46.73 34.251
3.382 44.704 34.52
41.691 76.399 22.031
43.111 75.897 24.284
44.85 77.424 25.253
44.838 80.025 25.485
62.522 80.332 62.736
64.339 79.581 61.443
66.885 80.051 61.782
68.116 82.153 62.916
13.074 73.91 17.597
14.377 72.215 17.291
15.589 72.346 14.996
14.803 72.847 12.448
2.285 60.559 17.924
0.032 61.489 17.046
-2.227 60.64 16.833
-3.351 58.583 17.631
48.34 25.121 40.973
49.467 24.506 43.087
50.062 22.083 44.124
49.648 19.497 43.096
54.473 63.165 58.781
53.386 62.246 60.323
51.04 63.045 60.935
49.298 64.702 59.593
53.542 21.159 34.249
55.215 19.592 33.783
56.158 18.53 31.517
55.361 17.771 29.984
66.852 86.259 17.032
66.167 87.871 19.013
67.378 90.321 19.576
68.294 91.765 18.413
51.189 81.834 44.138
50.227 80.775 46.19
47.917 80.114 46.502
45.929 81.382 46.687
69.608 26.305 5.499
68.118 24.518 6.732
66.113 23.673 6.508
64.272 23.845 4.152
29.134 59.707 22.487
29.399 58.78 24.632
28.161 57.523 26.447
26.047 56.477 26.042
68.46 84.125 14.156
69.035 85.882 15.651
69.72 88.402 15.315
70.979 89.48 13.055
3.509 65.108 13.177
4.539 63.262 12.014
7.102 62.924 12.966
7.967 64.901 14.671
18.588 85.852 44.921
20.726 86.442 44.046
22.349 84.662 42.428
21.056 83.033 41.839
8.134 61.608 40.304
9.33 62.683 38.605
10.069 61.314 36.551
10.912 59.136 36.396
16.465 65.383 17.345
14.663 64.623 15.655
14.823 62.691 13.806
16.248 60.816 13.726
25.943 23.694 26.526
27.124 23.896 28.922
29.773 24.529 29.532
31.252 24.366 28.129
46.267 83.073 78.283
44.18 83.335 78.969
42.257 81.546 80.209
43.072 78.934 79.922
49.719 58.226 12.77
50.697 59.909 11.176
53.204 60.95 11.083
55.223 60.377 12.085
31.022 89.616 10.095
32.049 87.919 8.754
32.198 85.147 8.908
30.398 83.768 9.644
6.906 69.579 37.791
6.922 69.739 40.674
5.062 68.189 42.168
3.526 67.056 41.456
39.061 85.387 30.064
39.038 83.663 28.731
37.708 82.448 27.322
35.549 81.536 28.146
16.087 2.229 1.024
17.338 3.244 -0.555
19.633 4.972 -0.058
20.517 5.244 1.91
62.283 75.344 65.564
60.223 76.895 66.317
60.066 78.616 68.152
61.895 80.634 68.721
73.073 83.112 12.002
74.64 81.043 11.245
75.99 81.092 8.847
76.298 82.645 7.836
28.918 32.789 56.182
27.097 31.154 57.162
24.776 31.501 57.94
23.659 33.72 58.958
61.477 59.109 28.568
61.808 60.901 30.166
63.417 63.135 30.045
63.89 64.516 28.474
45.774 35.082 22.913
48.059 35.749 23.649
49.925 37.023 22.257
49.991 37.528 19.613
58.744 63.148 35.836
56.929 63.481 34.245
54.562 62.588 33.884
52.926 61.699 35.881
53.81 75.477 41.317
53.997 77.864 41.601
52.012 79.621 42.558
50.172 79.218 43.014
76.885 69.09 33.075
74.808 68.309 32.223
72.421 68.648 32.978
71.17 70.583 33.886
80.511 52.671 15.522
79.118 52.707 17.238
76.377 52.075 17.512
74.577 52.004 15.745
68.984 40.937 83.874
70.582 42.776 85.242
73.077 43.596 84.227
73.424 44.367 81.682
74.313 7.52 63.318
71.747 6.488 63.971
71.622 3.759 63.391
73.259 2.907 62.54
41.589 11.042 39.445
39.952 12.516 41.108
41.175 14.42 43.026
42.474 16.019 42.521
57.796 58.999 11.944
59.241 58.193 9.761
61.745 58.365 9.388
63.618 58.979 11.163
59.595 62.661 29.579
58.685 61.562 31.384
56.082 60.92 32.089
54.438 61.055 30.975
83.418 49.878 78.576
85.044 47.852 79.383
84.14 45.399 79.825
81.944 44.435 80.154
34.377 57.738 23.868
32.615 57.707 25.45
31.488 59.602 26.663
32.272 62.129 27.038
69.416 62.904 6.537
67.328 62.701 5.994
65.0 62.112 7.609
64.782 60.558 9.374
-2.126 2.151 29.503
-2.272 0.272 30.711
-0.288 -0.881 32.408
1.059 1.125 33.084
80.325 28.921 84.318
78.567 27.771 82.533
78.676 25.293 81.75
81.191 23.91 81.362
88.683 4.48 31.006
90.028 5.243 33.077
90.746 7.408 33.978
90.753 9.591 33.082
74.61 25.928 23.182
74.279 23.479 24.328
73.086 21.236 23.115
72.889 20.963 20.815
74.933 19.518 78.274
75.524 21.727 78.074
77.141 23.215 79.932
77.334 22.622 82.358
23.717 39.295 67.647
23.488 41.316 66.839
24.712 43.575 67.13
26.254 44.389 69.131
77.679 59.55 65.894
79.887 59.322 66.619
82.16 59.819 65.91
83.391 60.581 64.024
59.243 62.123 11.821
57.333 61.56 11.285
54.926 63.344 11.567
54.866 65.333 13.27
53.045 76.927 20.946
52.633 76.827 18.522
53.643 75.603 16.605
55.553 73.986 16.461
50.376 -0.836 49.231
51.984 0.39 50.306
52.406 2.813 50.379
50.969 4.776 50.602
66.615 61.766 1.956
65.759 61.098 4.464
65.394 58.711 5.33
65.218 56.453 3.486
2.142 67.087 18.894
-0.608 66.169 18.886
-1.693 65.29 20.908
-0.766 64.476 22.71
86.676 79.653 -0.049
86.512 79.783 2.574
84.692 80.761 3.983
82.991 82.532 3.8
0.533 28.878 21.185
1.035 27.873 19.15
2.208 25.605 18.858
2.123 23.521 20.238
74.462 77.052 51.363
76.326 75.494 50.842
76.328 72.993 50.885
74.686 71.141 50.052
61.886 82.004 15.072
62.616 84.067 16.194
65.172 84.403 17.368
67.387 82.94 16.527
46.87 37.598 1.297
46.824 37.297 3.873
46.013 38.775 5.693
45.497 41.604 5.54
3.334 84.878 54.218
2.256 87.223 53.626
1.663 89.156 54.976
1.958 90.087 57.083
81.912 66.384 94.779
80.367 64.48 94.52
78.081 64.113 94.934
76.118 65.633 95.786
30.499 36.997 15.004
29.808 38.661 13.176
27.689 38.743 11.695
25.999 37.642 12.209
80.661 77.895 3.434
82.975 78.906 4.442
85.269 77.808 4.422
86.155 76.053 3.309
81.507 81.319 28.987
81.355 78.543 29.192
80.234 76.987 28.388
77.812 76.512 28.137
22.607 17.236 25.179
21.101 16.376 26.893
19.721 14.393 27.025
19.248 12.345 25.953
57.742 17.016 13.65
56.712 16.948 11.373
54.578 17.304 10.552
52.714 17.265 11.594
47.688 67.587 -1.863
46.17 66.564 -3.094
43.439 66.885 -3.207
42.082 67.969 -1.585
50.234 43.114 54.372
49.574 45.632 53.907
50.498 47.924 55.007
53.006 47.977 56.218
74.254 65.027 27.84
75.111 67.245 28.05
76.658 68.17 29.953
78.075 67.024 31.877
46.856 55.877 38.148
47.052 54.639 36.461
49.342 54.451 34.481
51.446 55.561 34.707
58.206 64.562 31.918
60.518 64.699 31.029
62.672 66.195 32.224
62.676 67.355 34.04
78.535 57.325 90.87
79.439 59.509 92.02
78.044 61.968 92.102
76.532 62.784 90.441
71.1 73.98 5.968
71.514 71.76 6.031
70.11 69.535 6.343
67.896 68.956 5.878
89.757 62.085 83.922
89.547 59.761 84.635
90.028 57.544 83.224
90.949 57.338 81.325
23.609 49.574 44.164
21.32 49.909 45.336
19.292 47.655 45.287
20.246 45.82 43.959
72.373 3.44 16.654
73.72 1.576 15.794
74.032 0.58 13.147
72.149 0.53 11.473
44.019 77.548 51.835
43.22 76.353 49.877
43.635 74.185 48.999
44.348 72.018 50.173
83.99 89.989 35.721
83.933 88.957 33.501
85.394 87.315 32.299
88.321 86.694 33.61
75.234 73.768 4.864
75.557 74.721 7.181
75.639 77.254 7.733
73.462 78.725 7.705
55.888 79.407 13.702
55.99 80.528 15.746
57.735 82.56 16.746
59.8 83.562 15.521
53.188 36.066 75.473
53.032 35.106 73.257
53.124 32.755 72.332
53.027 30.625 73.079
83.294 1.487 35.195
85.501 1.594 33.949
86.573 3.757 32.599
86.494 5.946 33.254
87.717 12.274 36.234
87.424 14.293 37.68
86.589 14.439 40.187
85.636 12.736 41.829
-2.812 59.79 20.529
-0.709 61.774 20.205
0.952 62.589 22.098
0.473 62.42 24.21
37.779 79.754 31.718
39.308 81.122 30.325
41.879 81.814 30.456
43.301 82.065 32.58
81.771 87.028 29.994
82.73 84.623 30.506
84.545 83.629 29.244
85.316 83.47 27.113
53.902 79.324 46.071
54.562 79.387 44.034
56.661 78.917 42.476
58.542 77.367 42.536
75.12 62.081 1.393
77.524 62.994 0.925
79.557 61.649 -0.663
79.659 59.664 -1.55
4.021 42.689 27.451
5.232 44.052 27.281
7.223 43.396 25.702
7.299 42.469 23.423
47.916 45.467 50.484
45.664 44.408 51.716
44.705 45.243 53.972
44.72 47.154 55.073
83.152 62.614 88.535
81.317 61.689 90.1
80.945 63.459 92.144
81.473 65.682 92.107
55.934 42.115 1.943
58.009 43.749 1.215
59.972 42.7 -0.612
59.886 40.061 -1.48
60.529 41.607 92.93
61.117 43.633 93.308
63.562 44.818 94.034
65.823 43.51 94.327
31.907 76.289 33.464
32.179 76.879 31.243
33.926 78.66 30.177
35.315 80.549 31.234
-1.133 72.727 93.229
1.072 73.863 92.532
2.823 72.977 91.135
3.531 70.412 90.613
84.14 80.926 28.795
84.141 78.127 28.269
86.331 77.266 26.998
88.409 79.383 26.994
17.978 69.371 18.333
16.567 69.455 16.438
13.81 68.947 16.128
12.76 67.015 17.232
64.061 8.923 46.645
62.161 7.328 46.728
60.274 7.165 48.479
59.391 8.383 50.427
50.325 48.236 74.981
50.136 49.253 77.098
50.258 51.868 77.521
49.943 53.505 76.212
59.297 5.816 25.854
60.101 4.185 24.273
62.691 3.606 23.552
63.943 4.364 25.346
6.575 59.44 34.684
8.174 61.437 34.529
10.548 61.26 33.684
11.842 60.109 32.234
8.359 8.16 37.432
6.109 8.914 36.313
4.486 10.772 37.243
4.195 11.318 39.722
84.115 70.483 29.365
84.299 70.693 27.033
86.571 71.101 25.792
88.189 69.923 25.647
64.991 57.944 54.767
63.062 56.895 55.008
