38.274 64.248 44.379
16.835 13.256 27.169
16.991 10.786 27.809
17.381 8.761 26.322
16.574 8.242 23.892
-1.906 74.263 2.144
-0.363 74.501 0.1
1.748 73.548 -0.529
2.63 71.401 -0.35
22.902 80.961 11.248
21.762 78.88 10.468
20.885 76.814 11.724
21.072 76.278 14.102
83.304 55.156 19.628
84.089 53.664 17.883
82.735 51.723 16.886
80.963 50.422 17.727
5.611 65.833 37.498
6.848 63.694 37.138
5.811 61.137 37.362
3.645 60.329 37.534
41.859 12.985 84.925
43.415 11.629 85.475
45.895 11.885 85.634
47.719 12.447 84.424
67.809 63.054 3.401
69.041 64.912 2.954
71.398 65.705 3.699
73.399 64.06 3.146
4.252 8.016 82.19
1.804 7.578 81.677
-0.279 8.86 81.856
-0.874 10.964 82.319
21.395 81.673 35.813
21.33 81.201 38.129
19.306 81.26 39.923
18.382 82.882 39.931
90.637 63.113 91.332
91.002 63.138 89.233
90.407 61.659 87.198
89.593 59.223 86.792
10.07 68.716 16.847
8.326 67.204 15.315
5.798 66.838 15.489
4.327 67.49 17.179
38.857 68.835 41.792
39.439 66.626 41.998
41.205 65.114 40.902
42.789 65.545 38.942
55.765 15.588 33.862
56.761 17.317 33.179
59.048 18.497 34.65
58.322 19.377 37.214
7.089 64.399 63.657
7.269 66.898 64.193
6.876 67.992 66.548
6.574 66.895 68.978
10.807 65.345 34.229
10.945 66.113 36.552
9.462 67.88 37.806
6.826 68.262 37.335
69.13 4.864 17.489
68.727 2.098 17.68
68.731 0.94 20.131
67.911 2.223 22.513
26.623 15.01 51.469
24.61 15.596 51.867
22.701 13.539 52.658
23.407 11.356 52.829
47.441 2.047 27.058
49.451 3.767 27.596
51.627 3.51 27.39
53.413 1.787 25.845
53.88 33.205 65.522
52.643 34.72 67.013
53.706 36.907 68.516
55.134 38.264 68.203
62.639 46.254 65.908
64.762 45.825 65.748
67.081 47.533 66.111
67.358 49.596 66.154
13.693 49.554 71.149
14.326 49.547 73.704
13.754 51.005 75.603
12.566 53.104 75.806
9.335 2.436 1.222
11.11 2.117 2.442
13.166 4.111 3.122
13.94 5.994 1.869
7.72 80.989 49.327
7.764 82.647 47.764
9.598 83.344 46.077
11.844 83.164 45.893
44.758 54.334 11.224
44.96 56.318 12.763
45.738 58.988 12.066
47.016 59.447 10.213
20.158 40.299 44.373
21.59 42.016 43.437
21.826 44.512 44.279
21.241 45.691 45.915
86.792 73.961 25.467
84.688 73.331 26.226
83.174 74.962 27.931
84.061 77.664 28.805
44.094 11.122 66.623
43.825 13.114 65.424
45.266 14.925 64.673
47.605 15.507 65.022
50.957 79.831 17.774
48.996 77.964 18.133
47.623 77.168 19.832
48.268 77.295 22.79
46.51 86.002 51.857
47.919 85.085 50.522
49.557 86.489 48.757
50.606 88.663 49.006
56.453 49.492 -2.057
58.803 50.448 -2.224
60.214 51.145 0.151
59.212 52.395 2.183
53.094 81.763 16.635
54.799 80.567 15.967
55.096 79.005 13.673
53.253 78.138 13.176
44.788 86.36 27.775
43.658 84.146 28.762
42.141 82.23 27.61
41.674 81.938 25.029
8.628 83.158 42.041
8.372 81.525 44.103
8.755 78.915 44.146
8.382 77.337 42.004
66.266 22.083 26.012
68.009 20.802 26.165
69.251 20.329 24.128
69.733 21.343 22.122
9.025 51.577 94.645
10.232 51.345 96.717
11.397 53.674 98.388
12.519 55.694 96.986
31.906 88.457 58.214
33.842 87.476 58.461
36.208 87.866 57.018
36.215 88.506 54.305
48.27 51.944 32.036
46.59 50.879 32.029
45.019 51.257 33.851
44.129 53.294 35.058
39.047 81.334 24.975
39.121 81.977 26.992
37.538 80.687 29.184
36.316 78.879 29.27
55.173 57.312 8.755
56.993 57.696 6.985
58.041 56.063 5.41
57.811 53.499 4.792
83.108 15.163 17.45
81.257 13.807 17.7
79.308 14.892 18.772
79.15 16.118 20.897
58.2 44.997 88.671
57.76 43.327 90.198
56.247 41.464 90.222
54.974 40.207 88.687
37.024 56.574 19.903
37.631 56.479 17.663
39.976 57.289 16.329
42.329 57.402 17.436
31.329 47.235 37.67
29.801 47.873 39.687
28.475 46.486 41.021
27.203 44.27 40.693
49.637 36.502 71.463
49.254 34.311 70.612
47.271 33.255 69.706
44.415 33.948 70.573
30.282 2.445 86.085
29.365 0.378 85.389
26.911 -0.118 84.062
24.892 0.704 84.263
46.097 16.192 14.536
46.785 16.982 17.088
45.558 18.651 18.589
43.248 19.528 18.419
33.599 81.34 29.064
32.27 80.068 29.671
30.434 80.279 31.278
28.763 82.216 31.713
32.847 51.957 89.197
34.276 51.177 87.484
35.886 48.967 87.612
36.25 47.401 89.449
34.882 93.298 20.859
34.077 94.334 18.902
34.616 93.1 16.677
33.74 91.138 16.026
6.682 19.437 13.651
8.057 21.262 12.962
9.983 21.484 14.9
10.198 19.716 16.748
37.798 42.825 12.419
36.962 41.129 11.4
37.564 38.457 10.812
40.012 37.777 10.534
26.262 74.485 31.407
25.455 76.538 32.684
27.262 78.591 31.866
29.266 77.996 30.477
48.538 67.026 12.465
48.738 66.607 14.685
48.489 68.653 16.746
47.005 70.758 16.472
29.584 -0.099 11.596
30.388 0.27 13.668
29.696 1.545 15.795
27.456 2.606 16.176
2.827 64.361 19.038
3.926 64.812 16.782
5.953 64.233 15.807
7.783 62.659 16.222
46.819 63.846 39.801
48.062 63.376 38.428
48.609 60.754 37.889
48.572 58.964 39.673
26.097 30.849 54.406
28.393 30.159 53.628
29.92 31.026 51.604
29.413 33.433 50.331
15.184 73.011 20.403
15.026 74.351 18.481
12.549 75.86 17.946
11.282 77.147 19.829
8.018 69.471 42.647
8.91 68.051 41.221
7.677 66.217 39.888
5.008 65.994 40.427
43.007 53.928 9.376
41.751 54.105 11.088
39.909 52.635 11.445
37.842 52.113 9.959
12.01 51.034 5.535
12.927 51.92 3.443
15.376 52.815 2.884
17.331 52.44 3.763
24.383 57.505 93.577
26.93 57.012 93.765
28.898 57.261 92.188
29.092 58.392 90.066
35.824 54.4 17.931
33.663 55.768 17.384
32.314 57.185 18.798
31.755 57.172 21.246
82.841 0.417 97.691
84.081 1.244 99.244
86.943 1.931 99.048
88.425 1.553 96.737
40.962 73.647 50.029
39.944 71.926 49.266
38.042 70.593 50.017
37.148 70.796 52.759
89.237 7.393 79.772
91.526 7.034 78.836
92.622 4.941 78.2
91.682 2.777 77.558
45.488 65.754 88.546
45.852 67.452 90.334
44.393 69.282 91.297
42.268 69.339 90.842
57.376 7.912 56.057
56.849 7.91 53.622
56.672 6.41 51.724
56.924 3.856 51.448
83.747 84.235 7.511
81.798 84.467 5.986
79.448 84.718 6.287
77.883 85.091 8.484
39.236 68.021 48.995
39.587 68.099 46.263
40.384 66.396 44.687
41.332 64.158 44.897
80.845 50.517 14.828
81.286 50.988 12.393
83.245 49.988 10.607
84.047 47.626 10.804
18.147 44.954 24.058
16.18 43.763 23.804
16.777 41.802 21.814
19.025 41.14 20.988
92.663 63.371 11.868
91.393 62.503 13.696
89.003 62.551 14.424
87.013 63.201 13.517
32.336 68.293 52.864
33.336 69.605 50.937
35.429 69.398 49.669
36.775 67.534 49.101
6.454 45.775 95.605
7.816 48.064 96.108
10.135 48.45 95.083
11.135 46.649 94.427
36.924 3.278 35.762
37.399 4.993 36.984
38.2 6.884 35.877
36.57 8.463 35.121
9.979 76.557 86.951
12.304 76.105 88.174
13.665 74.117 88.096
13.702 71.798 86.549
18.291 59.466 83.226
18.731 61.374 82.425
18.859 63.802 83.45
17.697 64.944 85.263
15.714 75.848 89.933
16.237 74.807 87.772
17.505 72.696 87.162
18.332 70.699 87.925
19.785 54.943 78.89
18.995 57.378 78.886
19.586 59.342 80.056
21.133 60.272 81.855
39.273 69.841 1.016
36.982 69.704 2.084
35.668 67.455 2.428
36.644 65.433 1.214
34.255 50.285 59.415
36.429 51.313 59.88
38.729 50.53 59.163
39.534 48.84 57.859
38.957 86.934 78.829
38.051 85.275 77.606
38.893 84.35 74.992
40.22 85.434 73.432
32.704 67.299 3.529
32.257 66.797 0.916
32.501 64.387 -0.348
31.787 62.298 0.243
31.548 39.397 86.762
29.974 38.1 85.429
27.092 38.841 84.924
25.87 40.593 85.978
24.387 41.123 41.031
21.396 41.162 41.166
20.09 38.912 41.908
21.112 36.443 41.182
20.188 66.951 83.708
20.342 69.379 82.812
20.404 71.507 83.67
19.99 72.401 85.848
59.491 52.551 89.806
60.419 50.555 91.136
62.646 50.045 91.649
64.945 51.073 91.281
16.928 48.929 69.383
16.385 50.137 71.102
17.269 52.143 72.282
18.935 53.823 71.614
41.26 81.889 53.464
43.254 81.058 52.309
45.493 82.993 52.293
45.314 85.287 53.852
70.966 40.182 87.221
72.927 41.011 86.48
73.58 43.834 86.905
71.917 45.192 88.184
30.424 10.502 65.308
32.083 8.565 64.132
30.9 5.976 63.393
28.221 6.185 62.651
77.434 79.521 81.623
74.972 79.249 82.392
73.149 80.973 82.872
73.102 83.263 83.94
81.276 38.216 80.696
82.084 39.816 81.731
84.296 40.98 81.361
85.366 41.469 79.109
64.669 70.785 53.218
63.465 69.358 55.129
63.99 69.991 57.766
64.331 72.109 58.801
33.252 36.163 86.022
34.632 37.951 85.417
36.156 39.356 86.784
36.457 40.086 89.078
40.209 57.469 64.083
39.102 55.838 62.345
37.435 53.993 62.866
36.444 52.922 64.82
85.41 46.074 54.044
87.318 44.594 53.609
89.634 44.868 52.123
91.158 46.978 52.928
3.32 52.879 84.463
2.239 55.13 83.794
1.343 57.04 85.15
0.408 57.088 87.296
3.931 76.018 71.626
5.086 74.114 70.451
3.426 73.658 68.321
1.237 72.841 68.263
51.616 41.948 95.106
53.541 41.961 93.59
53.862 43.295 91.224
52.983 40.971 90.886
41.311 82.481 49.511
43.271 82.84 50.076
45.573 81.689 49.105
46.277 80.86 46.887
11.292 56.617 50.514
10.743 54.259 51.549
8.654 53.278 52.659
6.398 54.487 53.254
18.706 52.345 93.304
19.029 53.929 95.037
16.941 55.07 96.415
14.838 54.238 96.128
40.811 51.019 61.453
38.772 51.903 61.801
36.55 51.079 62.565
35.894 49.144 63.789
44.173 87.81 53.495
42.203 86.382 54.768
39.863 87.411 55.376
38.816 89.591 55.051
15.161 58.805 7.41
14.839 58.676 9.93
16.225 59.917 11.776
17.038 62.482 11.66
53.504 60.075 82.258
53.454 58.571 79.892
51.752 57.742 78.712
49.029 57.557 79.189
3.171 39.88 55.405
3.096 38.764 53.033
4.547 37.27 51.756
6.197 35.564 52.182
54.786 39.35 92.431
52.527 39.273 92.946
50.89 37.019 93.428
51.547 34.666 93.411
76.789 77.201 61.516
76.055 77.821 59.6
73.838 79.516 58.79
71.93 80.427 60.356
50.476 65.14 87.933
50.37 67.241 88.615
50.352 68.36 90.834
50.867 67.733 92.962
5.449 50.032 56.572
6.485 51.769 56.499
9.017 52.866 55.433
10.468 51.94 54.155
76.23 6.534 60.398
78.45 6.209 61.715
80.192 4.566 61.256
81.219 3.54 59.183
47.704 75.351 92.58
47.945 72.904 91.924
46.807 70.842 92.826
44.835 70.606 94.414
34.215 54.825 85.493
36.176 53.85 84.5
35.999 52.229 82.328
34.082 51.963 80.937
32.47 19.55 94.455
34.866 19.069 94.265
36.068 17.57 92.35
35.462 16.373 90.422
38.638 45.24 51.111
40.264 45.681 53.392
39.901 47.632 55.192
38.285 49.501 55.072
90.144 80.785 70.584
88.98 81.925 72.164
89.404 84.254 73.22
90.96 85.866 72.887
89.631 78.301 69.293
89.388 77.01 71.252
87.252 77.481 73.081
85.209 78.616 72.878
53.644 69.697 59.351
55.803 70.663 59.614
56.989 71.52 61.832
56.245 71.88 64.027
16.57 78.087 13.205
16.301 75.461 13.174
17.528 73.84 11.7
19.265 74.376 9.552
14.592 57.705 54.003
17.128 59.057 53.753
17.623 61.41 53.211
16.463 63.368 53.485
8.138 -1.35 71.418
7.383 0.206 73.747
8.12 2.677 74.015
9.613 3.781 73.298
28.061 64.698 96.187
29.318 66.736 96.654
29.932 68.715 95.36
29.002 69.854 93.582
16.032 11.791 78.284
16.1 13.599 77.618
16.7 13.766 74.993
18.454 12.924 73.722
3.539 59.239 83.227
2.749 57.213 82.475
3.241 55.605 80.699
5.157 55.24 79.35
4.916 40.659 75.31
4.173 43.079 75.151
2.597 44.257 76.642
1.581 44.136 78.804
2.908 17.444 58.19
2.352 15.224 59.216
3.615 13.352 58.275
4.527 13.064 55.895
22.743 36.484 65.997
22.023 34.337 64.537
22.627 34.056 61.934
24.602 34.822 60.69
38.462 10.989 72.261
39.159 13.047 71.139
41.571 13.911 70.437
43.401 12.115 69.718
8.052 49.259 80.535
6.288 50.55 79.466
4.813 52.623 80.348
4.51 53.812 82.328
3.882 65.045 60.237
3.474 65.724 62.384
4.658 67.722 63.896
5.534 69.705 63.384
85.885 44.985 56.671
85.266 42.436 56.86
84.398 41.11 58.598
82.529 41.852 60.317
45.26 5.446 15.704
46.631 5.292 13.475
45.962 4.875 11.163
44.013 3.586 10.098
92.0 92.423 75.434
92.782 90.361 75.751
91.646 87.792 75.645
89.54 86.998 74.952
88.586 5.616 9.073
91.009 5.465 8.111
92.93 3.945 8.601
93.298 1.761 9.664
12.725 89.701 90.262
14.752 89.662 90.802
16.369 88.143 89.655
16.927 87.602 87.154
79.226 74.578 80.402
80.813 75.671 78.942
81.427 78.549 79.488
80.23 79.37 81.099
70.979 77.39 82.308
70.584 80.051 82.706
68.744 81.159 84.0
66.847 79.67 84.37
14.807 76.415 68.548
12.888 75.223 68.103
12.445 72.507 67.701
14.283 71.52 66.985
5.608 72.392 88.964
6.979 73.495 90.955
6.998 76.228 91.129
8.017 77.089 89.411
42.906 68.51 42.268
41.029 69.495 43.759
41.019 70.662 46.056
42.519 71.559 47.456
35.717 70.202 75.714
34.573 72.581 76.233
35.737 74.786 76.821
37.87 75.382 77.64
11.579 84.566 88.921
13.125 85.112 91.096
13.088 87.366 91.872
11.594 87.932 93.744
28.959 66.072 51.372
29.803 68.034 51.938
30.894 70.143 50.199
31.283 70.159 47.943
21.768 82.416 62.98
21.402 84.099 64.515
20.333 86.575 64.145
20.262 87.955 62.15
10.91 74.432 70.042
8.434 74.45 68.504
6.457 75.785 68.88
5.777 77.672 70.662
23.548 58.257 50.952
21.828 57.009 49.855
18.921 58.231 49.659
18.845 59.808 50.87
3.892 66.636 68.205
3.627 68.171 66.296
1.241 68.939 65.105
-0.443 67.345 66.215
32.007 2.707 62.836
30.956 1.102 62.049
31.605 -0.534 59.852
33.374 -0.115 58.159
21.558 21.132 74.248
23.153 19.879 73.773
23.49 17.277 72.886
21.838 15.743 73.076
60.693 57.595 56.567
60.35 55.674 54.795
59.986 53.529 54.837
60.252 51.537 56.365
25.021 52.842 46.433
23.323 53.581 48.201
23.503 54.946 50.122
25.404 56.364 51.3
74.599 27.815 51.211
74.622 29.592 53.35
76.48 30.79 54.304
78.82 31.125 53.633
70.988 15.067 94.133
71.829 13.559 92.938
74.452 12.614 92.92
76.285 13.426 93.822
35.049 84.057 61.435
35.982 85.798 59.711
38.014 86.076 58.36
39.611 84.732 57.683
9.112 30.846 44.872
7.569 32.653 44.432
6.523 34.449 45.803
6.781 35.536 47.962
17.901 51.109 1.521
19.476 51.243 0.005
21.386 52.879 0.943
21.968 53.216 3.617
22.191 75.663 64.885
20.163 76.811 64.17
18.219 77.656 65.479
17.924 78.584 67.862
68.05 4.208 47.416
66.17 5.375 47.574
64.254 5.431 49.235
63.976 4.382 51.312
-2.338 84.141 1.042
-1.599 81.546 1.788
0.796 80.443 1.356
2.925 81.505 0.202
55.788 6.918 80.989
55.872 5.408 79.081
54.278 3.155 78.589
52.348 2.559 79.589
18.292 72.87 80.886
19.205 70.593 80.604
21.271 69.649 79.356
22.894 70.55 78.17
36.712 60.084 67.791
39.141 61.172 67.429
40.491 62.394 69.261
40.29 62.737 71.421
28.463 11.451 49.321
26.853 12.43 50.695
24.577 10.472 50.747
24.82 8.095 50.321
50.828 18.44 82.155
51.651 16.303 83.715
53.265 14.383 83.163
54.68 13.798 81.246
23.311 64.486 84.978
22.627 66.059 83.003
22.305 65.483 80.597
21.103 63.621 79.561
7.478 46.565 79.65
5.452 47.677 78.994
3.167 47.865 79.988
1.753 46.055 81.258
3.609 79.275 70.848
1.995 77.959 70.893
0.967 76.366 68.988
2.652 75.9 66.832
57.029 75.88 42.218
58.383 76.217 40.541
60.097 74.641 39.059
60.58 72.477 38.948
20.177 46.265 40.573
20.901 43.946 40.796
23.769 43.522 40.254
25.028 44.918 39.28
57.61 57.253 32.625
54.922 56.502 32.297
53.66 54.99 33.61
54.502 53.259 35.657
74.281 45.34 68.141
71.918 45.398 68.144
70.511 47.278 68.817
70.84 49.536 70.15
12.078 69.875 66.599
10.005 70.75 66.069
7.97 69.783 64.677
8.446 70.84 62.9
20.021 4.911 93.661
19.905 7.41 93.84
21.203 9.298 93.132
23.579 9.712 92.831
55.738 48.37 54.219
57.53 49.052 52.478
58.007 52.005 52.206
57.534 53.643 53.752
36.745 91.633 85.509
36.317 90.867 83.459
34.919 88.686 82.647
33.936 87.056 83.7
21.081 68.451 57.419
22.261 69.655 58.68
23.004 72.272 58.603
21.547 74.058 57.981
12.855 66.887 14.086
14.89 66.475 13.515
15.186 64.469 11.918
13.734 63.448 10.391
41.256 87.746 5.866
43.495 88.379 6.851
45.239 89.654 5.621
45.243 90.052 2.964
66.894 4.401 42.055
68.585 3.925 43.737
71.289 3.411 43.515
72.701 3.022 41.779
38.745 59.216 60.758
40.689 59.254 61.925
43.157 58.409 60.9
43.295 57.473 59.119
35.711 1.452 61.171
35.442 -0.488 59.605
36.677 -1.196 57.738
39.264 -0.987 57.39
89.073 64.733 67.423
88.238 63.162 66.656
85.886 62.009 66.766
83.898 62.118 68.307
65.627 10.562 69.652
67.309 9.32 69.324
69.934 10.004 68.423
70.888 12.046 68.407
12.688 3.359 73.779
12.521 3.579 71.45
14.328 2.625 69.384
16.236 1.344 69.405
4.331 12.484 14.976
2.188 11.874 15.23
0.798 9.716 15.593
1.173 7.829 16.702
82.101 8.415 85.866
81.241 10.242 87.018
78.853 11.214 87.199
76.715 10.511 86.5
91.055 30.947 21.463
91.983 33.108 22.492
90.96 35.033 23.048
88.091 35.584 23.512
12.808 51.335 47.003
13.294 51.549 49.667
11.472 51.449 51.519
8.982 50.679 51.507
70.503 70.525 80.103
71.488 73.056 80.134
69.807 75.11 80.741
67.804 74.511 80.686
72.997 90.067 79.055
71.555 89.632 80.96
71.65 89.499 83.227
73.138 90.292 84.917
0.7 16.117 89.343
1.3 18.558 89.341
3.524 19.716 89.841
5.629 19.542 89.139
65.763 68.151 58.161
63.743 66.338 58.745
62.159 65.348 56.478
62.906 64.702 54.622
67.189 42.767 46.521
66.731 41.63 44.313
65.783 39.673 43.736
64.588 37.973 44.572
81.551 66.199 93.481
81.731 64.396 92.535
79.451 62.855 93.021
78.267 62.778 95.288
31.458 42.857 9.728
30.769 41.525 11.412
28.394 40.835 12.39
26.087 41.562 11.967
11.29 54.376 54.762
12.707 55.455 53.407
15.031 54.898 52.199
16.87 53.118 53.023
27.82 54.785 90.173
29.928 55.708 89.346
31.383 54.959 87.438
32.004 53.362 86.248
33.857 78.796 75.586
35.767 79.917 74.976
36.639 82.322 74.849
35.168 84.222 76.47
60.438 45.372 48.279
58.006 45.161 49.217
56.317 46.925 49.64
56.699 49.594 49.973
30.236 64.0 94.039
28.8 61.801 94.03
29.978 59.238 93.628
31.395 58.525 91.875
89.014 6.12 60.699
86.648 5.46 61.185
86.396 2.514 60.257
88.359 1.224 59.691
29.834 88.222 86.099
27.861 88.421 84.637
25.319 89.58 85.56
24.368 89.351 87.566
45.954 26.742 71.751
47.527 28.585 70.187
49.14 28.406 68.83
49.172 27.16 66.348
59.279 83.892 43.696
59.863 82.785 41.876
61.768 83.608 39.847
62.972 85.529 39.833
27.331 77.792 35.88
27.067 75.829 34.472
29.4 75.335 32.934
31.569 76.061 33.305
77.483 54.125 40.012
79.081 52.01 39.823
80.795 51.482 38.346
82.204 52.688 36.627
85.097 37.484 53.409
87.46 37.363 53.167
89.022 35.239 52.536
88.335 33.267 51.453
2.494 76.433 0.376
3.348 75.73 -1.441
5.062 77.003 -3.045
6.728 78.823 -2.592
45.162 59.773 62.939
42.993 60.577 63.705
41.838 60.525 65.833
43.082 61.208 67.373
90.527 47.919 80.594
91.974 49.962 80.477
92.463 51.504 82.678
90.937 52.251 84.433
17.536 44.476 66.395
17.409 45.129 68.326
15.85 46.478 69.984
13.313 47.089 69.719
79.275 82.084 5.211
77.578 81.732 6.972
76.118 79.241 7.168
76.585 77.712 6.073
24.641 47.317 41.056
26.133 47.612 39.56
27.77 49.818 39.075
27.811 51.583 40.758
63.584 87.823 91.611
61.477 88.964 91.85
59.883 89.413 93.554
59.629 88.97 95.898
29.146 18.024 75.965
30.0 16.782 73.889
31.237 14.791 73.513
31.951 12.929 74.954
1.513 31.97 71.179
0.546 32.748 73.605
0.872 34.981 74.706
0.813 37.316 73.558
89.697 67.306 89.905
89.598 65.616 88.824
90.805 64.887 86.364
91.726 66.314 84.745
23.483 89.51 82.589
25.699 89.669 81.917
26.893 90.743 79.687
26.722 92.67 79.079
0.574 83.434 91.694
1.656 82.472 93.236
2.338 79.825 93.575
2.639 77.974 91.92
14.94 0.707 64.023
14.079 -0.169 66.476
12.46 0.996 67.995
11.682 3.299 67.806
25.787 6.059 20.96
26.823 4.924 19.213
29.224 5.96 18.461
30.153 8.152 19.602
7.479 53.499 2.656
9.474 52.464 3.896
10.596 53.204 6.071
11.086 55.18 7.089
73.171 71.058 5.314
71.27 69.505 4.544
70.842 67.957 2.467
72.478 67.145 0.791
16.544 59.187 76.186
18.4 60.879 76.633
18.655 62.273 79.04
17.327 62.745 80.825
11.368 67.889 40.515
12.455 66.474 38.675
14.796 66.248 37.798
16.935 67.287 38.463
25.479 68.295 75.157
24.743 69.73 76.787
26.115 71.533 77.519
28.376 72.195 76.195
12.881 47.362 76.123
12.242 49.407 76.821
11.36 50.751 78.528
10.737 50.031 81.062
1.919 69.513 93.009
1.388 68.401 90.657
1.723 65.946 89.683
2.678 63.88 90.427
18.535 15.154 5.946
19.673 14.18 4.696
19.273 13.63 2.16
17.28 12.358 1.368
60.172 3.112 28.768
60.832 3.305 26.928
60.917 1.091 24.906
61.55 -1.041 25.447
72.184 16.711 47.312
73.588 15.381 46.003
73.853 12.913 45.273
72.466 10.814 45.737
21.059 57.935 -2.629
20.958 55.881 -1.121
21.581 55.712 1.248
22.39 57.446 3.1
73.913 88.583 36.892
76.157 89.454 37.205
78.037 90.137 35.942
78.498 89.991 33.153
12.286 8.196 73.276
11.751 7.634 75.492
9.364 6.964 76.305
7.414 5.919 75.088
15.684 88.448 45.21
14.864 86.173 45.13
13.961 84.489 46.925
12.579 85.014 48.848
68.941 14.937 72.221
67.084 13.168 71.208
66.048 11.267 72.454
66.177 10.739 75.057
79.096 83.642 76.842
78.494 82.139 78.855
77.881 79.936 78.922
76.838 78.199 77.398
22.572 25.057 33.628
24.148 24.257 32.802
26.599 24.958 32.324
27.667 27.108 31.922
48.025 18.683 89.293
48.129 20.884 88.409
49.467 22.943 88.923
51.674 23.019 90.361
15.643 6.13 25.61
17.729 4.76 25.138
18.712 3.978 22.839
17.31 3.062 21.01
84.784 27.385 3.51
84.253 29.479 4.291
82.335 30.643 5.686
80.401 29.711 6.682
33.376 15.795 0.38
35.463 17.075 -0.151
35.84 19.583 1.351
34.325 20.152 3.307
5.444 31.946 43.157
3.775 30.905 43.576
1.355 31.226 44.779
0.737 33.724 45.608
86.583 88.02 6.793
84.755 86.049 6.066
85.678 83.609 4.793
87.682 84.143 3.535
18.692 87.018 92.08
16.541 88.26 92.83
14.471 87.456 94.094
13.478 85.463 94.057
80.91 81.768 79.919
82.269 81.423 77.968
84.552 81.333 77.435
86.705 81.597 78.62
22.809 85.966 66.668
23.939 86.679 64.528
26.123 86.494 63.504
28.473 86.158 64.502
28.685 71.064 79.052
28.975 69.703 77.463
30.904 69.979 76.21
32.864 68.564 75.867
29.549 69.298 29.163
28.367 67.088 28.845
29.587 64.579 28.733
32.025 64.214 27.639
43.524 63.741 92.46
44.452 63.56 90.437
47.034 63.444 89.576
48.55 64.368 91.271
66.076 39.94 67.011
68.006 41.244 66.009
70.062 40.161 64.684
71.165 38.041 64.568
27.572 89.049 62.89
29.509 90.463 62.611
31.791 89.436 62.308
32.487 88.321 60.871
52.233 81.666 93.509
52.71 79.259 92.45
51.786 77.014 92.946
49.862 76.309 93.801
82.38 67.429 46.552
80.182 67.269 47.506
78.128 66.056 46.967
77.688 64.445 45.197
68.898 76.389 78.554
68.97 78.241 80.399
66.722 79.264 81.727
63.935 78.638 80.734
32.728 69.616 55.343
30.223 69.016 55.848
28.764 68.581 57.385
29.269 69.047 60.166
70.663 85.824 16.084
70.513 84.899 14.241
69.063 83.076 13.668
68.979 80.568 14.719
44.706 78.453 26.184
43.153 79.396 27.804
43.166 80.479 29.902
44.993 81.038 31.433
74.674 57.257 74.239
75.123 57.893 72.37
75.66 60.554 71.581
75.99 62.57 72.658
20.906 74.37 62.921
22.341 75.003 60.825
25.031 74.433 60.677
26.216 72.184 61.505
21.068 14.877 0.888
22.716 15.717 2.302
22.634 17.054 4.341
21.439 18.707 5.526
86.507 36.055 25.689
85.056 35.719 27.513
82.502 35.823 27.598
80.909 37.259 26.565
55.035 16.388 64.279
56.078 18.127 62.638
56.797 20.541 63.068
56.341 21.986 65.064
52.331 67.983 61.402
50.474 66.369 60.929
49.519 64.673 62.701
49.351 64.487 64.925
14.116 83.58 24.46
14.506 85.604 23.25
15.714 87.889 23.903
16.639 88.662 26.162
54.263 31.612 67.661
52.78 29.805 66.719
53.152 27.103 66.986
54.953 25.854 67.447
65.396 88.373 21.168
65.961 87.578 18.963
67.28 86.411 17.929
68.48 84.253 17.918
17.148 21.404 11.773
17.66 22.518 14.133
17.631 25.091 14.814
16.529 26.728 13.593
4.667 8.226 29.174
4.814 9.953 30.927
6.814 11.725 31.508
9.523 10.994 31.052
24.225 4.423 25.301
25.006 6.513 23.927
27.203 6.712 23.086
29.066 5.505 23.215
89.581 18.528 15.911
92.29 18.683 15.785
93.948 19.728 17.617
93.788 21.076 19.711
78.55 27.729 28.377
79.555 29.967 29.266
78.896 31.579 30.567
76.704 32.301 31.823
72.172 86.668 39.014
70.32 85.812 40.999
68.121 84.887 40.653
67.098 83.767 38.457
85.314 33.465 29.335
86.001 33.172 26.896
88.221 32.582 25.592
90.386 32.077 26.293
84.34 47.373 3.172
84.576 47.216 5.543
84.792 49.127 7.437
84.404 51.372 7.574
62.926 32.959 43.283
62.285 35.458 42.482
64.805 36.575 41.974
66.953 35.665 42.245
52.128 24.887 38.937
52.042 25.182 41.089
51.41 27.265 42.672
49.61 29.0 42.26
46.794 12.727 13.397
47.455 11.316 11.734
49.667 11.956 11.047
50.776 14.037 10.27
41.593 35.71 52.057
42.054 34.304 50.084
42.675 31.736 49.804
42.477 29.793 51.372
77.746 16.139 14.838
76.804 15.112 16.883
76.488 16.123 19.259
76.211 18.35 20.049
51.713 70.911 11.441
51.153 68.265 12.708
52.03 66.162 11.367
53.021 65.966 8.702
61.756 31.41 38.268
59.262 30.692 37.851
58.156 28.243 38.196
59.326 25.987 38.319
19.092 17.058 13.392
20.687 18.504 11.931
21.149 21.357 12.553
20.647 22.373 14.175
50.911 31.653 45.467
49.206 30.527 44.791
48.073 28.002 45.698
49.17 26.156 46.551
5.785 14.562 33.953
6.617 12.188 34.369
8.949 10.991 34.363
10.996 12.029 34.728
71.621 4.059 17.189
73.577 4.347 15.467
74.227 6.664 14.573
74.063 9.085 16.179
71.683 34.053 7.109
74.087 33.408 5.786
76.311 34.334 6.52
77.105 36.228 8.029
57.916 7.677 33.852
56.482 8.594 31.986
56.815 11.653 31.822
56.91 13.134 33.617
57.002 25.296 34.183
55.742 24.26 36.074
54.938 25.464 38.072
54.364 28.0 38.805
53.739 81.35 19.828
55.572 80.838 18.497
57.929 82.183 17.775
58.688 84.128 18.43
50.479 49.506 31.896
48.302 49.218 33.392
46.624 47.305 32.991
46.832 45.367 31.442
51.198 15.097 63.378
48.959 14.284 62.92
48.315 11.797 62.094
50.242 10.605 60.664
0.712 2.957 32.686
0.964 5.388 32.504
2.744 6.829 31.526
5.138 6.188 30.735
66.194 67.212 33.697
66.505 66.387 31.387
67.412 63.999 30.511
68.175 61.982 31.846
19.843 4.561 49.205
19.79 2.018 48.888
18.981 0.838 46.897
17.18 1.16 45.134
59.269 62.668 80.13
58.004 64.592 81.265
56.124 64.377 83.249
55.032 62.566 84.42
88.81 83.611 28.758
87.998 85.709 28.567
87.206 87.631 30.248
89.588 88.675 31.06
4.084 8.199 79.184
4.788 5.848 79.131
7.062 4.754 79.565
9.69 6.354 79.65
33.77 27.38 97.446
35.915 26.837 97.396
38.121 28.049 97.455
38.594 30.437 97.456
30.678 91.478 17.978
30.279 94.175 18.469
29.184 95.337 20.546
27.868 94.623 22.437
29.935 82.728 5.771
31.571 83.575 7.453
33.214 85.631 7.142
32.605 87.725 6.141
3.542 31.88 23.589
1.978 32.262 24.841
1.589 34.838 25.759
3.469 36.556 25.735
71.158 56.082 25.674
71.736 54.984 23.344
73.336 56.258 21.692
73.739 58.319 22.055
23.379 70.814 29.896
23.09 68.284 30.523
21.088 66.979 31.432
18.941 67.081 31.325
65.689 36.792 14.277
63.637 36.369 15.102
62.763 35.469 17.408
63.66 34.24 19.13
40.297 70.816 20.172
42.726 70.685 19.953
44.22 70.217 18.026
44.221 68.907 16.621
16.524 25.916 38.249
15.409 27.651 39.239
13.118 28.176 39.504
10.951 27.457 38.595
56.323 43.798 18.739
55.857 41.96 20.548
55.093 42.5 23.091
53.461 43.815 23.849
38.192 45.508 34.627
40.133 44.338 34.812
40.92 41.91 33.668
40.245 40.958 31.73
2.433 84.242 25.447
4.069 82.164 25.118
6.289 82.068 24.95
8.383 83.605 25.681
41.99 87.223 11.451
43.153 88.134 9.886
45.78 87.684 9.387
47.368 86.906 10.677
30.455 9.404 40.684
32.845 10.375 40.668
34.738 10.23 39.041
35.236 8.29 37.343
85.775 81.504 6.388
83.869 81.71 5.92
81.589 80.184 6.67
81.309 78.032 7.874
77.112 13.058 40.577
78.35 15.429 40.26
80.372 16.121 41.44
82.506 14.691 42.334
64.353 19.075 31.8
64.133 19.489 29.332
64.085 21.924 28.372
64.248 24.166 29.057
59.068 17.695 4.861
59.646 15.365 5.709
58.321 13.015 6.084
55.834 12.702 5.951
60.909 82.838 18.985
62.653 84.512 18.699
63.418 86.537 20.451
62.741 87.216 22.365
66.989 15.142 94.9
68.643 13.861 94.328
68.919 12.111 91.971
66.869 11.373 91.663
69.348 15.716 0.487
67.834 15.04 2.549
67.258 16.36 4.499
67.541 19.012 4.776
2.375 29.931 47.952
4.314 30.846 46.908
6.091 29.967 45.244
5.886 27.296 44.055
48.071 82.465 52.793
49.661 82.64 51.162
50.145 81.275 48.727
48.67 79.713 47.627
56.004 18.34 9.868
57.738 16.661 8.352
60.3 17.391 7.981
61.543 19.508 9.128
65.764 78.418 36.352
64.366 79.794 37.755
65.112 81.143 39.965
67.32 81.88 40.962
61.733 34.797 22.284
61.939 32.721 21.643
60.943 30.67 23.114
59.822 31.165 25.649
50.607 7.102 11.274
47.998 7.006 11.56
46.558 8.824 12.808
47.086 10.188 14.876
31.63 82.411 11.04
33.404 83.595 9.756
34.959 81.956 8.123
35.046 79.542 8.022
81.843 73.819 48.608
83.622 72.999 47.395
85.864 73.198 48.697
85.766 74.604 51.201
55.525 14.154 11.715
57.422 14.858 10.268
58.752 13.448 8.58
58.895 11.222 8.133
49.349 33.536 46.254
47.244 32.101 46.594
44.524 32.726 45.541
43.856 34.863 45.517
60.094 77.592 35.587
61.656 75.97 35.332
64.249 75.944 34.191
65.547 77.859 33.802
69.861 -0.613 87.569
68.565 0.891 89.486
68.041 3.697 89.216
68.921 5.172 87.885
83.161 32.976 26.449
81.021 33.168 27.2
79.233 32.524 25.92
79.519 29.649 25.835
67.982 53.698 20.909
67.204 51.306 19.946
67.08 50.853 17.625
67.375 51.635 15.404
39.606 42.847 37.631
38.019 44.839 37.447
38.706 47.46 38.023
40.591 47.828 38.338
40.851 23.304 19.935
42.074 21.246 20.017
40.982 18.663 20.865
38.749 18.141 21.123
44.173 43.882 35.208
46.52 44.686 35.277
48.536 43.559 33.62
47.823 42.105 32.495
50.138 2.476 30.234
49.107 0.522 30.396
47.306 -0.454 32.259
46.682 0.312 34.685
79.267 24.353 22.341
77.794 24.638 24.583
78.461 25.102 26.748
80.514 25.662 28.197
43.505 51.405 7.072
43.079 51.116 9.642
44.515 49.77 11.219
45.858 47.991 10.755
63.1 28.62 11.847
63.789 27.523 10.175
64.15 25.118 9.587
63.138 23.315 10.099
68.426 6.145 45.505
69.801 6.453 43.819
72.627 6.176 43.948
74.173 6.566 45.653
66.856 27.717 4.957
68.563 27.672 6.199
70.538 29.676 6.751
69.941 31.952 6.308
74.138 28.618 5.689
72.601 27.883 7.505
71.628 25.759 7.993
71.586 23.451 6.649
27.887 46.947 43.781
25.319 46.608 43.537
24.038 44.443 43.153
24.246 42.132 43.459
48.087 6.791 8.456
46.885 4.607 8.786
47.872 2.225 8.835
50.054 1.352 8.028
61.712 16.404 3.338
64.296 15.832 2.951
65.545 14.614 1.356
64.789 13.113 -0.658
92.029 78.733 3.894
90.122 80.372 4.258
87.785 80.064 4.885
86.591 78.215 5.999
20.95 36.422 15.817
22.164 37.65 14.595
24.486 37.834 13.865
26.701 36.61 14.619
86.664 69.551 43.511
88.6 71.379 43.921
90.892 70.984 44.679
92.486 68.542 44.175
81.338 67.666 50.1
79.97 69.251 50.99
77.253 68.805 51.783
75.966 66.85 51.601
66.254 59.469 24.657
68.834 58.421 25.049
70.78 59.145 23.948
71.449 59.862 21.843
59.646 12.234 32.141
59.074 14.273 32.508
60.31 16.507 33.394
62.597 16.895 34.177
74.966 43.058 34.48
76.847 43.56 35.977
79.033 45.221 35.065
79.486 46.491 33.181
63.921 50.976 50.176
63.335 52.392 52.28
64.808 54.14 53.49
66.862 55.278 52.661
82.35 8.448 83.238
84.35 6.567 83.558
85.955 6.127 81.355
85.164 6.061 78.858
53.533 1.662 28.981
55.435 1.788 27.545
57.604 3.578 28.792
57.525 4.546 30.784
74.873 10.615 94.473
74.884 9.469 92.33
76.012 9.808 90.659
78.53 10.002 90.263
1.535 21.289 -1.641
1.185 23.647 -1.768
0.174 25.353 0.185
-1.1 24.972 2.184
39.589 78.183 24.442
41.54 77.502 22.847
42.376 74.981 22.179
41.097 73.087 21.461
62.442 71.224 30.6
63.014 70.006 32.925
61.833 70.104 34.912
60.02 71.716 35.808
29.561 57.395 27.443
29.804 58.413 25.321
29.81 57.173 23.068
29.552 54.689 22.716
62.123 38.791 38.468
62.67 38.412 40.74
63.274 39.835 42.806
64.369 42.201 42.85
50.048 59.595 15.688
48.119 59.163 14.616
46.171 57.554 14.946
45.374 56.24 16.919
53.742 36.494 23.428
53.424 39.032 23.221
52.473 40.038 25.189
53.91 41.918 25.742
55.188 68.377 57.643
57.222 67.904 58.928
58.801 69.56 58.942
61.091 69.495 57.515
3.199 39.591 27.459
3.809 41.776 27.047
6.249 42.865 27.12
8.192 42.204 28.22
28.499 79.555 38.884
27.325 81.335 39.592
27.08 82.64 41.721
28.499 82.682 43.838
45.558 33.318 73.749
43.28 31.972 73.613
41.615 31.542 75.816
41.471 33.308 77.852
23.021 39.345 65.079
21.414 38.47 64.012
19.504 38.855 65.145
18.317 40.863 65.988
24.165 51.715 27.001
25.389 53.385 25.77
27.351 55.255 26.725
27.468 56.227 28.872
73.524 16.772 26.016
74.801 17.622 24.336
76.526 16.504 22.571
76.854 14.17 21.75
64.881 10.406 96.123
66.77 10.292 94.275
68.126 7.845 93.686
67.743 5.879 94.138
2.086 23.836 43.569
3.719 25.598 43.765
2.955 28.512 42.956
0.642 29.297 43.049
50.754 42.71 25.73
48.982 42.049 27.17
48.55 42.01 29.733
49.666 44.048 31.236
59.613 90.308 90.2
58.324 88.451 91.645
56.212 87.955 92.235
54.772 89.314 93.186
65.899 50.366 22.068
65.44 48.156 20.539
63.557 47.837 18.904
61.582 49.356 18.445
53.674 34.078 20.77
55.27 34.805 22.057
57.063 33.873 23.938
57.881 31.53 23.732
41.993 44.981 31.317
43.255 43.373 32.577
45.07 41.479 31.66
45.974 41.098 29.714
86.175 55.794 18.319
85.903 57.208 17.194
84.209 59.43 17.811
83.474 60.069 19.752
25.359 42.623 14.723
23.983 41.68 15.97
22.128 40.407 14.954
20.684 40.692 13.208
77.718 38.822 29.834
77.469 36.799 31.011
77.665 34.244 30.441
78.185 33.259 28.379
10.956 24.591 18.956
12.4 25.536 17.759
13.549 24.141 15.885
13.334 21.899 15.467
39.618 8.543 87.59
40.54 10.373 86.905
42.393 12.12 88.125
42.319 12.186 90.799
61.588 81.669 35.154
63.738 82.276 36.607
64.358 84.459 37.69
63.647 87.025 37.105
29.109 20.13 29.837
27.021 20.699 28.522
25.273 19.13 27.39
24.94 16.692 27.878
91.909 39.691 25.743
91.185 37.375 24.946
89.572 35.572 26.266
87.764 36.165 28.088
64.478 28.509 6.09
65.757 29.337 8.166
64.636 30.444 10.183
62.655 32.151 10.415
0.288 14.962 33.989
2.103 13.425 34.345
4.074 12.778 32.781
4.426 13.238 30.211
59.249 61.951 8.737
61.128 60.566 7.6
61.895 61.068 4.99
62.115 63.043 3.854
9.91 45.219 29.633
10.044 44.175 27.798
11.681 43.478 26.14
14.233 43.609 26.293
36.579 48.212 40.135
34.246 47.764 39.519
32.075 47.009 40.82
31.183 47.761 42.854
65.467 41.53 18.762
64.133 39.798 17.52
62.462 37.988 18.295
62.075 36.75 20.223
74.043 35.292 82.413
72.462 33.833 83.472
72.779 31.18 83.961
74.639 29.699 83.44
50.877 43.047 23.071
52.007 41.199 22.307
51.008 38.612 22.091
48.55 37.998 23.278
57.988 -0.255 -1.199
56.135 -1.836 -0.263
55.07 -2.097 2.001
54.973 0.033 4.076
71.517 85.531 7.911
72.293 87.102 9.614
73.819 85.351 9.185
75.569 85.186 7.466
22.338 38.627 11.852
24.527 39.279 11.479
26.571 38.211 10.329
26.814 35.893 9.208
69.719 48.897 65.086
71.082 47.021 65.937
70.911 44.324 65.492
69.422 43.139 63.884
56.696 43.446 16.251
59.114 43.207 16.426
60.997 45.493 16.854
60.387 47.805 16.305
87.328 18.161 63.113
86.491 18.584 65.537
85.312 20.698 66.421
83.613 22.071 65.291
92.01 16.935 12.41
92.016 14.481 13.144
90.261 12.514 13.096
88.519 12.184 11.732
15.504 33.964 40.09
16.287 32.16 38.639
14.653 30.045 37.814
12.398 30.526 38.275
59.718 20.127 5.524
61.654 20.409 6.609
64.03 19.356 5.602
64.481 18.395 3.675
25.751 62.158 29.506
27.348 61.359 27.2
29.478 60.529 27.126
31.11 61.46 28.054
73.142 56.354 42.867
73.812 54.472 44.095
74.989 52.115 43.386
75.891 51.412 41.348
59.256 12.27 29.155
58.547 10.212 29.996
57.45 8.09 28.803
56.486 7.75 26.597
64.688 37.894 37.409
64.537 35.209 38.02
64.451 33.202 36.194
65.145 33.572 34.217
66.103 46.226 14.393
66.811 47.584 15.779
64.678 49.386 16.874
62.567 49.693 15.901
34.646 28.338 30.584
33.757 26.639 30.579
32.564 24.892 32.56
31.463 25.616 34.782
1.407 89.593 32.755
-0.976 90.327 33.207
-1.941 91.988 35.078
-0.172 93.674 36.476
74.317 81.937 62.307
72.535 82.812 61.815
72.201 85.634 62.408
73.745 87.035 63.248
87.761 55.716 35.299
85.707 54.319 35.918
87.051 51.779 35.465
88.999 51.462 34.22
67.932 68.089 3.518
67.052 65.99 4.483
64.654 64.632 3.934
63.4 64.69 1.556
58.225 29.493 41.015
56.719 27.786 40.95
54.193 27.742 42.177
53.625 28.356 44.49
3.886 37.622 21.089
5.509 35.818 21.569
4.941 32.896 21.527
3.359 31.908 20.279
64.812 64.628 6.72
67.249 65.356 7.074
68.024 67.673 7.802
66.648 69.761 8.879
17.473 83.336 42.59
16.172 84.725 43.076
13.305 85.029 43.171
11.778 83.001 43.218
18.748 45.377 70.81
19.174 47.523 70.255
21.712 48.692 71.096
23.495 47.167 72.275
71.276 28.727 9.968
69.122 29.038 9.157
66.663 27.439 10.122
67.013 24.967 10.09
58.759 69.136 63.378
57.621 68.328 61.666
55.364 67.238 61.67
54.031 66.039 63.235
-3.465 37.818 80.422
-3.487 38.702 78.036
-1.996 40.717 78.083
0.631 40.747 77.264
54.05 69.248 13.104
54.82 71.292 12.522
56.739 72.78 13.358
57.597 73.012 15.712
50.34 38.79 9.753
48.956 38.049 7.637
48.426 35.759 6.621
48.69 33.395 7.243
43.276 73.156 19.639
45.195 72.783 18.841
46.851 73.841 17.216
47.37 75.945 16.708
35.252 33.666 51.507
33.275 32.371 51.398
31.364 32.547 53.11
30.367 34.36 54.396
58.116 86.303 16.801
60.796 86.192 17.293
62.265 87.497 18.053
62.476 90.296 18.297
81.876 57.948 17.309
82.562 55.904 16.315
83.9 55.432 14.041
84.759 56.83 12.251
42.743 37.327 8.492
44.255 36.746 6.224
45.538 34.733 5.703
45.927 32.531 6.605
24.841 80.304 13.479
25.648 79.401 11.539
28.016 78.773 10.524
29.893 79.547 11.138
19.419 36.523 93.309
17.945 35.444 92.639
17.493 33.242 91.23
19.252 31.999 89.9
60.982 15.034 9.061
61.85 14.346 6.749
64.083 14.931 5.783
65.131 16.723 6.252
59.788 45.227 54.306
58.53 45.734 52.577
55.729 45.758 52.236
54.194 44.263 53.057
42.027 89.839 30.152
43.755 88.235 30.491
46.399 89.438 30.125
46.622 91.717 28.621
50.582 38.639 26.467
48.075 39.097 26.307
46.335 38.675 27.534
45.643 37.226 29.251
10.819 25.442 81.926
10.958 25.17 84.593
11.128 27.012 86.342
11.056 29.581 85.995
66.825 86.889 57.92
66.335 84.437 59.258
64.354 83.871 60.481
61.917 84.577 60.482
69.546 32.764 81.555
70.654 30.785 81.663
69.955 28.093 80.886
67.904 27.55 79.612
7.47 3.889 9.154
5.87 5.01 8.326
3.602 6.24 9.386
2.892 6.186 11.768
37.774 86.215 5.312
36.25 86.516 6.789
34.648 88.712 7.62
34.726 91.051 7.345
66.19 34.793 12.362
66.941 32.63 12.199
67.391 31.143 9.968
67.494 31.682 7.696
17.338 72.163 17.597
18.498 73.373 15.319
18.647 75.905 14.881
17.218 77.572 16.129
75.907 69.69 7.739
74.684 71.695 7.307
73.811 73.618 8.846
74.42 74.109 11.14
78.491 87.211 42.694
76.641 88.58 42.69
75.41 90.036 44.587
76.405 90.944 46.55
72.59 87.591 85.431
70.795 86.804 84.86
70.098 84.24 85.053
70.97 82.537 86.829
40.417 33.313 55.298
38.742 33.815 53.736
36.322 33.666 53.915
34.681 34.102 55.687
0.217 23.059 90.349
0.797 21.148 88.665
3.27 21.247 87.384
4.616 22.862 88.742
82.813 0.612 30.278
83.167 -0.252 32.618
81.952 -0.092 34.464
79.427 0.766 35.112
76.641 13.296 91.193
79.05 12.571 90.425
80.516 13.541 88.347
80.503 15.607 87.221
87.183 69.038 47.444
84.689 69.389 46.72
82.624 70.108 48.063
82.65 70.391 50.793
37.224 79.891 70.896
37.842 80.767 73.135
40.077 81.764 73.374
41.428 83.214 71.664
42.112 85.767 8.312
40.122 85.048 6.797
38.033 84.098 7.355
36.604 83.341 9.443
64.807 89.997 90.714
66.689 90.532 89.013
68.577 88.788 88.084
68.761 86.684 88.493
57.319 87.302 -1.331
58.154 85.247 -2.484
56.467 82.985 -2.749
55.251 81.773 -1.164
73.558 7.058 93.275
72.415 6.432 91.282
70.482 4.817 90.669
69.365 3.195 91.814
90.722 14.446 60.448
91.562 15.429 62.486
90.438 16.042 64.636
88.305 16.114 65.15
63.656 34.654 10.88
63.196 34.444 13.383
60.894 35.066 14.817
58.968 36.294 14.124
19.151 20.649 81.184
17.705 21.695 82.252
15.959 20.528 83.647
16.384 18.276 85.072
70.61 85.366 82.21
71.18 82.711 81.503
69.034 81.075 80.499
67.093 81.798 81.091
76.455 90.827 39.723
75.787 91.101 41.561
73.399 89.609 42.12
71.436 89.27 40.395
63.072 81.782 61.571
61.832 81.066 62.86
59.503 79.437 62.878
58.59 78.132 61.447
59.209 45.91 -0.741
59.906 48.124 -1.573
62.13 49.649 -1.441
64.203 49.072 -0.97
41.128 78.166 75.268
41.838 80.604 74.558
43.531 81.32 72.804
45.559 79.791 71.763
74.741 36.216 60.304
74.413 38.48 60.532
74.56 40.085 62.704
73.744 39.078 65.12
58.569 75.691 15.737
57.66 77.141 14.375
58.065 77.981 11.799
60.568 78.154 11.638
1.876 83.175 53.646
1.095 81.836 52.007
3.341 81.16 50.3
5.843 81.832 51.267
53.11 41.413 67.461
53.079 39.841 69.063
51.059 38.513 70.276
49.35 39.219 70.629
51.045 90.04 96.172
53.035 89.111 95.794
53.874 86.931 94.493
52.896 85.436 93.319
1.031 -0.819 53.706
-1.052 -0.355 53.999
-1.928 0.471 56.582
-0.986 1.941 57.425
87.521 87.713 57.697
87.356 90.108 57.302
85.713 91.557 58.842
84.487 90.658 60.904
52.257 9.748 76.855
53.112 7.504 78.392
53.214 5.293 77.157
51.33 4.103 75.844
45.873 30.282 69.049
44.813 28.991 70.51
42.15 28.179 70.737
40.209 29.6 69.703
36.401 69.059 72.952
34.183 67.399 72.769
31.882 68.125 72.526
30.857 69.593 73.495
-2.347 32.219 4.701
-1.541 29.997 4.854
0.398 28.896 3.888
2.087 29.25 2.157
89.406 23.921 71.612
88.804 21.92 70.027
86.716 20.403 70.289
85.139 19.871 71.856
80.274 39.453 60.756
77.8 39.627 61.393
76.694 41.904 62.322
78.1 44.107 63.293
17.568 78.666 85.623
17.045 75.96 85.585
18.052 74.207 84.561
19.867 73.924 82.706
35.956 4.973 83.297
34.763 3.037 83.004
35.159 0.769 81.829
36.917 0.012 80.201
73.628 8.236 71.488
71.709 9.985 71.458
71.707 12.578 72.213
73.465 13.906 73.198
43.643 48.542 82.425
41.917 48.109 83.962
40.018 46.432 84.165
39.362 44.329 82.916
47.66 93.112 11.509
46.234 91.106 10.59
47.912 89.763 8.67
49.936 90.252 8.318
3.159 93.32 78.736
5.023 92.527 77.391
5.505 89.84 76.708
4.017 88.283 76.648
4.03 61.962 62.91
4.143 64.094 64.222
2.82 64.671 66.211
1.189 63.529 67.818
36.97 5.191 85.676
36.569 2.918 85.487
38.762 1.586 84.484
40.907 2.308 84.275
81.813 43.995 33.76
79.65 42.815 33.611
78.985 40.817 31.656
80.294 39.645 30.254
82.862 91.022 57.436
82.167 92.596 58.993
80.584 92.405 61.146
79.472 90.776 62.261
37.133 5.168 39.77
36.172 7.558 39.96
35.116 8.737 41.977
33.993 7.903 43.824
51.675 62.142 62.246
53.043 63.77 61.644
55.705 63.744 60.665
56.692 61.938 59.337
85.716 16.558 86.431
84.299 14.959 87.663
82.919 12.855 86.87
83.458 11.978 85.023
72.477 75.265 82.437
74.097 74.06 81.052
76.79 75.492 80.653
77.687 76.98 81.893
4.82 48.793 74.903
3.973 46.666 76.245
1.742 46.696 77.837
-0.496 47.41 77.359
28.153 32.215 80.077
29.526 33.554 82.006
28.425 34.832 84.307
25.773 35.103 84.813
48.386 41.049 72.308
50.324 42.807 71.8
51.284 44.75 73.357
50.739 45.842 74.892
56.563 26.706 65.305
56.565 24.943 63.916
58.231 23.237 63.062
60.618 23.618 63.152
25.854 8.698 46.619
25.303 7.032 47.946
23.186 5.154 48.181
22.127 4.12 46.55
68.896 18.745 7.996
67.071 20.931 6.818
64.522 20.954 7.833
63.869 20.698 10.26
50.103 55.263 81.167
48.598 54.638 79.179
46.027 53.792 79.271
44.863 52.673 80.917
65.258 27.915 80.981
65.847 29.599 82.017
64.253 30.885 83.923
61.958 30.868 84.232
67.712 35.026 33.821
69.503 36.385 35.239
72.136 36.228 35.556
73.661 34.934 34.878
34.768 31.542 79.559
36.036 32.208 77.658
38.454 31.74 76.852
39.864 29.861 77.071
75.689 17.047 68.513
75.324 14.887 68.913
73.347 13.652 70.092
70.967 14.053 70.001
82.324 1.373 55.161
84.707 1.502 55.739
85.865 3.14 57.659
84.946 4.71 59.119
70.092 3.517 70.652
69.941 2.581 68.071
71.963 3.05 66.632
74.6 2.911 66.964
14.094 87.091 41.136
16.331 86.646 41.296
18.234 87.921 42.559
18.796 90.135 43.151
19.824 40.88 86.096
19.872 39.85 88.648
18.961 40.819 90.953
17.36 42.282 91.497
56.424 25.268 81.892
56.091 23.354 83.241
53.932 22.434 84.262
51.444 22.674 83.938
75.609 4.499 40.955
73.713 5.426 41.311
72.597 8.123 40.796
74.026 10.415 41.63
25.048 15.48 74.502
26.949 16.565 73.647
28.504 15.803 71.369
27.892 13.567 69.981
13.537 84.684 68.71
14.589 86.946 68.01
13.712 89.296 68.578
11.112 89.924 69.326
64.963 41.184 69.02
63.197 42.605 68.872
60.717 42.778 69.599
59.429 41.762 71.0
47.85 51.636 83.28
45.647 50.977 82.875
43.741 50.301 84.319
43.43 50.233 86.639
55.037 79.178 69.766
53.363 80.692 69.557
53.376 83.23 69.759
55.137 85.111 70.786
39.872 35.052 75.68
38.591 34.382 77.468
36.609 35.844 78.964
36.267 38.078 79.13
52.652 18.804 65.78
51.435 17.759 63.945
49.035 17.773 63.059
46.918 18.137 64.244
36.57 85.602 54.892
38.945 84.946 55.06
40.791 84.423 53.274
41.105 84.826 51.036
69.076 46.46 19.25
66.598 46.676 18.552
65.553 45.016 16.674
66.343 42.361 16.277
85.869 77.994 97.398
87.784 77.164 98.087
90.446 77.782 96.781
90.89 78.114 94.471
54.267 43.069 74.434
54.449 44.202 72.447
56.801 45.4 71.183
58.75 44.16 71.424
54.608 28.947 85.955
55.232 26.827 85.418
54.155 24.448 86.082
51.771 23.804 86.715
45.723 28.562 73.613
43.971 29.7 72.693
41.169 29.48 72.988
39.933 28.862 74.249
56.451 3.265 73.305
54.037 3.402 73.981
51.776 2.909 72.887
51.717 1.235 70.508
64.01 41.29 64.345
62.638 41.52 66.498
60.73 42.827 66.917
59.028 44.329 65.632
60.43 27.317 63.108
61.696 26.122 61.915
62.964 27.42 59.638
62.903 29.514 59.252
69.74 39.334 62.027
71.838 39.453 60.776
73.538 41.412 60.42
73.428 43.639 60.106
76.938 55.507 70.108
76.579 57.506 69.348
77.875 59.944 69.231
80.169 60.342 69.524
78.436 53.771 66.803
76.509 53.883 68.157
75.342 51.706 69.522
75.836 49.82 68.601
69.632 59.253 49.016
72.048 59.851 47.48
73.981 61.242 48.526
74.292 62.343 50.556
68.333 7.76 41.07
70.061 8.544 42.619
70.875 10.967 43.21
70.538 12.955 42.814
2.927 48.069 53.351
3.24 49.559 55.009
3.938 51.981 55.07
3.831 53.643 53.82
83.847 35.746 6.812
83.769 37.128 4.784
84.894 39.657 4.349
85.573 41.232 6.248
70.048 64.549 76.452
68.773 66.589 76.513
68.199 68.405 78.521
68.628 68.287 80.644
34.25 91.793 64.745
34.423 91.016 62.442
35.618 89.003 61.509
36.968 87.295 62.161
28.933 54.69 19.943
27.869 56.423 21.122
27.681 59.258 20.827
30.183 60.426 19.714
60.526 7.58 53.282
60.803 6.259 51.255
62.13 7.567 49.586
64.078 9.072 49.791
35.783 74.047 48.307
34.083 72.155 48.611
34.283 69.73 46.988
36.296 69.85 45.56
49.919 34.642 67.846
49.922 32.503 68.498
49.836 30.178 67.04
49.442 29.668 65.013
7.203 27.066 68.736
7.915 29.346 68.909
9.995 30.588 68.073
12.056 30.045 66.664
52.033 6.774 80.725
53.629 8.465 81.623
53.376 11.24 81.563
51.203 12.591 81.826
3.61 86.189 45.505
4.486 85.227 47.581
3.124 84.253 49.657
1.087 83.672 50.029
66.776 70.615 83.426
66.135 68.177 82.185
63.878 67.778 80.695
61.92 69.055 80.72
57.352 74.302 61.029
59.071 75.681 60.608
61.174 74.398 59.033
61.169 72.425 58.174
6.282 34.308 70.098
7.508 33.179 67.811
9.184 34.568 66.234
11.37 36.224 67.37
76.994 27.661 76.008
74.834 26.683 77.064
73.109 27.265 78.367
72.298 29.405 79.564
75.139 23.283 48.695
73.814 22.601 50.622
71.313 23.542 51.473
70.496 25.82 51.338
69.596 29.4 56.966
71.853 28.968 57.372
72.895 27.318 55.219
72.312 27.501 52.903
57.678 93.249 49.308
55.529 93.318 50.462
53.509 91.551 50.466
53.253 89.111 49.563
81.496 18.107 45.05
79.48 16.799 44.063
77.345 15.648 45.046
76.146 16.771 47.289
32.849 85.669 79.768
34.875 86.278 81.06
36.697 88.168 80.667
37.387 89.203 78.881
3.277 54.402 37.969
1.558 53.596 36.519
-0.765 53.078 37.131
-2.028 53.422 39.1
88.47 33.031 73.613
88.702 34.588 75.275
87.53 37.013 75.939
85.968 38.248 74.552
70.258 87.175 64.461
69.435 85.896 62.034
67.614 85.047 61.581
65.272 85.499 62.477
77.256 86.957 38.226
74.719 87.123 39.09
74.18 86.279 41.922
75.75 85.273 42.91
23.359 65.3 57.754
23.997 67.62 57.376
25.183 69.487 59.092
26.509 69.066 61.006
38.255 53.606 17.374
38.443 54.436 15.069
37.699 53.357 12.718
36.812 51.244 12.156
58.462 23.798 84.831
59.593 25.929 85.319
61.151 27.337 83.848
62.624 26.207 81.757
34.578 8.098 86.285
34.543 5.49 86.576
32.938 3.769 85.2
30.836 4.11 84.039
85.706 14.831 91.762
83.791 14.877 90.745
81.484 13.543 91.072
81.386 11.102 91.815
55.512 14.632 61.723
54.737 15.843 59.906
55.762 17.489 58.375
58.224 18.698 58.798
70.08 82.152 60.746
69.052 82.874 62.824
66.747 82.069 64.057
64.907 80.909 63.361
64.524 7.772 69.504
64.453 7.173 72.122
63.587 8.552 74.005
61.263 9.853 74.066
46.04 55.426 75.747
48.008 54.79 76.376
50.226 55.861 76.688
51.137 57.961 76.119
87.128 83.187 76.402
88.927 82.783 75.333
91.292 83.582 75.183
92.404 85.546 76.593
41.869 37.526 83.268
39.393 36.691 82.414
39.032 34.888 80.421
39.928 32.909 79.961
37.275 3.534 32.768
38.834 3.364 33.739
40.147 1.064 34.525
40.357 -0.493 32.765
73.626 27.674 60.138
74.995 28.68 58.388
76.328 30.913 58.287
76.264 32.966 60.003
55.247 8.924 57.224
53.456 10.177 57.551
52.689 11.205 59.657
54.08 12.648 61.195
45.184 32.077 95.249
42.803 32.934 95.706
40.741 31.492 95.804
40.439 29.335 95.69
4.915 23.974 41.831
5.988 25.359 40.476
8.178 26.359 40.158
10.505 26.062 41.323
57.701 8.1 79.417
57.826 7.0 77.393
59.575 6.414 75.578
62.18 6.471 75.508
86.97 2.138 53.228
87.67 3.374 55.212
89.498 5.178 55.527
90.731 6.252 54.085
44.731 87.669 72.19
47.255 86.766 72.042
49.38 87.838 71.247
49.783 90.429 71.362
22.676 52.817 24.551
23.78 50.645 23.264
23.221 48.275 23.972
20.588 47.346 24.676
62.715 62.429 50.961
61.291 61.302 52.178
59.277 61.901 53.791
57.961 64.144 54.02
5.028 1.164 73.794
5.949 2.67 75.608
5.282 5.156 76.433
2.989 6.186 76.07
8.158 76.409 93.484
9.742 74.934 91.935
11.897 75.461 90.898
13.506 77.759 91.258
54.865 9.684 76.366
55.08 9.09 78.53
55.937 10.482 80.619
57.026 12.588 80.918
62.367 86.673 89.524
60.652 86.308 91.108
57.962 85.973 90.738
56.84 85.056 88.55
57.139 28.627 61.769
55.389 28.068 63.281
53.041 29.126 63.805
52.485 31.234 63.439
0.162 89.764 51.325
0.999 87.405 51.077
3.827 86.778 51.335
5.507 88.565 50.544
21.639 18.435 33.897
22.608 20.567 32.971
21.602 22.803 32.509
19.739 23.825 34.16
20.998 5.124 21.556
23.192 4.983 22.475
25.456 3.592 21.749
25.801 2.592 19.863
50.081 21.044 38.931
51.485 22.506 39.608
54.401 22.788 39.376
55.756 21.326 37.446
66.312 40.701 36.829
67.612 38.605 36.427
70.485 38.794 35.896
71.676 40.21 34.873
42.063 5.886 84.904
43.389 7.886 83.422
45.233 9.05 83.748
46.963 9.412 85.471
32.743 21.235 6.91
31.94 20.636 4.652
30.688 18.546 3.619
30.45 16.384 4.437
63.476 72.198 61.458
61.273 70.811 60.672
60.465 68.608 60.941
61.662 66.983 60.585
38.059 13.237 39.543
37.12 11.105 40.473
38.791 8.761 40.24
