-0.451 75.344 67.099
57.223 75.899 43.741
58.561 75.957 41.818
59.221 74.175 40.095
60.061 72.534 40.601
23.993 40.388 40.304
25.491 41.812 41.845
27.758 42.608 41.593
29.592 42.334 39.945
58.752 55.731 32.1
56.466 55.238 30.748
54.354 54.076 31.85
53.585 53.865 34.131
74.006 46.476 68.014
71.041 46.843 68.322
70.336 49.305 69.648
72.336 50.566 70.279
10.77 68.806 68.056
8.877 70.073 66.911
7.062 69.104 65.115
8.257 70.064 63.776
24.254 2.472 92.451
21.871 3.595 92.483
21.704 6.247 91.778
23.555 7.931 92.614
54.353 48.129 53.481
56.217 48.397 51.92
56.792 50.714 50.541
56.914 53.094 51.854
37.684 90.505 85.945
38.047 89.468 83.822
37.212 87.415 82.849
36.498 85.098 83.911
19.741 66.066 57.388
21.176 68.205 57.958
20.32 70.892 57.494
18.343 71.651 57.419
12.148 70.512 13.598
13.777 68.669 13.825
14.432 66.77 12.056
13.1 65.886 10.434
43.965 85.422 4.942
44.48 86.788 6.942
45.258 89.254 7.16
45.684 90.818 5.816
66.709 4.721 45.778
68.683 5.362 46.213
70.916 5.999 44.454
71.15 6.703 42.332
38.441 55.979 61.927
40.608 55.137 62.571
42.771 53.99 61.095
42.268 53.215 58.896
35.439 88.939 64.145
35.009 88.087 61.821
36.372 88.07 59.931
38.787 87.605 59.542
88.616 66.921 67.333
86.986 64.74 66.593
84.928 63.975 67.132
83.159 64.539 68.846
67.46 9.222 67.663
68.964 8.163 66.069
71.48 9.419 66.368
72.052 11.578 66.973
13.701 0.833 73.305
13.141 0.392 70.853
14.911 0.842 68.911
17.044 0.445 68.84
6.412 11.841 18.126
3.951 11.365 17.552
2.522 9.544 17.86
2.158 7.825 19.438
80.021 9.817 88.109
78.4 10.799 89.464
75.881 10.983 89.691
74.122 10.286 88.348
90.301 29.79 24.143
90.279 32.416 24.76
88.637 34.04 24.939
86.166 33.913 24.857
13.118 50.568 47.494
12.677 50.596 50.186
10.61 50.643 51.465
8.076 50.849 50.666
70.94 70.903 82.078
71.895 73.166 81.894
70.636 75.527 82.665
68.475 75.364 82.769
75.551 3.486 81.925
74.917 1.603 81.014
73.391 0.376 82.269
73.571 -0.915 84.535
0.85 13.278 91.691
-0.688 14.525 90.216
-0.38 16.768 88.951
1.091 18.619 89.192
64.666 63.094 57.224
62.728 61.075 56.637
62.809 59.96 54.131
64.314 60.233 52.439
62.728 41.39 44.372
62.818 40.03 42.304
64.907 38.963 41.186
63.832 37.077 41.694
78.049 59.949 3.581
78.531 60.673 1.373
80.633 59.942 -0.346
82.236 58.061 0.052
29.906 43.069 10.115
28.737 41.772 11.4
26.135 40.984 11.651
23.991 41.909 11.144
11.041 53.455 55.313
12.938 54.487 54.124
15.114 53.093 53.232
16.006 50.943 54.001
26.593 53.293 91.945
28.191 55.186 91.56
29.871 55.817 89.856
31.047 54.086 88.155
37.272 78.013 77.049
39.649 78.754 77.304
40.797 81.059 77.16
39.621 83.344 77.546
58.194 45.89 46.283
56.77 45.96 47.964
55.302 47.749 49.147
54.825 50.037 48.735
30.116 63.937 94.693
29.124 61.675 94.457
30.365 59.482 94.292
32.461 59.085 93.314
88.23 7.172 60.291
86.889 5.533 59.587
86.864 2.831 60.064
88.84 1.417 60.781
31.805 86.425 85.475
29.713 86.726 84.455
27.43 87.823 86.103
27.116 86.946 88.598
46.356 29.129 72.188
48.755 28.981 71.272
49.505 28.994 68.946
48.318 28.458 66.601
59.369 82.501 45.784
59.667 81.692 43.77
61.43 82.598 41.727
62.65 84.368 41.563
27.025 74.529 36.899
26.286 73.812 34.756
28.226 72.719 32.962
30.375 73.165 33.038
77.104 53.694 39.786
78.125 51.767 38.747
80.291 51.462 37.539
82.132 53.045 36.808
85.971 39.684 54.077
87.854 39.802 52.965
89.492 37.612 52.297
89.006 35.642 52.085
2.157 75.16 -0.277
3.558 74.51 -2.094
5.5 76.038 -3.363
7.25 77.566 -2.232
44.226 55.953 62.637
42.088 57.238 63.182
41.173 58.277 65.137
42.125 59.39 66.702
0.199 48.595 79.511
2.068 50.464 79.905
2.241 52.173 81.832
0.35 52.71 83.82
18.167 45.556 67.513
19.603 46.571 68.338
19.378 48.019 70.632
17.317 49.261 71.205
80.724 82.769 5.841
78.893 82.07 7.248
77.519 79.553 6.868
77.516 78.261 5.003
19.755 46.476 42.14
20.945 44.166 41.989
23.506 43.643 41.673
25.422 45.101 40.891
63.143 89.964 0.26
60.708 90.311 -0.799
58.522 90.359 0.337
57.631 89.774 2.529
29.252 17.093 75.909
30.184 15.918 73.81
31.246 13.752 73.474
31.73 11.702 75.255
0.208 35.989 72.389
0.024 36.737 74.587
2.135 38.132 75.981
3.366 39.909 75.177
90.065 66.199 90.256
89.604 64.503 88.857
90.27 64.592 86.324
91.04 66.415 84.79
24.692 88.933 83.487
26.976 87.996 82.83
28.296 87.992 80.841
28.54 89.2 79.355
2.327 82.263 92.218
3.462 80.36 93.109
3.614 77.752 92.472
3.056 76.75 90.457
14.236 -1.028 65.374
13.153 -1.49 67.503
11.11 -0.224 68.679
10.949 2.07 67.746
22.795 3.678 18.647
24.983 2.533 19.097
27.438 2.512 17.828
28.242 3.887 16.117
6.995 52.129 5.083
9.367 51.735 5.076
11.554 53.348 6.1
11.55 55.663 6.436
73.75 70.625 3.745
71.934 69.019 3.238
71.792 67.257 1.134
74.0 66.334 -0.242
18.38 59.871 77.245
20.073 61.374 77.754
19.787 63.651 79.362
17.704 64.383 80.293
10.097 66.68 39.645
11.107 65.142 38.365
13.308 65.106 36.893
15.296 66.184 37.271
28.326 66.084 76.554
26.951 67.376 77.675
28.206 69.737 78.309
30.469 70.296 76.428
15.571 48.672 78.266
14.415 50.515 78.01
12.653 51.991 79.123
10.991 51.719 80.162
2.279 68.682 92.958
1.155 67.772 90.818
1.864 65.521 89.516
2.888 63.771 89.954
20.299 14.552 5.228
21.621 13.295 4.024
21.229 13.33 1.339
19.005 13.269 -0.027
60.278 3.996 31.165
61.64 5.354 29.8
62.338 5.087 27.283
62.214 3.645 25.88
69.637 17.869 47.534
71.517 16.41 46.338
72.944 14.513 46.956
72.13 12.411 48.006
21.08 57.008 92.571
21.267 55.465 94.457
21.845 56.034 96.977
21.895 58.047 98.098
72.424 1.39 36.837
74.565 0.695 37.846
76.927 1.911 37.296
77.881 2.64 35.059
11.108 5.18 71.641
11.714 6.289 73.31
10.118 6.245 75.673
7.84 4.539 75.536
14.264 89.408 45.431
13.583 87.308 44.094
12.716 84.891 45.356
11.775 84.881 47.792
70.001 14.952 70.223
70.285 12.608 69.859
68.536 10.957 69.755
66.794 10.172 71.461
80.615 83.326 78.437
79.562 81.713 80.269
77.536 80.311 80.064
76.154 79.458 77.996
22.437 26.763 33.233
24.204 25.709 32.086
26.69 26.333 32.062
27.46 28.515 33.219
49.041 17.806 87.636
49.837 19.651 87.456
51.995 20.663 87.917
53.84 20.072 90.068
14.882 5.958 27.142
17.047 4.975 26.604
18.014 4.09 24.144
16.817 2.598 22.719
83.404 28.696 3.336
82.003 30.598 3.51
82.376 31.826 5.738
82.731 30.949 8.172
36.735 14.544 -3.377
37.875 15.935 -2.664
37.86 17.52 -0.022
35.558 18.016 0.991
4.434 32.854 42.395
3.637 32.022 44.536
1.918 32.728 46.103
0.472 35.067 46.204
87.279 86.461 7.464
86.176 84.331 6.406
87.251 83.221 4.315
89.681 82.544 3.698
20.574 84.887 91.447
18.938 86.534 91.971
16.85 86.69 93.444
15.607 84.875 94.828
80.508 83.747 82.499
81.846 84.687 80.816
84.373 83.89 79.899
85.654 82.495 80.299
23.241 84.562 66.712
24.898 84.653 64.661
27.24 84.462 64.324
29.412 84.679 65.765
31.705 67.873 76.979
33.011 69.249 75.662
35.672 69.531 75.172
37.41 68.217 75.588
28.379 66.874 28.052
26.488 65.26 27.402
26.573 62.974 26.427
28.565 61.219 26.237
43.939 64.167 93.606
46.534 64.084 92.461
48.633 62.951 94.072
47.361 62.57 96.362
67.582 41.756 65.772
69.533 41.885 65.047
71.565 40.085 64.444
71.643 37.969 64.193
27.042 86.586 62.699
28.719 87.555 63.027
30.875 86.144 63.224
32.125 85.767 61.689
53.152 81.582 -0.89
53.873 79.557 -2.014
53.59 77.099 -1.176
51.89 76.107 0.334
80.293 68.627 46.012
79.097 67.565 47.652
77.081 65.672 47.567
76.156 64.406 45.671
69.133 77.283 81.246
69.839 79.503 81.809
68.394 81.394 83.024
65.975 81.174 83.753
32.032 66.43 54.868
30.669 64.802 55.321
28.41 66.212 56.368
28.565 68.509 56.647
72.243 84.893 17.078
71.398 84.751 14.974
70.835 82.853 13.181
71.362 80.352 13.307
43.35 74.133 27.96
42.247 75.89 27.522
41.19 77.263 28.658
42.104 79.151 30.697
72.558 57.571 75.057
73.033 59.538 73.45
74.8 61.483 73.345
75.922 62.857 74.918
20.526 72.03 61.761
21.127 72.594 59.693
23.633 72.982 58.634
25.508 71.278 59.03
22.301 15.621 0.124
24.243 16.212 0.98
24.686 17.534 3.54
23.529 19.03 4.635
88.683 38.398 23.853
88.291 36.772 25.056
86.371 36.273 26.94
84.589 37.996 27.409
52.888 19.164 62.757
54.807 20.262 62.348
55.603 22.792 63.265
54.335 23.998 65.094
51.438 63.81 60.414
50.099 61.597 61.085
48.991 61.079 63.171
48.289 62.819 65.237
11.824 83.205 26.72
13.383 84.568 24.773
15.059 86.103 25.006
15.977 87.556 27.181
53.582 32.4 68.797
52.14 31.536 67.441
51.529 28.86 66.844
53.455 26.954 66.807
64.742 90.049 22.164
64.993 89.218 19.958
66.701 87.886 18.835
67.836 85.749 19.291
18.952 21.076 10.149
19.403 22.657 12.156
18.75 25.189 12.246
16.937 26.394 10.775
4.761 9.763 29.486
4.935 10.842 31.832
6.817 12.487 32.902
9.207 12.008 32.89
23.613 6.331 25.597
22.149 5.979 23.734
22.799 5.369 21.207
24.866 4.649 20.921
0.799 17.144 15.395
3.189 17.966 15.629
4.0 20.143 16.971
2.591 22.079 18.287
78.279 28.564 29.671
79.049 30.987 30.443
78.023 32.931 30.984
75.721 33.662 31.222
67.212 86.818 40.152
69.469 87.32 40.581
71.208 88.739 39.798
71.663 90.004 37.683
88.063 31.084 29.174
89.815 31.237 27.341
91.289 29.547 26.536
90.88 27.336 26.947
87.691 47.951 10.307
86.633 49.314 11.766
83.71 49.291 11.958
82.239 48.055 10.52
62.201 32.394 38.958
62.325 34.481 38.801
64.776 35.888 39.47
66.452 34.762 40.563
52.02 25.508 35.234
52.685 25.742 37.95
51.952 27.5 39.673
49.918 28.886 39.656
45.347 14.23 13.612
46.528 12.554 12.49
49.121 13.156 11.284
50.235 15.32 11.383
44.878 33.456 53.713
44.55 32.899 51.026
43.018 31.375 50.094
41.671 29.771 50.552
80.337 16.692 15.734
79.546 16.047 18.071
78.836 17.662 20.12
78.491 19.923 20.344
51.499 66.799 12.441
52.1 64.458 11.824
53.076 63.809 9.133
53.525 65.485 7.193
61.849 30.422 34.218
59.414 29.267 33.814
58.672 26.818 34.654
60.008 24.969 35.607
22.34 18.14 10.738
24.022 19.984 10.201
24.006 22.285 11.387
24.103 23.024 13.409
53.596 30.223 41.918
51.132 29.771 41.95
49.797 27.901 43.461
50.53 26.185 44.655
5.507 14.274 35.625
6.23 11.572 35.387
8.602 10.667 36.069
10.614 11.545 36.744
74.325 3.869 19.139
75.479 4.646 16.696
76.272 6.719 16.38
76.333 9.049 17.905
72.906 35.141 9.629
74.962 34.189 8.255
77.436 34.638 8.717
78.416 36.224 10.763
53.765 8.285 31.182
55.431 9.429 30.119
57.339 11.175 31.093
57.224 12.433 33.373
58.093 24.336 31.56
56.267 23.445 33.323
55.044 24.869 35.192
54.358 27.222 35.354
54.921 79.388 21.643
57.228 79.549 20.455
58.755 81.434 20.134
58.951 83.889 21.381
47.8 49.385 33.58
45.468 48.723 33.789
44.127 46.73 32.665
44.639 45.416 30.795
48.299 16.122 63.963
46.54 14.786 63.326
46.254 12.242 62.464
47.868 11.198 61.143
1.536 3.304 32.902
1.197 5.846 33.445
2.625 7.858 32.257
4.822 7.547 30.883
64.018 67.634 33.846
64.709 67.288 31.585
65.797 65.649 30.089
66.033 63.223 30.776
19.692 3.832 48.049
19.865 1.454 46.979
18.271 0.32 45.227
16.244 0.908 44.387
57.362 62.469 81.885
58.945 61.764 83.214
58.31 60.284 85.311
55.756 58.985 85.542
83.959 86.849 31.681
84.609 88.646 32.463
87.401 89.398 33.122
88.882 87.737 31.982
1.525 7.354 78.624
2.59 5.226 79.331
5.058 4.369 79.854
7.306 5.176 79.058
34.703 25.782 1.759
37.08 25.987 0.925
38.663 27.849 0.792
38.19 30.57 0.422
27.23 -1.68 20.796
27.325 0.507 20.305
26.759 2.919 21.801
25.006 2.759 23.419
31.638 85.938 7.4
33.326 84.647 7.02
35.767 85.163 6.37
36.659 87.015 4.87
2.57 30.695 26.174
1.294 32.641 26.728
1.723 34.974 27.687
3.963 36.226 28.146
69.895 56.972 25.298
71.149 55.796 23.555
73.454 56.114 22.372
75.677 56.3 24.05
20.979 68.568 28.853
20.531 66.329 29.554
18.558 65.248 30.161
16.213 65.409 29.573
64.156 35.69 13.581
62.182 36.242 13.86
60.914 35.35 15.993
61.457 34.317 17.955
39.759 69.768 21.246
42.098 70.031 21.223
43.987 69.338 19.588
44.148 67.848 17.543
16.181 27.338 38.354
14.427 27.945 40.173
11.881 28.773 39.582
10.27 28.497 37.353
56.396 43.286 20.264
55.254 41.249 20.562
53.795 40.492 22.57
52.346 41.666 24.262
37.921 42.994 31.425
37.442 40.989 32.639
35.696 39.404 32.938
33.458 39.13 31.189
5.751 81.771 28.476
6.668 81.054 26.205
9.098 80.665 25.339
11.355 80.568 26.373
41.967 91.172 13.216
40.979 90.115 11.262
41.224 87.92 9.79
43.036 86.485 9.41
30.659 9.342 39.84
32.838 9.96 39.414
34.523 9.634 37.368
34.189 7.272 36.287
86.289 81.6 8.271
83.916 82.206 7.259
81.973 80.354 6.964
81.694 78.09 8.084
78.427 14.842 42.481
79.078 17.139 42.653
80.596 18.217 44.475
82.227 17.464 45.894
63.962 15.774 31.681
64.717 16.354 29.161
66.836 17.536 28.196
68.824 18.512 29.556
59.496 18.935 7.581
60.575 17.403 6.875
59.797 14.995 7.579
57.38 14.302 8.248
61.647 81.683 19.458
62.307 84.077 20.031
62.263 85.14 22.436
61.904 84.267 24.461
68.041 14.333 98.09
69.324 13.136 96.839
68.634 10.699 95.643
66.223 9.874 95.832
69.945 16.3 2.45
68.418 15.629 4.539
67.836 17.103 6.51
67.841 19.574 6.691
4.507 32.566 47.221
6.563 32.866 46.25
8.473 30.798 45.435
7.189 28.768 44.178
46.984 82.317 54.653
48.234 81.916 52.773
49.402 80.21 51.917
50.141 77.735 52.828
56.593 19.537 11.559
58.035 18.264 10.189
60.375 17.917 10.304
62.37 19.161 11.14
66.287 77.219 35.839
64.342 77.794 37.211
63.93 79.333 39.153
65.389 80.922 40.358
63.523 30.535 18.319
61.199 31.355 17.094
58.864 31.43 18.308
58.188 32.153 20.47
50.619 9.973 12.429
48.4 9.487 12.566
46.773 10.645 14.275
46.908 11.885 16.307
33.77 84.888 11.4
34.999 84.726 9.531
36.346 82.684 8.175
36.139 80.544 8.418
80.376 73.894 49.794
81.925 73.225 48.498
84.415 72.461 49.207
85.205 72.243 51.519
56.551 14.791 14.512
57.031 16.157 12.691
58.689 15.687 10.729
60.311 13.606 10.226
49.825 34.052 46.867
49.56 31.342 46.238
48.67 30.225 44.311
48.451 30.503 42.096
59.369 77.525 37.269
59.874 75.986 35.992
62.587 75.585 34.474
63.951 77.128 34.17
69.696 0.005 90.383
68.094 0.732 91.667
66.884 3.25 91.71
68.297 5.418 91.102
81.619 32.189 30.01
82.483 32.887 28.279
84.678 32.472 26.614
86.446 30.743 26.935
66.309 54.423 21.762
66.518 51.793 22.055
67.523 49.989 20.464
67.997 49.93 18.061
38.559 42.669 34.653
36.569 43.677 35.69
36.339 45.329 37.977
37.705 46.669 38.562
38.972 24.928 21.304
40.193 23.19 20.817
39.273 20.173 20.593
37.596 19.413 19.935
42.03 43.899 34.897
44.329 44.901 34.617
46.204 43.625 32.912
45.478 42.129 31.779
47.659 93.173 32.891
46.827 92.673 31.176
45.448 90.171 30.683
45.505 88.316 31.68
79.114 27.133 24.753
80.014 29.051 25.873
81.604 30.797 25.323
83.573 30.352 24.656
44.059 49.697 4.962
43.765 50.612 7.789
44.929 49.122 9.469
45.657 47.195 8.814
62.338 31.554 8.633
64.021 29.969 8.874
64.198 27.585 9.319
63.08 25.987 10.527
67.262 8.062 49.118
68.986 7.783 46.833
71.271 7.772 46.615
73.075 7.732 48.045
69.937 26.617 4.584
71.509 27.597 6.363
72.609 29.744 6.55
73.668 31.305 4.963
78.649 27.657 5.928
76.08 28.866 6.151
74.464 27.792 7.814
74.263 25.728 8.74
28.703 45.643 44.102
26.34 45.871 43.713
24.142 44.52 44.306
24.048 42.464 44.408
50.069 8.628 9.971
48.498 6.881 9.695
48.633 4.263 10.431
50.036 3.104 11.222
62.352 16.302 5.445
65.027 16.078 4.329
66.066 13.899 3.438
65.155 11.984 2.186
89.825 78.846 3.052
88.528 80.049 4.264
87.194 80.082 6.332
87.425 78.952 8.4
20.26 35.203 13.407
21.294 37.421 12.457
23.783 38.326 12.65
25.916 37.051 13.284
85.893 69.988 43.817
87.954 71.137 43.702
90.609 70.244 44.677
91.212 67.581 44.015
79.716 67.577 50.544
78.393 68.463 52.069
76.142 67.39 53.461
75.477 64.706 52.88
70.925 59.347 21.835
68.966 58.605 23.15
67.396 60.059 24.531
66.611 62.103 24.526
60.245 10.162 34.362
59.84 12.463 33.081
60.948 14.63 33.181
62.629 15.417 34.508
75.127 42.934 33.659
76.645 44.347 35.006
78.722 45.872 34.342
79.565 46.782 32.452
59.658 49.215 47.953
59.551 50.653 49.875
61.233 51.965 51.056
63.63 52.572 50.673
78.983 8.044 84.705
81.407 7.997 85.194
83.336 6.642 84.488
83.932 5.13 82.597
56.979 3.527 28.189
55.808 4.103 30.326
54.022 3.59 31.539
51.646 2.242 30.531
74.194 10.908 95.951
73.773 10.378 93.717
75.398 9.593 91.777
77.99 9.461 91.837
90.456 22.222 -1.266
90.377 24.229 -0.949
88.011 25.375 0.015
86.338 24.503 1.603
38.812 77.345 25.045
40.759 77.041 23.514
41.551 74.378 22.634
40.333 72.454 22.397
60.525 71.839 30.147
61.324 70.208 31.945
61.055 70.355 34.529
59.876 71.474 35.977
28.938 56.289 26.03
28.965 56.583 23.339
29.494 55.061 21.571
29.915 52.618 21.494
64.756 37.772 35.451
63.293 37.425 37.328
62.492 38.708 39.237
62.396 41.348 39.671
49.072 59.745 14.228
46.713 58.942 13.96
45.83 56.644 14.092
46.821 54.726 14.206
53.711 36.956 23.616
50.995 37.114 24.071
50.005 38.72 25.624
51.008 40.628 26.519
56.845 65.281 58.102
58.402 63.794 58.379
60.924 63.527 57.406
62.237 64.445 56.009
2.279 38.214 29.118
2.865 39.866 27.703
4.87 41.368 27.333
7.329 40.755 27.697
28.727 77.598 39.387
27.935 79.965 39.775
28.376 81.552 41.708
29.393 81.081 44.174
44.337 35.183 75.262
43.024 32.951 75.448
41.26 32.288 77.135
40.487 33.837 79.385
22.269 38.969 64.396
20.092 37.769 64.205
18.287 39.23 65.735
18.671 41.234 66.799
24.056 50.586 25.616
25.023 52.552 24.45
26.639 54.598 25.775
26.434 55.263 27.988
76.133 18.099 26.507
77.476 18.972 24.548
79.515 17.915 23.113
79.966 15.577 22.877
65.358 9.394 3.933
66.611 9.304 2.103
68.321 7.33 1.266
68.517 5.215 1.832
3.583 24.611 43.705
4.658 26.87 43.765
3.781 29.416 44.343
1.882 29.978 45.568
48.883 42.613 25.781
47.173 41.614 27.744
47.602 41.918 30.204
48.654 44.301 31.377
57.763 0.601 93.62
57.533 -1.713 94.189
55.2 -3.164 95.076
53.271 -2.372 95.539
65.877 49.436 22.856
66.445 47.426 21.569
65.072 45.9 20.623
62.464 45.926 19.394
53.294 37.6 17.912
54.554 38.133 19.661
56.034 36.649 21.401
56.697 34.295 21.296
41.768 45.936 30.801
41.278 43.538 31.678
43.092 42.0 30.652
44.294 41.838 28.499
87.235 59.236 19.145
85.282 60.799 19.326
83.923 61.66 21.15
84.816 62.16 23.126
23.551 42.882 13.649
22.378 41.202 14.889
20.572 39.614 13.523
19.207 40.146 11.667
77.877 37.65 29.206
78.51 35.5 29.439
79.424 33.593 28.078
80.909 33.569 25.74
12.175 24.83 18.316
13.774 26.384 17.213
14.334 25.266 14.682
13.899 23.151 14.115
41.033 6.553 87.625
42.319 7.471 86.003
43.163 10.198 86.711
43.482 11.022 88.851
59.61 81.874 36.986
62.131 81.237 38.446
63.843 83.229 38.778
63.864 85.419 37.932
28.065 21.88 28.901
26.083 21.776 27.543
24.796 19.629 26.502
24.735 17.463 27.266
90.731 39.308 28.712
90.554 37.277 26.867
89.937 34.74 27.418
88.416 33.933 29.34
67.684 28.206 5.302
68.413 30.054 6.851
66.54 31.722 8.101
64.38 32.641 7.015
0.366 14.609 35.157
2.64 13.733 34.83
4.205 13.514 33.207
4.126 13.975 30.444
60.263 62.179 7.204
61.852 60.598 6.102
62.394 60.632 3.336
62.602 62.573 2.017
9.331 43.524 28.652
9.284 42.294 26.762
11.376 41.033 25.421
13.868 41.837 25.657
36.323 50.914 39.951
34.035 49.567 39.643
32.959 47.937 41.221
32.964 47.66 43.72
66.931 42.834 19.71
66.161 41.701 17.877
64.116 40.136 17.473
63.455 38.255 18.935
75.929 33.888 81.054
73.901 32.151 81.375
74.289 29.666 81.771
76.453 28.09 80.87
49.186 42.77 23.288
49.816 40.583 22.979
48.287 38.133 23.52
45.954 38.44 24.423
55.82 0.384 1.213
53.776 -0.808 1.476
52.192 -1.19 3.371
52.171 -0.105 5.924
72.688 86.284 9.057
74.362 87.554 10.797
75.453 85.17 9.607
77.192 85.004 8.025
21.271 38.369 9.845
23.412 39.408 10.42
25.692 39.179 9.69
26.147 40.065 7.628
69.495 49.664 65.06
70.98 47.788 65.483
70.581 45.331 65.028
68.945 44.131 63.331
56.033 40.912 17.852
58.527 41.079 17.07
59.914 43.517 17.548
59.329 45.595 17.348
88.547 18.819 60.823
88.687 19.617 63.23
87.109 21.278 64.561
84.841 21.802 64.111
2.792 15.768 12.84
3.083 13.852 14.167
1.953 11.565 14.246
-0.031 10.378 13.228
15.462 35.791 40.344
16.178 33.553 39.231
14.551 31.393 38.859
12.23 31.392 39.516
61.307 20.85 5.522
63.567 20.358 6.256
65.845 20.023 4.967
66.118 18.848 2.795
22.674 59.567 27.828
24.69 58.884 26.202
27.044 59.118 26.927
27.011 60.484 28.559
75.147 57.454 41.501
74.733 56.127 43.29
74.577 53.606 43.609
73.768 51.852 42.173
60.949 10.933 31.46
59.51 9.256 31.565
58.19 8.33 29.633
57.865 8.53 27.68
66.036 38.962 31.279
66.581 37.724 33.196
66.432 35.087 33.804
64.757 33.523 33.087
68.24 48.412 14.224
66.856 48.58 16.085
64.715 48.839 16.463
62.597 50.301 15.159
32.904 28.288 31.219
31.144 26.689 30.008
29.32 24.919 31.289
28.711 26.073 33.972
-0.286 -1.319 31.514
-0.928 0.789 32.372
-0.36 2.057 34.317
-1.278 1.314 36.067
75.105 79.761 63.584
73.336 80.74 62.006
71.611 82.605 62.518
72.251 84.944 63.744
87.393 55.118 36.231
85.392 54.365 36.742
83.978 52.504 34.915
84.904 51.936 32.67
69.353 67.76 97.959
68.673 65.867 99.203
66.649 64.451 99.307
64.821 64.047 98.006
59.776 28.749 37.66
57.926 27.066 37.032
55.538 27.234 37.601
54.347 28.478 39.714
2.959 33.695 22.437
3.096 31.213 23.266
1.559 29.365 22.548
-0.157 28.867 20.35
62.838 66.106 5.494
64.91 64.696 5.133
67.579 65.757 5.613
68.228 68.114 6.422
17.439 80.607 42.879
16.11 82.982 42.874
13.765 83.505 42.436
11.583 81.832 42.326
15.572 48.858 73.429
16.62 49.372 75.36
18.878 49.727 74.825
20.553 48.173 73.28
70.042 27.642 8.417
68.633 28.925 9.26
66.59 28.381 10.24
65.871 26.39 11.401
58.438 64.998 62.495
57.039 64.13 60.917
54.722 63.379 61.146
53.341 62.195 62.758
0.685 41.673 79.785
0.439 40.148 77.583
0.101 37.499 77.442
0.746 35.822 79.278
53.934 67.925 13.317
54.468 70.132 12.897
56.655 71.759 13.769
57.904 71.185 15.805
50.299 38.085 3.82
52.188 38.752 2.379
53.631 41.034 2.375
53.651 42.959 3.652
42.502 72.726 20.59
44.825 71.974 19.998
46.424 72.787 18.486
47.431 74.96 18.455
35.768 32.244 50.245
35.104 29.914 50.738
33.767 28.999 52.874
31.9 30.009 54.024
58.401 85.987 19.037
60.653 86.259 20.343
62.829 87.456 19.54
62.959 89.426 17.614
82.721 60.195 18.713
82.863 58.08 17.577
84.689 57.422 15.237
86.355 58.943 14.951
43.32 36.505 4.82
44.337 36.545 2.392
46.204 34.82 2.383
47.556 33.796 4.38
25.033 81.88 11.535
26.446 80.934 10.08
28.767 79.805 10.052
30.515 80.334 11.268
17.486 32.304 93.307
16.735 31.066 91.483
17.603 28.977 90.122
19.463 27.694 90.289
61.834 15.64 10.932
62.353 15.372 8.442
64.466 16.202 7.29
65.072 18.055 7.358
59.345 46.091 51.729
58.45 44.656 50.186
55.531 44.132 49.628
53.957 44.143 50.942
40.068 90.183 32.333
40.27 87.57 32.214
42.321 86.362 30.977
43.932 87.381 29.383
47.985 37.353 27.215
46.012 39.262 26.985
43.696 39.179 28.26
42.952 37.881 30.062
9.112 26.034 81.493
8.612 25.938 83.843
9.429 27.511 85.743
10.257 29.964 85.67
65.679 80.483 58.168
64.783 79.157 59.813
63.52 79.671 61.924
63.486 81.874 63.2
70.597 31.917 80.471
71.734 29.691 80.412
71.194 27.464 79.268
69.181 26.881 78.105
7.834 5.325 6.946
5.81 6.595 6.178
4.399 8.066 7.03
4.322 9.611 9.294
40.863 87.78 7.004
38.587 87.299 7.181
37.194 88.788 8.579
37.979 91.008 9.754
67.209 34.227 10.98
67.912 32.052 10.157
70.079 31.131 9.074
70.134 32.048 6.576
15.345 74.173 19.282
16.691 74.794 17.027
17.803 77.071 16.515
16.617 78.901 17.254
75.671 69.173 7.326
74.728 71.301 6.273
73.855 73.525 8.111
74.938 74.372 9.913
74.569 86.96 40.013
72.404 86.338 39.465
70.541 84.991 40.896
70.684 83.993 43.192
71.917 89.333 87.868
71.308 88.037 86.601
71.744 85.526 85.799
72.461 83.55 87.131
41.888 35.428 52.702
40.772 33.558 51.055
38.596 32.535 51.372
36.735 32.618 53.366
93.225 24.541 86.989
90.889 23.914 88.65
89.875 21.529 88.737
90.252 19.625 87.513
83.916 4.906 33.211
83.236 2.679 34.324
81.616 2.155 35.926
79.87 3.198 37.105
75.893 14.839 93.64
77.679 13.276 92.564
78.655 13.386 90.124
77.977 15.21 88.063
84.922 69.113 46.099
82.546 70.084 46.527
81.532 70.193 49.176
82.11 69.143 50.975
40.921 80.904 73.134
42.89 80.956 74.213
45.105 82.261 73.809
46.3 82.836 71.851
44.094 83.868 7.707
42.044 84.134 6.377
39.511 84.616 6.962
38.307 84.509 9.14
66.237 88.744 94.289
66.621 89.482 91.708
67.737 88.445 90.043
69.553 86.405 90.002
56.221 87.706 1.201
57.534 85.88 -0.108
56.677 83.4 -0.729
55.501 81.984 0.293
72.889 7.126 -0.588
71.14 6.709 -1.852
69.541 4.462 -2.538
69.916 2.151 -1.715
93.305 15.989 59.521
93.169 17.964 61.099
91.892 18.244 63.289
89.997 17.247 64.129
65.347 34.775 8.822
64.483 34.541 11.117
62.023 34.417 11.797
60.524 33.367 10.26
17.433 19.427 82.229
16.236 21.471 82.554
13.771 21.333 83.843
12.645 19.35 84.385
72.75 88.115 82.555
73.155 85.777 83.504
71.771 83.56 82.98
70.235 82.933 81.022
75.515 3.899 39.356
75.028 1.865 40.144
72.727 0.522 40.989
71.533 1.649 41.937
66.063 76.76 62.013
64.116 76.913 63.616
61.604 75.76 63.443
60.625 74.535 62.094
61.502 47.307 0.435
62.073 46.947 -1.799
64.819 47.237 -2.849
66.824 46.611 -1.974
43.463 77.077 76.478
44.775 79.283 76.559
46.692 80.112 74.943
47.858 79.269 73.186
75.635 38.028 59.511
74.981 40.187 60.171
74.651 41.049 63.055
74.239 39.373 64.942
60.136 73.141 15.662
58.172 75.084 15.316
58.249 77.061 13.742
59.5 78.095 12.607
-0.038 83.864 50.873
1.821 84.766 50.05
4.282 83.777 49.714
4.426 81.735 49.094
53.607 42.248 69.004
53.911 40.103 70.588
51.615 38.923 71.789
49.851 39.946 72.055
49.851 87.499 98.84
51.813 87.269 98.301
53.111 86.182 96.438
52.49 84.82 94.688
1.859 -1.109 55.736
-0.446 -0.279 56.258
-0.895 1.968 58.016
0.644 3.231 58.866
88.836 89.488 58.035
86.992 91.105 57.554
85.006 91.97 59.092
84.218 91.646 61.351
53.045 8.673 74.399
54.139 6.72 75.662
54.404 4.163 74.691
53.406 3.007 73.262
44.844 33.537 67.684
45.476 32.763 69.42
44.227 30.857 71.368
41.782 30.975 71.65
35.686 68.455 72.485
34.39 66.532 72.229
31.626 66.333 72.549
30.973 68.029 73.885
87.296 33.51 3.593
87.568 31.057 3.439
89.573 29.548 2.448
91.486 30.114 0.781
92.641 25.218 69.428
91.594 23.454 68.442
88.983 22.566 68.766
87.305 23.049 70.656
80.723 40.867 61.327
78.217 40.937 60.909
76.449 42.682 61.787
76.664 44.705 63.078
17.963 77.085 85.986
17.994 74.804 85.413
19.775 73.257 84.875
22.409 73.431 84.523
36.941 3.967 84.362
36.048 1.957 83.949
36.652 -0.038 81.902
38.555 -0.168 80.625
74.828 7.918 70.033
73.159 9.988 69.629
73.091 12.062 70.333
74.204 13.511 72.202
43.338 48.463 84.154
40.967 48.702 84.455
39.37 46.9 84.599
38.235 45.801 82.492
47.71 92.989 12.13
46.224 91.139 11.629
47.491 89.677 9.368
49.738 89.81 8.631
0.095 91.961 80.381
2.132 91.944 78.851
3.836 90.347 78.508
3.197 88.14 78.413
2.777 62.43 63.975
1.822 64.43 65.329
-0.929 64.278 66.413
-2.349 62.564 66.701
38.604 4.578 87.57
37.684 2.848 86.643
39.545 1.184 84.929
41.767 2.494 84.643
82.806 43.64 33.507
80.352 43.6 33.815
78.77 42.091 32.83
78.906 39.88 31.728
82.727 93.386 59.774
80.789 93.754 61.159
79.258 91.111 61.717
79.331 89.29 60.677
36.77 3.724 37.571
35.997 6.14 38.425
34.924 6.971 40.676
34.165 5.913 42.773
51.159 58.954 61.004
52.801 60.623 60.482
55.668 60.333 60.39
56.756 58.285 59.77
83.919 16.01 88.236
83.181 13.888 89.076
81.547 12.278 88.577
81.771 11.371 86.293
73.644 74.492 83.726
75.028 74.779 81.847
77.433 76.332 81.719
78.614 77.232 83.215
5.762 50.056 75.202
5.27 48.215 76.11
2.675 47.21 76.877
0.877 48.563 76.882
28.018 32.295 81.932
27.936 34.059 83.838
26.83 34.231 86.14
24.505 33.101 86.749
49.629 42.081 73.811
50.983 43.827 73.096
52.176 45.826 74.823
50.809 46.769 76.901
56.03 27.107 66.262
55.587 26.019 64.272
57.588 24.739 62.556
59.946 25.086 62.618
26.757 7.257 45.709
26.426 5.431 47.039
24.1 4.181 47.679
21.843 4.125 46.319
69.986 21.744 11.729
69.153 23.776 10.46
66.673 23.95 9.235
64.578 22.868 9.672
48.872 54.896 81.993
46.672 54.711 80.455
44.166 54.789 81.506
43.43 53.596 83.568
66.941 26.661 79.498
67.363 28.395 80.367
65.512 30.024 82.062
63.459 29.559 82.627
68.033 33.825 32.359
69.596 35.745 32.706
72.315 35.413 33.299
73.692 33.525 33.082
34.49 31.339 81.324
34.925 31.967 79.246
37.296 31.912 77.828
39.122 30.85 77.826
76.913 17.163 67.009
76.204 15.187 68.195
73.921 14.091 68.8
71.93 14.335 67.854
84.429 1.701 55.912
86.926 2.381 56.407
87.982 4.91 56.777
86.696 7.105 56.857
71.04 2.075 67.556
72.045 2.762 65.005
74.603 3.138 64.564
76.586 2.04 65.68
15.906 84.8 41.019
17.75 85.742 41.571
18.592 88.085 42.117
17.404 90.404 42.313
23.055 39.052 90.816
21.531 37.2 91.64
18.623 37.14 91.558
17.12 38.776 91.457
58.4 22.85 81.058
57.893 21.234 82.239
55.574 20.326 83.129
53.145 21.344 83.344
73.734 6.873 45.542
72.441 8.495 44.194
73.143 10.748 44.139
75.296 11.9 42.851
24.381 16.254 76.407
26.576 16.514 75.408
27.654 15.503 73.35
27.417 13.742 72.537
15.009 82.46 69.188
16.098 84.84 68.256
14.868 87.276 68.516
12.963 87.95 69.76
64.882 41.842 67.826
63.047 43.785 68.421
60.78 43.855 69.226
59.805 42.627 70.819
44.195 51.193 84.578
42.261 51.089 85.591
41.665 50.743 88.462
42.166 53.025 87.909
58.007 77.23 71.558
56.524 79.074 70.601
57.131 81.47 70.258
59.007 82.79 70.317
38.904 35.251 77.858
37.65 34.612 79.316
35.086 35.681 80.096
34.445 37.968 80.312
48.941 21.039 65.1
48.143 19.209 63.636
46.027 17.938 63.185
43.566 18.057 64.511
36.71 82.735 55.389
38.698 81.701 55.812
40.918 81.353 54.545
41.544 81.689 52.279
69.951 47.351 19.434
67.592 47.372 18.991
66.315 46.022 16.884
66.708 43.738 16.202
87.291 77.862 97.538
89.377 76.905 97.592
91.321 77.043 95.969
91.535 77.374 93.358
54.167 44.062 74.99
54.967 44.878 72.946
57.132 45.174 71.578
59.676 44.819 72.328
57.137 26.876 85.384
56.872 24.639 84.368
55.392 22.522 85.405
54.844 22.997 87.964
45.364 28.988 74.934
43.793 30.636 74.291
40.893 30.291 74.043
39.584 29.006 75.295
59.367 3.245 71.963
57.556 3.118 73.268
55.58 1.482 73.187
55.122 -0.547 71.613
66.523 42.604 63.434
65.71 43.706 65.085
63.655 44.263 65.91
61.634 45.57 65.018
59.752 28.107 61.944
60.89 27.36 60.397
61.403 28.596 58.039
62.941 30.183 58.125
69.152 41.144 62.018
71.482 40.473 61.632
73.368 42.357 60.535
73.664 44.554 60.245
76.635 55.348 71.107
75.749 57.748 71.992
76.895 59.611 72.857
79.598 59.945 73.297
77.104 55.017 67.105
75.389 54.718 68.632
74.607 52.338 69.954
74.983 50.424 69.144
71.698 58.29 48.039
73.542 59.891 47.966
74.77 61.355 49.655
74.843 61.613 51.975
67.648 9.415 44.148
69.772 9.745 45.025
71.052 12.169 45.281
70.801 14.392 44.269
3.103 49.61 53.72
4.11 50.362 55.965
4.473 53.066 56.508
4.538 54.764 54.929
87.041 35.309 6.014
84.776 36.14 6.433
83.584 38.285 5.775
84.384 40.425 4.784
69.833 64.71 77.971
68.328 66.462 78.065
68.221 68.719 79.642
68.922 68.752 82.05
33.381 86.331 64.448
34.702 85.498 62.764
36.648 83.727 62.583
37.508 82.799 64.208
28.233 53.839 18.41
27.663 55.864 19.34
29.133 58.015 19.698
31.308 58.792 18.436
59.313 7.175 55.072
59.199 6.776 52.938
60.885 6.623 50.953
63.177 6.577 50.692
35.783 71.17 49.349
34.429 69.189 48.786
34.88 67.359 46.981
36.69 67.827 45.383
49.291 36.199 69.077
49.253 33.712 69.635
49.544 31.552 67.97
49.301 30.862 66.006
9.792 31.897 69.793
8.339 33.293 70.347
5.744 33.308 71.413
4.137 31.621 71.818
52.984 7.283 78.204
54.279 9.019 79.143
54.218 11.566 78.558
51.923 12.742 78.051
91.816 87.469 46.27
92.111 86.514 48.262
90.585 86.474 50.501
88.678 87.189 51.173
67.076 69.382 85.837
66.626 67.631 83.979
64.516 67.071 82.801
62.206 68.106 82.468
59.249 72.319 61.851
61.274 71.193 61.648
62.273 69.662 59.648
61.175 67.939 58.417
7.689 35.954 72.972
7.506 35.871 70.468
8.786 36.56 68.568
11.117 37.856 68.553
74.575 30.047 77.493
73.438 27.967 77.781
73.982 25.547 76.44
74.904 25.162 74.493
73.391 24.812 50.825
72.458 23.437 50.006
70.676 22.598 51.242
68.688 23.465 52.423
69.78 31.776 57.262
71.655 32.632 56.111
72.794 30.967 55.055
72.219 28.878 53.739
57.191 91.601 50.454
54.738 92.072 51.742
52.764 90.42 51.463
52.662 87.762 51.637
79.58 19.136 47.051
77.783 17.396 46.224
75.794 16.008 47.164
74.795 16.004 48.835
36.158 83.673 80.024
38.084 84.684 81.033
39.149 86.686 80.782
39.276 88.376 79.298
2.719 53.977 36.999
0.606 53.111 35.807
-1.793 52.702 36.816
-2.778 52.801 38.708
89.137 34.125 72.969
90.628 34.174 74.811
90.38 34.31 77.206
87.823 34.257 78.71
70.331 86.588 62.439
71.15 84.64 60.909
70.129 83.019 59.646
67.487 82.293 59.492
77.402 88.996 34.731
75.552 89.559 36.519
73.903 88.314 37.346
72.638 85.852 36.452
24.161 63.26 56.694
23.843 65.232 55.667
23.927 67.592 56.581
25.792 68.614 57.978
40.154 52.635 16.888
39.54 53.394 14.423
38.553 52.273 12.472
37.994 49.524 12.365
60.418 21.65 82.956
61.447 23.977 83.542
63.096 25.365 81.788
64.107 24.352 79.622
36.004 7.324 87.714
35.82 4.644 87.793
34.487 3.188 86.043
32.607 3.912 84.414
85.132 14.138 92.122
82.925 14.798 91.476
80.457 13.591 92.27
80.392 10.813 92.112
55.74 15.801 57.695
53.443 16.813 58.776
53.085 18.751 60.059
54.239 21.082 59.964
70.829 81.337 56.77
71.474 80.307 59.079
69.287 80.169 60.354
67.358 78.321 60.184
66.141 6.867 67.686
66.541 7.298 70.161
64.983 8.446 72.191
62.563 9.186 72.067
46.303 55.349 77.981
48.762 54.547 77.543
50.994 55.777 77.593
51.67 57.952 76.459
87.095 83.784 78.19
88.86 83.383 77.063
91.385 84.705 76.707
92.168 86.41 77.863
38.529 37.643 85.01
37.683 37.445 83.128
37.487 35.015 81.938
38.738 33.117 81.614
38.668 92.16 34.851
39.397 90.038 34.85
39.351 88.364 36.637
37.933 88.104 38.574
71.723 31.682 59.153
73.868 30.806 57.362
75.995 31.918 56.911
77.288 33.849 57.675
52.167 11.897 57.711
50.369 12.105 59.08
50.266 14.26 60.958
51.979 16.309 60.859
43.901 31.904 93.908
41.908 31.447 95.422
40.4 29.509 95.536
40.226 27.411 94.254
5.568 23.289 42.594
5.112 25.749 41.238
6.412 26.812 39.715
8.951 26.852 39.39
59.059 9.127 76.753
59.056 7.8 75.376
61.14 6.14 74.533
63.192 6.778 73.703
89.091 2.227 53.392
89.522 3.293 55.27
91.782 4.67 55.872
93.349 5.961 54.339
46.663 85.818 74.898
48.699 84.507 73.391
50.839 85.365 72.072
51.954 87.433 72.341
22.759 50.677 22.743
22.621 48.31 21.876
22.057 46.135 23.125
20.43 45.676 24.757
61.979 60.928 50.577
60.697 59.276 51.952
58.918 59.963 54.213
58.451 61.947 55.012
4.821 0.327 74.19
5.944 2.391 74.027
4.918 4.065 76.259
3.042 3.29 77.565
9.333 74.491 92.74
11.01 74.369 90.977
13.469 74.9 91.11
14.61 76.865 92.386
55.769 8.621 73.779
56.645 8.903 75.708
56.574 11.148 77.275
57.288 13.436 76.803
62.529 88.456 93.99
60.489 87.793 94.705
58.337 86.958 93.489
57.884 85.837 91.22
57.133 29.259 60.881
56.395 28.922 63.315
54.076 29.068 64.367
52.541 30.827 64.52
-0.182 89.82 53.45
-0.079 87.983 52.845
2.2 86.203 52.28
4.394 87.009 51.763
20.729 20.28 32.245
21.89 22.245 31.644
20.775 24.921 31.903
19.265 25.674 34.028
18.077 3.241 20.387
19.512 4.087 21.988
22.113 3.087 22.559
23.275 1.802 21.416
51.402 22.728 35.097
53.781 22.824 36.109
55.517 20.806 35.925
55.481 19.218 33.577
67.014 41.331 34.533
68.318 39.168 34.734
70.629 38.341 33.192
71.788 39.735 31.998
43.451 5.087 84.623
43.353 6.822 82.531
45.012 8.339 81.984
47.554 8.402 82.777
33.781 21.082 4.791
32.719 21.07 2.6
31.6 19.47 1.293
31.279 17.0 1.278
62.143 66.644 63.804
61.004 66.412 61.79
60.973 64.194 60.319
62.209 62.381 60.05
37.796 12.26 38.451
36.808 10.246 38.993
38.296 7.757 38.87
39.11 6.957 37.002
80.016 1.478 38.952
78.489 -0.152 38.041
76.685 -1.917 39.14
75.36 -1.625 41.207
66.632 37.776 38.983
67.106 37.641 36.603
69.018 35.925 35.24
71.018 35.275 35.85
56.93 69.561 66.503
58.312 69.795 64.08
60.571 69.318 63.456
62.54 69.943 64.037
88.666 51.17 17.303
86.339 52.219 17.098
85.66 54.602 16.546
86.791 56.854 16.929
2.316 20.364 40.092
1.697 22.058 41.794
1.836 24.528 41.731
2.855 26.259 39.753
70.134 38.163 80.403
72.054 37.268 81.037
73.655 35.192 79.745
73.029 33.631 78.114
59.298 11.774 78.569
58.311 10.312 79.142
55.879 10.706 80.531
55.561 12.235 82.326
80.989 19.421 73.107
81.981 20.231 70.803
84.152 19.764 69.821
85.431 17.665 70.414
68.116 72.319 30.704
70.207 73.008 30.718
72.345 72.105 29.247
71.916 69.87 28.968
48.876 23.441 63.64
51.483 24.413 63.955
52.247 26.734 64.196
50.661 29.129 64.14
84.219 13.296 84.776
84.194 10.831 85.036
84.622 8.94 83.703
85.411 8.621 81.165
69.357 7.03 88.286
70.009 8.849 90.127
71.414 8.978 91.659
73.59 7.401 92.378
69.692 35.218 85.246
70.989 34.825 82.949
73.506 34.933 82.487
75.104 35.83 83.861
85.242 40.626 79.273
86.732 42.011 78.47
88.553 42.113 76.538
89.553 39.871 75.436
53.474 48.762 29.916
52.663 50.998 30.082
53.496 53.326 29.295
55.314 54.174 28.437
73.642 59.246 43.118
75.192 60.083 45.042
74.207 62.121 46.783
73.247 64.098 46.186
31.259 65.492 77.753
30.81 65.605 75.718
31.488 63.772 73.408
33.235 62.831 73.189
61.395 6.167 69.618
60.81 7.409 71.487
58.085 7.457 72.796
56.597 5.425 72.72
42.989 13.594 14.396
44.133 11.424 15.482
44.792 9.105 13.948
43.859 8.448 12.096
61.935 45.912 51.462
60.532 46.608 49.35
60.829 45.637 46.865
62.588 43.841 45.98
71.639 23.17 47.236
73.607 22.26 47.757
74.528 19.98 46.786
73.164 18.48 45.267
45.062 14.436 92.67
43.665 12.906 91.141
41.323 12.334 90.968
39.137 13.503 92.031
85.096 38.294 56.389
84.455 40.253 56.499
83.802 41.761 58.872
83.642 41.345 60.712
83.799 35.84 53.777
82.538 37.018 54.692
80.373 35.321 54.691
78.414 35.219 53.276
37.69 50.593 58.827
38.647 52.155 60.29
37.455 53.636 62.476
35.81 52.218 63.634
66.345 75.583 33.786
64.746 73.852 33.995
63.377 72.359 32.517
63.282 72.186 29.909
55.52 47.624 73.429
53.639 47.989 74.272
52.675 48.689 76.788
53.26 49.912 78.02
58.629 0.079 76.233
59.258 2.056 75.182
60.003 4.364 76.11
60.502 5.217 78.246
6.801 37.121 44.697
4.323 35.99 45.418
2.65 36.942 47.021
1.793 39.189 47.484
4.181 83.973 21.954
2.875 83.429 23.779
0.619 83.943 24.703
-0.615 82.383 23.668
61.609 62.578 83.127
62.719 64.014 84.659
65.232 64.911 84.64
67.092 64.182 83.102
48.964 71.914 18.894
50.808 71.673 17.251
51.762 73.298 15.641
52.194 75.627 15.797
36.367 34.838 75.545
38.522 33.739 75.841
40.386 32.937 74.135
41.146 33.721 72.224
76.429 29.276 53.625
74.505 28.43 52.833
73.339 26.138 53.24
74.348 23.915 54.114
23.832 64.352 52.9
25.603 65.834 53.994
28.516 65.999 53.294
29.512 64.772 51.847
65.723 19.944 56.993
65.683 22.603 57.931
65.883 24.81 56.468
66.486 25.095 54.235
41.411 15.79 46.549
40.123 14.734 45.437
39.147 12.257 45.423
39.213 10.568 46.873
68.908 8.173 71.327
70.469 9.189 70.272
71.636 7.585 68.454
72.181 5.34 68.237
33.124 24.678 53.145
30.973 23.962 54.344
28.763 22.941 52.683
28.292 23.696 50.769
87.688 8.707 85.749
87.077 7.605 83.606
87.6 5.584 82.429
89.047 3.299 83.098
45.72 10.4 59.17
44.715 11.781 60.323
43.458 10.98 62.766
42.373 8.957 63.464
59.767 41.292 40.737
60.29 41.976 43.076
59.997 43.68 44.286
60.66 46.421 43.865
12.098 11.734 80.996
10.172 11.548 79.804
9.36 9.27 78.259
9.963 6.826 78.467
17.408 50.574 78.946
18.963 49.477 77.621
21.305 50.949 76.39
21.705 53.089 76.618
67.766 63.774 76.276
69.91 63.454 74.797
71.183 61.238 74.242
70.264 58.816 74.481
80.289 21.377 44.935
78.273 20.52 45.243
75.883 21.104 44.277
74.976 22.731 42.705
62.435 28.696 86.511
61.965 26.775 85.755
63.676 24.916 84.697
65.942 25.461 84.364
44.291 7.124 8.465
46.047 7.835 10.172
46.862 10.46 10.595
47.565 12.115 9.076
78.319 30.504 8.902
76.689 31.559 8.438
74.185 31.683 8.346
72.502 30.429 9.896
52.426 7.928 56.53
50.896 9.592 56.939
48.989 9.961 58.392
47.839 8.483 60.337
17.38 58.833 79.362
17.684 56.451 78.13
16.854 54.192 78.69
14.369 53.666 79.73
61.944 66.81 28.498
62.469 68.579 29.963
64.464 69.842 29.514
65.949 69.883 27.455
40.938 48.865 34.143
41.165 46.6 33.51
39.004 44.705 33.076
36.63 45.001 33.324
61.047 79.42 43.75
61.619 79.965 41.81
61.762 77.761 39.637
61.864 75.434 40.137
81.58 53.453 42.029
79.259 53.934 41.589
77.231 52.975 42.57
76.748 51.967 44.956
86.946 51.758 12.534
86.281 51.496 14.51
83.67 52.286 15.814
81.955 52.684 15.127
77.412 91.377 33.649
79.738 90.961 34.479
81.585 90.171 33.437
81.933 88.713 31.3
22.409 15.18 29.778
22.865 17.598 29.549
23.696 19.269 31.114
24.191 19.474 33.307
25.315 89.545 43.019
22.983 88.098 43.428
22.63 85.783 43.416
23.93 83.878 43.198
13.643 32.28 12.695
12.365 31.149 14.73
9.601 31.145 15.168
8.033 30.597 13.667
57.665 74.679 35.495
58.135 75.4 38.131
56.689 76.063 39.786
54.17 76.275 40.205
60.572 38.699 13.856
59.405 38.461 16.462
57.147 37.536 16.988
55.191 38.578 15.821
43.277 0.634 33.473
41.077 1.559 32.976
39.991 4.054 33.355
40.7 5.915 34.796
15.735 5.567 29.647
16.336 7.863 29.582
15.116 10.022 30.355
12.482 9.846 31.675
0.822 90.726 1.611
0.949 92.301 3.779
1.529 91.656 6.328
2.938 89.481 6.583
76.492 18.313 43.482
75.168 16.894 44.833
73.859 14.698 44.51
72.546 13.832 42.392
30.762 74.978 29.873
29.064 73.876 30.511
28.05 71.244 30.04
29.285 69.347 29.528
-1.128 28.43 68.369
0.464 28.192 70.344
2.998 29.003 70.256
4.428 29.988 68.321
63.654 45.797 16.614
62.512 44.288 17.612
61.949 41.742 16.73
62.529 40.471 14.949
10.468 34.463 66.172
9.407 33.686 67.733
7.182 34.146 68.2
5.015 33.922 66.932
49.889 37.167 21.512
51.568 38.932 21.647
52.688 40.2 19.692
52.268 40.885 17.52
57.17 13.978 58.807
55.845 12.601 57.655
56.132 10.903 55.788
58.062 9.874 54.697
34.436 56.584 16.54
36.547 56.124 16.909
38.683 55.846 15.182
38.728 55.221 12.554
21.393 65.018 59.019
21.623 63.269 57.152
19.724 61.415 56.541
18.176 60.329 58.05
88.968 74.955 45.548
87.336 73.902 46.353
84.883 74.467 47.285
83.462 76.296 47.224
-0.001 49.144 37.305
1.261 50.008 35.456
2.823 48.986 33.704
2.855 46.501 33.005
45.308 78.039 20.858
43.557 76.602 22.229
43.213 76.809 25.039
43.531 78.951 26.22
66.312 81.336 64.811
65.585 79.13 63.572
67.465 80.224 62.428
70.001 80.205 62.882
12.249 75.918 15.211
14.187 74.709 15.893
15.781 72.797 14.996
16.074 71.844 13.066
1.71 62.652 18.327
-0.474 63.47 17.893
-2.613 62.23 16.584
-3.261 60.242 16.644
51.513 22.99 38.007
51.034 22.399 40.437
50.1 19.83 40.983
48.433 18.796 40.318
56.342 59.678 54.975
56.827 61.241 57.201
55.326 63.0 58.27
53.186 62.141 58.388
55.292 21.691 31.438
57.069 20.415 31.86
58.19 18.333 29.979
58.561 18.154 27.932
64.545 87.304 14.841
65.265 88.319 16.656
67.004 90.207 17.329
68.758 91.433 15.899
51.42 82.991 45.683
51.068 81.592 47.77
49.122 80.297 48.6
46.84 80.635 48.581
72.016 24.785 6.686
70.122 23.556 8.001
68.177 22.778 7.378
66.719 22.675 5.417
25.093 60.699 21.066
25.693 59.77 23.113
26.023 57.093 24.148
25.634 55.135 23.313
68.573 84.68 13.3
68.394 86.783 14.5
70.274 88.953 14.325
72.302 88.808 12.419
4.462 65.833 12.413
5.474 64.032 11.928
7.916 63.719 12.007
9.944 65.857 11.516
17.662 83.532 45.661
19.408 84.643 43.969
21.18 83.562 42.614
21.225 81.396 41.763
10.453 63.436 42.193
8.844 64.397 40.39
8.142 63.326 38.206
9.418 61.956 37.121
15.958 66.887 17.123
13.988 66.428 15.712
13.69 64.777 13.778
14.83 62.928 13.203
24.781 25.479 28.997
27.157 25.47 29.285
28.925 23.917 27.394
29.179 24.079 25.269
45.345 80.358 78.881
44.07 81.396 79.864
41.415 80.22 79.901
41.066 78.006 80.065
49.62 59.208 11.24
51.257 60.928 10.985
53.655 61.357 11.381
55.639 59.638 11.471
30.985 89.607 11.773
32.103 87.749 10.006
31.56 85.477 10.154
29.539 84.156 11.328
3.868 70.062 38.151
3.781 70.448 40.76
3.429 68.242 42.512
2.192 66.272 42.285
39.084 85.484 29.683
38.988 83.381 30.304
37.532 81.809 30.118
35.049 81.313 30.683
17.644 1.622 0.046
18.834 2.969 -1.397
20.579 4.688 -1.42
20.984 6.331 0.345
60.349 72.913 66.931
58.877 74.453 67.681
59.04 76.777 68.977
60.903 78.415 69.384
72.766 83.154 11.349
74.444 81.325 10.655
75.909 81.545 8.193
75.759 82.843 6.548
26.618 31.524 58.023
25.154 30.093 59.687
23.081 30.548 60.699
21.432 32.59 60.662
62.612 60.258 27.514
63.023 62.186 29.085
63.441 64.567 28.496
63.793 65.972 26.505
44.957 35.213 23.385
46.912 35.669 25.316
49.22 35.184 25.218
50.544 33.511 23.763
57.526 62.883 33.626
58.407 61.485 32.644
57.613 58.776 32.791
55.951 57.749 34.323
54.692 76.435 43.006
54.91 78.844 43.261
53.346 80.365 44.857
50.589 79.73 44.249
71.536 72.547 33.33
69.124 72.794 33.368
67.646 73.732 35.082
68.18 75.779 37.124
81.625 56.466 15.553
81.676 54.47 17.348
79.783 53.21 18.44
77.443 53.026 17.787
71.268 39.42 82.932
73.48 40.647 83.782
75.343 41.183 82.508
75.505 41.846 79.981
71.149 3.897 61.432
73.132 2.256 61.181
75.566 3.171 62.104
76.62 5.737 61.514
40.101 11.722 40.455
40.426 12.493 43.038
42.449 13.562 44.104
43.479 15.687 42.952
57.31 57.766 10.48
58.419 58.155 8.411
60.682 58.619 7.566
62.984 59.473 8.625
60.079 62.42 28.771
60.45 60.277 29.093
59.46 58.538 29.682
56.729 58.219 30.008
88.305 50.657 82.288
88.159 48.322 81.763
86.339 46.639 81.167
83.771 47.072 81.365
32.945 58.777 22.046
30.503 58.138 21.914
28.391 59.639 22.29
28.145 61.619 23.713
69.638 61.915 3.714
67.605 61.996 3.356
65.509 61.9 5.29
65.503 60.898 7.385
89.262 -0.473 27.593
91.323 0.058 29.23
91.469 2.248 30.732
90.377 4.781 30.129
79.142 26.461 77.324
77.565 25.601 78.828
77.701 24.932 81.352
79.821 23.746 82.512
-1.051 7.983 30.482
0.265 9.016 31.691
1.895 11.146 31.391
3.173 11.759 29.3
76.105 25.028 22.34
75.245 23.032 23.375
74.721 20.387 22.506
75.69 19.65 20.321
75.654 19.54 73.795
75.764 21.942 73.919
76.8 23.736 75.575
77.566 22.826 78.269
22.576 39.077 69.222
21.454 40.804 68.141
22.385 42.316 65.899
24.865 43.125 65.889
80.485 61.777 66.215
82.654 62.348 66.093
84.142 64.195 64.467
83.44 65.019 62.675
59.778 62.224 10.344
57.162 61.549 10.247
55.03 63.337 10.912
55.452 65.316 12.763
54.224 76.909 20.978
53.785 76.676 18.754
54.718 75.316 16.81
56.338 73.381 16.696
51.877 1.189 49.658
54.08 2.238 49.466
54.932 4.44 50.076
53.427 6.683 51.099
65.855 61.794 95.907
65.349 61.303 98.332
65.073 58.948 99.546
63.856 56.905 98.429
1.272 65.724 15.085
-0.766 65.72 16.218
-2.1 67.49 17.743
-1.39 69.904 18.354
87.023 80.718 1.254
86.052 80.739 3.349
83.818 82.204 4.373
82.36 83.579 3.486
2.521 26.473 23.936
4.531 27.451 22.446
5.041 27.331 19.864
4.448 25.682 18.426
71.368 70.97 56.502
72.572 72.404 58.322
72.771 74.818 58.491
72.372 76.896 56.719
62.377 83.997 17.098
63.956 85.749 16.949
66.824 85.61 16.47
67.87 83.363 15.259
51.095 39.408 94.721
50.081 38.285 96.685
47.706 37.635 97.472
45.587 37.302 96.236
2.009 82.914 56.083
1.617 85.31 54.796
1.093 87.636 56.329
1.333 87.806 58.497
83.873 62.809 95.175
82.027 61.707 94.121
79.606 62.72 93.656
78.278 64.189 95.174
32.982 38.363 12.096
31.028 39.622 11.43
28.566 39.019 10.933
27.157 37.116 10.968
80.746 78.116 3.54
82.825 79.559 4.275
85.084 78.578 5.11
86.395 76.451 3.292
82.817 79.548 28.708
81.877 77.489 29.551
79.598 76.59 29.884
78.384 77.282 31.341
21.83 17.561 26.365
20.965 16.357 27.855
19.381 13.878 27.671
19.033 12.433 25.765
56.541 16.836 16.241
56.369 18.273 14.114
54.302 19.857 13.796
52.695 19.846 15.056
48.793 68.289 0.198
47.366 66.677 -1.609
44.702 66.434 -1.285
43.154 66.911 0.658
47.908 40.784 55.087
47.631 42.471 53.084
48.895 44.166 52.296
50.178 46.233 53.401
76.184 69.573 26.698
77.165 71.526 28.176
76.122 72.136 30.55
74.166 71.832 30.907
50.578 54.047 36.94
51.303 55.256 34.857
51.749 58.091 34.696
50.96 59.486 36.466
58.002 63.541 30.954
60.189 63.952 30.745
61.934 66.16 31.311
61.58 67.722 32.857
75.918 60.781 85.951
75.907 61.562 88.728
77.418 60.817 90.162
78.721 58.643 90.576
70.675 74.212 4.04
71.642 72.111 4.476
69.981 70.065 4.938
68.23 69.311 3.733
89.046 62.23 83.056
88.694 59.781 83.275
90.467 57.956 82.628
91.781 57.88 80.77
20.817 49.597 43.109
23.411 48.665 43.005
25.564 50.194 43.394
24.759 52.03 44.554
73.079 3.399 16.416
74.562 1.268 16.323
74.904 -0.458 14.312
73.889 -0.433 11.949
44.506 76.21 53.076
43.376 75.254 51.084
42.927 73.09 50.333
43.091 70.508 51.194
81.918 90.835 38.967
82.042 90.117 36.412
84.222 89.829 34.91
86.393 91.084 35.025
73.618 73.618 5.159
75.752 74.8 5.774
75.552 77.271 6.816
73.66 79.079 6.51
57.449 79.995 13.809
56.957 80.434 16.103
57.558 82.285 17.851
59.682 83.999 17.599
52.185 36.547 73.996
51.84 35.635 71.75
51.912 33.426 70.666
52.418 31.035 71.98
85.81 2.562 34.783
87.846 2.344 33.322
89.59 4.283 32.629
89.415 6.921 33.2
89.01 18.595 37.463
87.954 18.116 39.597
87.446 15.626 40.139
86.682 13.482 38.878
87.169 63.303 21.907
88.875 64.146 20.079
90.34 66.273 19.969
89.356 68.009 20.94
38.309 81.478 33.966
39.078 83.855 33.724
39.502 85.667 35.671
39.745 85.624 37.706
89.24 86.055 25.835
89.363 87.293 28.412
87.57 86.338 29.888
85.655 84.752 29.14
55.632 80.623 48.18
55.751 80.25 45.982
57.682 79.322 44.29
59.282 77.793 44.468
73.617 60.712 94.368
75.732 60.987 95.375
78.065 60.323 95.053
79.008 58.554 93.737
3.847 45.148 26.608
6.227 44.529 26.463
7.901 43.818 24.823
7.667 42.359 23.03
47.858 45.72 50.338
45.915 44.73 52.084
44.406 45.874 53.585
43.93 48.48 54.042
80.27 61.593 89.81
80.737 63.665 91.154
82.548 65.443 90.676
84.832 64.549 88.781
57.817 40.652 94.412
58.344 43.321 95.091
60.276 44.446 95.214
62.931 43.676 95.133
60.803 42.109 90.647
62.368 43.431 91.724
64.972 42.672 92.546
66.569 41.769 91.24
31.549 75.431 33.205
32.592 76.458 31.04
34.053 78.483 31.025
35.383 79.726 32.931
90.007 74.394 92.982
92.313 74.578 92.643
94.02 73.356 91.028
93.845 70.848 90.306
87.402 79.234 28.873
85.323 77.784 28.207
