83.733 15.219 20.127
50.757 18.519 15.281
51.506 17.201 14.244
50.271 15.106 13.397
48.543 13.902 14.487
11.439 41.112 23.575
12.03 41.017 21.533
14.206 40.375 20.218
16.413 39.453 20.876
2.885 54.924 32.633
3.497 52.759 31.286
5.713 51.476 32.124
8.014 52.468 32.602
10.4 26.882 12.04
12.938 27.484 12.133
15.073 25.859 12.006
15.203 23.633 11.31
88.443 30.458 48.082
89.754 31.912 49.164
89.592 33.795 51.053
87.378 35.276 51.689
76.26 49.787 38.43
78.637 49.101 38.374
79.59 46.718 39.105
78.655 44.627 38.534
9.565 6.168 4.877
10.95 5.305 2.895
13.142 4.105 2.988
14.878 3.888 4.555
44.579 27.814 1.519
45.319 30.259 1.096
46.97 31.776 2.299
48.57 31.116 4.142
13.045 23.245 83.16
14.881 22.083 81.744
15.37 19.301 82.47
14.395 18.141 83.96
33.919 37.343 30.966
34.308 35.018 30.209
33.29 32.681 30.858
30.655 32.433 31.565
24.032 42.062 17.556
22.455 41.403 15.896
20.922 39.378 15.729
21.137 37.089 16.191
30.672 19.916 2.894
31.808 20.748 5.117
30.747 22.723 6.677
28.292 22.224 6.321
19.664 93.191 92.88
18.843 91.392 92.145
19.971 90.339 89.946
22.226 89.67 89.434
6.078 33.734 18.868
7.004 31.903 19.759
7.757 29.513 18.696
7.888 28.897 16.399
42.186 51.536 8.293
41.948 49.675 10.145
39.328 48.488 10.478
38.053 47.421 8.498
46.773 18.193 18.009
44.668 18.087 16.691
42.554 16.523 17.046
42.124 16.039 19.09
52.027 34.136 3.966
51.491 33.863 1.701
49.638 32.474 0.941
50.146 30.44 -0.594
65.149 59.209 8.702
63.331 59.711 7.701
60.833 58.254 7.528
60.539 56.173 7.15
83.299 5.203 60.501
81.828 3.046 59.697
79.129 2.512 60.704
77.871 3.653 62.279
41.231 41.348 9.562
39.988 43.453 9.664
40.325 45.739 8.912
42.577 46.974 8.745
58.475 23.503 34.785
57.905 21.963 32.811
58.405 19.886 32.235
59.975 17.986 33.426
13.388 40.413 69.273
14.022 38.385 68.657
13.537 35.803 69.571
11.789 35.202 71.111
84.244 9.507 21.322
85.876 10.978 20.294
86.538 11.269 17.662
86.109 9.933 15.638
72.954 17.286 21.505
73.367 17.988 24.239
71.566 18.08 26.198
69.172 18.365 25.977
19.468 31.324 41.483
17.101 32.255 41.391
15.105 31.608 42.558
14.075 29.376 43.089
54.376 13.649 9.373
52.155 13.166 10.635
49.709 12.665 9.537
49.127 11.83 7.286
16.574 37.747 39.907
17.241 38.797 42.086
16.279 40.758 43.348
15.985 42.648 42.565
31.193 76.68 97.291
31.943 74.384 97.222
34.234 73.356 96.234
35.859 74.407 94.98
15.521 40.09 92.285
13.931 40.018 94.396
11.18 40.75 94.21
10.303 42.011 92.631
-1.152 77.879 26.927
-3.151 76.512 27.41
-3.566 74.229 28.294
-2.243 72.507 28.59
36.923 32.177 29.501
37.95 30.727 27.976
37.13 28.092 27.045
35.267 26.683 27.684
0.968 16.974 38.724
0.87 14.752 39.134
3.276 12.927 39.112
5.193 13.166 37.727
39.291 22.035 -0.843
38.521 20.722 -2.513
39.944 18.367 -3.63
42.545 18.381 -2.946
1.394 45.933 31.952
3.31 46.141 29.997
3.908 44.632 28.037
2.963 42.612 27.098
57.429 17.618 85.163
55.873 15.674 84.413
56.851 14.026 82.359
59.187 13.815 81.337
49.354 18.067 85.579
47.475 16.346 84.961
44.916 17.242 84.795
43.599 18.709 86.457
39.253 38.649 28.367
40.94 40.305 28.509
41.692 41.382 30.983
40.867 41.116 33.033
73.176 46.195 85.04
74.936 46.672 86.686
75.965 48.394 87.592
76.42 50.702 86.685
9.929 88.308 25.644
12.045 88.513 23.617
13.186 90.331 23.64
15.394 90.791 24.552
93.839 86.749 22.633
92.778 86.399 24.762
90.63 85.593 25.592
88.299 85.232 24.317
88.878 50.531 29.847
88.299 51.913 31.694
89.677 54.071 32.333
90.989 55.661 31.075
41.262 10.423 81.834
41.354 8.871 83.247
38.96 7.869 84.823
37.088 7.45 83.671
-0.258 34.613 55.179
1.519 36.092 53.962
3.279 35.474 52.285
3.884 33.615 50.996
66.621 58.327 27.015
64.391 58.378 28.018
63.786 57.382 30.559
65.791 57.123 32.466
7.278 28.68 43.468
8.355 30.006 42.509
10.64 31.615 43.447
12.201 30.981 44.682
47.079 39.544 19.678
48.856 37.843 20.496
48.256 36.868 22.875
46.04 36.938 23.934
13.805 47.608 25.162
14.544 46.6 22.907
16.431 47.161 21.368
18.619 48.489 21.815
64.341 2.315 20.69
62.726 1.731 22.504
60.203 1.844 22.613
59.298 1.011 21.049
38.021 43.941 7.673
36.965 41.752 7.979
34.561 41.376 8.689
32.496 43.095 9.323
17.731 6.34 94.495
19.066 7.696 95.621
19.362 10.369 96.162
18.605 12.127 94.853
24.693 78.764 37.357
25.577 77.507 35.752
24.883 75.927 34.082
23.098 75.324 32.665
10.441 34.868 43.777
8.835 33.24 44.69
5.851 33.758 44.274
5.045 36.035 44.193
37.195 44.337 86.632
35.571 42.624 86.22
35.372 40.911 84.195
36.96 39.967 82.886
15.734 61.979 29.214
14.79 62.107 31.431
14.086 64.206 32.889
13.5 66.418 32.266
75.547 28.86 27.087
75.329 26.117 26.796
73.121 24.79 27.238
70.718 25.401 27.04
23.017 21.381 9.642
24.064 19.598 9.156
26.143 19.887 7.397
26.218 21.04 5.322
74.378 68.232 5.223
74.663 67.651 2.536
76.879 66.488 1.358
79.003 66.55 2.504
21.728 11.497 28.057
20.284 9.926 26.389
20.82 8.407 24.572
23.119 7.684 23.809
21.317 51.654 66.582
22.316 50.07 68.201
21.422 47.424 68.886
19.618 46.431 68.0
39.781 51.987 36.889
37.999 50.379 37.566
36.073 50.33 39.226
35.722 51.589 41.367
13.564 12.964 78.615
15.661 13.694 78.645
17.08 15.297 80.53
16.41 16.655 82.077
42.738 18.54 21.32
40.794 20.102 21.302
39.463 21.448 23.028
38.789 20.533 25.138
43.26 91.123 31.708
41.723 89.156 30.702
40.482 87.355 32.091
40.953 86.484 34.394
60.854 3.688 49.101
59.476 4.341 51.061
58.14 2.981 52.936
57.034 0.94 52.9
41.038 37.649 26.252
43.266 37.669 26.786
45.337 38.734 25.683
45.604 40.448 24.169
19.036 88.727 49.21
20.133 90.157 47.401
22.342 91.709 47.259
23.429 93.068 49.22
80.361 46.134 12.517
82.517 46.049 11.374
83.644 43.683 10.216
82.658 41.411 9.927
37.287 31.558 24.45
37.665 32.634 26.228
39.655 34.414 27.234
41.943 34.712 26.325
87.259 22.704 91.126
87.929 23.71 93.43
86.135 24.612 95.367
83.638 25.25 95.179
56.874 44.851 4.489
54.641 43.639 3.631
52.584 42.83 4.785
52.697 41.964 7.647
85.886 27.891 5.414
86.391 25.82 4.595
88.596 24.471 4.204
90.897 24.779 4.788
6.194 16.822 12.608
4.979 15.872 14.668
4.182 13.457 15.134
3.516 11.618 13.583
86.564 85.68 95.934
86.888 86.522 98.225
88.319 88.67 98.904
88.897 90.589 97.459
87.811 19.627 37.559
87.265 20.079 39.732
85.25 18.365 40.724
84.376 16.603 39.221
16.562 35.092 38.114
17.792 32.865 38.803
16.751 30.311 38.197
14.801 29.568 36.932
57.375 62.214 7.067
56.993 62.069 9.319
54.926 60.998 10.581
52.215 61.219 9.666
26.404 16.113 9.543
25.816 16.835 7.461
27.298 17.192 5.231
29.335 16.415 4.634
69.803 42.523 68.322
71.068 43.512 66.845
73.558 43.768 66.285
75.512 43.552 67.64
26.803 29.667 36.542
24.825 30.495 36.935
24.321 33.304 37.323
25.721 35.071 37.711
46.561 39.809 52.899
46.392 41.809 53.335
44.561 43.405 55.057
42.873 42.763 56.415
42.285 64.728 61.06
41.92 65.344 63.744
43.986 65.652 65.276
45.9 65.484 64.647
39.751 46.161 37.554
39.66 48.601 36.239
41.623 50.172 36.086
43.453 50.719 37.135
38.212 17.792 23.976
36.795 19.397 23.591
34.398 20.241 24.345
32.567 18.826 26.104
49.346 65.249 37.997
46.823 66.379 38.648
46.373 66.973 41.102
47.766 68.498 42.561
21.202 51.187 48.469
20.314 49.264 47.582
18.241 48.087 48.803
17.181 49.509 51.217
26.174 19.25 99.124
28.483 18.451 98.888
28.593 16.034 97.214
26.999 15.234 96.179
26.675 33.444 57.699
24.558 32.634 58.327
23.209 32.995 60.617
23.815 34.346 62.639
42.495 22.301 46.219
41.694 20.992 44.598
42.878 21.548 42.405
45.03 22.304 42.02
38.842 6.116 66.059
40.405 7.899 66.715
41.763 9.27 65.0
42.429 8.832 62.408
36.417 54.275 37.529
34.351 53.216 38.727
31.788 53.055 38.418
30.433 54.064 36.461
16.45 7.948 76.367
14.612 6.4 75.274
14.715 4.731 73.971
16.387 3.135 72.529
18.856 21.488 31.527
19.003 19.204 31.676
17.776 17.294 30.674
15.654 17.088 29.283
29.637 88.023 8.628
31.385 89.067 9.176
32.149 91.209 10.421
30.51 92.332 11.884
11.118 80.622 14.284
11.396 81.077 16.872
11.81 83.174 18.111
12.701 85.171 17.645
5.839 50.66 59.172
3.717 49.799 58.76
2.725 47.638 58.204
3.42 45.18 58.704
23.611 33.789 88.666
24.156 35.356 88.249
26.312 37.172 88.553
27.745 36.826 90.564
4.278 0.342 5.83
5.034 2.191 6.905
7.362 3.073 7.462
9.585 2.516 6.749
84.599 83.587 22.577
84.478 81.983 24.518
84.41 79.417 23.757
83.87 78.491 21.594
50.18 9.674 80.564
51.55 11.931 79.893
53.339 13.139 81.086
53.595 13.771 83.42
44.184 47.042 11.244
42.275 47.223 11.818
41.697 49.333 12.787
42.624 50.601 14.73
47.72 29.562 93.572
48.815 31.513 93.393
47.971 33.61 94.818
45.816 33.482 96.459
25.76 79.214 9.036
27.891 78.995 7.937
29.88 80.818 7.402
30.159 83.031 8.256
35.195 13.924 44.882
33.967 12.977 43.265
32.118 10.854 43.435
31.416 10.406 45.431
86.601 77.188 20.18
86.336 77.314 22.687
88.045 78.298 24.497
89.418 80.714 23.987
35.604 52.652 82.25
37.679 51.614 83.726
40.018 52.574 84.004
41.104 54.83 83.545
34.565 67.029 69.681
36.703 66.319 69.219
37.298 64.177 68.459
36.138 62.334 67.057
32.027 71.252 50.854
31.298 70.208 53.133
28.962 69.487 53.616
26.728 69.964 52.863
47.99 64.153 34.211
46.749 62.325 35.357
44.766 62.24 36.974
43.733 64.071 38.037
43.76 52.255 12.884
42.227 54.255 13.148
42.451 56.328 14.23
44.26 57.462 15.545
69.892 24.191 55.443
68.804 25.911 56.931
66.39 26.168 56.856
64.707 24.152 56.306
75.963 24.236 53.252
75.48 22.217 51.714
75.724 22.392 48.84
77.675 23.731 47.771
50.307 84.661 68.534
50.914 82.83 70.492
49.162 81.075 71.712
46.761 80.999 71.687
21.93 -1.53 86.983
23.72 -1.284 85.536
25.874 -0.878 86.642
26.159 0.293 89.159
13.809 12.982 75.932
15.857 11.798 75.318
16.323 9.645 74.028
15.127 7.966 72.892
89.572 41.135 3.58
88.642 42.957 5.052
89.965 44.82 4.851
90.589 46.416 3.241
79.24 48.568 18.617
77.965 50.853 19.471
78.654 52.607 21.101
80.103 52.474 23.493
77.082 8.81 13.953
76.028 6.562 14.123
73.649 5.705 14.518
71.607 6.424 14.747
86.345 13.932 21.093
86.785 14.895 18.852
88.371 16.279 17.893
90.177 17.709 18.619
63.626 22.271 25.703
63.195 21.074 27.884
60.963 20.966 29.357
58.702 22.203 29.009
3.077 46.495 8.707
2.207 45.174 6.306
1.518 43.144 6.006
1.424 40.873 7.136
18.641 82.233 40.9
20.869 83.356 41.235
21.52 85.989 40.932
19.644 87.158 41.676
79.164 18.37 25.719
77.736 19.928 24.812
76.783 22.372 25.497
77.969 24.268 26.594
67.968 45.198 71.026
66.71 47.361 71.074
64.543 48.176 72.421
62.845 47.009 73.017
34.673 12.087 62.79
35.93 12.646 64.31
35.99 14.575 66.203
34.57 16.592 66.547
8.957 25.689 14.272
8.062 23.42 14.866
5.681 22.706 15.896
4.498 24.622 16.874
18.665 9.396 3.07
19.707 7.486 2.469
19.477 5.252 3.158
17.488 4.106 4.416
25.101 21.384 71.776
24.552 19.172 72.881
22.59 18.466 74.293
20.619 19.557 75.438
83.104 33.987 9.389
84.705 35.087 7.727
84.357 37.283 6.313
82.771 39.413 6.961
79.41 27.36 3.874
79.661 30.058 4.074
77.823 31.673 3.932
75.586 31.47 3.728
59.233 65.42 80.804
61.274 66.36 80.385
62.357 66.802 77.996
62.136 64.912 76.107
47.566 64.4 62.739
46.99 62.885 64.083
46.537 60.095 63.718
45.373 59.042 61.726
71.077 20.33 27.933
72.712 20.287 26.853
75.356 20.939 27.255
75.707 22.783 28.692
3.952 89.078 73.389
4.911 90.898 73.668
7.122 91.893 73.197
9.526 90.795 72.738
41.498 21.943 91.106
41.556 19.386 89.906
40.617 18.617 87.999
39.423 19.587 86.171
57.536 48.348 95.97
57.574 45.887 96.817
56.123 44.236 96.675
53.44 43.968 97.03
13.096 95.209 75.5
12.473 93.746 73.846
10.1 92.807 74.209
8.814 92.199 76.016
29.05 19.185 66.913
31.119 18.026 67.634
31.904 15.599 66.961
31.805 14.267 64.99
-0.233 11.85 88.59
0.53 14.138 88.506
1.246 15.92 90.37
0.541 16.072 92.568
21.715 60.925 74.519
21.623 63.33 75.561
23.735 64.649 76.847
26.092 63.699 77.288
35.432 36.661 84.468
35.768 35.22 82.636
34.179 33.523 81.507
31.765 32.643 82.158
16.954 56.774 54.708
18.952 58.555 54.152
20.536 59.427 55.285
21.607 59.218 57.708
2.074 18.139 -3.375
0.243 19.745 -3.511
-0.75 21.609 -2.023
-0.784 22.013 0.225
39.582 73.2 50.07
41.812 74.304 49.667
42.163 77.019 49.161
40.769 78.845 49.641
87.817 54.232 81.446
90.195 54.754 81.389
91.87 55.617 79.645
92.227 55.383 77.225
7.123 19.806 55.123
6.217 18.534 57.213
4.486 18.749 58.443
2.432 20.595 58.617
58.737 89.866 71.088
57.119 88.182 70.776
56.884 85.975 72.648
58.456 84.768 73.475
73.282 46.68 63.848
71.69 46.081 65.937
71.73 47.218 68.281
72.996 48.919 69.237
76.024 28.39 80.526
75.327 30.14 81.192
73.538 30.79 82.894
72.473 29.366 84.931
18.731 11.033 48.224
18.703 12.898 50.209
16.883 13.911 51.411
14.19 13.887 51.085
3.76 54.884 61.01
3.886 53.244 59.266
5.42 52.895 57.051
6.95 54.106 56.318
73.766 75.127 75.42
71.483 74.324 76.502
71.123 72.468 77.82
71.843 70.31 77.784
31.271 39.704 85.02
30.391 37.84 84.209
31.421 36.98 81.662
32.533 38.032 80.155
34.187 28.682 55.565
35.525 29.761 54.114
36.907 29.008 51.884
37.45 26.725 51.175
75.766 3.32 17.09
76.545 5.568 16.834
78.448 6.816 17.047
81.047 6.133 17.391
42.828 15.028 61.877
45.34 14.155 61.942
47.243 15.747 62.596
47.757 17.886 62.91
43.889 35.683 52.29
42.787 34.117 50.408
40.688 33.568 49.685
38.426 34.178 50.615
74.849 44.587 61.027
75.052 42.332 59.584
72.938 41.281 58.686
70.482 42.417 58.89
23.007 26.663 14.387
22.104 24.832 12.473
23.083 24.352 10.036
25.13 24.979 9.18
55.901 83.48 73.657
54.12 83.568 72.166
51.628 84.853 72.663
50.443 84.11 74.637
17.349 29.433 61.636
19.365 29.558 61.413
20.503 31.421 62.325
21.124 31.924 64.879
25.771 20.932 76.674
23.354 19.649 76.814
21.427 20.105 78.012
20.947 21.479 80.129
15.978 49.657 48.895
15.856 52.117 49.509
13.701 53.815 49.476
11.407 53.429 50.048
40.614 12.637 83.922
40.249 14.052 85.618
40.773 16.567 86.11
41.344 18.599 84.859
30.678 75.323 78.44
31.921 73.559 77.725
33.772 73.124 75.883
34.6 74.363 73.981
28.147 63.513 54.741
25.681 63.734 54.231
23.792 61.779 54.881
24.027 59.632 55.897
44.2 25.33 2.617
42.146 24.788 1.587
41.465 23.56 -0.817
42.453 21.719 -1.965
75.821 60.439 93.359
76.561 58.636 93.633
77.048 56.189 91.913
76.239 55.562 90.04
20.484 43.266 15.641
20.617 43.653 17.864
19.918 45.651 19.617
19.88 47.962 19.061
20.916 49.779 74.501
22.103 50.963 72.611
23.559 49.815 70.993
25.123 47.867 70.869
79.558 50.839 91.61
80.023 50.661 89.582
80.692 52.464 87.696
80.674 55.117 87.644
12.022 32.048 70.755
12.696 33.525 68.964
14.772 33.482 67.517
16.52 31.475 66.996
65.896 27.557 63.761
63.657 27.291 62.364
62.52 25.454 61.434
62.759 22.716 62.17
67.699 48.826 90.193
69.371 47.212 90.64
70.771 45.709 89.161
71.251 45.419 86.919
3.339 15.408 61.893
1.114 15.649 61.892
0.713 18.116 60.802
1.658 19.917 60.92
12.826 81.389 86.121
13.282 79.102 86.226
14.677 77.46 84.63
14.959 77.444 82.149
35.77 83.372 82.679
35.542 81.711 80.654
38.005 80.743 80.056
40.122 81.295 81.356
67.546 29.45 85.03
67.565 31.884 84.745
69.581 33.623 84.861
71.497 33.073 84.282
11.272 37.846 93.902
12.242 36.933 91.754
11.903 35.097 90.513
9.549 33.516 90.099
24.407 89.925 60.463
25.623 88.484 61.73
27.556 88.387 63.258
29.22 89.569 62.836
40.795 81.27 56.442
41.083 83.911 56.762
40.795 85.29 58.897
39.405 84.932 60.907
30.322 26.208 70.202
32.129 26.913 71.57
32.74 28.683 73.098
31.605 30.89 73.749
44.72 49.307 59.867
42.549 49.111 59.4
40.429 49.421 61.016
41.165 50.699 63.641
43.925 5.588 7.269
43.564 2.976 7.84
41.616 1.925 8.489
39.941 3.056 9.577
54.949 18.045 27.241
55.339 15.712 28.475
53.991 13.761 28.556
51.628 12.843 27.392
82.58 6.001 56.974
83.357 3.802 57.725
83.043 1.521 56.337
81.352 0.701 54.93
61.629 25.461 87.039
60.667 24.498 85.108
59.159 22.304 85.061
58.186 21.516 86.757
8.594 34.447 67.864
10.413 32.766 67.274
12.342 34.405 65.946
11.86 37.005 65.543
79.108 92.501 55.975
80.31 91.45 57.656
78.743 89.831 58.727
77.964 87.452 57.883
23.898 56.68 96.702
23.99 57.421 94.619
24.962 56.254 92.29
26.249 54.1 92.025
36.352 16.697 45.695
37.682 18.174 44.264
39.952 19.052 44.138
42.121 17.402 44.251
39.536 71.13 74.83
38.723 70.889 72.436
39.495 69.54 70.523
41.37 67.974 70.366
18.766 23.926 55.889
17.913 21.523 56.781
18.442 19.388 55.4
18.919 19.077 53.029
7.565 43.681 4.227
5.699 44.891 3.892
3.218 44.108 3.085
2.242 41.579 3.684
72.03 91.177 86.119
71.339 88.514 86.97
68.714 87.794 87.005
66.762 88.589 86.135
29.012 47.094 68.074
30.36 47.996 66.616
33.251 48.559 66.513
34.649 49.234 68.318
18.048 16.008 48.751
18.254 16.186 50.818
20.688 16.4 52.147
22.793 16.851 51.237
10.832 13.988 58.386
11.74 15.606 56.515
12.963 15.112 54.652
14.478 12.984 54.008
87.399 22.346 62.34
88.652 20.423 61.366
89.439 19.641 58.937
90.134 21.163 57.084
31.831 14.299 40.081
31.534 13.553 42.246
29.57 13.793 44.12
27.255 14.675 43.941
89.183 25.761 69.289
87.765 23.954 68.96
87.687 22.148 66.941
89.072 22.085 64.964
75.006 37.744 84.742
74.931 40.182 84.244
75.648 42.125 85.606
77.838 42.609 86.307
24.111 46.04 68.867
24.608 47.677 67.95
24.534 47.81 65.168
26.167 46.658 64.059
4.388 12.772 59.516
2.323 12.206 58.858
0.095 12.447 60.669
0.405 13.158 63.102
18.03 23.366 84.849
17.054 23.437 82.673
15.264 24.562 84.205
14.714 27.075 84.356
29.321 11.169 43.547
27.274 11.981 44.949
26.1 10.79 46.983
26.296 8.542 48.166
30.828 12.248 47.557
28.282 12.425 48.121
27.25 12.784 50.527
28.376 12.549 52.924
18.106 27.433 14.193
15.769 27.997 14.568
14.168 29.717 13.002
15.011 32.0 11.922
8.087 83.425 17.658
8.059 85.094 19.925
5.986 85.235 21.476
4.522 84.101 21.832
35.642 31.876 51.286
33.884 31.706 52.556
31.686 30.027 51.884
30.807 29.187 49.851
84.123 62.976 -2.583
82.058 63.484 -2.926
80.323 65.096 -1.679
80.753 66.596 0.302
18.161 41.952 14.429
18.683 41.156 16.432
17.221 39.245 17.945
14.83 38.701 17.845
3.358 79.55 46.444
5.549 80.428 45.653
6.31 82.817 44.686
4.791 84.787 44.77
6.268 22.514 89.46
8.741 23.317 89.814
10.931 22.477 88.443
10.406 20.942 85.802
10.01 31.204 88.87
10.019 29.219 89.793
8.954 27.197 89.749
6.45 26.398 89.19
11.274 45.081 3.085
9.3 45.771 3.547
8.835 48.311 3.583
10.7 50.21 3.841
37.621 61.292 69.067
39.084 60.933 67.068
40.261 59.006 66.225
40.16 56.486 66.987
33.192 20.724 69.881
31.819 21.099 71.395
31.574 23.168 73.304
32.454 24.811 73.181
17.038 84.503 63.91
17.621 86.147 63.082
19.886 86.132 62.179
20.656 83.84 60.189
30.599 34.517 79.243
32.729 35.265 79.754
34.649 35.864 78.373
35.443 36.293 76.203
71.871 63.145 70.523
73.603 61.409 70.677
75.777 61.102 69.661
76.682 61.771 67.535
5.185 84.32 52.007
5.855 84.381 49.884
8.135 85.181 48.702
10.167 85.806 49.577
19.758 77.595 60.331
19.829 78.625 62.334
17.324 79.253 63.678
15.351 80.403 62.769
-1.19 13.001 55.411
0.337 11.533 56.4
1.514 9.441 55.344
1.2 8.513 53.233
21.598 26.869 60.866
22.804 24.878 60.143
21.736 22.65 59.087
19.567 21.599 59.042
35.517 29.767 74.61
35.157 32.262 75.193
36.727 34.372 74.552
38.722 34.14 73.368
28.519 45.26 65.801
28.736 47.239 64.356
30.284 47.852 62.646
32.563 47.105 61.876
24.064 0.262 64.409
21.9 0.588 63.276
20.156 2.546 63.503
19.698 3.933 65.535
35.571 8.948 65.889
33.996 11.021 65.783
32.792 12.257 67.586
33.457 12.692 70.18
21.332 8.569 46.796
22.567 9.657 48.375
23.845 12.119 48.454
22.771 14.325 47.712
84.798 24.179 67.911
84.434 23.345 70.165
82.119 22.567 71.133
79.977 23.516 71.258
5.443 45.405 7.121
4.39 46.776 5.575
4.959 49.039 4.357
7.404 50.366 4.492
33.158 41.833 82.835
33.034 41.868 85.499
31.803 43.405 87.005
31.136 45.966 86.886
13.872 29.425 15.55
12.382 27.604 14.844
10.644 26.036 16.294
9.205 27.0 17.953
50.647 71.369 87.548
52.721 70.101 87.495
53.025 67.415 87.622
51.649 65.549 86.312
34.003 30.817 57.463
32.203 31.505 56.344
29.655 32.5 57.27
28.485 31.957 58.8
51.905 23.561 61.092
53.349 24.476 62.622
55.25 26.457 62.579
55.791 28.056 61.208
32.316 28.371 75.828
32.842 30.788 76.343
31.661 32.059 78.443
30.549 31.278 80.34
42.149 51.464 58.308
39.874 51.701 59.309
38.178 49.718 58.915
38.525 47.984 56.653
26.763 87.671 83.346
25.603 87.47 85.686
23.345 88.1 86.013
21.214 87.158 84.831
5.546 73.383 44.586
3.662 73.22 43.342
1.831 71.383 42.917
2.969 68.99 41.896
9.562 87.26 18.86
10.196 88.136 21.148
11.444 90.394 21.511
13.53 91.508 20.161
21.799 20.308 57.041
21.096 19.016 56.189
21.768 18.477 53.588
24.31 18.246 52.722
15.191 17.957 57.962
17.734 17.287 57.373
19.856 17.988 58.454
20.104 18.699 60.993
86.957 51.52 38.119
85.012 52.287 37.964
82.933 52.555 39.589
82.907 52.256 42.041
11.537 19.091 54.555
13.401 17.893 55.462
15.76 17.494 55.006
16.963 17.016 52.711
23.782 68.603 75.56
23.125 67.753 77.757
20.853 67.235 78.891
18.597 67.318 78.141
19.443 16.746 80.431
20.831 17.459 78.587
23.117 16.922 77.618
24.553 14.662 78.081
34.124 44.627 88.49
34.103 46.888 87.236
35.237 49.187 88.139
35.705 49.918 89.959
34.97 32.775 25.665
33.936 33.96 27.504
36.698 34.728 27.735
37.727 36.446 26.676
10.544 20.868 56.109
9.016 18.758 56.715
9.79 16.706 58.665
11.994 17.113 58.49
8.501 92.326 94.439
9.49 89.973 94.043
11.814 89.88 92.643
12.923 91.547 92.316
23.502 56.695 90.046
22.486 54.783 91.754
20.969 56.432 93.167
19.04 57.307 91.977
29.906 11.397 65.604
31.742 11.764 64.404
32.632 10.508 62.151
32.465 7.753 61.957
-0.946 10.254 15.406
0.864 11.429 14.157
1.612 11.162 11.65
1.319 8.976 10.06
0.22 41.055 53.962
-0.187 43.307 55.279
2.084 44.65 56.078
3.856 43.53 56.308
35.163 69.041 93.819
33.913 69.512 95.97
32.276 71.482 96.433
30.64 72.555 95.022
17.715 69.791 78.182
17.06 69.558 80.54
16.234 71.352 82.107
15.108 73.506 81.691
15.407 31.941 62.224
16.866 33.248 64.257
16.591 35.453 65.083
14.455 37.209 64.73
17.198 4.123 28.545
18.949 4.435 26.897
20.156 6.97 27.176
19.914 8.61 28.781
36.385 90.186 10.963
35.804 88.474 10.043
32.983 87.816 10.8
31.883 88.682 12.882
23.269 79.93 32.89
25.536 78.78 32.779
27.31 78.792 30.547
27.399 79.762 28.532
13.604 23.286 90.407
13.362 25.526 89.912
11.686 27.663 91.118
10.297 27.355 92.816
25.845 10.92 6.159
24.509 12.894 5.835
23.718 14.816 7.506
23.755 14.967 9.965
17.07 89.592 63.066
19.188 88.415 63.286
21.523 89.04 61.628
21.688 90.996 60.824
38.382 26.967 48.357
40.264 28.294 49.201
40.646 30.959 49.058
38.638 31.886 49.541
84.492 39.415 9.923
85.785 41.091 7.942
87.63 42.586 8.424
88.518 43.535 10.672
29.014 21.404 71.276
27.518 20.362 72.144
26.32 17.93 71.438
27.585 16.78 69.942
66.897 5.46 66.476
69.129 5.057 67.297
71.559 6.542 66.265
72.08 6.435 63.722
39.664 26.958 24.192
39.92 24.383 22.963
42.125 23.22 22.448
44.514 24.225 22.032
25.563 36.923 84.523
23.716 36.947 86.179
22.679 38.582 87.614
23.403 40.82 88.143
49.785 32.928 73.384
48.363 34.557 73.606
46.293 34.977 75.747
45.495 32.741 76.773
30.892 60.229 2.017
29.406 59.301 1.072
29.827 58.647 -1.221
32.065 58.195 -2.626
69.314 27.063 59.282
66.822 26.81 59.494
65.073 28.447 60.299
65.23 30.929 61.39
27.959 15.378 46.401
26.257 14.524 47.682
25.442 15.107 50.242
26.134 16.497 51.564
32.982 -1.668 86.536
35.028 -0.486 84.963
36.18 1.521 85.552
36.387 2.897 87.586
30.154 20.064 8.413
27.817 21.304 8.644
26.615 22.657 10.151
27.081 23.045 12.79
3.392 47.262 98.38
5.832 46.397 97.476
7.49 48.295 96.582
7.141 49.687 94.467
31.749 19.9 73.756
29.8 21.232 73.906
27.18 19.954 74.541
26.65 18.183 75.72
27.377 45.879 21.549
26.244 44.528 19.174
23.58 44.355 19.21
22.255 45.235 21.0
25.789 22.62 74.384
27.226 23.256 72.725
29.44 24.875 72.729
30.696 25.974 74.975
17.896 18.991 75.944
18.052 18.153 78.252
18.239 19.77 80.619
18.304 22.351 80.595
61.4 22.486 7.776
63.822 22.702 7.243
65.095 25.369 7.651
64.327 26.731 9.883
84.678 27.631 95.916
84.39 28.18 97.963
82.987 30.197 99.223
81.32 31.525 98.592
0.111 48.93 58.913
0.437 50.953 58.29
1.188 53.226 59.389
1.7 53.998 61.814
22.809 57.246 73.875
20.71 55.599 73.236
18.615 56.642 74.741
18.462 59.247 74.965
31.191 88.029 62.988
33.186 88.693 61.473
34.186 91.044 61.384
34.583 92.891 62.843
37.984 0.769 40.436
39.087 0.465 38.618
40.056 2.387 37.599
41.387 4.464 38.498
51.457 26.416 42.085
52.936 24.942 40.544
52.572 22.151 40.069
50.713 20.941 40.395
68.569 22.632 49.574
69.033 23.26 51.861
67.649 24.656 53.487
65.167 25.533 53.627
17.224 5.447 66.22
17.57 4.216 68.322
17.237 5.253 70.682
17.789 7.304 71.789
86.871 20.139 -0.025
85.306 22.129 0.449
85.381 23.791 2.562
85.373 23.206 4.85
43.079 86.848 52.185
43.335 84.794 50.784
45.063 84.128 48.954
46.812 85.115 47.71
18.228 42.855 70.498
19.814 44.498 69.774
21.043 46.497 71.339
19.703 47.74 73.142
23.503 1.159 43.112
21.445 1.316 44.892
19.583 -0.205 45.254
18.497 -1.978 43.786
6.125 70.024 88.942
3.881 69.8 88.682
2.227 68.159 87.444
2.642 66.21 85.901
49.274 76.002 88.186
47.119 75.681 89.218
46.039 73.085 89.868
46.943 71.028 89.26
5.412 17.335 60.76
5.822 15.212 59.818
7.437 13.52 60.281
10.122 13.966 61.21
42.784 60.148 62.676
42.558 62.172 63.469
40.472 63.053 65.078
38.221 62.204 65.005
3.571 22.645 94.872
4.308 23.12 92.474
6.287 24.821 91.436
8.452 25.352 92.091
21.202 15.195 55.04
19.621 14.285 53.646
16.751 14.693 54.398
16.175 15.108 56.538
45.669 61.69 17.335
47.432 63.016 16.472
47.579 65.628 16.268
46.209 67.346 17.189
14.951 19.459 86.39
13.391 21.424 85.975
13.926 23.962 86.498
15.115 25.18 87.909
-1.255 12.807 42.798
-0.093 12.898 40.989
1.072 11.406 39.602
2.746 9.861 39.673
72.661 79.812 79.388
73.157 77.681 78.928
71.339 76.208 78.224
68.904 77.212 77.098
92.662 61.713 32.983
92.291 59.653 33.923
90.857 57.813 33.629
88.811 57.573 31.647
20.142 26.357 55.443
21.226 27.912 56.872
20.084 27.905 59.125
17.86 27.275 59.945
14.346 65.468 81.633
16.45 67.303 82.24
16.156 69.139 83.835
13.95 69.809 85.224
74.981 40.578 56.856
76.034 38.619 56.959
74.101 36.68 57.75
71.657 36.456 57.725
58.356 24.33 81.387
60.582 25.052 82.095
61.096 27.647 83.196
60.296 29.768 82.853
39.19 23.547 41.311
41.323 23.868 42.509
42.459 26.033 43.42
41.889 28.279 43.293
83.551 83.316 73.908
85.808 82.461 73.952
88.157 83.78 75.097
88.292 85.807 75.893
16.456 33.037 45.213
13.984 33.178 44.509
11.785 33.757 45.912
11.383 34.544 47.905
70.066 45.032 92.195
67.336 45.851 91.743
66.14 46.698 93.407
64.327 45.47 94.681
49.646 64.059 17.291
51.324 63.839 15.404
53.149 65.779 14.79
52.175 67.981 15.765
35.186 2.533 21.889
32.526 1.547 22.45
30.945 2.828 23.581
30.997 4.929 25.167
79.259 55.859 39.839
77.263 56.563 41.208
76.954 58.819 42.504
78.021 60.939 42.282
18.583 39.427 10.7
19.023 37.757 12.778
18.582 35.048 12.568
17.418 33.812 11.202
27.942 67.936 27.846
27.744 70.19 28.205
27.41 71.636 30.257
28.105 70.972 32.721
86.081 90.909 5.801
85.894 88.973 4.336
83.911 87.535 3.326
81.569 87.686 4.314
21.031 71.81 53.307
21.167 70.168 55.006
21.075 67.688 55.005
21.541 65.824 53.28
55.008 22.281 87.864
56.89 23.659 87.945
58.731 23.674 89.506
58.766 21.86 91.86
90.546 88.431 53.704
92.159 87.474 52.122
91.915 85.803 50.141
90.513 84.844 48.876
44.532 20.713 21.676
45.606 20.09 19.383
46.743 21.613 17.844
48.59 23.47 18.288
58.944 82.518 37.079
58.871 80.526 38.087
57.583 78.346 37.158
54.902 78.301 36.68
25.485 64.234 27.734
25.776 66.531 28.168
24.983 67.926 30.613
23.006 66.655 31.578
53.808 39.474 6.413
54.555 39.927 4.251
54.48 37.59 2.212
54.416 35.263 2.91
15.987 49.996 46.007
15.236 47.718 45.104
16.723 47.177 42.576
17.413 48.789 40.931
17.686 62.092 32.168
18.353 62.857 30.133
20.846 62.813 28.682
22.355 60.874 28.683
64.977 2.392 91.558
63.389 0.821 90.647
60.943 1.003 89.996
58.987 1.837 91.502
21.569 68.224 33.77
19.414 68.073 32.622
17.426 66.535 32.989
17.087 64.433 33.649
10.32 29.946 92.227
11.181 31.968 91.219
13.489 33.045 91.602
14.898 33.056 93.454
18.295 56.22 6.119
15.789 56.326 6.265
14.076 58.516 7.089
14.893 60.841 8.054
39.16 33.225 5.787
41.554 32.498 6.042
43.2 31.562 4.071
42.637 31.14 1.718
62.831 15.86 26.569
63.667 18.361 26.815
64.968 19.488 25.154
66.705 18.528 23.239
14.888 33.293 87.423
16.436 34.466 88.785
16.245 37.083 90.01
14.307 38.561 90.109
6.058 49.211 24.19
7.964 48.386 25.658
10.602 48.722 25.434
11.994 49.099 23.348
17.521 64.581 10.216
16.683 62.478 9.998
17.825 59.948 10.235
20.267 59.291 10.788
83.609 10.645 13.798
82.277 9.713 15.787
80.484 8.199 15.817
79.146 7.026 14.328
54.569 2.7 46.085
55.122 3.496 48.095
57.465 4.743 49.129
59.283 5.374 47.848
83.704 36.135 2.396
83.019 35.596 4.609
80.753 34.534 5.489
78.506 34.604 4.762
16.755 56.013 1.207
15.028 54.588 2.547
13.986 55.347 4.673
12.383 57.221 5.136
76.693 70.579 45.321
75.805 70.468 47.308
74.27 68.059 47.742
73.312 66.616 45.972
41.346 6.61 30.074
40.224 4.688 31.396
37.91 3.639 31.085
37.718 3.172 28.714
37.397 20.62 43.538
39.308 22.049 43.43
40.359 23.606 45.034
39.442 24.785 46.998
29.031 -1.01 13.751
30.689 -0.163 15.171
30.708 1.58 17.063
29.29 2.946 18.094
51.919 49.896 32.906
50.72 51.894 33.485
48.7 52.26 35.054
47.527 50.845 35.728
50.475 60.162 33.799
49.821 57.993 33.718
47.412 57.057 34.538
46.363 58.182 35.677
38.103 87.371 2.844
35.534 86.066 3.207
35.146 83.88 4.088
36.56 81.949 4.776
20.136 70.568 31.749
22.13 70.993 30.231
24.687 71.035 31.221
25.555 72.109 32.947
32.256 18.008 94.003
34.541 18.298 92.861
35.528 20.621 91.827
34.623 22.896 92.328
55.029 61.663 35.09
52.377 61.223 35.294
50.519 62.386 35.604
49.984 64.977 35.534
40.321 65.737 90.707
39.91 67.718 91.956
38.643 68.191 94.192
36.47 66.941 95.029
76.841 19.73 77.339
75.729 19.485 75.056
75.51 17.608 73.445
75.562 15.24 73.781
43.649 58.586 39.19
44.51 61.175 39.894
42.615 62.951 40.546
40.353 62.988 41.061
28.969 -2.881 45.644
26.516 -3.009 46.001
24.56 -1.113 46.09
24.454 1.189 46.123
38.687 75.119 26.572
40.572 75.431 25.209
41.817 73.214 23.198
41.64 70.911 23.562
34.983 72.28 4.772
33.411 73.548 5.308
31.22 73.463 3.837
30.315 71.411 2.465
24.241 75.246 9.36
26.085 76.572 9.776
28.639 76.651 8.926
29.616 75.285 7.074
65.438 69.921 33.641
65.337 68.859 31.484
67.089 68.294 29.751
69.421 67.808 29.847
51.904 74.872 12.502
53.74 75.539 13.444
55.474 77.602 13.221
55.359 79.741 12.033
22.659 75.774 58.095
21.918 76.145 60.748
22.372 78.205 62.089
23.774 80.202 61.832
22.734 32.623 39.286
20.648 32.343 38.532
19.375 30.011 37.679
20.591 28.255 37.238
74.662 53.224 18.647
77.229 53.283 18.169
78.77 55.601 18.426
77.664 57.942 18.345
53.902 13.458 57.752
54.456 11.189 58.009
56.236 9.474 56.698
57.848 9.789 55.486
11.08 57.436 10.385
12.914 58.939 9.548
14.983 60.313 10.769
16.219 60.131 12.738
27.932 52.466 18.412
26.946 50.806 20.262
26.609 48.223 20.065
27.211 46.704 17.966
5.206 25.646 20.031
7.189 25.353 19.024
8.166 22.902 18.168
6.886 20.919 18.852
58.666 39.017 20.36
60.194 38.648 19.141
61.705 36.492 18.639
62.051 34.454 19.571
42.247 52.496 34.723
44.576 52.551 34.51
46.622 53.957 35.939
46.596 56.077 37.029
81.016 69.315 20.34
83.418 68.442 19.96
85.136 69.334 18.686
85.583 71.846 17.531
74.496 54.331 21.26
75.571 52.497 20.884
75.791 50.129 22.137
74.836 49.349 24.289
23.829 61.515 1.125
26.392 60.298 0.588
28.615 61.876 0.848
28.683 63.844 1.826
81.12 68.809 22.988
78.852 69.493 22.773
76.778 69.63 24.597
76.598 68.941 26.959
56.131 20.226 63.034
55.614 22.592 62.213
56.719 24.096 61.182
59.191 24.923 61.126
64.468 42.503 20.752
62.661 40.798 19.674
59.884 41.272 19.675
58.862 43.308 20.353
4.99 55.338 35.973
6.15 57.37 34.772
5.728 59.987 35.593
6.193 60.516 38.149
22.628 65.541 26.688
23.164 63.458 27.152
24.95 62.441 25.636
25.383 62.476 23.098
86.617 37.013 1.415
85.405 38.051 3.281
86.204 39.246 5.762
88.557 39.963 6.058
16.265 78.661 15.702
16.306 76.72 14.307
17.181 74.199 14.877
16.901 73.219 16.965
27.86 73.81 0.164
28.226 73.203 2.567
28.868 74.744 4.589
29.001 77.157 4.927
7.742 77.411 46.524
6.274 77.954 44.947
3.656 77.335 44.554
2.64 75.021 44.782
85.872 10.799 83.635
86.778 10.876 86.461
87.617 13.119 87.554
87.929 15.382 86.619
36.047 0.727 10.864
34.23 -0.035 12.081
32.474 0.932 13.857
32.295 2.858 14.934
5.622 63.135 11.608
7.356 65.103 11.359
9.835 65.076 11.662
11.42 63.449 12.179
23.722 10.071 3.653
21.704 9.875 2.221
21.618 8.555 0.046
22.63 6.545 -0.822
16.465 70.57 16.18
14.776 71.357 14.472
14.626 70.804 11.982
15.345 68.953 11.628
14.222 71.154 87.973
12.673 72.624 87.985
9.836 72.532 88.774
8.697 71.101 90.138
14.015 2.124 20.424
15.886 1.345 21.805
18.294 0.65 21.426
19.678 1.16 19.567
12.88 46.165 1.277
13.249 48.816 1.287
14.941 50.316 -0.093
17.086 50.071 -0.702
56.935 86.337 89.894
54.691 85.169 90.447
53.709 83.297 89.918
54.291 80.919 88.761
21.718 88.41 46.032
19.786 87.669 44.602
18.482 85.34 44.238
19.419 82.951 45.296
44.667 62.322 14.932
44.727 59.915 14.818
43.684 58.403 12.321
42.011 59.063 10.94
85.531 66.113 20.525
86.973 65.186 18.776
86.445 63.863 16.578
83.927 62.971 15.883
65.734 86.073 87.645
67.831 85.13 87.455
68.657 85.082 84.576
67.788 83.71 83.133
21.642 85.832 66.451
21.947 85.291 64.31
21.499 83.383 62.904
21.404 80.803 63.342
35.982 72.125 93.561
37.567 70.765 94.553
40.235 70.921 94.149
41.591 71.562 92.219
68.737 49.995 92.791
67.008 49.013 94.123
64.729 49.048 94.247
62.877 50.786 93.632
63.391 32.736 57.571
63.318 31.494 59.601
61.298 31.315 61.549
59.854 32.536 62.207
79.928 44.943 18.954
79.589 44.96 16.088
82.186 45.156 14.823
84.056 43.701 15.119
77.846 48.953 91.195
78.48 48.589 88.728
78.952 46.652 87.425
79.3 43.972 88.046
54.095 6.575 30.987
51.507 7.198 30.367
49.61 7.104 31.381
48.663 6.832 34.071
46.33 62.682 12.589
47.619 64.258 14.097
49.391 65.48 13.791
51.403 65.696 12.526
29.993 60.215 90.561
30.229 57.484 90.883
32.314 56.029 90.136
34.104 56.285 88.355
14.492 40.005 2.166
13.994 41.799 0.893
11.401 42.937 0.359
9.552 43.011 2.108
21.843 24.724 15.724
19.323 24.594 15.039
17.27 26.065 16.238
17.107 27.266 18.118
28.716 39.408 13.052
26.486 40.234 14.008
25.926 42.382 15.504
27.709 44.119 16.733
48.946 75.357 21.915
46.457 75.474 21.66
44.46 73.814 22.583
44.165 72.455 24.124
26.823 81.099 35.286
27.745 79.095 34.188
30.154 78.654 33.504
32.249 80.247 33.799
2.415 66.175 9.298
3.32 64.79 10.243
1.702 62.897 11.67
-0.784 63.066 11.578
45.469 87.726 9.024
45.381 89.797 8.073
47.689 91.175 6.664
49.309 90.26 5.538
36.229 43.023 11.612
37.867 44.961 10.504
39.752 46.284 11.817
40.76 45.129 12.999
42.422 35.011 30.143
40.164 35.866 29.338
37.792 35.691 30.05
36.718 33.851 31.511
14.748 32.495 15.391
16.617 33.125 14.39
18.843 34.641 15.479
18.531 36.562 16.981
18.141 75.75 10.467
16.77 74.325 11.704
14.364 73.61 11.187
12.956 73.538 8.89
24.232 67.383 25.688
24.404 68.735 27.55
25.118 71.45 27.8
25.679 72.958 26.069
66.774 37.314 84.412
68.389 35.853 85.671
67.768 33.755 87.092
65.863 32.912 87.81
33.133 36.711 10.953
34.608 38.902 10.52
33.902 41.136 11.273
31.8 41.626 11.496
24.454 79.213 11.41
22.007 77.944 10.988
19.692 78.548 11.866
18.761 80.376 12.082
12.106 86.011 42.498
11.571 86.014 44.715
8.928 86.825 46.011
6.788 86.711 45.098
46.857 9.278 33.45
46.786 7.886 31.002
45.389 8.255 29.255
42.763 8.666 29.347
51.901 56.193 30.972
52.089 57.353 32.669
53.512 58.952 33.462
54.923 60.629 32.434
64.981 16.161 29.062
65.995 17.997 28.388
68.63 18.818 28.56
70.719 17.75 29.081
84.902 71.805 28.45
82.592 71.474 26.704
83.337 70.101 24.303
84.604 68.476 23.768
39.891 26.192 2.513
41.518 28.388 2.34
43.273 29.043 3.661
44.676 27.589 4.822
31.25 52.376 86.588
33.525 52.416 85.678
35.235 50.675 84.968
34.879 48.307 84.601
26.163 38.859 90.915
24.131 38.65 90.079
22.683 36.743 90.173
21.616 35.856 92.221
35.039 66.274 45.254
37.009 66.157 44.039
38.11 63.919 42.534
37.489 62.338 41.75
16.362 15.103 27.899
16.466 12.669 29.161
17.342 10.522 27.772
17.766 10.183 25.481
-1.406 75.848 0.592
-0.423 75.757 -1.747
0.988 74.386 -2.959
2.616 72.572 -2.37
17.935 80.874 14.65
15.464 81.863 15.43
15.037 83.42 17.044
16.432 84.785 18.943
81.584 49.444 17.423
81.655 51.773 17.125
83.67 53.148 15.53
85.311 51.62 14.649
5.246 67.027 35.117
6.339 64.579 35.64
4.877 62.343 36.55
2.416 61.944 35.587
44.271 11.723 82.354
46.297 12.658 83.264
48.542 13.219 82.225
49.369 13.712 79.881
68.349 64.737 2.207
69.985 66.28 1.884
72.426 66.443 3.301
73.944 64.329 3.51
3.99 4.157 77.467
2.119 2.708 77.731
-0.77 3.404 77.916
-1.589 5.662 78.005
22.166 78.935 40.156
20.738 80.256 41.465
19.889 79.263 43.562
19.387 77.019 44.123
89.845 63.673 91.248
89.225 63.906 89.112
88.091 62.122 87.356
87.883 59.724 87.329
9.314 73.427 17.173
8.785 72.922 14.83
6.498 71.981 13.658
4.515 71.374 14.731
38.507 67.24 41.931
40.097 65.434 42.174
42.606 65.15 41.717
44.115 66.163 40.094
53.183 15.727 30.862
55.219 17.263 30.574
56.951 17.781 32.768
56.025 18.536 35.006
6.192 64.758 59.09
5.69 67.23 59.986
6.309 68.311 62.282
8.002 68.099 63.642
10.596 65.196 32.672
10.0 66.065 34.936
8.686 68.169 35.683
6.641 69.124 34.622
69.338 4.396 19.233
69.018 2.276 20.769
67.222 1.889 22.544
65.12 3.588 23.193
23.474 14.453 52.007
21.851 13.458 50.481
20.646 10.941 50.187
21.077 9.056 51.809
47.776 3.535 26.085
46.898 4.816 27.973
44.647 5.774 28.624
42.477 5.508 27.649
53.525 37.292 68.018
52.186 38.386 69.899
53.268 39.953 72.062
55.418 40.759 72.254
60.885 48.609 69.977
63.09 47.81 70.008
65.469 49.096 69.057
65.828 51.126 68.364
16.413 56.311 73.269
15.856 55.207 75.467
14.299 53.41 76.029
11.789 52.934 74.601
10.296 2.075 95.5
12.439 1.841 96.384
14.814 3.329 96.597
15.404 4.976 94.656
6.609 81.764 47.882
7.735 83.428 46.719
10.127 83.561 45.392
12.402 82.729 46.476
46.73 56.265 10.33
46.424 57.87 11.973
47.678 60.262 12.351
49.229 61.272 11.275
18.598 41.879 43.64
19.351 44.073 43.213
18.888 46.31 44.241
17.482 46.666 46.343
79.228 74.087 28.609
77.418 72.535 27.356
75.561 71.086 27.98
74.508 70.651 30.449
46.682 10.056 62.897
44.709 10.707 62.904
43.934 12.804 63.747
44.652 14.125 65.677
50.679 82.17 18.863
51.943 80.441 19.279
50.2 78.611 19.997
49.192 78.35 22.56
47.303 86.325 54.571
48.345 86.852 51.838
50.204 87.693 51.102
51.712 89.752 52.525
57.301 47.387 3.41
59.029 48.883 2.488
59.958 51.157 3.32
59.644 52.418 5.505
53.206 83.056 17.877
54.622 82.617 16.898
54.752 81.137 14.591
52.891 80.419 13.675
42.964 85.13 31.317
42.399 82.221 31.083
42.86 81.044 28.962
44.324 81.663 26.69
8.461 82.952 42.096
8.271 80.961 43.94
8.813 78.56 43.559
8.719 77.16 41.317
65.817 22.931 28.212
66.501 21.101 26.691
68.289 20.632 24.853
70.413 21.097 25.573
10.253 49.389 95.097
11.122 50.408 97.118
12.524 52.823 97.526
13.419 54.172 95.989
34.61 90.682 57.77
35.75 88.725 58.133
36.856 86.91 56.482
36.798 86.666 54.15
48.164 50.632 31.673
46.888 52.074 33.1
47.327 54.714 33.343
49.469 56.045 32.165
41.86 80.662 25.507
40.479 80.352 27.717
38.033 79.305 27.838
37.804 77.864 26.265
55.894 58.551 11.174
57.191 58.685 8.87
58.036 57.114 7.402
58.123 54.276 7.517
79.86 17.145 23.451
80.631 16.736 21.072
80.025 14.715 19.979
79.65 12.287 20.811
55.829 42.223 93.902
58.041 41.823 93.767
59.377 40.81 91.911
58.654 41.035 88.984
34.991 53.336 20.128
34.287 55.111 18.734
35.7 56.861 17.196
38.442 56.813 16.945
31.455 48.135 43.658
29.521 49.044 42.079
28.447 48.257 40.203
29.512 47.149 38.627
50.046 39.509 74.458
49.599 37.463 73.076
47.465 37.036 71.301
45.215 37.983 71.498
31.955 1.851 86.338
30.981 0.041 85.389
28.538 -0.354 84.24
26.402 1.038 84.715
42.506 19.524 15.657
43.096 19.998 18.075
42.569 21.771 19.815
41.36 23.648 19.882
32.199 80.316 31.11
30.1 78.87 30.824
29.754 77.234 28.495
31.255 76.761 27.291
29.099 55.559 92.411
28.709 54.199 90.609
29.974 52.541 89.206
32.013 51.561 89.596
30.002 91.218 20.193
31.773 93.097 19.936
33.66 93.314 18.471
34.872 92.051 16.772
7.86 18.711 14.587
9.787 20.312 13.399
10.711 21.947 15.336
10.512 21.757 17.814
38.691 41.528 11.414
37.352 40.416 10.266
37.922 37.985 8.836
39.783 36.855 8.793
23.402 73.333 29.242
24.505 74.91 30.465
26.594 76.592 29.562
27.36 77.129 27.253
49.555 68.015 12.743
49.453 68.131 15.25
49.441 70.281 16.71
48.492 72.705 15.916
28.284 93.207 19.7
28.42 94.545 21.662
27.054 95.006 23.6
24.908 95.479 23.394
0.638 65.182 15.49
2.063 64.391 13.83
4.184 63.136 13.852
5.884 62.529 15.519
48.89 62.85 39.502
48.59 62.183 37.452
46.902 60.001 37.251
46.398 58.356 38.744
21.996 30.223 55.826
23.928 28.924 56.94
26.034 27.899 55.962
27.597 29.149 54.257
10.426 76.751 19.382
10.749 79.033 18.921
9.179 81.178 19.032
6.983 81.205 20.435
7.461 70.256 40.102
8.632 68.817 38.793
7.036 67.045 37.487
4.387 66.633 38.4
44.223 57.669 8.804
43.117 56.073 10.648
42.75 54.076 10.274
40.822 53.092 10.041
14.681 49.469 4.442
14.691 51.042 2.999
16.373 52.375 1.907
18.96 53.113 2.598
24.382 60.266 94.556
26.538 59.826 93.971
27.574 58.684 91.665
26.896 58.788 89.456
30.736 52.286 17.416
32.509 54.191 16.716
31.925 56.873 16.648
30.064 58.085 15.709
86.754 -0.263 0.369
86.394 -0.668 2.208
87.898 0.875 4.148
89.261 3.225 3.434
44.037 72.753 50.665
43.576 71.513 48.686
40.807 70.311 49.139
39.859 70.906 51.591
87.891 4.241 74.344
89.295 2.365 75.344
88.835 -0.339 75.577
87.081 -1.503 75.973
44.857 66.715 87.785
44.718 68.332 89.729
42.821 69.956 90.423
40.815 69.676 90.457
54.724 4.957 55.66
53.888 4.844 53.126
54.394 3.313 51.58
52.969 1.4 51.003
82.912 85.671 7.147
80.622 86.395 6.394
78.71 87.48 7.514
78.365 88.165 9.989
37.942 65.926 49.839
39.88 67.231 48.415
40.739 66.804 46.11
40.821 64.609 44.834
84.71 47.83 14.848
84.632 46.08 12.904
86.203 45.511 11.227
88.556 46.862 10.387
18.355 45.103 21.766
16.653 43.875 21.382
17.186 41.971 19.795
19.583 41.267 19.046
86.273 59.064 13.212
87.357 60.785 14.001
86.472 63.499 13.538
85.949 64.213 10.995
31.577 64.671 51.369
32.549 66.008 49.877
34.499 65.536 47.95
35.464 63.799 47.261
7.949 43.743 95.978
9.089 46.132 96.379
11.364 46.892 95.261
12.576 45.206 94.48
38.28 4.885 33.651
38.434 4.115 36.125
38.521 5.442 38.298
37.839 7.942 38.5
11.347 77.172 85.41
13.114 75.676 86.241
14.035 73.364 85.474
13.76 71.955 83.487
15.006 59.04 81.499
16.615 60.573 80.628
17.445 62.878 81.708
16.494 64.106 83.703
17.552 75.695 88.339
16.553 75.021 86.421
16.58 72.842 84.84
17.994 70.908 84.817
22.534 58.708 76.566
20.846 59.854 76.952
19.077 60.054 79.33
19.23 59.457 81.529
38.623 71.619 1.355
36.423 71.45 2.093
34.81 69.128 2.539
35.601 67.004 2.109
32.641 48.679 59.451
35.124 48.989 60.131
37.2 47.312 59.518
36.998 45.733 57.235
40.376 83.657 79.61
41.459 82.659 78.409
43.439 83.17 76.363
43.567 85.157 75.16
32.248 68.385 3.225
31.648 67.592 0.942
31.536 65.214 -0.134
31.485 62.895 0.951
31.563 40.996 87.932
29.76 39.375 87.621
27.25 39.608 87.82
25.835 41.175 89.458
19.853 38.668 42.057
19.859 40.874 41.489
20.592 41.595 39.664
22.9 41.364 38.27
19.326 64.612 82.908
19.232 66.709 81.602
19.632 69.331 82.181
20.683 70.327 84.154
59.414 52.068 96.607
61.052 50.492 96.042
61.312 48.854 93.911
59.726 47.696 92.684
17.922 48.928 69.009
17.879 49.165 71.644
18.7 50.654 73.094
19.469 53.148 72.771
40.885 79.05 52.478
42.943 79.681 51.504
44.498 82.243 51.942
44.045 83.703 53.221
73.38 39.885 89.114
74.095 41.966 87.923
74.523 44.183 88.917
72.761 45.403 90.67
34.148 6.591 60.236
34.643 4.795 61.786
32.949 3.011 62.705
30.929 1.97 61.556
76.666 79.471 79.954
74.46 79.837 81.338
73.733 82.036 82.597
74.899 84.432 82.805
77.494 45.317 85.211
79.876 44.066 85.169
81.407 43.698 83.381
82.113 45.901 82.763
64.737 70.283 55.569
62.713 70.468 55.588
61.182 72.504 54.233
62.414 73.811 52.449
31.024 36.986 88.333
32.38 37.081 86.408
34.239 38.842 85.883
36.023 39.995 87.28
38.014 47.735 66.027
36.583 49.221 65.295
36.705 52.065 65.735
38.244 53.352 66.308
85.424 47.56 55.394
87.045 46.285 56.682
89.814 46.106 56.487
91.158 48.094 55.881
2.352 52.297 84.028
2.063 54.887 83.122
1.309 56.928 84.261
0.493 57.313 86.886
0.742 77.842 70.044
3.216 77.536 70.156
4.741 75.533 69.845
3.915 73.04 68.968
50.976 39.334 98.611
52.431 40.753 98.727
53.947 41.131 97.111
53.873 40.687 94.594
41.347 81.005 48.433
43.454 81.837 49.449
45.768 81.264 48.985
46.86 80.744 46.34
8.557 57.691 54.594
6.495 55.998 54.661
4.339 56.297 55.43
3.356 58.675 57.22
20.613 53.766 93.495
18.915 53.744 95.557
16.535 53.769 95.531
14.918 52.947 93.743
39.885 45.953 62.2
38.473 47.7 61.963
35.929 48.148 62.851
34.387 46.875 63.926
44.322 86.421 54.472
42.132 85.265 54.856
39.825 86.616 55.095
39.264 88.647 56.81
12.248 61.474 8.743
13.348 62.391 10.485
14.817 64.619 10.761
14.401 66.82 9.814
51.547 62.891 86.221
51.538 61.204 84.422
49.762 60.392 83.1
47.273 60.445 83.164
3.805 40.74 57.383
2.771 39.737 55.164
3.564 37.905 53.911
5.155 35.922 54.37
55.861 38.357 93.722
54.113 37.875 95.083
53.499 35.394 96.171
54.272 33.425 95.98
76.499 78.776 56.839
74.166 78.909 56.482
72.011 78.482 57.994
71.709 79.195 60.237
49.136 68.121 90.154
49.032 70.657 90.826
50.633 72.004 92.283
53.133 71.018 92.455
7.149 49.094 56.288
7.708 51.439 56.164
8.653 52.82 54.358
9.855 52.346 51.898
87.611 90.035 56.745
85.05 90.738 57.668
83.051 90.97 56.636
81.91 89.936 54.469
46.294 77.73 91.777
46.833 75.105 91.729
45.656 73.06 92.908
43.636 72.741 94.214
31.45 57.77 85.58
33.093 56.064 85.874
34.149 54.45 83.935
33.143 54.097 81.939
34.828 16.76 90.536
37.16 17.784 90.305
38.549 16.864 88.081
38.03 15.627 86.469
39.665 42.416 53.059
39.885 43.76 55.192
40.353 46.351 55.431
40.499 48.193 54.023
5.914 81.207 70.716
3.472 80.9 70.216
1.455 81.888 70.716
0.829 84.162 71.433
87.716 79.62 68.744
88.204 80.387 71.289
88.478 82.527 72.19
88.42 84.966 71.12
53.925 68.802 60.268
55.809 70.346 60.485
56.396 72.044 62.357
55.598 72.723 64.174
14.009 81.686 13.191
14.353 79.604 13.372
15.727 77.56 11.587
17.506 78.216 10.017
12.303 58.468 54.085
14.478 57.539 53.837
16.549 58.714 52.811
17.212 60.805 52.158
12.82 90.543 73.012
14.173 92.261 72.602
14.197 93.864 70.321
13.228 93.874 68.486
26.947 65.906 96.169
28.563 67.277 96.969
29.351 69.712 96.508
28.474 71.511 95.194
16.375 9.21 78.52
16.542 11.403 77.909
19.216 13.124 77.798
20.902 12.996 79.168
3.182 59.953 84.284
1.94 58.892 82.775
1.872 58.175 80.484
3.625 58.042 78.551
1.191 41.186 73.598
1.765 43.387 75.272
3.756 43.9 76.449
5.584 42.5 76.543
93.025 16.569 57.808
91.592 14.825 58.791
89.851 13.859 57.987
87.642 14.039 58.928
19.482 35.967 66.373
19.335 34.055 64.926
19.429 34.013 62.333
20.999 34.977 60.786
41.651 9.11 68.889
42.41 11.052 67.536
40.853 13.226 66.728
38.854 14.24 67.626
4.29 48.934 80.484
3.09 50.834 79.79
3.258 53.346 79.976
4.632 54.689 82.132
2.751 67.33 59.712
2.248 67.422 61.801
2.248 69.407 63.611
3.155 71.247 63.211
82.09 44.854 61.187
82.599 45.657 59.122
84.55 46.921 58.277
86.616 47.753 58.932
43.156 9.774 12.481
42.169 8.669 10.445
41.229 6.197 10.176
41.458 4.142 11.321
91.731 91.123 72.984
90.559 89.834 74.734
88.643 88.225 74.637
87.921 87.052 73.188
1.722 4.363 12.518
3.186 4.82 10.371
4.974 3.535 9.631
5.534 1.037 9.886
14.787 90.106 88.088
16.692 88.382 88.132
18.814 88.352 87.058
19.817 89.313 85.087
75.303 74.94 78.45
75.771 76.893 77.579
78.154 78.447 77.836
80.077 78.024 78.258
70.944 76.803 89.436
70.884 76.974 86.724
69.491 79.115 85.458
68.954 81.267 86.117
15.136 77.714 66.774
12.969 77.698 65.98
11.19 76.064 65.503
10.727 73.846 66.26
5.951 72.723 87.21
7.146 74.15 88.838
7.816 76.682 88.759
8.951 77.327 86.746
46.111 67.443 44.765
44.536 68.693 45.737
42.755 68.403 47.48
42.561 66.907 49.279
37.146 72.06 78.348
37.817 73.65 77.354
39.345 75.263 78.055
41.866 75.281 78.437
12.131 85.925 85.622
14.467 86.574 87.2
14.35 87.357 89.792
12.486 87.58 91.307
29.727 68.335 48.651
31.823 69.076 49.247
33.807 69.557 48.429
35.006 68.773 46.271
22.902 82.283 60.334
23.906 82.992 61.87
24.084 85.47 62.265
23.563 87.364 60.618
11.292 78.482 67.814
9.459 77.334 67.219
6.764 78.063 66.755
5.804 80.069 68.223
23.08 62.101 52.361
23.069 59.769 53.052
21.169 58.103 52.604
19.285 57.899 51.02
7.192 68.698 66.229
5.852 70.553 65.809
3.367 71.325 65.924
1.62 70.717 67.88
38.005 3.061 62.275
35.932 2.611 61.339
35.251 1.224 59.31
37.23 -0.176 57.938
26.483 14.314 70.493
26.973 15.43 72.778
25.572 15.696 74.683
23.36 14.568 75.554
60.162 55.277 55.195
59.74 54.462 53.108
60.708 51.961 51.937
62.528 50.674 52.575
17.205 54.109 53.74
17.541 52.575 52.092
19.511 52.678 49.9
21.138 53.673 49.701
73.007 30.566 53.82
72.485 32.161 56.113
73.036 34.258 56.407
74.893 35.266 55.636
70.677 15.339 93.46
70.791 12.999 93.038
72.943 11.35 93.382
75.412 12.146 93.752
35.968 84.407 56.118
38.503 83.702 55.615
39.596 82.019 54.098
38.775 80.964 52.132
9.618 32.544 47.283
7.61 33.092 47.107
5.966 34.659 48.427
6.089 35.085 50.959
19.262 50.763 1.2
20.304 50.611 -0.641
22.195 52.702 -0.627
22.753 53.905 1.363
21.48 74.885 63.121
19.369 75.735 63.066
17.834 77.016 65.038
17.982 77.242 67.194
67.842 4.74 47.905
66.156 6.639 48.678
64.016 6.605 49.85
62.601 5.12 50.843
-1.107 84.562 0.952
-0.978 82.103 0.418
1.092 80.677 -0.199
