1.582 25.962 90.584
-0.629 26.535 91.661
-2.321 25.564 92.923
40.763 78.608 23.453
41.94 76.357 22.676
41.456 74.105 22.505
39.627 72.697 22.717
60.946 68.984 31.945
62.664 70.055 32.779
62.746 72.015 35.034
60.344 72.959 35.616
31.074 55.186 25.914
30.01 57.031 27.416
29.973 57.286 29.746
29.059 55.881 30.906
61.921 39.855 38.476
61.306 37.809 39.025
60.236 36.818 41.187
59.031 38.144 43.084
48.487 63.239 14.796
46.168 62.38 14.986
45.53 60.022 15.459
46.82 58.408 14.438
53.893 42.702 25.277
54.481 40.595 24.458
53.404 38.15 25.32
51.203 38.602 25.423
55.995 61.398 58.818
57.336 63.25 57.541
57.808 63.593 54.993
58.161 61.736 53.932
-0.006 33.31 25.249
-1.989 35.004 25.407
-2.381 37.0 26.519
-1.238 37.913 28.929
29.213 83.007 39.338
27.703 81.712 38.318
26.428 79.504 38.546
25.959 78.214 40.777
43.306 32.089 73.482
41.66 30.405 73.924
40.241 29.841 76.194
39.849 31.239 78.361
18.218 41.142 64.532
16.767 39.999 64.127
14.552 40.355 65.761
14.395 41.971 67.564
22.666 50.691 30.107
23.352 52.181 28.316
25.796 53.223 27.428
27.265 54.575 29.02
75.953 19.681 27.671
76.538 19.68 25.368
77.6 18.026 23.599
78.179 15.476 23.982
63.806 9.91 2.712
64.907 10.348 0.414
65.857 8.362 -1.31
66.051 5.901 -1.104
1.882 29.785 43.611
3.098 31.686 44.565
2.439 33.579 46.203
0.259 33.74 47.702
49.975 43.229 25.242
47.796 43.37 25.941
46.514 44.898 27.297
46.786 47.323 27.99
57.959 0.533 0.673
56.481 -1.518 1.589
54.002 -1.546 2.67
52.995 0.325 3.952
66.601 52.979 26.406
67.146 51.871 24.299
66.108 50.494 22.537
63.96 49.044 22.497
49.853 35.372 23.03
50.723 36.994 23.388
53.497 37.721 22.77
55.162 36.375 21.854
41.636 46.427 28.026
42.423 44.642 28.756
43.943 42.579 27.487
45.033 42.719 25.578
85.934 57.356 20.217
84.332 56.82 18.831
81.739 55.811 18.957
80.339 55.354 20.827
23.927 44.917 14.861
23.148 43.405 16.431
20.995 41.537 15.888
18.765 41.981 15.028
75.963 39.953 31.162
76.418 37.282 31.188
76.189 35.656 29.529
76.036 35.818 26.871
9.931 22.562 14.703
11.682 24.367 14.117
13.944 24.207 12.701
14.966 22.155 11.888
44.264 14.796 90.935
44.437 12.554 90.354
46.209 12.519 88.135
47.933 13.987 87.729
59.223 82.028 38.897
61.233 81.802 37.575
63.391 83.655 37.286
63.564 85.803 37.441
30.975 19.048 28.154
29.295 20.839 28.174
27.412 21.186 26.708
25.274 19.698 26.818
85.916 36.329 24.277
84.781 34.473 24.753
83.122 33.57 26.507
82.364 34.807 28.817
66.595 30.196 9.048
67.548 31.803 10.114
66.792 34.217 11.343
65.0 33.949 12.448
87.035 14.145 34.956
88.404 15.565 35.254
90.578 14.592 34.659
91.866 14.835 32.278
58.949 62.719 9.15
60.653 60.648 8.813
61.593 60.395 6.143
62.274 61.94 4.626
8.282 42.147 26.696
8.923 43.331 24.768
11.324 43.273 23.385
13.31 42.755 23.69
31.374 47.785 47.026
30.395 45.8 46.179
31.064 43.136 46.212
33.007 42.521 46.972
63.479 42.612 18.972
63.543 41.367 17.283
64.111 38.698 16.959
65.254 37.059 18.293
73.451 37.302 80.467
72.33 35.575 81.883
72.058 32.896 81.624
72.951 31.411 80.055
50.725 41.238 22.107
50.109 40.51 24.208
48.058 39.935 25.318
45.556 40.027 24.744
51.326 88.834 2.607
49.292 89.195 3.961
50.178 90.8 5.656
52.653 91.145 6.674
75.512 85.363 7.406
73.808 85.565 9.115
73.239 88.242 10.457
74.873 89.844 9.637
21.262 38.447 11.882
21.63 40.447 12.387
23.544 42.336 11.29
25.707 41.698 9.895
67.384 49.544 65.129
69.261 48.058 64.604
68.903 45.554 63.298
67.169 44.936 62.557
60.863 45.987 18.735
62.385 47.267 19.8
62.644 50.099 19.961
62.008 51.524 17.651
84.85 22.716 65.771
82.72 23.133 66.835
80.393 23.97 66.012
79.327 24.185 63.72
88.446 19.027 12.45
89.956 16.932 12.166
88.804 14.359 12.116
86.787 13.489 11.815
18.71 34.305 38.382
18.801 32.071 38.395
16.844 30.02 37.657
14.721 30.331 37.167
61.626 23.077 7.2
62.09 21.018 8.182
63.925 19.122 7.66
64.918 18.346 5.893
26.671 61.847 30.038
27.783 60.539 28.444
27.45 57.797 28.497
25.835 56.469 29.907
72.714 57.767 42.824
74.279 56.223 43.77
74.972 53.912 43.083
74.583 52.428 40.743
58.737 12.462 29.461
58.165 10.322 30.534
56.307 8.543 29.232
55.106 9.23 27.67
62.971 37.806 36.373
62.589 35.429 36.335
60.525 34.201 36.017
61.095 34.069 33.939
68.961 53.382 19.091
67.237 52.193 20.004
64.912 51.149 19.048
64.298 50.616 16.837
33.004 30.04 29.224
32.03 27.898 29.114
30.667 26.425 31.017
29.149 27.611 32.864
87.658 -0.041 34.758
87.06 2.141 34.307
87.64 4.6 34.664
89.499 5.492 35.911
76.639 82.984 60.29
74.863 84.019 61.224
74.194 84.741 63.452
75.537 84.671 65.767
85.745 56.154 35.105
86.587 53.844 35.708
86.39 51.331 34.26
86.175 51.612 31.476
68.506 66.515 4.185
67.456 64.388 4.988
65.452 63.181 4.581
63.839 63.228 2.769
58.406 28.6 40.208
56.848 27.103 39.096
54.163 26.744 39.912
53.508 26.726 42.359
1.274 35.1 18.488
3.626 33.765 18.612
4.284 31.832 18.091
3.006 29.437 17.438
65.124 63.52 7.316
67.59 64.713 7.544
68.119 67.018 8.372
67.077 68.577 9.595
19.615 81.168 42.214
18.134 83.58 42.65
15.52 83.522 42.232
13.801 81.732 42.097
18.492 51.967 77.1
19.623 52.973 75.355
22.144 52.668 74.019
22.906 50.466 73.394
65.535 22.924 12.698
67.333 24.757 12.577
67.62 26.949 11.835
65.738 28.819 11.204
53.541 73.363 64.307
52.142 71.626 63.046
51.088 69.427 63.947
50.658 68.874 66.756
86.699 39.267 80.27
88.451 38.31 78.806
90.935 39.793 79.509
90.655 41.763 81.201
54.264 70.413 14.729
54.817 72.93 14.213
57.095 74.14 14.771
58.357 73.866 17.221
54.721 35.952 26.911
55.844 36.679 25.251
57.699 35.199 23.799
59.125 34.02 24.754
42.99 75.669 20.353
45.054 74.973 19.666
47.362 76.398 19.565
47.567 77.901 21.141
35.071 32.081 52.473
33.668 30.344 53.888
32.668 30.651 56.005
32.021 32.686 57.307
59.377 87.149 17.901
61.848 87.655 18.177
63.256 89.511 18.227
62.844 92.054 18.037
85.849 60.909 16.115
84.584 58.686 15.647
85.817 56.681 14.21
86.952 56.603 12.228
43.646 42.441 3.759
44.549 40.446 4.753
47.009 40.181 5.834
49.099 41.314 4.865
26.164 80.52 11.156
27.692 80.443 8.931
30.09 79.627 8.754
31.87 80.228 10.194
22.604 34.537 92.553
23.592 36.116 93.552
22.916 37.343 95.738
22.277 36.035 98.015
59.082 17.698 10.584
59.455 15.488 8.889
61.587 15.22 7.53
63.467 16.447 7.721
60.933 47.061 50.347
59.332 46.658 48.273
57.197 45.457 48.476
56.123 43.904 50.096
39.216 91.997 27.896
40.841 90.744 29.323
43.394 89.525 28.683
44.942 90.509 26.794
48.86 41.069 27.63
46.473 41.839 28.151
44.515 40.206 29.5
45.119 37.759 28.997
12.476 23.741 78.946
11.554 24.002 81.416
11.429 26.15 82.802
12.563 28.187 82.53
74.435 85.318 58.25
73.21 85.814 59.992
70.869 84.627 60.803
69.446 82.916 59.112
70.596 31.309 78.873
71.576 29.903 77.23
70.165 27.25 76.46
67.969 26.692 77.216
4.658 4.198 12.469
3.545 6.729 12.376
0.996 7.358 11.338
-0.882 5.854 11.349
33.147 -2.056 5.86
34.774 -1.682 7.963
36.387 -0.041 8.601
37.147 2.194 7.584
68.226 36.85 14.569
69.078 35.263 12.719
70.459 35.369 10.782
71.353 37.271 9.787
15.528 75.462 19.772
16.641 76.575 17.582
17.025 79.039 17.115
17.522 80.972 18.602
76.194 67.086 7.303
75.335 69.448 6.28
74.612 71.475 7.462
74.75 72.213 10.264
75.608 88.502 40.523
73.662 87.247 39.281
71.086 87.103 39.869
69.886 88.09 41.668
70.823 88.045 90.784
71.781 87.757 88.549
71.416 85.778 86.873
69.24 85.728 86.516
42.052 33.685 53.317
40.618 31.968 53.742
37.533 32.036 53.561
36.299 33.632 54.837
4.122 23.6 85.106
1.953 23.005 86.778
0.763 20.531 86.92
0.278 19.004 85.386
81.136 90.428 31.447
81.683 92.021 33.018
80.073 91.152 35.077
77.912 91.065 35.294
76.296 14.765 91.43
77.949 13.325 90.47
79.441 13.378 88.266
79.465 15.384 86.448
85.854 70.952 45.485
84.02 70.84 46.355
83.846 71.427 48.965
86.37 71.922 50.266
42.223 81.213 73.451
44.18 80.466 75.397
45.807 82.458 76.17
46.892 84.354 75.09
38.936 90.546 4.716
37.11 89.627 5.92
35.567 87.686 5.773
36.265 85.266 5.05
70.343 94.951 90.041
70.001 93.357 88.615
68.329 90.957 88.899
67.8 89.813 90.867
58.433 88.898 1.318
58.519 87.046 -0.488
56.697 85.122 -0.707
55.769 83.574 1.295
71.419 8.911 92.986
69.721 7.884 91.233
68.554 5.682 91.251
68.562 3.753 92.368
91.451 20.143 60.104
91.593 19.741 62.45
89.665 20.229 64.139
87.298 20.132 63.977
65.908 36.441 13.289
64.843 36.564 15.366
62.261 36.289 15.978
60.362 37.59 14.681
20.572 18.713 80.451
18.18 20.21 80.784
16.289 18.982 82.111
16.181 17.53 83.851
76.007 87.015 83.059
74.855 86.042 85.499
74.559 86.873 87.876
74.518 89.307 88.603
70.926 1.664 38.797
69.915 1.037 40.339
69.037 -1.641 40.635
68.681 -3.092 39.03
59.424 69.563 59.438
57.093 69.738 58.972
57.268 68.559 56.833
57.626 69.21 54.508
57.292 42.95 1.912
57.489 45.307 1.455
59.943 46.782 0.912
62.047 45.904 0.756
47.86 83.216 78.363
49.18 83.843 76.477
51.345 83.78 75.791
53.313 82.021 76.069
72.266 38.3 61.797
71.59 40.458 61.035
71.626 42.642 61.96
72.234 43.711 64.184
60.807 76.38 19.232
59.237 77.965 17.809
58.954 78.112 15.374
60.547 77.635 13.906
3.59 90.358 53.625
2.974 89.636 51.116
3.228 87.478 49.928
4.753 85.6 50.165
53.657 37.969 67.464
52.825 37.349 69.295
50.983 38.219 71.021
50.764 40.398 71.012
45.073 0.227 2.617
47.077 0.557 4.14
49.603 0.701 3.625
50.914 0.486 1.756
5.322 0.491 53.513
4.131 2.274 53.439
1.993 2.318 54.697
1.264 0.921 56.697
89.717 89.615 52.608
89.282 91.34 54.225
87.327 92.679 54.675
85.175 91.526 54.901
54.43 7.097 75.086
56.36 5.273 75.494
56.497 2.955 74.107
55.341 2.071 72.267
41.245 27.507 71.264
43.54 28.565 70.931
44.912 29.197 68.841
44.722 28.605 66.654
41.39 71.662 69.872
41.261 72.981 71.727
38.587 73.055 72.795
36.658 72.741 71.675
80.262 33.793 93.66
82.208 34.191 95.438
84.652 34.569 95.245
86.139 32.795 94.199
91.418 23.507 71.206
89.998 21.768 70.008
87.169 21.252 70.813
85.966 21.906 72.641
77.648 39.865 59.784
75.614 41.013 60.504
74.853 43.657 60.234
76.124 45.788 59.757
18.401 79.653 87.524
17.149 78.027 86.943
17.527 76.057 85.42
19.552 75.303 83.863
37.011 4.493 82.364
36.855 2.089 81.811
38.005 0.563 80.155
39.723 1.06 78.321
74.913 8.118 70.335
73.122 10.041 70.442
73.075 12.191 71.667
74.613 13.296 73.313
41.915 46.512 82.094
39.624 46.715 83.329
37.782 45.406 83.09
36.634 43.846 81.261
47.298 94.023 11.159
45.939 93.159 9.454
46.382 91.248 7.504
48.097 89.846 7.053
86.429 88.486 77.845
87.283 88.587 80.382
87.161 90.441 82.205
86.293 93.021 81.531
-3.609 59.369 68.294
-2.436 58.678 65.895
-1.347 60.806 64.806
-0.763 62.718 65.19
40.233 6.508 84.528
39.105 4.437 84.114
40.512 3.008 82.416
43.052 3.414 82.001
80.918 39.759 36.065
79.091 41.182 34.907
78.112 39.445 32.9
79.039 37.828 31.529
86.956 8.922 59.641
87.279 6.457 59.252
86.499 4.959 57.364
85.205 5.358 55.323
35.012 3.492 38.29
33.934 5.524 39.251
32.22 5.681 40.634
30.983 4.134 42.545
42.037 57.755 62.087
40.815 58.413 64.057
38.812 60.331 64.439
38.244 62.001 62.994
83.502 15.002 86.598
83.42 12.893 87.805
82.395 10.633 87.304
82.634 9.83 85.162
70.755 73.559 83.714
72.021 73.835 81.553
74.362 74.806 80.905
76.352 75.173 82.217
0.655 45.661 76.631
2.71 45.595 77.651
4.926 46.967 77.63
5.18 49.414 76.285
27.799 39.569 82.88
28.015 40.182 85.358
28.659 38.98 87.281
29.087 36.598 87.801
50.734 42.636 72.52
51.812 43.106 74.391
51.24 42.943 76.895
48.984 42.616 77.871
55.082 26.758 65.854
54.268 25.189 64.499
55.882 24.988 61.829
58.114 25.84 61.369
25.163 7.052 43.867
24.147 5.599 45.881
21.993 4.374 46.311
20.345 3.727 44.48
69.015 23.668 10.71
66.994 23.142 9.342
65.368 20.772 9.304
65.676 18.836 9.726
47.06 57.652 83.841
47.211 56.133 81.738
45.712 54.396 80.709
43.623 53.285 81.647
66.289 29.262 80.18
66.896 29.851 82.21
66.237 32.127 83.903
64.242 33.38 83.762
63.949 34.327 33.907
65.361 36.207 34.597
67.856 36.06 35.575
69.736 34.387 34.798
33.884 27.736 79.684
35.013 28.265 77.689
37.192 28.787 77.104
39.588 27.83 77.899
75.768 16.84 68.889
75.712 14.217 68.941
73.68 12.59 69.086
71.181 12.622 68.428
81.948 94.186 57.365
79.922 93.301 58.289
78.837 91.1 58.441
79.518 88.773 57.796
72.48 2.246 68.321
72.607 1.764 66.052
74.678 1.465 64.52
77.257 1.252 65.24
17.12 85.234 40.618
18.415 86.799 41.482
18.85 89.614 41.156
17.12 91.186 40.785
26.226 40.847 94.659
25.388 39.446 93.569
22.852 38.559 93.021
20.675 39.772 93.161
59.411 24.19 80.222
58.383 23.815 82.414
55.643 23.726 83.086
53.929 24.7 82.255
75.383 5.517 41.38
73.762 7.449 41.275
73.703 9.692 41.148
75.315 11.362 42.384
26.482 10.849 73.718
27.342 13.098 72.445
27.648 13.256 69.712
28.022 11.067 68.342
16.021 87.007 67.159
15.864 89.612 67.53
13.621 90.961 68.282
11.567 89.834 69.317
54.901 40.55 67.444
55.846 42.568 68.688
58.494 42.791 69.21
60.199 42.19 67.825
45.875 53.031 84.436
44.911 51.184 82.953
43.347 49.958 83.037
42.289 48.113 84.443
61.477 81.665 65.717
59.463 82.684 66.377
58.027 82.408 68.485
57.976 81.381 70.413
38.172 32.411 76.162
37.134 31.53 78.057
34.386 32.212 78.677
33.521 34.518 78.759
51.109 19.681 62.364
50.481 17.534 61.6
48.132 16.532 61.192
45.841 17.096 62.698
36.297 83.648 53.533
38.219 84.428 54.692
40.599 85.581 53.254
41.072 86.288 51.31
69.331 48.953 21.706
67.559 49.362 20.239
65.633 47.821 19.266
65.015 45.647 19.529
87.939 79.674 98.396
89.943 80.036 97.08
91.04 79.579 95.033
90.369 78.011 93.232
54.06 42.37 76.338
54.853 44.905 75.78
56.73 45.525 73.846
57.909 44.469 72.291
51.604 26.546 85.317
53.465 24.502 85.196
52.481 22.136 85.101
50.574 20.98 85.405
44.835 27.711 74.541
42.463 27.85 74.068
40.406 27.386 75.013
39.658 25.602 76.536
62.127 92.181 73.026
59.918 92.051 73.566
58.11 90.734 72.354
58.763 88.541 70.452
58.779 45.63 68.306
57.0 45.339 69.998
55.831 47.289 71.308
55.201 49.665 70.319
59.331 28.584 61.087
57.039 28.642 61.168
56.383 29.005 64.215
57.476 30.908 64.877
67.543 41.649 61.976
69.052 40.535 60.312
70.718 42.031 58.564
70.559 44.1 57.879
78.604 56.214 68.927
76.885 55.638 69.642
75.958 57.471 71.563
77.665 59.188 72.291
77.187 53.978 67.234
74.845 53.626 67.624
73.307 51.355 67.674
73.59 49.249 67.968
67.984 61.811 49.673
69.736 62.296 47.733
72.173 62.754 48.172
73.329 64.005 50.097
68.87 9.381 41.61
71.18 9.523 42.239
72.299 11.48 43.638
71.726 13.966 43.908
2.79 47.929 50.915
3.362 48.452 53.143
2.839 50.656 54.687
1.497 52.786 54.212
85.911 37.316 5.909
86.119 39.303 4.025
85.168 41.653 4.417
84.116 42.837 6.456
70.01 65.374 77.438
67.98 66.399 77.493
66.398 67.678 79.196
66.7 68.173 81.505
29.487 82.796 60.884
29.209 84.972 61.363
31.357 86.931 62.331
33.721 85.617 61.856
28.896 57.871 22.035
28.788 59.132 24.097
29.469 61.771 24.392
30.222 63.299 22.747
57.82 8.221 51.073
59.131 6.398 49.783
60.763 6.466 48.108
61.771 8.138 46.557
35.589 72.741 49.283
34.012 71.147 49.509
33.807 68.584 47.919
35.96 67.963 46.96
49.186 33.714 67.772
47.979 31.482 68.714
47.298 29.178 67.429
48.602 28.605 65.775
11.766 35.144 69.673
9.44 35.11 70.682
8.224 32.652 71.173
9.18 30.543 70.708
55.531 7.496 77.745
56.139 9.971 77.744
54.208 12.04 78.377
52.405 12.023 79.489
7.187 89.402 45.095
6.284 88.839 47.362
4.52 89.547 48.46
2.411 90.831 47.847
67.0 61.881 83.674
66.563 63.486 81.721
64.266 64.205 80.747
62.257 62.859 80.205
56.011 67.062 53.572
56.532 65.91 55.724
55.125 64.803 57.677
52.798 65.538 58.526
5.512 35.103 75.531
5.312 34.803 73.285
6.542 36.399 71.309
9.205 37.483 71.682
74.797 26.515 70.894
73.411 24.826 71.924
72.194 25.938 74.105
71.616 28.599 74.254
73.453 22.721 47.489
72.734 21.606 49.867
71.774 22.424 51.524
69.038 23.25 51.659
70.945 25.972 53.264
68.693 25.106 54.559
66.5 26.008 54.754
65.404 28.13 54.325
56.304 91.413 53.439
53.612 90.683 53.21
52.497 89.177 52.043
53.133 86.681 51.797
80.237 18.777 44.378
78.493 16.948 44.114
76.873 15.561 45.65
76.534 15.766 48.051
37.557 85.841 78.145
38.288 87.164 79.885
40.036 89.257 79.549
40.493 90.731 77.759
4.175 54.761 33.42
2.248 53.488 32.646
-0.279 53.115 33.784
-1.054 54.31 35.353
93.358 40.552 74.357
92.012 39.664 76.073
89.599 40.04 76.957
87.991 41.84 77.017
71.142 77.54 61.887
72.12 79.483 61.118
72.197 81.978 62.025
70.85 82.94 63.842
81.768 89.582 38.382
79.723 89.034 36.796
77.703 87.429 37.161
76.673 86.475 39.263
24.114 65.982 55.368
21.736 66.079 55.372
20.857 67.901 56.925
22.083 68.787 58.945
39.85 55.481 18.266
38.648 56.118 16.57
37.414 54.559 14.596
37.7 52.1 14.153
61.417 22.921 81.71
62.349 25.5 82.833
64.083 26.943 81.841
65.347 26.539 79.688
38.756 9.772 84.166
38.33 7.881 85.706
36.766 6.008 85.757
35.291 5.096 84.392
84.188 14.861 90.189
81.685 13.879 89.675
80.3 11.904 90.96
81.264 10.366 92.744
56.016 16.486 56.78
54.939 18.842 57.073
55.895 20.656 58.261
58.586 21.426 58.986
68.884 77.799 60.498
67.136 78.029 62.096
64.366 77.61 61.529
63.589 75.461 60.348
67.924 6.436 67.859
67.668 6.208 70.215
65.917 7.448 71.807
63.5 8.302 71.309
48.049 52.435 79.027
48.947 54.114 80.53
49.598 56.311 80.299
49.372 57.976 78.91
84.646 82.857 77.921
87.184 82.307 77.683
88.598 84.534 77.332
89.433 86.039 79.15
37.102 35.409 82.481
35.932 33.822 81.824
36.503 31.304 80.809
38.256 30.458 80.448
37.648 93.831 31.868
38.99 92.081 31.932
39.103 89.678 30.87
37.162 88.204 29.78
71.583 30.545 60.476
72.781 32.146 59.697
73.467 34.454 60.566
73.152 35.609 62.913
53.605 10.735 60.087
53.166 12.707 59.09
54.559 15.009 58.785
56.582 15.815 59.678
42.9 28.079 5.16
43.349 26.305 3.155
41.659 24.562 2.319
39.987 23.136 3.676
6.273 28.075 42.267
3.954 28.31 42.318
2.037 26.671 42.584
2.08 24.135 42.198
58.568 11.624 74.014
59.087 9.366 73.526
60.992 7.67 74.177
63.117 7.785 74.341
4.21 5.114 53.215
3.143 6.416 54.619
3.765 8.825 55.635
4.526 10.723 54.258
53.627 91.921 75.515
53.388 89.663 74.718
54.061 88.691 72.392
55.147 89.483 70.935
21.236 52.268 26.119
22.997 49.903 25.756
22.279 47.467 26.189
20.091 46.454 25.902
60.617 60.739 50.857
62.142 62.516 51.402
61.581 65.017 52.63
59.498 65.486 53.007
3.736 1.785 73.857
2.767 2.497 76.161
0.412 2.302 77.187
-1.565 0.499 76.326
10.993 76.508 91.492
13.186 77.121 90.828
13.313 80.158 90.536
11.738 81.559 91.424
56.041 8.198 73.147
56.624 9.8 74.842
55.298 12.066 75.487
53.833 13.383 74.317
61.492 89.181 90.271
60.854 88.758 92.405
58.222 88.985 93.617
56.092 88.856 92.359
54.593 28.83 60.48
54.323 28.859 62.507
53.22 30.128 64.436
51.291 31.455 64.191
5.4 1.507 50.905
4.884 -0.92 50.464
6.866 -2.929 50.166
9.548 -2.357 49.717
20.342 20.14 31.371
22.228 21.472 31.055
22.234 24.069 30.992
21.381 25.606 32.387
23.277 1.1 14.75
22.292 0.923 17.104
19.713 0.618 17.724
18.015 0.079 16.919
50.82 22.751 37.466
53.24 22.37 37.381
54.49 20.519 36.186
54.015 19.419 34.195
64.217 41.506 38.048
65.189 39.277 37.207
67.055 39.033 35.215
67.848 40.412 33.525
45.271 9.275 85.422
45.978 11.511 84.263
48.238 12.732 84.953
50.464 12.186 86.051
36.8 22.273 2.173
34.442 22.581 1.265
32.339 20.965 1.522
31.863 19.496 3.459
53.336 67.288 64.55
52.934 67.945 62.805
54.248 68.166 60.569
56.356 67.162 59.811
41.261 7.711 40.062
40.096 5.785 38.442
41.143 5.24 35.8
43.249 5.658 34.775
76.486 88.897 34.349
75.429 89.03 36.807
73.233 89.749 37.525
70.869 90.126 35.998
63.394 37.578 40.948
63.902 37.328 38.936
65.988 35.831 37.808
68.426 35.464 39.184
63.94 72.691 61.78
61.943 73.884 62.724
59.281 72.589 62.858
58.988 70.786 61.729
84.922 52.303 16.546
86.369 53.248 14.833
87.431 55.614 15.91
87.745 56.219 18.146
0.237 23.436 37.716
0.893 24.971 39.951
0.694 27.322 40.263
0.28 29.205 38.488
65.416 35.427 85.156
67.663 35.864 85.944
69.75 35.399 84.053
69.275 35.078 81.391
57.238 14.815 80.443
56.715 13.396 78.245
58.179 11.82 76.895
60.496 11.246 77.077
79.257 20.399 73.219
79.977 21.09 70.855
82.089 21.031 69.706
84.428 20.761 70.65
67.915 72.205 28.617
68.094 69.705 28.336
69.523 68.202 26.735
71.542 68.779 25.151
50.186 22.416 64.195
52.189 22.981 62.346
52.807 25.797 62.208
51.853 27.124 63.332
84.762 12.558 83.736
84.909 10.391 83.97
85.851 8.395 82.821
86.834 8.198 80.668
68.676 12.131 90.829
70.684 13.012 92.167
73.254 13.178 91.373
74.564 12.196 89.505
70.523 37.061 87.33
70.873 37.843 85.092
72.817 38.092 83.579
74.839 38.43 84.189
81.723 36.512 78.935
83.424 37.835 79.349
85.341 38.187 77.705
86.228 36.416 76.231
47.659 60.628 34.36
48.778 59.052 35.209
49.171 56.397 34.824
48.879 54.912 33.118
74.508 60.388 43.229
73.603 61.345 45.3
74.265 63.486 46.265
73.855 65.826 45.376
28.712 71.405 75.604
29.793 71.398 73.647
31.313 69.72 72.252
32.645 67.832 72.796
60.019 8.125 71.13
58.643 6.7 72.45
58.259 4.089 72.735
58.316 2.282 71.267
43.504 11.974 16.598
43.542 12.928 14.597
42.242 12.609 12.777
41.403 10.107 11.699
63.61 50.923 45.472
62.17 51.053 47.08
59.477 50.219 47.462
58.459 48.45 46.409
70.888 19.834 47.616
72.843 18.898 46.101
72.82 17.838 43.586
70.661 16.696 42.658
36.408 10.283 90.804
36.514 12.625 90.71
36.477 13.819 88.391
36.198 12.533 85.977
84.65 34.106 52.897
86.106 35.45 53.584
84.988 37.439 55.335
83.31 37.357 56.583
82.107 33.623 51.99
81.519 34.406 54.125
79.167 35.171 55.331
77.194 35.822 54.641
38.462 51.588 56.912
37.125 51.054 58.621
35.238 52.276 59.968
34.634 54.719 60.098
65.191 77.445 32.392
63.32 76.871 33.209
62.516 74.328 33.459
63.877 72.341 32.086
51.462 45.319 78.328
52.079 47.485 77.969
54.907 48.497 77.843
56.203 46.702 77.333
60.269 2.462 74.409
60.833 4.477 73.913
62.593 5.547 72.83
64.967 4.509 72.362
4.71 35.886 42.104
3.415 35.978 43.947
3.262 37.809 45.825
4.099 40.081 46.147
1.876 84.14 24.226
4.34 83.733 25.094
5.216 85.461 26.967
5.871 87.852 26.446
59.213 64.936 88.778
60.77 66.088 86.846
61.92 64.483 84.98
62.804 62.426 84.765
49.832 75.994 20.432
51.497 76.026 18.155
52.342 78.38 17.067
51.927 80.719 17.919
36.916 31.58 73.921
38.546 30.018 73.79
40.439 29.865 71.682
40.657 30.981 69.746
74.959 27.764 55.46
73.257 26.574 54.474
73.191 24.371 52.708
74.602 23.293 51.565
22.277 64.049 51.832
22.942 66.137 52.521
25.38 66.882 53.197
27.553 65.99 52.527
67.879 21.678 53.181
66.709 22.878 54.845
64.463 23.753 54.925
62.629 24.36 53.101
37.688 14.781 46.751
38.392 13.042 44.922
37.174 10.746 44.36
34.778 10.209 45.047
69.311 7.39 72.043
71.193 8.584 71.128
72.682 7.194 69.293
72.27 5.111 68.87
31.595 25.556 57.283
29.37 26.517 58.376
27.249 26.374 57.571
26.104 24.213 56.043
88.578 7.347 86.195
88.027 7.18 83.537
87.681 4.717 82.35
88.233 2.532 82.96
49.711 7.601 60.513
47.564 9.004 60.819
45.622 8.937 61.871
44.464 7.71 63.79
53.788 39.587 44.217
53.741 41.294 45.86
54.995 43.616 46.364
57.244 43.838 45.79
8.565 9.265 77.762
10.399 8.627 76.693
12.853 7.513 77.552
13.962 7.194 79.443
17.095 56.019 77.719
18.735 55.288 76.112
21.408 55.717 75.956
22.95 56.599 77.697
68.787 64.858 74.921
70.861 63.943 74.41
71.877 61.382 74.673
70.542 59.21 74.976
81.931 23.516 41.479
80.858 21.723 42.875
78.821 20.429 42.71
76.608 20.542 41.602
61.216 27.876 85.75
62.669 28.373 84.026
65.27 28.298 83.821
66.564 29.107 85.228
42.992 8.103 9.748
44.399 9.54 10.908
46.351 11.204 10.24
47.692 10.76 8.335
75.613 33.212 8.672
74.337 34.743 9.333
73.055 35.515 11.668
72.364 33.983 13.423
59.196 7.032 53.166
57.462 6.263 53.951
55.688 7.09 55.489
55.798 9.474 56.919
18.068 64.501 77.386
19.566 62.343 77.064
19.018 59.891 77.3
16.933 58.581 77.584
62.205 65.917 29.951
62.974 67.677 30.918
65.085 67.015 29.764
66.078 67.558 27.577
41.435 48.122 31.455
42.288 46.186 32.29
41.348 43.651 32.682
39.161 43.508 33.046
60.169 80.778 43.334
60.317 80.585 40.793
61.929 79.858 39.245
64.151 79.335 39.146
82.426 52.651 42.55
80.423 54.015 41.903
78.117 53.447 42.701
77.573 55.161 44.418
88.316 52.782 8.022
87.739 53.187 10.266
85.612 54.626 10.799
84.022 55.724 9.161
77.817 86.822 34.024
79.786 88.601 34.061
82.269 88.516 33.424
83.74 86.628 33.258
26.482 18.098 29.651
24.0 19.369 29.208
21.749 18.523 29.292
20.878 16.299 30.044
25.269 91.495 41.294
23.819 89.529 41.882
24.569 86.791 41.867
26.353 85.779 41.086
11.278 30.07 15.11
13.059 31.044 13.458
14.813 32.628 13.529
15.406 34.51 14.762
55.584 75.068 35.713
57.631 73.411 34.925
59.393 73.985 33.41
60.193 75.814 33.125
61.166 40.813 14.546
60.707 40.458 16.636
59.22 42.153 18.492
58.245 44.229 17.954
42.361 2.088 28.575
41.467 1.335 30.844
40.179 2.519 32.808
39.946 4.939 33.306
14.02 9.022 27.345
13.871 10.707 29.355
12.49 12.99 29.558
9.893 13.012 29.3
0.583 87.356 6.532
0.806 89.535 7.326
2.823 91.052 7.809
5.011 90.904 6.575
77.291 17.945 40.685
76.255 17.786 42.716
74.602 15.716 43.565
74.112 13.744 42.573
35.637 76.296 29.525
33.839 76.848 30.93
31.082 75.963 30.639
30.413 73.999 29.52
-1.774 36.202 77.23
0.213 36.285 74.833
2.335 37.139 75.239
4.241 36.944 77.14
65.603 48.294 15.616
63.993 47.052 17.092
62.959 44.866 17.252
62.983 43.08 15.299
7.216 33.009 67.087
6.074 33.085 69.732
3.484 32.984 70.153
1.695 32.452 68.811
57.258 40.407 17.519
56.964 40.28 19.839
55.303 39.196 21.471
52.42 39.35 20.988
55.505 9.5 52.483
53.926 8.785 53.776
53.332 6.29 53.418
53.429 5.024 50.797
34.811 60.794 18.172
37.023 60.066 16.827
37.296 58.216 15.182
35.618 56.799 13.815
19.656 64.114 57.033
20.451 63.771 54.636
18.708 63.169 52.453
16.43 61.517 53.042
86.331 76.4 44.108
88.082 74.858 44.146
90.687 74.935 43.692
92.033 76.561 42.519
2.583 50.695 32.904
3.873 51.482 30.758
5.847 50.509 29.539
7.339 48.202 30.248
42.981 79.132 21.84
44.499 79.438 23.686
46.222 81.215 24.718
45.753 83.705 24.481
64.199 80.066 60.65
65.565 80.324 62.612
67.463 82.093 63.277
68.685 83.673 62.239
12.534 76.818 17.031
14.34 75.341 16.969
15.388 74.834 14.801
14.635 74.297 12.46
-0.714 51.599 12.154
-1.751 53.704 12.858
-1.154 55.905 13.506
1.064 56.958 14.511
47.857 22.69 37.604
48.269 24.131 39.834
48.16 23.217 42.368
47.451 21.036 43.125
54.207 62.681 60.489
52.874 64.63 61.578
50.807 64.631 63.272
49.525 62.943 64.012
53.145 22.005 32.482
55.057 20.441 31.853
55.73 18.979 30.01
54.942 18.551 27.774
65.225 87.988 13.661
64.536 89.318 15.867
65.068 91.72 16.668
66.297 93.657 15.565
48.374 87.622 48.388
50.423 86.475 47.936
50.893 83.869 46.859
49.455 82.509 45.82
73.838 27.709 9.346
71.598 28.619 9.778
69.115 27.815 9.557
68.291 25.765 9.246
22.295 58.656 27.386
23.347 56.908 28.815
22.23 54.465 29.724
19.758 53.599 28.579
67.55 86.114 12.186
68.654 86.674 13.986
70.653 88.021 14.674
72.219 89.525 13.093
3.412 63.98 13.631
5.2 62.777 14.406
7.688 63.717 14.725
8.265 66.335 14.755
19.724 84.787 44.437
21.342 85.985 42.822
23.025 84.703 40.985
22.399 82.595 40.441
9.124 65.803 38.777
9.082 65.138 36.526
10.026 62.901 35.367
11.017 60.781 36.305
15.853 67.693 17.111
14.387 66.638 15.357
14.785 64.69 13.844
16.855 63.629 13.182
25.08 22.691 27.314
26.258 23.673 29.461
28.141 25.341 29.743
29.967 25.611 28.394
47.642 85.428 79.534
45.778 85.986 79.727
43.763 84.556 80.449
43.469 82.657 82.35
47.494 63.234 11.825
49.449 64.737 10.792
51.946 64.202 11.383
53.192 62.155 11.768
29.605 88.836 9.644
30.979 87.817 8.551
32.152 85.386 9.128
30.747 83.232 9.508
6.567 70.911 36.205
5.886 71.409 38.798
3.602 70.845 39.728
2.828 68.729 39.344
38.116 86.221 31.242
39.095 84.555 30.461
38.019 82.712 28.768
35.887 81.759 29.377
15.878 1.698 3.438
15.208 4.143 3.152
17.042 5.709 1.903
19.611 5.706 2.062
61.582 75.043 65.431
60.971 76.959 64.443
62.06 79.383 64.173
63.84 80.293 64.362
71.686 83.953 9.682
73.136 82.209 9.625
74.063 80.892 7.683
73.378 80.018 5.437
30.623 30.092 62.259
28.129 30.574 60.961
27.438 32.82 60.239
28.821 34.083 58.922
60.8 59.827 25.865
60.606 60.934 28.165
62.074 62.748 29.033
63.465 64.503 28.194
43.117 34.592 25.799
44.124 36.457 26.83
46.255 37.716 26.226
48.036 37.023 24.185
60.087 59.71 32.334
58.866 58.18 31.367
56.418 56.843 32.107
54.69 57.84 33.858
53.202 76.564 36.458
54.386 77.353 38.139
54.274 77.445 40.899
52.785 76.755 42.533
73.058 67.081 27.294
73.938 68.939 27.274
73.313 70.666 29.259
71.447 70.179 31.159
83.804 55.047 13.716
83.745 55.114 16.027
82.692 53.716 17.327
80.78 53.067 18.192
70.174 41.934 86.723
71.054 40.334 86.099
73.134 40.739 84.826
73.507 41.94 82.628
73.563 4.551 61.316
73.602 2.139 62.044
75.739 0.248 61.094
76.808 0.22 59.578
40.556 8.563 42.587
39.572 10.47 42.86
40.586 13.074 43.312
42.677 13.48 44.233
55.97 59.851 11.578
57.213 58.929 9.782
59.98 58.376 9.693
61.622 58.402 11.34
54.291 60.17 28.773
56.721 59.612 29.472
58.665 58.678 28.266
58.98 57.579 26.213
76.599 43.56 81.339
77.498 45.086 82.966
76.579 45.261 85.747
74.502 45.583 86.443
33.483 58.843 24.344
31.386 58.498 25.386
30.36 60.514 27.151
31.423 61.478 29.024
68.687 59.897 7.26
66.78 60.683 6.715
64.319 61.181 8.342
63.67 59.894 10.165
-1.834 -0.079 27.787
-2.733 0.283 30.021
-1.817 2.022 31.763
0.254 3.013 32.515
76.448 30.416 70.811
75.637 28.719 72.561
74.148 29.178 74.803
74.131 31.415 76.247
87.996 4.504 30.624
89.356 5.365 32.419
89.817 7.777 33.245
89.653 10.129 31.93
79.879 28.29 22.138
78.183 26.421 23.43
76.345 24.778 21.985
76.205 24.105 19.619
74.264 19.991 73.778
74.247 22.419 73.538
74.372 24.302 75.148
74.607 24.134 77.782
20.002 39.486 67.402
19.597 41.959 66.832
21.04 44.093 66.439
23.454 44.32 66.474
75.957 64.332 69.889
76.57 61.836 70.135
78.171 60.325 68.885
79.804 60.964 67.296
57.127 62.921 11.354
55.292 63.7 10.175
53.95 66.133 10.486
54.373 67.905 12.415
55.17 80.368 22.234
54.539 79.925 19.968
54.915 78.041 18.348
56.863 76.308 18.345
48.224 -0.115 52.049
50.984 0.645 52.122
51.959 2.943 52.416
51.063 4.99 53.158
65.239 61.109 2.114
64.456 60.6 4.363
63.74 58.67 5.797
62.543 56.392 4.59
87.156 65.887 20.447
88.406 64.352 19.682
90.719 64.973 18.379
92.277 66.701 18.81
87.066 82.657 1.634
86.218 82.841 4.136
84.07 81.785 5.081
81.745 81.396 4.342
2.739 28.459 21.558
3.756 27.912 19.387
4.507 25.515 18.283
4.334 23.281 19.065
72.916 72.846 49.39
72.124 71.925 51.589
71.618 73.519 53.913
72.376 75.759 53.654
62.841 84.29 16.112
63.836 86.437 16.25
66.011 87.259 17.118
68.258 86.469 16.745
48.375 38.789 -0.14
48.234 37.379 1.87
46.178 36.302 3.045
43.987 35.153 1.921
-0.655 86.05 54.688
1.1 88.15 53.923
1.413 90.312 55.467
0.426 90.453 57.714
80.781 62.226 93.067
78.765 61.31 93.074
76.169 62.477 93.471
75.695 64.382 94.464
31.869 39.477 14.04
30.571 41.186 12.506
28.251 41.06 11.806
26.643 40.038 12.585
82.053 78.533 5.551
83.807 79.718 6.517
86.363 79.596 6.314
87.859 77.825 4.607
84.077 76.479 28.197
82.734 74.141 27.893
80.464 73.721 27.843
78.189 75.005 27.258
23.482 16.561 26.534
20.556 16.098 26.797
19.02 14.69 25.363
19.401 13.173 23.85
51.352 21.666 12.892
53.717 21.404 11.659
55.927 21.799 12.785
56.931 23.3 13.944
50.287 70.036 92.529
48.415 68.696 91.18
45.934 69.018 91.643
44.527 69.7 93.364
46.529 45.027 53.499
45.397 45.35 55.627
45.364 47.403 57.183
46.342 49.961 56.619
74.238 71.71 24.019
76.29 70.248 23.581
76.528 67.756 23.913
74.971 66.541 25.128
49.206 53.304 38.365
48.325 55.493 37.237
48.977 57.853 37.816
50.612 58.942 39.278
58.444 61.726 29.515
60.193 62.12 31.415
60.807 63.794 32.583
60.638 66.357 32.437
77.492 55.906 90.14
77.892 58.313 90.329
76.168 60.37 91.14
74.768 59.388 92.948
70.569 73.037 4.447
70.944 71.122 5.779
69.587 69.061 6.145
67.05 68.311 5.5
89.076 63.889 85.649
88.984 61.322 85.473
90.846 59.775 84.146
92.235 60.291 82.445
25.328 47.868 44.052
23.399 49.218 45.074
20.716 48.856 44.455
20.051 46.961 43.114
74.131 2.924 15.792
73.768 0.471 16.232
74.146 -1.559 14.837
75.376 -1.985 12.563
44.818 79.706 53.433
42.696 79.314 51.948
41.722 77.321 50.811
42.28 74.861 50.901
84.717 93.715 36.288
82.912 92.171 36.532
83.008 89.647 35.518
84.992 88.691 34.527
78.463 74.563 5.71
76.605 74.037 7.294
74.043 74.427 7.277
72.525 74.953 5.5
58.41 80.58 14.816
58.335 82.105 16.716
58.856 84.509 16.895
60.59 86.08 15.679
49.386 36.029 71.661
50.562 35.391 69.682
51.461 33.184 68.801
51.559 30.899 69.966
82.351 2.185 34.42
84.424 1.982 33.489
85.617 3.682 31.291
85.018 5.828 30.694
87.479 20.65 36.799
86.818 19.42 38.668
85.486 17.044 38.971
86.11 15.328 37.38
-2.192 61.786 20.62
-2.727 61.375 18.276
-2.135 59.769 16.665
-0.788 57.539 16.708
39.802 83.23 33.469
40.467 82.453 31.552
42.841 82.86 30.21
44.966 83.236 30.917
85.695 83.555 28.214
86.977 81.363 28.433
86.201 79.072 27.445
84.165 78.405 26.199
54.539 74.544 43.454
55.759 76.089 42.529
57.105 78.421 43.605
57.917 78.826 45.532
82.312 55.926 83.158
84.391 56.791 84.79
84.433 56.968 87.225
82.329 56.905 88.887
5.8 46.235 22.617
7.993 46.984 22.74
9.692 45.369 22.371
9.973 43.398 20.413
43.29 50.134 55.682
42.235 48.46 56.718
39.787 47.528 56.615
38.168 48.982 56.345
81.903 60.243 88.156
82.175 62.711 88.213
80.476 64.426 88.828
78.045 64.444 89.4
57.312 40.915 0.18
57.538 39.31 -1.926
57.605 37.101 -2.16
56.982 35.017 -0.578
58.656 41.365 92.504
59.55 43.34 92.617
61.474 43.966 94.559
62.027 42.656 96.089
37.539 76.421 31.264
38.392 78.774 30.874
37.582 81.105 31.656
35.695 81.47 32.049
90.11 75.669 94.966
92.022 74.536 93.518
92.036 72.773 91.833
90.298 71.061 91.294
1.605 75.295 27.15
0.591 77.436 25.787
-0.966 78.971 27.198
-0.838 79.766 29.394
15.964 73.205 18.279
15.23 72.328 16.042
12.81 70.937 15.7
12.438 68.936 17.654
67.947 9.448 44.218
66.395 7.046 45.025
64.935 7.012 46.966
63.87 8.815 48.431
51.585 46.19 74.772
53.781 46.731 74.166
54.983 49.155 73.458
54.428 51.157 73.363
60.704 8.296 26.234
60.838 5.787 26.327
61.206 4.043 24.845
62.398 4.316 22.269
6.691 60.237 30.43
7.386 61.667 32.554
8.988 63.1 33.024
11.747 62.919 32.827
7.615 9.834 35.794
5.172 10.562 35.127
3.944 12.488 36.197
4.245 13.775 38.213
81.315 71.322 28.239
82.489 70.889 26.006
84.585 69.799 25.409
86.821 69.352 27.04
65.169 53.185 51.743
63.194 52.954 51.363
61.545 50.774 50.284
62.358 48.883 49.073
77.749 8.367 15.831
77.598 7.205 18.358
75.396 7.875 19.839
73.056 8.025 19.354
37.874 10.082 61.944
40.064 10.053 63.121
42.529 8.989 62.37
43.357 8.772 59.838
70.715 54.441 48.939
71.914 56.129 47.608
74.195 55.966 46.366
75.801 54.016 45.935
59.973 55.978 2.785
60.272 57.863 4.31
58.361 59.471 5.63
55.85 58.929 5.415
86.605 42.46 80.695
88.636 42.883 79.474
89.986 45.146 79.129
89.944 47.143 80.529
70.335 73.096 8.86
72.032 71.131 8.348
71.672 68.657 8.535
70.358 67.265 9.828
78.522 82.472 9.85
76.561 83.87 9.831
74.491 83.933 11.152
73.627 82.696 13.391
13.464 81.585 66.224
10.958 80.764 65.582
10.39 78.106 66.407
12.13 76.707 67.37
49.035 14.24 57.585
50.417 14.439 59.158
52.266 16.409 59.974
53.025 18.364 59.008
21.712 23.643 28.258
20.774 21.444 28.47
21.13 18.986 26.798
22.843 18.894 25.624
71.642 85.619 15.75
72.328 85.358 13.468
74.511 86.502 12.164
76.323 87.507 12.881
26.735 47.473 68.359
24.355 48.047 68.58
23.098 50.144 69.057
23.928 52.497 69.78
85.166 68.305 19.293
84.81 70.131 20.941
83.125 70.547 22.635
80.766 69.485 22.764
-1.211 21.231 10.656
0.697 21.61 12.742
2.874 20.588 12.698
4.701 20.466 10.723
61.182 57.125 28.061
61.152 55.8 26.103
61.958 53.359 25.731
63.481 52.81 27.931
84.732 94.284 29.022
85.473 93.212 31.107
84.918 90.707 32.439
84.597 88.696 31.614
13.326 12.588 33.448
10.795 12.128 33.5
8.899 12.238 35.425
9.383 12.836 37.951
73.111 16.799 50.215
74.395 19.02 49.226
75.633 20.675 50.442
75.438 20.892 52.547
48.38 37.845 51.879
46.945 39.791 51.785
47.438 42.304 52.544
49.025 43.374 53.412
22.723 83.579 36.389
24.353 83.163 38.343
26.491 84.001 38.938
28.22 85.484 38.276
89.275 50.306 34.092
90.24 50.709 32.276
90.309 49.574 29.759
90.847 47.547 29.46
52.166 38.355 45.866
51.396 39.674 47.461
49.419 39.287 49.274
47.401 38.202 49.233
81.348 13.907 43.078
78.971 13.999 43.128
77.029 12.862 43.831
76.426 10.79 44.948
73.744 30.069 58.18
72.625 28.933 56.418
70.049 27.785 56.696
68.984 26.675 58.465
66.498 0.231 85.572
66.608 1.253 87.961
66.661 3.619 88.696
66.286 5.805 87.569
66.868 3.55 46.45
68.698 3.078 45.313
68.761 1.704 42.701
67.514 -0.587 42.36
32.834 53.903 61.695
32.832 51.502 62.265
31.563 49.481 60.688
30.225 49.255 59.118
66.29 80.719 39.198
66.221 83.123 39.392
68.338 84.779 40.113
70.846 84.251 39.813
83.613 26.208 42.473
85.393 26.068 41.094
88.203 26.666 41.291
89.236 28.022 42.874
60.409 10.276 4.939
61.404 12.372 6.211
62.588 12.659 8.051
60.588 12.799 8.981
67.756 90.495 22.357
66.744 91.289 19.967
67.639 90.914 17.539
69.081 89.228 16.749
31.768 62.771 20.517
32.939 61.646 22.219
35.239 61.026 22.775
37.521 61.961 22.098
56.262 67.688 86.552
58.17 66.38 85.92
59.128 66.357 83.27
58.417 67.51 81.333
3.255 70.801 -1.227
2.744 72.76 -0.174
4.016 74.744 -0.69
6.365 75.018 -1.795
40.623 13.08 17.239
40.997 15.561 18.355
40.549 16.084 20.933
39.106 14.805 22.793
83.78 59.223 18.261
85.561 60.036 19.773
85.505 61.953 21.418
84.668 64.664 20.436
53.443 7.615 59.942
52.917 8.051 57.604
51.8 6.702 55.747
51.333 4.366 55.704
58.345 37.855 16.709
59.697 38.839 18.311
61.79 37.775 19.563
62.726 35.885 18.462
9.418 41.358 22.149
7.319 41.681 23.274
5.282 39.856 23.771
5.141 37.739 23.227
3.977 25.799 67.754
2.217 27.508 67.65
1.49 29.623 68.909
2.532 30.607 71.101
69.902 35.506 32.229
70.719 37.032 33.935
72.461 39.038 33.572
73.385 40.084 31.906
33.607 31.655 26.857
35.13 29.865 26.356
34.831 27.909 24.907
32.886 26.855 23.83
12.821 87.587 43.469
11.881 87.375 46.007
10.54 89.058 47.252
9.103 90.866 46.618
14.841 17.149 30.398
13.749 15.604 32.076
11.305 14.428 31.657
9.468 15.388 30.411
70.039 50.308 18.679
71.318 52.024 19.963
73.207 51.473 22.034
75.07 50.116 21.734
59.895 45.748 90.63
61.826 45.556 91.918
64.338 45.822 91.579
65.746 45.786 89.957
72.906 72.34 32.227
70.826 72.837 30.483
68.991 73.991 30.525
67.784 74.942 32.664
4.718 59.843 61.173
2.675 59.112 61.657
0.398 60.156 62.385
-0.33 62.631 62.494
55.342 38.86 69.546
55.81 40.703 70.697
54.182 41.188 72.913
52.238 39.438 73.172
77.279 84.262 57.877
75.684 82.67 57.605
76.616 79.979 57.185
78.712 79.148 56.782
35.108 45.116 8.407
36.894 46.301 8.291
39.169 46.255 6.666
39.968 44.553 5.525
47.22 49.309 81.328
48.746 49.703 79.362
49.269 48.181 77.54
48.776 45.418 77.569
69.756 37.374 37.792
69.796 38.808 35.85
70.445 41.39 35.644
71.566 42.932 37.855
18.057 89.589 20.865
18.566 91.587 22.298
20.641 92.968 22.791
22.778 93.313 21.367
69.052 55.976 46.032
71.012 56.214 45.212
72.198 58.644 45.279
71.047 60.803 45.793
71.775 20.442 71.852
72.449 18.522 70.566
72.423 16.175 71.181
72.02 14.732 73.118
86.598 83.795 25.731
88.768 84.586 26.374
89.506 87.127 27.164
89.106 89.116 26.572
53.803 85.322 94.039
55.154 87.266 94.35
54.418 89.715 95.308
52.713 89.791 96.272
73.118 90.866 64.861
74.258 89.682 63.289
73.447 87.165 62.682
71.393 87.135 61.717
69.395 62.713 8.126
70.488 64.004 6.617
72.407 65.51 6.627
73.756 66.826 8.579
24.805 33.212 38.415
24.591 31.52 36.876
25.732 31.111 34.312
27.434 32.278 33.387
14.446 72.282 59.452
14.163 74.264 60.85
12.587 74.601 63.076
10.539 72.719 63.967
57.546 82.218 92.054
57.576 84.497 92.457
59.792 86.065 92.97
61.931 85.774 93.607
79.789 87.737 60.499
80.104 90.243 60.653
78.238 91.535 61.787
76.819 91.027 63.795
3.043 55.064 75.363
3.322 54.034 77.973
5.898 53.573 78.696
7.764 52.831 77.803
3.577 61.893 86.556
2.442 64.201 86.688
2.622 66.069 88.474
4.041 66.765 90.1
25.55 23.792 33.845
24.782 22.381 32.235
26.408 20.679 30.648
28.617 20.727 30.855
72.519 75.926 9.487
72.722 78.161 10.216
75.06 79.556 9.988
77.194 78.848 9.669
72.166 47.657 91.141
72.307 48.375 89.131
74.275 48.223 87.309
76.559 47.314 87.437
75.612 15.258 23.788
76.71 14.916 21.601
76.703 13.136 20.011
75.4 10.96 19.919
49.936 19.225 82.474
52.183 19.14 83.804
54.495 18.706 83.031
55.77 19.318 80.724
15.747 79.229 90.733
16.128 80.744 88.937
17.851 82.861 88.777
19.209 83.788 90.208
22.056 35.972 89.526
20.585 35.699 91.26
18.524 34.213 91.757
17.738 32.352 90.755
36.078 50.032 87.517
36.408 48.54 85.54
38.199 49.266 83.382
40.343 50.339 83.626
76.334 24.457 71.578
76.703 22.486 72.283
76.239 20.171 71.159
74.906 19.37 69.444
57.032 50.5 76.836
56.927 50.47 74.453
57.827 48.542 72.908
59.305 46.687 73.314
81.285 58.48 64.742
82.981 60.092 65.36
83.417 62.466 64.576
82.71 63.91 62.83
85.543 39.488 75.206
88.247 38.645 75.057
89.601 38.498 73.124
89.243 38.297 70.606
83.765 59.554 86.535
85.421 60.505 88.239
86.311 63.048 88.387
86.734 64.545 86.69
54.438 51.968 76.536
52.711 50.195 76.991
51.34 49.809 78.767
50.861 51.425 81.369
7.185 78.673 63.697
9.336 79.129 64.269
10.744 77.214 63.578
10.269 75.745 61.488
60.264 80.263 61.546
61.64 79.056 61.587
61.418 76.528 62.008
59.867 74.805 60.827
65.123 51.624 70.459
65.178 50.787 68.027
65.58 48.762 66.898
66.324 46.48 67.563
40.037 77.538 48.482
38.328 75.655 49.366
38.455 73.289 49.435
40.044 71.383 48.107
61.707 33.044 84.456
61.079 31.044 83.875
59.09 29.478 84.835
57.016 30.304 85.904
3.539 18.248 66.223
1.708 19.751 66.153
1.402 21.983 67.339
2.821 23.254 69.064
35.94 62.487 70.364
35.948 65.038 70.789
34.964 66.389 72.687
36.534 66.44 74.359
94.326 57.886 57.399
92.777 57.537 59.24
90.667 58.244 59.847
88.684 59.391 59.123
79.473 31.496 55.301
77.773 32.677 55.718
76.123 33.168 57.799
75.597 31.354 59.69
3.747 4.148 82.87
4.047 2.949 80.531
1.912 1.78 79.477
-0.07 0.53 80.282
19.451 10.542 91.536
20.157 12.319 92.998
22.41 12.986 93.656
24.679 12.692 92.847
64.155 68.795 76.854
65.656 70.061 78.416
66.411 72.255 78.557
67.438 73.808 76.781
3.72 35.335 71.05
2.834 35.266 73.371
1.02 33.663 73.49
-0.16 32.513 71.321
67.777 58.961 47.504
66.231 57.272 48.714
64.746 57.49 50.652
63.113 59.325 51.232
70.918 55.901 67.135
72.243 55.88 69.227
71.975 56.927 71.491
70.472 59.262 72.018
52.823 90.493 48.758
51.567 88.729 49.533
49.406 89.198 50.387
47.522 90.893 49.76
3.125 4.648 56.534
1.223 4.08 56.905
-0.665 5.775 58.135
-0.173 8.006 58.978
59.762 85.734 65.105
61.498 84.369 65.246
62.996 82.742 63.308
62.238 82.11 61.301
34.456 1.338 64.067
34.982 3.388 63.718
34.457 5.337 65.447
33.482 4.948 67.736
68.343 51.863 68.788
68.992 50.363 67.406
70.842 50.137 65.62
72.558 51.199 65.147
13.732 52.701 47.045
14.269 54.329 48.379
16.5 55.899 48.405
18.622 55.55 46.704
5.295 66.383 84.957
3.335 65.052 84.284
1.315 65.53 83.036
0.216 67.649 82.62
26.263 87.583 87.839
24.867 89.105 87.666
22.303 89.261 88.073
20.758 88.199 89.654
35.944 86.403 81.514
34.577 87.874 81.635
31.852 88.193 81.288
30.126 86.21 80.994
56.626 62.461 64.711
56.665 63.404 62.895
57.956 62.845 60.592
58.304 60.118 59.819
32.973 11.58 63.217
34.61 9.973 63.796
36.119 8.207 62.565
35.284 6.538 61.19
82.887 36.44 4.535
80.792 37.01 4.781
78.643 35.99 6.48
78.44 33.736 7.321
44.626 58.508 62.444
44.648 60.739 61.589
47.162 61.898 62.823
48.282 62.823 61.057
41.946 79.251 76.265
42.513 81.213 77.224
42.122 82.007 80.051
40.866 81.209 81.745
16.925 39.289 69.375
14.692 38.835 67.991
14.29 36.785 66.425
15.863 35.824 65.896
5.512 44.591 78.777
3.675 42.962 78.59
3.66 40.416 77.76
4.856 39.327 76.16
41.898 48.44 80.214
44.163 48.682 80.593
45.422 50.95 80.159
45.338 52.683 78.383
1.829 58.571 64.623
0.075 57.548 62.946
0.816 55.581 61.237
2.997 54.748 61.18
61.004 66.078 77.65
63.255 66.627 78.175
65.392 65.316 78.262
66.096 63.192 77.151
55.614 80.618 68.075
55.453 83.043 69.684
54.785 83.031 72.219
53.151 81.388 73.501
20.67 21.896 60.242
21.446 22.512 58.64
23.932 23.365 57.822
25.942 23.43 58.699
14.884 38.984 -1.252
16.457 37.371 -2.072
18.784 36.936 -1.596
20.329 38.083 -0.719
47.645 85.332 53.81
48.694 86.604 52.386
50.656 85.957 50.484
51.086 83.803 49.767
18.078 44.88 46.062
19.428 43.317 45.137
19.447 41.901 43.132
17.469 41.704 41.061
73.484 1.821 37.808
74.004 -0.068 38.673
76.261 -1.57 38.696
78.462 -0.835 37.976
30.826 41.476 5.022
30.542 41.238 7.625
28.702 41.909 8.775
27.302 44.085 9.03
46.275 45.577 50.043
47.756 43.613 50.249
47.089 41.026 49.099
45.289 40.032 48.8
86.815 56.809 63.005
88.291 56.567 60.995
87.81 55.048 58.852
85.872 54.217 58.534
78.073 60.675 45.761
77.775 63.434 45.563
76.444 64.881 47.018
76.06 64.884 49.563
43.819 8.789 87.895
42.503 9.621 86.753
39.807 10.159 86.889
38.422 10.041 88.886
79.234 47.288 39.608
79.525 49.515 40.009
78.248 51.135 41.591
76.378 51.293 42.695
84.634 77.87 78.769
86.221 78.633 76.94
88.408 79.957 76.912
90.454 79.925 79.134
17.254 93.71 1.359
15.856 92.169 -0.228
16.009 89.805 -0.887
18.142 88.151 -0.372
75.611 72.917 49.819
76.99 70.758 48.819
78.465 70.692 46.822
79.725 72.769 45.702
25.417 69.221 78.17
23.631 68.115 78.594
22.106 67.764 80.912
22.643 69.578 82.529
34.816 41.65 41.263
33.228 42.14 42.96
33.948 43.622 44.662
35.757 43.753 46.295
78.727 57.763 66.063
76.858 58.141 67.659
74.277 57.096 67.868
73.303 55.568 66.185
3.72 47.397 25.728
2.789 47.681 27.826
2.398 50.103 29.037
2.247 52.162 28.515
74.725 75.615 51.707
75.288 75.302 53.985
77.766 75.955 55.284
79.359 77.803 54.693
52.666 79.692 42.424
54.233 80.123 44.402
53.972 82.032 46.449
51.637 81.317 47.818
61.097 57.733 50.039
61.956 55.084 49.671
60.539 53.205 49.022
58.408 53.079 47.498
77.667 27.94 74.124
77.285 25.353 73.795
78.997 23.346 72.836
80.781 23.503 71.663
86.952 3.068 54.718
88.564 4.581 55.952
90.61 6.236 54.932
91.608 6.101 52.765
67.151 55.868 50.999
68.672 56.371 49.648
69.523 59.02 49.962
69.385 60.4 51.96
5.881 77.964 41.242
6.69 75.75 40.802
4.852 73.359 40.669
2.644 73.308 40.158
6.79 59.124 76.923
7.668 56.959 77.616
10.625 56.301 77.789
12.28 57.919 76.82
45.527 73.405 72.247
43.374 74.728 73.444
43.638 76.235 75.696
45.279 77.689 76.284
13.512 83.149 90.243
15.533 84.376 89.683
16.791 86.235 91.093
16.554 86.839 93.545
69.725 83.674 15.551
69.489 84.016 13.168
71.403 82.599 12.002
71.232 80.257 11.171
51.871 47.55 70.751
53.417 45.593 71.726
53.073 43.087 71.411
52.86 41.724 69.684
56.632 77.302 63.202
58.508 79.158 63.381
58.46 81.59 63.667
56.736 82.893 65.357
74.508 68.137 51.589
74.446 70.529 51.28
75.215 72.487 53.182
75.771 72.315 55.39
32.846 48.077 45.054
33.745 46.003 43.471
35.196 46.076 41.559
36.084 47.807 40.334
67.956 11.443 3.548
67.502 11.015 1.107
69.136 10.599 -0.828
71.47 11.316 -1.156
57.204 34.076 43.653
56.585 36.307 43.378
55.608 38.029 45.232
54.347 37.683 47.146
56.54 23.76 39.759
56.242 23.954 37.288
56.723 22.416 35.438
58.421 20.34 35.22
35.637 21.518 25.268
36.316 22.539 23.144
37.933 24.682 22.498
39.079 25.984 24.211
79.197 79.861 75.469
78.144 79.994 77.246
76.041 78.807 78.561
74.528 77.3 77.812
56.191 80.673 90.335
54.255 79.31 90.421
53.92 76.977 90.193
55.318 75.01 89.631
12.512 44.709 18.816
13.174 44.04 21.082
12.981 45.928 23.508
10.941 47.366 23.168
84.423 79.261 74.973
81.73 79.362 75.496
81.217 77.335 76.986
83.201 75.58 77.487
33.635 32.135 61.754
33.438 31.21 59.353
34.944 31.107 57.507
37.703 32.016 57.166
82.0 73.086 50.658
79.762 72.358 50.542
77.666 71.949 52.656
78.268 72.27 55.213
51.22 56.805 85.409
49.463 56.231 83.85
48.44 54.176 83.076
48.263 51.87 83.827
76.186 47.48 36.119
78.231 48.099 37.102
80.63 48.612 36.011
81.079 49.359 33.751
78.156 41.521 56.854
79.428 39.464 57.388
80.739 38.013 55.592
81.675 38.541 53.698
88.529 56.101 56.299
90.101 54.661 55.71
89.754 52.005 56.14
87.707 50.589 55.778
75.336 7.958 67.714
74.3 5.353 66.965
74.676 4.209 64.74
76.182 4.554 62.91
15.333 2.703 91.481
15.83 2.852 94.045
13.857 3.615 95.91
11.959 4.583 95.735
65.188 5.618 90.695
66.414 7.043 91.867
67.399 9.437 91.068
67.52 10.254 89.084
3.551 5.997 7.282
1.467 5.53 8.674
-1.039 5.22 7.831
-2.142 5.913 5.758
54.759 54.026 70.379
56.028 52.181 71.41
58.31 51.941 72.617
59.515 53.612 73.943
18.396 89.812 68.525
18.933 90.383 66.276
20.993 89.512 64.694
21.917 86.892 64.886
53.144 89.389 77.748
51.899 86.896 77.154
49.076 86.81 77.111
47.672 88.334 78.982
41.829 21.945 91.343
41.443 19.737 91.648
43.445 17.44 91.455
45.742 17.482 90.455
57.981 62.996 85.808
56.297 64.392 85.434
53.574 64.182 85.854
52.345 62.507 86.383
58.801 59.022 54.448
59.391 58.565 52.17
57.883 57.083 50.435
56.489 55.34 50.872
47.768 74.308 21.411
45.751 73.216 21.448
45.591 70.69 20.302
46.781 69.112 19.858
39.124 67.809 73.354
40.912 68.483 71.767
42.856 70.214 71.85
43.799 71.539 73.784
65.073 77.742 35.292
63.792 78.328 36.744
61.534 76.934 37.781
60.932 74.592 37.569
53.371 87.387 69.895
55.017 85.62 70.136
57.107 85.085 68.321
57.341 85.611 65.948
56.274 39.311 48.239
55.961 41.367 48.481
53.401 42.008 48.714
51.968 40.661 50.135
26.273 48.356 63.309
25.474 47.76 65.293
23.024 47.057 66.051
20.846 46.855 64.926
68.096 3.612 69.928
65.767 3.323 70.078
64.051 1.093 70.806
64.717 -1.107 70.931
57.935 81.743 -0.309
56.877 80.2 -1.818
56.71 77.354 -1.72
57.845 75.77 0.265
81.93 76.235 56.778
80.013 74.804 56.206
78.273 73.724 57.416
