1.72 32.424 26.084
3.051 34.441 27.442
65.069 54.105 30.178
65.918 54.111 27.895
67.897 54.613 26.64
70.429 54.999 27.313
22.468 70.335 29.627
22.595 68.008 29.366
20.612 66.344 28.372
18.216 66.697 29.154
69.271 39.404 14.98
68.014 41.179 14.36
68.418 43.57 16.05
69.769 43.739 17.737
38.632 71.095 21.641
40.815 71.128 21.384
42.548 70.562 19.589
42.446 69.566 17.253
20.677 27.397 35.061
20.136 27.58 37.486
18.123 29.141 38.739
16.151 29.856 37.736
58.788 45.583 18.066
56.472 44.267 18.391
55.779 43.44 21.169
55.956 44.671 23.058
34.273 44.526 44.219
32.133 44.87 42.793
29.962 44.081 42.993
28.694 43.438 45.07
0.873 90.809 29.266
1.061 88.112 28.876
2.793 86.991 27.762
4.64 87.436 26.53
40.115 90.602 10.831
40.187 88.724 8.732
42.72 88.071 7.856
44.598 87.646 9.019
30.534 13.324 44.657
32.743 11.957 44.847
34.242 11.098 43.114
33.751 10.078 40.467
86.098 81.7 7.275
84.39 83.29 6.297
81.92 82.311 5.754
80.74 80.604 6.32
79.452 14.547 44.099
80.771 16.631 44.665
83.117 16.731 45.979
85.136 15.159 45.704
66.489 18.967 26.618
65.721 18.197 28.506
63.533 18.839 30.045
61.582 20.118 29.433
63.687 21.099 6.543
62.834 19.306 7.672
60.554 18.014 7.243
58.253 19.034 6.588
60.443 83.264 21.147
62.2 83.86 19.425
63.346 86.226 18.798
63.34 88.578 20.279
69.192 12.756 96.055
70.373 11.328 95.158
69.009 9.161 93.977
66.524 8.917 93.643
71.61 13.374 0.519
70.192 13.582 2.657
70.361 14.917 4.572
70.931 17.285 4.74
6.022 31.068 48.15
7.458 32.973 47.018
9.25 33.167 45.522
10.365 31.645 44.24
45.371 77.56 51.518
47.115 79.56 52.07
47.501 81.661 50.232
47.671 81.338 47.696
59.879 21.281 13.629
60.918 20.734 11.398
63.043 21.032 10.602
65.449 21.543 11.664
64.339 79.945 36.046
63.773 80.945 37.953
65.217 81.48 40.068
67.611 81.602 40.306
66.709 32.799 17.634
64.869 33.711 16.15
62.536 34.907 16.412
61.475 35.61 18.435
51.97 8.981 10.493
49.613 9.258 11.052
48.414 10.661 12.821
48.813 11.535 14.788
33.692 82.61 9.789
33.874 82.48 7.573
35.278 80.533 6.076
35.005 78.191 6.194
81.308 74.752 47.312
83.198 73.937 46.618
85.909 74.014 47.515
87.058 75.932 48.372
55.34 16.56 8.824
56.078 18.197 10.218
58.654 18.85 10.761
60.437 18.15 10.163
48.17 35.176 48.924
46.189 33.007 48.756
45.16 32.097 46.946
45.685 32.164 44.473
59.736 79.455 38.148
60.548 77.635 36.98
61.891 77.458 34.884
62.039 79.053 32.783
70.262 -1.659 89.751
68.037 0.141 90.156
67.973 2.238 90.884
69.483 4.223 90.325
78.034 34.596 28.261
79.819 33.416 28.365
79.311 31.022 28.322
77.511 29.704 26.627
72.808 55.811 23.02
72.491 54.055 21.79
69.783 53.359 21.458
67.982 55.444 22.598
40.801 41.525 34.578
38.198 42.075 33.662
36.804 43.921 35.306
37.34 44.726 37.671
37.663 20.638 19.005
39.697 19.361 19.02
40.092 16.533 19.465
38.255 15.688 20.961
43.402 42.542 31.683
44.454 44.443 29.93
46.078 43.583 27.862
47.443 41.76 27.534
45.176 1.551 31.061
43.057 2.448 31.413
42.257 4.295 33.396
43.079 4.554 35.871
82.864 26.787 26.821
80.956 28.147 27.464
78.729 26.967 28.796
78.505 24.898 29.915
43.171 50.84 11.478
41.31 51.669 10.364
40.883 53.318 8.441
42.576 54.993 7.687
61.794 33.061 14.635
64.134 33.209 13.287
65.808 31.611 12.887
65.354 29.173 12.133
67.228 9.457 47.345
69.133 9.069 45.864
71.284 8.445 46.062
72.887 8.234 48.222
69.619 28.881 7.877
71.839 28.908 7.619
73.478 30.777 6.403
73.03 32.672 6.263
78.609 26.029 3.385
77.834 28.003 4.871
75.243 28.738 5.434
73.09 27.369 5.336
28.181 47.241 46.334
25.507 47.235 45.554
23.822 45.58 45.365
23.708 43.39 45.376
50.706 8.268 8.33
48.868 6.811 8.215
48.808 4.027 8.834
50.482 2.438 8.738
64.516 17.109 99.484
66.933 16.098 99.619
67.899 13.766 98.58
66.853 12.205 97.249
-0.382 79.142 1.611
-1.997 80.881 2.521
-3.376 80.51 4.705
-3.397 78.93 6.319
19.27 34.887 15.404
19.177 36.428 13.951
21.081 38.675 13.333
23.311 39.036 14.082
87.205 71.976 43.584
89.226 72.84 43.03
91.565 71.6 42.515
91.961 69.381 42.091
82.423 67.436 48.505
80.617 68.903 48.777
78.25 68.66 50.045
76.839 66.76 49.685
72.191 57.8 24.885
70.127 56.481 24.69
67.736 56.851 25.309
66.541 59.259 26.578
57.875 13.949 30.946
57.643 16.255 31.235
59.259 18.271 31.961
61.601 18.394 32.047
72.909 45.124 38.146
75.412 45.182 38.725
77.29 44.33 37.25
77.952 45.11 34.95
64.207 55.473 46.648
64.431 54.411 48.458
66.986 52.875 48.752
68.527 52.608 46.864
83.882 3.119 82.272
83.807 3.677 84.866
82.733 5.646 85.854
80.404 6.61 85.397
48.35 4.623 32.667
50.086 5.632 31.648
52.166 6.954 32.341
52.562 8.23 34.549
73.532 11.489 97.014
73.416 10.904 94.877
75.233 10.642 92.796
77.271 11.009 92.73
3.262 18.454 93.855
3.128 20.781 93.322
1.109 21.993 94.667
-0.023 21.721 96.525
38.139 78.174 24.423
39.511 76.185 23.363
38.76 73.655 23.036
36.876 72.82 22.413
62.651 72.288 28.867
63.822 71.468 30.897
63.099 71.392 33.415
60.906 72.283 34.435
27.045 50.13 26.367
25.967 51.994 26.085
26.691 54.629 25.505
28.796 55.624 24.988
60.468 38.138 36.73
60.406 37.743 39.083
62.184 38.7 40.779
63.511 40.509 41.22
46.778 61.069 14.505
44.717 60.284 13.572
43.084 58.649 14.325
42.917 57.082 15.991
55.023 36.611 23.055
54.026 38.314 21.749
53.731 40.85 21.86
54.232 42.542 23.301
57.067 63.783 60.181
58.153 62.775 58.608
58.65 63.966 56.546
57.077 63.596 55.023
87.486 32.146 28.888
89.301 32.644 27.912
89.315 35.329 27.599
89.257 37.009 29.172
31.708 80.495 44.97
30.211 79.738 42.982
29.44 81.395 41.097
28.628 83.977 41.709
46.118 34.084 75.301
44.219 32.351 75.242
42.731 31.425 77.169
42.332 32.83 79.522
18.843 39.904 64.75
17.19 38.348 64.475
15.515 38.327 66.533
14.701 40.153 67.85
21.842 53.64 29.785
22.252 51.938 27.415
24.024 50.279 27.302
25.547 49.432 29.069
73.67 17.954 29.91
74.631 18.128 27.614
75.764 16.492 26.013
75.456 14.029 26.032
65.238 9.415 2.665
66.626 9.474 0.209
67.484 6.955 -0.773
66.841 4.952 -0.074
3.008 29.871 46.241
3.729 31.751 47.08
2.551 33.609 48.965
0.516 33.401 50.044
52.045 44.106 23.21
50.119 42.61 23.899
48.175 43.139 25.141
47.163 45.638 26.142
51.813 -2.924 0.501
52.761 -2.307 2.341
53.432 -0.23 3.621
52.237 1.976 3.552
67.976 53.123 24.335
68.581 51.264 22.763
67.022 49.946 20.824
64.959 48.991 20.996
58.108 34.903 20.855
56.263 36.257 20.618
53.764 35.547 19.215
53.036 33.334 18.779
42.971 43.131 26.881
43.591 41.516 26.031
45.674 41.581 24.882
46.44 42.924 22.718
88.916 56.688 17.328
87.483 55.281 16.092
84.828 54.91 16.485
83.315 54.975 18.223
23.957 43.221 13.628
22.948 41.666 14.95
20.075 40.751 14.572
18.788 41.174 12.861
73.35 38.55 31.584
74.719 36.612 32.229
75.461 34.432 31.239
75.335 33.682 28.752
9.147 19.299 16.287
10.116 21.593 16.543
12.354 22.541 15.691
14.176 21.749 14.175
41.483 13.313 92.871
41.606 11.46 91.32
43.523 10.659 89.669
45.794 11.842 89.486
60.338 83.45 38.917
62.686 82.83 39.481
64.725 84.397 40.196
65.147 86.606 40.403
32.076 19.497 27.7
30.107 21.117 28.089
27.573 20.779 27.965
26.397 18.287 27.663
87.023 37.223 24.956
87.288 34.74 25.973
85.577 33.296 27.352
82.803 33.712 27.082
66.663 29.646 8.471
67.952 31.605 9.515
66.755 33.462 11.033
64.775 34.728 10.75
89.238 15.44 38.45
91.542 14.635 38.002
93.033 14.566 35.662
92.306 13.995 33.523
57.324 62.46 9.647
59.077 60.583 8.684
60.078 60.863 6.35
61.22 62.711 5.347
8.054 41.762 29.312
8.67 40.447 27.346
10.625 39.313 26.448
13.052 39.225 27.291
29.04 49.437 45.602
29.897 48.192 43.97
32.394 47.456 43.15
34.656 47.652 44.236
66.809 42.763 17.872
66.198 41.268 16.554
66.64 38.756 16.28
67.037 36.893 17.661
70.192 38.203 82.014
69.459 36.287 83.36
70.482 33.719 82.92
71.707 32.889 80.826
51.943 43.194 20.351
50.944 41.059 21.509
48.947 39.735 20.987
46.584 40.78 20.653
51.678 87.541 4.252
50.016 88.056 5.446
49.827 90.133 6.559
52.105 91.856 6.989
75.074 89.077 12.549
76.257 86.983 11.506
74.838 85.698 9.22
72.675 86.318 8.935
19.95 36.268 11.459
19.799 38.848 11.139
21.439 40.432 9.899
23.847 39.588 8.504
67.65 49.895 68.203
69.178 48.304 67.491
69.085 46.444 65.746
67.722 46.125 63.833
62.93 49.146 18.468
62.815 46.843 17.741
61.828 45.749 15.729
59.959 46.273 14.207
82.394 18.722 63.635
82.907 19.73 65.832
81.694 20.933 67.697
79.655 21.853 67.857
89.158 18.149 14.372
89.312 15.797 14.211
87.427 13.958 14.772
85.219 13.932 15.059
16.234 37.437 40.039
17.914 35.981 38.663
17.458 33.666 37.799
15.31 32.567 37.859
65.99 21.276 4.615
68.35 20.552 4.25
69.728 18.948 2.54
69.008 18.09 0.673
25.968 62.111 30.999
27.225 62.614 28.963
27.049 60.814 26.944
26.061 58.499 27.188
74.209 54.27 44.896
76.48 53.574 45.912
78.459 52.25 44.905
78.095 50.398 42.749
56.906 13.427 28.366
56.861 11.534 29.371
54.516 10.238 28.127
53.81 10.775 26.117
64.544 38.175 34.269
62.692 36.848 36.14
61.793 34.645 35.658
62.869 33.409 34.031
70.598 53.676 18.215
69.01 52.218 19.18
66.748 51.307 18.33
66.058 50.779 16.212
33.796 30.347 27.455
32.846 28.629 27.708
31.958 27.087 30.013
31.002 27.929 31.905
-0.192 1.69 37.069
-0.508 4.282 36.474
0.031 6.128 37.821
2.151 6.506 39.603
82.141 82.864 58.801
79.702 82.13 58.069
77.427 82.412 59.204
77.061 83.03 61.892
87.264 55.376 35.708
88.111 53.459 35.821
88.055 51.119 33.965
89.222 51.974 31.694
68.559 66.864 4.076
67.552 64.976 5.937
65.28 64.123 6.085
63.34 64.179 4.479
58.491 30.433 40.438
56.64 28.79 39.708
54.363 28.485 41.064
53.317 29.653 42.992
2.354 32.63 21.982
4.763 31.445 21.39
4.685 29.501 19.663
3.017 28.466 18.168
64.51 64.932 9.431
67.037 64.893 8.653
68.532 66.276 8.177
69.467 68.594 9.388
18.271 81.767 44.033
17.405 84.06 44.386
15.218 85.174 43.999
12.822 83.899 44.294
16.738 48.515 75.912
18.263 49.241 74.637
20.867 48.904 73.912
22.343 47.152 74.556
72.856 28.646 10.167
71.132 30.364 11.173
68.415 29.705 11.659
67.38 27.507 12.094
58.362 69.193 64.916
56.202 69.878 64.854
53.997 68.057 65.445
53.633 66.77 67.601
-0.927 39.788 83.772
-1.632 37.545 83.713
0.127 36.362 81.841
2.519 37.146 81.32
52.363 68.595 15.426
52.765 70.925 14.198
54.958 72.544 14.628
56.549 72.489 16.974
57.746 38.748 23.584
57.59 36.089 23.345
60.116 34.66 22.825
61.952 35.905 22.806
40.729 73.76 21.1
43.021 73.395 20.037
44.936 74.962 19.48
45.149 76.755 20.835
34.788 33.565 53.251
33.27 31.63 53.869
31.35 31.411 55.18
29.646 32.967 56.184
56.453 86.899 16.516
58.832 86.458 17.284
60.825 87.89 17.621
61.239 90.385 17.901
84.291 59.992 15.853
84.495 57.341 15.663
85.633 55.974 13.692
87.304 56.158 12.838
41.572 37.649 4.595
43.299 35.822 3.593
45.894 36.098 3.498
47.567 38.105 3.729
23.676 78.464 12.92
24.338 78.403 10.519
26.702 78.678 9.176
28.936 79.237 10.169
16.273 33.626 93.449
16.893 32.315 91.657
19.481 31.315 90.881
21.306 32.244 91.801
62.297 15.141 7.52
64.484 16.263 6.491
65.448 18.563 7.609
65.446 19.218 9.532
58.897 47.608 49.353
56.672 47.121 49.168
54.728 46.794 50.816
54.826 48.152 52.818
39.346 1.684 30.079
40.466 0.152 30.393
42.839 -0.909 28.815
43.871 0.142 27.006
49.977 39.278 24.082
47.695 39.741 23.616
45.265 39.14 24.527
44.75 37.19 25.023
13.958 24.251 79.61
13.24 24.107 82.352
13.263 25.782 84.156
14.148 28.249 84.135
73.01 82.085 58.129
72.123 83.452 59.656
69.376 82.719 60.268
67.94 81.405 58.603
69.233 31.61 81.282
69.98 30.614 79.964
68.759 27.974 79.251
66.747 27.293 79.877
90.638 3.701 11.506
90.574 5.982 11.069
88.682 7.931 11.659
86.614 7.673 12.986
36.365 -1.176 6.329
35.287 -1.757 8.106
35.661 -1.107 10.744
37.22 0.73 11.799
70.237 35.808 13.165
70.734 33.409 12.285
70.558 32.668 9.559
71.946 34.177 8.053
14.893 74.448 19.708
15.77 75.149 17.14
16.412 77.686 16.529
17.533 79.22 17.835
76.277 66.609 7.558
74.271 68.197 6.765
74.126 70.637 6.407
75.838 72.583 7.039
74.776 91.279 42.508
72.466 91.0 42.349
70.73 90.135 44.447
70.483 91.579 46.448
70.194 87.142 91.023
69.339 85.951 88.733
69.031 83.327 88.553
70.59 81.564 89.488
41.751 34.278 54.014
40.07 32.317 53.652
37.238 32.801 54.107
36.106 33.733 55.591
5.799 19.126 84.846
4.651 20.652 86.582
2.007 20.362 87.54
0.922 18.325 87.214
79.929 -1.219 34.505
81.134 -0.29 36.241
79.367 0.05 37.458
77.973 2.387 38.005
76.709 14.502 92.874
78.792 14.032 92.722
80.163 13.646 90.455
78.752 12.701 88.651
87.063 71.471 46.42
85.008 70.975 45.48
82.714 71.282 47.081
82.095 71.208 49.11
44.891 77.635 72.599
45.585 78.709 74.625
45.952 80.932 75.455
45.919 83.191 74.176
40.767 88.25 5.65
38.486 88.448 5.428
36.49 86.84 5.758
36.589 84.263 6.423
68.41 90.553 93.285
67.745 88.821 91.658
65.9 87.046 91.911
65.102 85.878 93.65
55.892 85.127 1.925
57.689 83.415 0.953
56.98 81.257 -0.083
55.424 79.53 1.026
71.63 5.655 94.388
70.032 4.708 93.156
68.09 3.061 93.444
67.465 1.489 94.992
88.38 18.263 61.915
88.683 19.107 63.724
86.871 19.444 66.149
85.086 18.496 66.634
67.661 35.921 10.91
67.518 35.635 13.537
66.051 36.19 15.163
63.76 37.588 15.296
22.007 18.837 80.694
20.131 20.374 81.215
17.883 19.639 82.682
17.575 18.098 84.457
75.184 83.438 86.916
72.993 82.428 85.706
70.864 83.432 84.994
69.709 84.814 85.944
71.763 2.448 40.21
70.682 2.127 42.039
69.119 -0.0 42.452
67.642 -1.341 41.122
61.428 73.728 59.185
60.168 71.444 59.932
59.429 69.471 58.267
59.953 69.334 55.929
55.976 45.292 2.293
57.008 47.026 1.04
59.186 48.193 0.872
61.397 47.648 1.416
47.611 79.506 78.948
48.065 81.065 77.215
49.842 81.375 75.597
52.017 79.949 74.964
74.361 40.19 62.614
73.456 42.398 62.37
72.92 44.114 64.398
72.634 43.852 66.64
57.92 76.638 18.762
56.909 77.483 16.705
56.726 76.536 14.205
57.917 74.0 13.564
4.816 84.996 55.519
5.083 85.472 53.12
4.878 84.042 51.309
5.122 81.607 50.608
54.752 38.238 67.417
53.556 36.604 68.622
51.076 36.676 69.718
50.654 38.215 70.885
44.837 86.903 4.016
46.957 88.189 4.327
49.144 88.322 2.768
49.97 86.195 1.364
3.925 87.903 55.234
1.926 88.875 55.228
0.473 90.153 56.78
1.328 91.659 58.089
89.253 86.826 57.427
88.593 88.433 58.321
86.729 90.194 57.283
85.017 90.073 55.466
54.628 4.844 79.691
56.949 3.459 79.155
57.443 2.437 76.934
56.283 1.98 74.755
47.544 32.179 68.407
47.872 31.182 70.499
46.314 29.613 71.977
44.32 29.608 72.397
41.429 68.633 70.193
41.619 69.614 72.13
39.516 69.679 73.777
37.437 69.77 73.468
-3.06 28.895 97.231
-1.021 27.673 98.272
1.226 27.493 97.766
2.594 27.58 95.94
88.51 24.042 72.262
86.719 22.688 71.212
84.736 21.836 71.87
83.271 21.711 74.023
79.177 42.802 62.959
76.704 43.021 63.553
75.05 44.994 62.879
75.357 47.115 61.596
17.606 76.886 88.424
16.147 75.262 87.956
17.086 73.345 86.141
19.243 73.01 85.077
37.363 4.065 83.482
36.206 1.799 83.779
36.695 -0.496 82.309
37.611 -0.778 79.987
72.38 8.279 72.78
70.962 9.819 72.934
70.904 12.331 73.908
72.873 13.676 75.099
40.435 48.175 82.556
38.634 47.351 84.146
37.219 45.474 84.096
36.522 43.992 82.171
47.438 93.57 10.463
45.945 92.225 9.21
46.087 89.6 8.594
48.472 88.722 8.089
-1.836 87.985 80.92
-0.007 88.702 79.252
2.251 88.441 79.026
3.268 86.767 79.205
87.667 59.993 66.718
88.469 61.521 65.119
88.742 64.335 65.447
89.15 65.655 67.263
39.383 3.755 86.065
38.578 1.842 85.513
39.932 0.982 83.296
42.51 1.269 83.001
77.246 41.949 33.793
76.07 39.438 33.018
77.091 37.846 31.324
78.844 38.304 29.312
85.92 5.756 57.675
84.426 5.206 59.709
82.252 3.704 59.894
80.844 2.818 58.14
35.679 5.245 40.546
34.482 7.383 41.434
33.229 7.965 43.407
31.717 6.268 45.168
42.06 56.469 62.199
41.075 57.086 64.326
40.449 59.383 65.074
39.847 61.331 64.245
84.266 12.69 88.661
83.43 10.519 89.413
81.903 8.785 88.163
81.545 8.999 85.645
70.807 75.306 85.899
71.674 76.033 83.631
73.509 75.62 82.195
75.674 74.28 82.362
90.646 50.045 79.615
92.26 47.846 79.571
91.442 45.45 79.461
89.409 44.437 78.142
31.159 32.931 85.05
30.554 31.709 87.025
28.07 30.462 87.712
25.936 30.913 86.459
50.383 40.133 72.824
52.097 42.109 71.961
53.165 43.853 73.157
51.99 45.491 75.256
56.85 24.587 64.843
56.436 24.894 62.429
58.214 24.996 60.444
60.486 26.035 60.311
26.114 9.095 46.801
25.332 7.263 48.555
23.239 5.836 48.621
21.979 5.034 46.822
69.363 17.081 6.765
68.12 18.939 6.266
67.144 20.625 7.884
67.964 21.509 10.132
46.106 53.075 83.538
44.982 53.089 81.82
42.075 53.521 81.194
40.431 52.798 82.672
65.359 31.319 81.943
65.139 32.415 83.956
63.532 32.515 85.765
61.297 31.582 86.087
65.727 34.598 34.42
66.097 36.482 35.771
68.17 37.527 37.046
70.656 36.81 37.199
36.284 27.295 79.742
37.386 28.63 78.169
39.432 29.488 77.439
41.907 29.181 78.178
73.004 17.399 68.834
73.489 15.132 70.766
71.334 14.3 72.123
69.249 14.029 71.522
80.677 91.584 59.673
78.318 92.168 59.925
76.611 90.944 61.364
76.228 88.453 62.119
69.257 92.906 71.318
70.133 93.412 68.945
72.43 93.209 67.964
74.752 92.696 68.892
16.266 86.261 41.904
17.967 87.423 43.017
18.789 89.839 43.086
17.556 91.978 42.742
23.013 37.158 90.879
21.067 36.537 92.093
18.983 37.827 92.956
18.309 40.27 92.582
59.12 22.739 84.209
57.849 21.204 85.36
55.579 20.429 84.82
53.992 20.385 82.939
75.414 8.8 45.808
73.253 10.047 45.157
72.382 10.336 42.857
73.441 12.292 41.69
27.956 11.762 74.286
28.528 13.076 72.589
28.556 12.906 70.09
28.863 11.331 68.395
15.762 81.824 69.663
17.338 83.765 68.315
16.358 86.453 68.686
14.866 87.506 70.068
56.218 40.425 67.731
56.671 42.74 67.491
58.709 43.37 69.19
60.506 43.284 68.417
44.373 49.741 83.911
42.619 49.312 83.407
40.399 49.395 84.942
39.912 49.48 86.958
60.341 79.834 68.098
58.719 81.51 68.346
56.533 80.557 69.829
56.161 78.929 71.209
40.919 34.08 77.309
39.509 32.581 78.465
36.423 32.935 78.487
35.46 35.472 78.189
52.826 19.086 65.314
52.561 17.229 64.093
50.533 15.955 63.004
48.322 15.676 63.925
38.481 82.845 55.162
40.401 82.025 55.259
42.469 81.799 53.192
42.286 82.402 51.001
73.771 49.089 20.404
71.842 50.594 19.172
70.131 49.827 17.717
69.077 47.458 16.959
85.75 77.506 98.45
88.162 76.99 97.752
89.033 76.632 95.401
87.868 75.801 93.32
55.411 47.289 75.036
56.709 47.044 73.119
57.635 45.295 71.683
56.834 43.454 71.144
55.405 26.959 87.014
56.112 25.036 86.793
55.067 22.785 86.09
52.871 22.032 85.733
47.816 29.184 75.242
45.437 30.026 74.728
43.062 28.944 75.193
42.351 26.926 76.737
61.422 91.013 76.57
59.057 91.319 76.843
57.016 90.537 75.403
57.0 88.7 73.352
58.498 44.848 66.602
56.423 45.339 67.932
56.385 47.343 69.884
57.671 49.339 70.054
58.745 28.749 60.586
60.776 28.823 60.013
61.275 28.53 57.494
59.389 28.455 55.641
67.147 42.73 62.597
69.521 42.739 62.626
71.46 44.085 61.384
71.2 46.331 60.008
79.188 54.956 74.442
77.095 55.779 74.109
76.745 58.657 73.588
78.843 60.134 73.488
77.672 54.893 71.878
75.332 54.641 71.145
73.734 52.351 70.826
74.06 50.14 70.869
71.107 59.54 47.882
72.872 60.348 46.228
75.305 61.019 46.846
75.816 62.564 48.812
69.974 11.18 43.697
70.778 12.045 45.728
70.955 14.623 46.888
71.137 16.677 45.439
3.205 49.809 56.298
4.612 51.254 57.068
5.014 53.911 56.405
3.928 55.426 55.789
85.88 36.51 5.445
84.821 38.278 6.632
83.296 38.015 8.676
82.5 36.032 9.767
70.457 63.777 78.181
68.174 65.37 77.599
67.833 67.9 79.021
68.926 68.831 80.51
33.035 86.26 64.091
33.466 87.311 61.843
35.854 87.151 60.403
37.671 85.603 60.496
25.556 55.802 23.231
26.865 57.463 24.567
28.666 59.186 23.938
29.776 59.409 21.648
57.941 7.927 52.427
57.356 6.894 50.602
58.163 7.245 47.872
59.461 8.877 47.054
34.725 71.749 49.385
33.66 70.089 49.09
34.135 67.92 47.041
35.391 68.383 45.003
52.323 34.907 66.515
51.71 34.033 68.779
51.612 31.652 69.615
51.682 29.649 68.47
12.677 31.726 67.554
11.738 34.373 68.166
10.206 34.996 69.85
8.816 33.879 71.276
53.326 5.426 82.736
53.509 7.788 82.676
51.848 9.772 82.675
49.367 9.821 83.103
7.02 88.416 46.838
7.007 87.228 48.856
5.402 87.038 50.764
3.352 87.735 51.285
66.537 64.276 82.812
63.944 64.685 83.113
62.766 66.937 83.33
63.266 68.994 84.382
57.18 66.73 59.266
56.187 66.124 61.339
54.361 67.282 62.867
54.148 69.886 63.179
4.65 33.751 75.151
4.079 33.992 72.898
5.188 36.253 71.206
7.728 36.585 71.54
70.892 25.976 73.889
70.613 26.482 76.335
70.799 28.663 77.659
70.72 31.043 77.147
75.559 28.923 51.207
75.09 26.849 50.827
72.641 25.869 51.019
70.557 27.294 51.077
72.27 29.16 53.546
70.013 28.099 53.617
67.665 28.81 54.517
67.003 30.763 55.129
54.463 91.698 48.952
52.357 90.93 48.958
51.126 88.546 49.196
52.13 86.512 48.677
82.154 20.135 48.637
81.018 19.055 47.01
79.14 17.278 47.044
77.429 16.97 49.163
35.886 81.98 79.912
37.598 83.319 80.815
38.745 85.358 80.089
38.544 87.002 78.616
4.804 54.87 34.896
2.977 53.307 34.075
0.901 52.39 35.482
0.219 52.62 37.707
90.246 37.229 75.93
89.734 37.598 78.131
87.72 37.907 79.542
85.206 38.173 79.053
69.144 79.912 62.325
70.861 81.065 61.717
72.083 83.157 62.63
71.591 84.407 64.735
81.449 3.696 40.252
81.958 1.697 39.487
80.427 -0.431 40.126
78.491 -0.123 42.009
23.923 63.484 56.516
23.987 65.819 57.074
24.233 67.011 59.155
25.184 66.018 61.612
36.874 50.972 14.901
37.094 53.327 16.471
35.308 55.346 15.711
33.877 55.045 13.776
60.659 23.083 86.367
60.63 25.509 86.505
61.66 27.296 84.74
63.289 27.124 83.129
37.205 7.894 87.092
37.422 5.399 87.909
35.621 3.345 87.302
34.363 2.974 85.525
85.482 11.798 92.26
83.193 11.911 91.556
80.901 10.726 92.294
80.708 8.481 93.845
57.498 16.942 59.506
56.332 19.367 59.913
56.964 21.411 61.253
59.059 21.804 62.573
73.67 75.72 57.647
72.652 77.924 56.732
70.83 79.361 57.609
69.585 79.218 59.658
65.55 6.909 70.602
65.636 6.447 73.311
63.96 7.655 75.036
61.213 8.432 74.079
47.927 52.649 81.08
49.992 53.215 81.084
50.946 55.925 81.418
49.489 57.469 81.95
83.682 82.499 78.796
85.543 81.129 77.907
87.915 81.421 77.746
89.434 83.302 78.907
38.486 36.922 83.711
37.923 35.382 82.133
38.947 33.116 81.172
40.908 31.999 81.518
36.194 3.531 33.331
37.494 1.41 33.419
38.146 -0.356 31.784
36.562 -1.491 29.959
72.659 31.711 61.076
74.539 32.756 60.293
75.754 35.123 61.254
75.639 36.116 63.509
56.17 10.883 60.554
54.652 12.602 61.312
54.943 15.217 62.137
56.883 16.505 62.356
43.937 28.118 -0.161
42.05 26.749 -0.843
41.06 24.588 0.016
41.756 23.005 1.827
7.277 28.844 44.102
4.811 28.881 44.269
3.121 27.17 44.638
2.999 24.653 44.747
57.354 9.677 79.069
58.437 8.093 78.214
60.86 8.065 76.803
62.7 9.197 76.92
3.618 1.651 57.277
2.566 3.207 58.09
1.918 5.291 56.931
3.851 6.982 56.597
51.747 89.256 77.352
51.534 87.121 76.149
53.29 86.504 73.865
54.46 87.798 72.502
21.765 50.624 25.052
22.945 48.171 24.74
21.97 45.738 25.433
19.998 44.907 25.389
62.211 61.768 52.987
59.787 61.31 52.794
58.088 63.469 52.527
59.464 65.996 53.156
5.77 3.099 74.807
4.365 2.537 76.642
1.77 2.153 76.673
0.315 0.802 75.094
9.802 74.052 92.646
11.67 74.634 91.761
11.875 77.875 91.46
9.519 78.883 92.305
54.87 6.407 76.771
55.499 7.254 79.106
54.367 8.904 80.55
52.483 10.44 80.376
62.363 87.415 94.188
60.908 87.016 95.97
57.979 86.886 95.665
56.847 86.418 93.315
56.083 28.946 59.583
56.26 27.907 61.888
55.032 28.546 64.122
53.191 29.948 64.851
3.492 0.737 54.087
3.898 -1.398 53.11
6.631 -2.207 52.406
8.252 -0.842 51.281
21.219 20.729 32.708
23.069 21.645 31.89
23.849 24.519 31.61
22.833 26.462 32.982
23.139 -0.71 22.363
23.714 1.256 23.46
22.647 3.466 23.749
20.436 3.804 23.304
49.574 24.427 38.269
52.297 24.503 38.54
53.879 22.711 37.696
54.03 21.588 35.802
64.337 39.515 36.907
66.01 38.951 38.379
68.294 40.123 39.211
69.348 42.068 38.834
43.266 7.939 87.514
44.943 8.351 85.609
47.432 9.61 86.44
47.793 10.283 88.363
30.324 19.955 1.9
32.333 19.511 1.282
34.955 20.738 1.507
35.721 22.57 2.05
58.008 66.234 63.591
59.251 66.943 61.838
59.856 65.511 60.19
60.564 62.918 60.074
40.695 8.025 41.69
39.615 7.091 39.813
40.445 6.925 37.258
42.314 7.001 36.006
77.081 89.798 36.509
76.26 91.266 38.454
73.848 92.249 39.035
71.669 91.081 38.368
66.132 37.977 45.061
65.123 38.467 42.552
66.001 37.01 40.501
68.521 36.602 39.979
61.006 73.495 64.362
59.328 71.592 63.656
60.031 69.635 61.976
62.003 68.458 61.641
84.545 49.087 14.217
84.49 51.29 13.378
86.625 53.135 13.004
88.728 53.241 14.666
3.822 20.671 38.677
3.873 21.099 41.267
3.388 23.077 42.324
3.799 25.873 41.547
62.912 36.374 87.943
65.002 36.832 87.7
66.881 36.446 85.787
66.344 35.11 83.282
54.11 12.455 84.951
53.963 11.418 83.063
56.332 10.979 81.341
58.02 9.615 82.008
77.658 20.34 77.147
78.07 20.125 74.43
80.186 19.614 73.182
82.309 19.166 73.729
66.156 72.871 27.77
67.141 70.869 28.91
69.219 69.489 28.596
70.946 69.553 27.154
52.798 21.411 63.829
54.623 23.07 63.621
54.15 26.006 64.156
52.551 27.064 64.989
83.955 9.379 84.899
83.988 7.243 84.376
84.95 5.843 82.226
86.642 6.67 80.328
70.102 8.503 91.651
72.079 9.201 92.642
74.333 7.742 93.09
75.781 6.09 91.897
68.714 36.895 89.699
68.818 38.076 87.429
70.565 37.881 85.414
72.766 37.717 85.878
82.877 36.467 81.693
85.537 36.971 81.457
87.13 35.417 80.496
88.533 34.22 81.701
47.545 56.368 32.428
49.254 57.408 31.323
49.184 60.041 30.831
46.886 61.491 30.485
76.497 57.315 42.78
77.409 58.884 44.505
77.483 61.106 45.049
77.11 63.246 43.456
29.508 67.278 77.931
29.972 67.94 75.77
31.371 66.497 73.533
32.972 64.528 73.838
57.695 6.758 76.082
58.323 4.721 75.686
58.882 3.372 73.568
59.261 4.314 71.155
46.275 10.971 15.833
46.16 12.132 13.751
44.421 12.05 11.859
43.352 9.624 11.172
60.061 51.545 48.044
58.601 50.321 48.976
56.111 49.645 47.854
56.111 48.568 45.535
74.995 25.115 47.89
76.394 23.424 47.76
76.066 20.863 46.467
74.106 19.891 45.696
34.891 7.291 95.943
36.135 9.664 94.963
34.901 11.738 94.132
32.359 12.498 94.354
83.878 36.531 56.198
84.99 38.689 56.385
84.477 40.376 57.953
83.271 40.851 59.793
81.366 37.769 55.323
80.378 38.752 57.552
78.37 39.162 58.46
75.981 39.934 57.431
38.317 50.806 57.171
37.136 49.783 59.122
35.35 50.591 60.49
34.448 52.678 61.23
64.588 78.846 32.535
64.349 76.539 33.12
64.578 74.354 31.227
64.14 74.381 29.033
51.718 47.294 77.468
52.411 49.48 77.571
54.848 50.526 77.406
56.877 49.989 77.753
60.405 6.057 80.391
59.814 5.716 78.076
61.088 4.64 76.207
62.49 2.438 76.076
10.834 39.233 45.251
9.215 37.495 45.084
7.438 36.698 46.594
6.163 37.634 48.594
92.667 86.929 21.917
92.055 86.848 24.35
89.628 87.471 25.526
87.355 87.339 24.313
58.279 64.693 88.292
58.772 65.901 86.459
60.783 65.389 84.541
61.83 63.37 84.028
47.289 74.774 20.747
48.532 73.669 18.521
49.591 75.093 16.744
50.214 77.608 16.906
38.817 32.695 74.715
41.053 31.399 74.743
43.04 31.908 72.995
43.51 33.182 71.291
77.156 30.233 56.85
75.597 29.711 54.646
75.035 27.305 53.923
75.93 25.172 54.35
22.3 63.952 53.116
23.841 65.693 54.188
26.479 65.766 54.118
28.09 64.507 53.083
68.928 24.041 53.844
67.541 25.242 55.244
64.98 26.013 55.125
63.115 25.668 53.557
40.365 13.312 49.54
38.842 12.096 47.727
36.31 11.961 47.688
34.329 12.148 49.252
67.092 7.802 75.52
68.701 8.749 74.19
69.892 7.08 72.284
69.834 4.284 72.286
30.659 25.745 56.398
29.381 26.795 57.719
26.508 26.856 58.364
24.773 25.645 57.524
87.756 4.899 85.969
87.216 4.544 83.739
87.013 2.395 82.237
88.213 -0.109 82.465
50.519 7.147 60.077
49.306 8.6 61.488
47.684 8.367 63.496
47.081 6.727 64.906
59.899 42.939 41.47
57.832 43.425 42.527
57.339 45.657 43.904
57.675 48.011 43.179
8.842 8.306 78.451
10.638 9.262 77.778
12.772 9.615 78.339
14.16 8.911 80.443
15.759 52.285 78.675
16.723 51.004 76.693
19.269 51.584 75.54
20.555 53.174 76.221
67.691 62.657 77.112
69.103 61.874 75.538
71.072 59.839 75.56
70.671 57.597 76.616
82.553 24.816 47.431
81.018 23.449 48.183
79.095 22.093 47.263
78.079 21.823 45.055
59.864 30.716 90.811
59.311 29.579 88.555
60.914 28.398 87.097
62.888 28.525 87.09
45.415 7.736 8.023
46.027 9.536 10.021
48.549 10.943 9.389
49.767 10.705 7.711
76.616 29.648 7.346
75.743 31.928 7.434
74.159 33.077 9.313
73.339 32.001 11.336
55.685 8.485 55.749
53.728 8.639 56.748
52.594 8.189 58.964
54.123 9.227 61.157
17.326 60.657 77.952
18.41 58.465 77.251
17.48 55.936 77.384
15.599 54.993 78.207
62.023 66.132 28.412
63.35 67.491 29.41
64.658 69.778 28.86
64.182 71.309 26.622
40.485 46.341 27.062
41.062 46.557 28.93
41.539 44.623 30.85
40.737 42.451 30.83
60.294 81.558 42.301
61.087 80.795 40.115
62.232 78.752 39.283
63.937 78.172 40.228
82.272 54.392 42.282
80.216 54.803 43.318
79.36 54.505 46.109
80.635 55.251 47.78
85.679 48.054 9.346
84.831 48.465 11.093
82.792 50.032 11.603
81.733 51.938 10.173
77.986 87.664 38.47
79.075 87.875 36.393
81.933 88.253 35.971
83.691 88.124 37.317
26.763 17.143 30.564
25.432 19.06 30.356
22.8 19.053 30.847
21.613 16.54 31.418
25.898 91.128 43.867
23.914 90.008 44.098
23.354 87.404 44.792
24.881 85.552 44.773
12.347 35.627 14.917
11.337 33.949 16.0
12.006 31.487 15.881
13.712 30.579 14.194
56.167 75.247 35.161
58.327 74.273 34.304
60.29 75.567 33.096
60.257 77.525 31.52
63.989 41.01 14.354
63.719 41.76 16.623
61.739 42.243 18.06
59.529 42.829 18.068
40.255 4.596 29.75
39.495 3.66 31.736
38.713 4.641 33.993
38.942 7.025 34.925
15.946 7.899 28.786
16.328 10.357 29.92
14.086 12.027 30.558
11.946 11.305 31.049
0.917 83.886 0.732
-0.618 84.732 2.265
-0.322 86.511 4.16
1.372 88.022 4.817
78.799 19.26 44.137
77.312 18.846 45.795
75.486 17.236 46.128
74.641 15.485 44.805
34.595 75.416 29.674
32.611 76.149 28.781
30.657 75.117 28.085
29.675 72.699 28.444
-0.415 33.191 79.379
0.245 33.659 77.321
2.37 34.734 76.348
4.322 35.912 77.357
67.857 48.637 14.82
65.637 47.651 15.887
64.369 45.29 15.276
64.763 43.745 13.42
7.394 32.668 68.987
5.519 32.669 70.839
3.132 33.66 70.328
1.684 32.109 68.391
54.232 37.46 17.246
55.73 38.376 18.825
55.517 41.088 19.725
54.228 42.783 18.967
55.413 12.067 53.87
56.138 9.725 53.58
55.196 7.961 51.811
54.051 8.269 49.778
32.666 59.711 18.446
34.608 60.48 17.53
35.612 59.373 15.219
34.729 57.749 13.73
20.91 63.463 59.189
21.248 63.084 56.55
18.871 63.235 54.943
16.74 61.81 55.613
87.841 76.881 46.169
86.358 75.215 44.836
87.128 74.504 42.246
89.246 75.967 41.808
3.107 50.622 34.05
4.464 51.178 32.23
6.76 50.164 30.986
7.728 48.047 31.655
41.098 78.54 22.696
42.54 78.682 24.576
43.973 80.543 25.603
43.882 83.262 25.12
63.61 79.749 59.035
65.013 79.661 60.888
66.201 81.29 62.205
67.23 83.86 61.506
13.619 75.807 15.65
14.259 73.526 15.101
14.504 72.754 12.712
13.635 73.636 10.689
0.779 54.864 14.058
1.317 56.504 15.688
2.571 56.544 17.685
4.108 55.038 18.943
47.437 25.496 39.292
47.085 26.568 41.503
46.272 25.439 43.741
45.874 23.338 44.397
51.063 66.68 61.565
50.759 65.248 63.51
49.223 62.969 63.915
47.601 61.955 62.664
53.284 23.791 33.651
54.562 22.21 32.983
55.605 21.489 30.512
54.66 21.936 28.294
61.967 86.754 13.976
62.441 87.707 15.707
63.505 90.03 16.408
64.13 92.074 15.166
47.179 87.68 45.244
49.586 86.562 45.767
50.196 83.9 45.973
49.105 82.012 45.013
70.801 25.803 6.821
69.731 24.77 8.624
67.044 23.959 8.814
65.837 22.938 6.942
21.645 60.2 27.016
23.321 58.726 28.006
23.252 55.897 27.962
22.579 54.41 26.297
71.531 86.419 11.747
69.931 84.421 11.808
67.629 84.218 11.809
65.772 85.859 12.906
2.284 63.973 11.02
3.671 63.41 12.858
5.836 64.373 14.084
6.161 66.767 14.509
20.128 84.259 45.543
22.158 84.137 44.231
23.055 82.155 43.371
22.649 79.455 44.048
12.313 65.284 40.653
11.118 65.805 38.385
10.867 64.183 36.577
12.053 62.501 35.736
13.912 67.115 18.027
12.25 66.083 16.35
12.862 64.56 14.325
14.637 62.973 13.846
26.184 23.309 28.034
27.679 24.315 29.747
29.644 26.128 29.265
30.799 25.987 27.507
46.406 82.162 79.26
44.232 82.935 79.581
42.597 80.797 80.231
43.09 79.834 82.526
46.169 61.448 11.405
47.759 63.229 11.314
50.169 63.194 11.416
51.921 61.168 11.911
31.087 87.214 8.775
31.955 85.347 9.635
31.196 83.045 10.19
28.834 81.953 9.756
8.099 71.847 36.895
8.144 71.172 39.17
6.744 70.458 40.823
4.505 69.34 40.875
37.231 87.296 31.488
38.082 85.784 30.708
36.781 83.765 29.191
34.575 83.792 28.261
14.633 -0.249 5.271
15.102 1.507 3.387
16.12 3.757 3.397
17.228 5.247 5.176
62.232 73.841 61.667
60.871 75.721 62.421
61.368 78.02 63.085
63.558 79.249 63.107
69.575 82.757 9.299
71.531 81.394 9.409
73.782 81.681 8.594
74.699 83.445 7.557
30.037 33.081 59.019
28.302 31.242 58.751
25.75 31.288 59.265
24.304 32.699 60.86
61.365 59.483 24.566
61.045 60.369 26.782
62.261 62.403 28.044
63.548 64.37 26.827
48.271 34.167 22.009
49.546 36.413 22.53
50.677 37.856 21.312
51.77 38.024 18.775
61.445 59.647 30.876
60.445 57.998 29.56
58.914 56.055 30.209
57.463 55.647 31.639
53.762 72.595 39.601
54.954 74.896 39.966
54.698 76.048 42.315
53.066 76.08 44.059
72.8 68.284 29.305
74.543 69.982 28.62
73.295 72.414 28.973
71.093 72.804 30.215
83.572 54.354 12.73
83.647 53.422 14.751
81.919 52.837 16.722
79.654 52.933 16.927
68.119 42.688 86.956
69.009 40.691 86.871
71.411 40.57 86.09
72.63 41.839 84.335
70.48 3.768 65.034
71.686 1.576 65.698
73.731 0.308 64.394
73.745 -0.665 62.277
39.758 10.907 45.078
39.982 13.402 44.725
41.723 14.938 45.726
44.241 14.421 45.675
53.897 59.25 11.146
55.72 58.701 9.397
58.137 58.531 9.666
59.963 58.798 11.666
56.543 58.77 28.83
58.49 59.15 28.291
60.209 57.629 26.685
59.386 55.707 25.119
77.959 40.988 78.359
77.954 41.02 80.519
76.399 42.459 82.269
74.629 43.527 81.991
34.444 58.439 24.277
32.271 57.146 25.004
30.195 58.05 25.928
29.867 60.371 27.315
67.405 60.751 7.727
65.452 61.64 7.175
63.231 62.278 8.904
62.248 60.31 10.273
-2.393 2.093 33.111
-0.31 1.091 34.447
2.007 2.274 34.63
1.789 4.475 34.391
75.475 27.613 78.266
73.248 29.064 78.174
72.792 31.471 78.658
74.423 33.531 78.469
89.487 5.843 33.707
90.742 6.962 35.242
91.154 9.247 35.855
90.81 11.305 34.683
81.105 24.848 25.002
79.04 23.868 25.141
77.754 22.303 23.55
79.334 20.497 21.892
72.143 20.484 77.112
72.097 22.269 76.423
72.702 24.833 77.419
73.115 25.282 79.811
19.29 38.554 68.806
19.414 40.819 67.333
21.113 42.145 66.501
23.804 42.008 67.002
76.656 61.335 67.251
79.038 59.947 67.592
80.5 59.009 65.924
81.253 60.126 63.626
55.963 62.069 12.035
53.8 62.955 10.944
52.468 64.942 11.281
52.967 67.05 13.202
52.826 79.508 21.056
52.246 79.12 18.842
52.92 77.452 17.039
54.893 75.919 17.015
48.99 2.38 48.396
51.18 3.156 48.714
52.322 5.198 49.609
51.568 7.336 50.503
64.459 61.925 3.061
63.489 61.148 5.253
62.27 58.803 5.791
61.904 56.892 4.504
86.098 69.618 23.999
84.991 67.689 22.706
85.92 65.979 21.007
88.027 65.864 19.866
86.037 80.465 95.772
85.861 79.946 98.074
84.456 81.133 100.126
83.291 83.015 100.385
2.233 28.749 22.803
3.994 28.166 21.718
4.583 25.578 20.825
4.458 23.524 21.424
70.492 69.124 48.9
70.871 70.227 51.219
72.426 72.425 51.44
73.007 74.111 50.107
61.409 82.475 15.023
61.944 84.655 15.87
64.757 85.694 16.249
66.859 84.239 15.372
46.757 37.16 96.208
46.103 35.36 98.053
43.758 34.218 98.454
42.353 33.317 96.749
-0.163 82.269 55.614
2.498 83.315 55.684
2.949 85.19 57.563
1.424 85.926 59.257
80.573 60.11 94.572
78.599 60.157 92.963
76.33 60.884 93.198
74.867 60.997 95.54
28.587 38.798 11.549
26.824 39.635 12.432
24.649 38.831 11.633
24.086 36.549 10.923
79.644 77.228 3.37
81.292 79.452 3.913
83.907 78.904 4.873
85.378 76.82 4.42
84.724 78.616 31.933
85.053 76.602 30.312
83.196 75.447 29.028
80.829 74.883 29.861
25.085 15.777 28.496
22.239 15.398 28.909
20.737 13.805 27.921
20.909 12.052 26.048
57.34 21.551 13.166
55.743 20.494 12.235
53.069 20.793 11.885
51.518 22.319 12.776
47.977 68.453 92.762
45.878 66.645 92.521
43.313 66.879 93.094
42.253 68.097 94.682
45.009 48.027 51.749
45.629 47.274 53.91
45.745 48.58 56.178
45.004 50.87 57.042
74.75 68.183 25.659
77.052 69.409 26.194
79.381 68.55 26.474
80.045 65.891 27.55
49.857 55.749 35.742
49.607 57.444 34.08
50.91 59.54 34.793
52.334 59.245 37.035
57.563 62.031 28.95
60.099 61.739 29.589
61.587 63.146 30.822
61.443 65.694 31.367
75.422 57.186 88.479
76.45 58.174 90.385
75.541 58.075 92.942
73.402 57.649 93.77
70.528 73.852 4.369
71.467 71.855 5.621
70.435 69.745 6.644
68.214 68.627 6.124
86.729 61.024 85.41
86.886 58.428 85.92
88.613 56.631 84.79
90.325 56.916 83.083
22.75 52.684 44.16
20.738 53.317 45.692
18.313 51.577 45.779
18.725 49.427 44.546
71.6 1.889 16.215
72.739 0.033 17.017
74.887 -1.092 16.43
76.453 -0.674 14.404
43.805 75.603 52.931
42.606 75.593 50.88
41.877 73.687 49.42
43.027 71.28 49.326
84.883 92.958 39.858
84.17 91.395 38.114
85.737 89.897 36.306
88.364 90.341 36.056
73.425 73.974 5.748
72.87 75.378 7.176
72.601 78.247 7.368
73.58 79.476 5.964
56.195 79.751 14.537
55.678 81.626 16.105
57.126 84.16 16.356
59.336 84.718 15.393
54.252 35.548 72.634
54.053 34.279 70.362
54.315 31.873 69.755
55.472 30.081 70.813
82.436 3.29 37.182
84.383 2.256 36.282
86.335 3.793 34.737
87.554 5.845 35.691
87.19 19.95 40.362
85.892 19.206 42.441
85.836 16.769 43.625
85.954 14.732 43.11
85.151 63.593 19.679
85.156 61.845 17.895
86.821 59.936 17.103
88.936 59.28 17.864
38.208 84.138 33.381
39.286 83.17 31.144
41.943 83.573 30.688
43.666 83.053 32.081
83.838 85.513 30.384
85.042 83.051 30.009
83.895 80.792 30.062
81.74 80.048 30.202
57.163 75.892 43.675
57.011 78.375 43.622
56.011 80.158 44.767
55.854 80.656 47.3
72.411 54.912 97.957
73.418 56.683 97.053
75.487 57.057 95.513
76.714 55.444 93.928
1.557 44.825 27.775
3.218 43.116 28.243
5.818 43.173 26.845
6.372 45.024 25.634
41.858 50.895 55.018
41.753 48.538 55.516
40.065 47.126 56.416
37.832 47.944 56.572
77.595 58.971 88.136
79.658 59.691 89.637
79.645 61.769 90.98
78.032 62.987 91.613
52.115 42.141 2.225
54.167 43.456 1.511
55.772 41.808 -0.138
56.089 39.744 -0.555
57.189 41.391 94.575
57.675 43.117 94.388
58.746 44.386 96.481
60.232 43.8 98.011
34.276 77.199 32.021
34.695 78.425 30.235
35.259 81.076 30.201
36.034 82.563 31.657
87.523 73.02 94.355
89.369 72.408 92.912
89.871 70.204 91.228
88.519 68.485 90.625
88.014 76.605 30.334
87.904 78.682 28.824
87.55 81.001 29.58
86.991 82.333 31.693
15.28 72.263 17.751
13.582 71.51 16.751
11.153 70.145 17.318
11.386 68.305 18.934
66.644 9.29 44.479
64.394 7.766 44.257
62.485 8.082 45.858
61.909 9.828 47.165
52.233 46.745 72.726
53.613 48.669 73.528
52.782 51.096 74.604
50.872 51.213 75.604
59.287 8.683 27.535
57.868 6.798 27.602
58.031 4.353 26.048
59.492 3.655 24.273
7.657 60.089 34.067
9.286 62.024 34.64
11.145 63.288 33.309
12.633 62.585 31.8
9.352 11.655 38.532
7.206 11.775 37.62
5.247 13.195 38.337
4.653 13.741 40.848
80.999 71.408 27.811
81.737 69.698 26.088
83.605 68.419 25.729
85.611 67.659 27.219
62.902 54.564 51.13
60.888 53.397 51.24
60.771 50.609 50.596
62.852 49.219 49.823
76.724 7.681 15.136
76.393 5.225 15.951
74.414 4.105 16.847
71.933 4.615 17.227
39.791 9.155 61.909
41.384 9.122 63.792
44.052 8.376 63.882
45.63 8.957 61.633
68.801 50.874 49.691
70.018 53.069 49.101
72.258 53.525 48.055
73.801 52.287 46.895
59.258 56.36 3.016
59.375 58.205 4.334
57.801 60.049 5.218
55.511 60.011 5.362
84.613 40.226 82.809
86.679 39.347 82.453
88.817 39.878 80.679
89.174 42.156 79.729
71.091 74.735 10.399
71.367 73.216 8.438
72.193 70.624 8.358
71.969 69.02 9.944
79.024 82.894 9.983
77.025 83.997 9.86
74.48 83.459 10.74
73.307 81.701 11.75
17.507 80.307 68.595
16.373 79.535 66.535
14.963 77.199 65.912
14.907 75.027 67.537
51.547 15.017 58.775
53.314 16.284 60.174
53.959 18.5 60.998
53.086 20.57 60.952
23.418 23.29 29.007
21.797 21.495 29.444
21.807 18.983 28.201
23.62 18.278 27.047
70.555 83.789 16.235
71.396 83.941 13.891
73.464 85.415 13.08
74.596 86.856 14.043
27.349 44.938 70.029
25.186 44.738 69.284
23.111 46.188 69.13
22.612 48.432 70.594
81.669 64.103 19.915
81.911 66.607 20.823
82.024 67.655 22.98
81.654 66.449 25.287
3.338 19.618 14.416
4.059 19.485 11.87
2.81 17.958 10.104
1.112 16.282 11.744
63.119 53.442 32.002
61.599 54.192 30.009
59.605 53.065 28.954
58.888 50.968 29.204
85.054 92.525 33.629
83.912 91.184 34.815
84.299 88.317 34.103
84.744 87.567 31.543
15.002 14.203 34.501
12.772 12.784 34.834
10.775 13.123 35.64
9.992 14.283 38.077
76.302 19.475 49.286
74.116 21.316 50.171
75.034 23.723 50.941
77.188 24.503 51.844
48.615 42.517 51.061
50.032 44.445 50.142
52.578 45.165 51.193
54.354 43.592 51.964
25.424 81.868 38.098
24.45 81.783 40.206
25.205 83.522 42.072
26.156 85.656 41.991
90.865 48.219 34.914
90.555 49.918 33.313
90.352 49.657 30.626
90.62 47.572 29.716
55.157 41.894 43.769
55.303 42.22 46.165
53.575 43.227 47.932
51.363 44.327 47.884
78.747 13.961 46.833
76.935 13.668 45.467
74.631 12.394 45.731
74.026 10.643 47.652
74.894 29.843 58.476
72.591 29.355 56.914
70.299 29.566 58.314
69.521 29.332 60.401
63.526 -2.598 89.95
64.289 -1.465 92.242
65.508 0.801 92.796
65.279 2.896 91.295
63.808 5.315 46.609
65.845 5.709 46.231
67.596 4.03 44.535
67.231 1.693 43.901
32.891 52.027 63.374
33.091 49.523 63.664
32.337 47.625 62.073
30.39 47.427 60.886
65.03 79.657 45.519
64.678 80.41 43.041
63.747 83.243 42.529
64.412 84.94 43.756
91.58 27.201 42.152
92.453 29.833 42.851
91.043 31.043 44.531
89.251 30.185 45.573
60.995 15.763 3.692
63.191 15.151 4.148
64.253 12.683 4.584
63.451 10.905 4.074
65.812 88.954 20.247
65.871 89.615 18.006
67.124 88.473 15.957
68.718 86.444 15.921
30.214 63.197 22.977
31.364 61.12 22.98
33.613 60.29 21.714
34.968 61.167 20.028
53.286 65.331 88.104
53.256 63.355 86.979
54.804 62.957 84.347
55.185 64.316 82.785
3.19 69.421 -1.587
3.622 72.145 -1.832
5.038 73.32 -0.773
6.695 73.048 1.308
43.383 13.822 17.018
42.517 15.182 19.133
41.386 14.525 21.202
40.578 12.293 22.225
79.203 56.454 17.747
81.63 56.561 17.173
83.4 58.484 18.36
82.708 60.713 19.172
51.879 5.94 57.449
52.36 6.864 55.259
50.805 6.678 52.959
49.489 4.366 52.329
59.754 39.184 15.703
58.766 37.965 17.428
58.751 35.324 17.85
58.645 33.375 16.444
5.839 40.784 27.697
3.779 40.566 27.778
2.06 38.514 29.015
2.441 36.404 29.361
86.401 26.302 71.589
88.236 26.832 72.987
90.226 28.28 72.895
90.998 29.981 71.13
71.892 38.061 34.21
72.252 39.062 36.373
74.087 41.287 36.279
74.61 42.461 34.434
34.108 31.306 24.75
35.733 29.772 23.768
35.401 27.234 22.929
33.628 25.961 22.487
12.771 -1.74 44.916
11.695 -2.323 46.816
9.859 -1.596 48.33
7.685 -0.319 47.882
15.208 17.152 30.158
14.952 15.455 31.646
12.982 13.913 32.312
10.545 13.47 31.551
73.261 52.887 19.354
75.062 53.367 20.652
77.747 52.373 20.577
78.876 51.232 18.932
58.04 45.344 93.123
60.056 45.892 94.238
62.248 46.621 93.465
63.548 46.596 91.487
76.734 76.775 30.312
75.12 75.183 28.826
72.903 75.045 28.629
70.966 75.682 30.637
2.333 60.467 61.89
0.712 61.814 63.224
0.438 64.248 63.11
2.053 66.222 63.201
57.632 38.58 69.291
56.753 40.424 70.328
54.059 40.638 71.238
52.655 38.908 72.304
75.759 82.013 57.142
75.216 80.196 56.21
76.583 78.353 56.13
78.917 78.059 56.119
32.569 39.788 4.879
34.218 40.148 7.009
36.651 40.634 7.093
38.62 40.618 5.434
46.91 48.856 82.199
48.706 50.17 81.432
49.287 50.609 78.516
49.302 48.647 76.876
71.063 37.895 40.194
71.087 39.835 38.631
72.53 41.817 38.437
74.538 42.627 39.924
19.157 93.547 26.547
18.462 93.229 24.328
16.859 91.294 24.161
17.33 88.866 24.272
68.699 55.346 45.403
70.605 55.168 46.527
72.903 56.327 46.126
73.529 58.308 44.83
70.218 21.0 74.766
71.211 19.182 73.268
71.601 16.604 73.598
70.543 15.011 75.411
84.507 85.905 27.846
87.191 86.47 27.406
88.505 88.678 27.676
88.333 89.654 29.288
53.651 81.964 94.621
55.494 83.299 95.564
55.661 85.523 96.308
54.186 86.937 96.936
68.168 92.641 65.592
69.665 91.302 66.876
70.409 88.672 66.701
70.243 87.182 64.538
69.068 63.082 8.785
70.331 64.308 7.117
72.576 65.659 7.446
73.744 66.744 9.544
28.791 36.257 36.748
28.76 33.509 36.587
29.205 32.047 34.508
30.47 32.418 32.682
17.594 71.333 61.624
17.464 73.518 63.385
16.361 73.637 65.602
14.89 72.032 66.958
59.504 79.769 -1.905
59.091 82.491 -1.603
60.516 84.189 -0.715
62.719 84.291 -0.049
74.244 87.708 64.065
75.239 89.241 64.975
74.115 90.464 67.131
72.552 89.378 68.999
5.523 50.672 78.418
7.851 50.371 78.496
9.867 51.319 76.924
9.744 51.884 74.555
2.118 58.878 85.977
0.531 60.34 86.357
0.345 62.514 87.838
1.81 63.828 89.162
26.409 24.21 34.183
25.721 22.546 32.212
27.621 21.541 30.506
29.895 21.72 30.628
73.656 75.304 9.731
73.323 77.663 10.001
74.904 79.236 8.371
77.319 78.749 7.635
71.206 49.799 91.654
70.467 48.673 89.693
71.569 46.52 88.725
73.938 45.466 88.971
72.857 14.053 25.616
74.007 12.952 23.761
73.179 11.55 21.948
70.857 10.589 21.471
48.809 16.247 86.231
51.061 16.147 86.427
52.721 16.539 84.347
52.62 17.703 82.372
14.361 76.329 91.237
15.032 77.744 89.711
16.629 80.211 89.854
17.646 81.148 91.577
18.503 35.97 90.207
19.669 34.023 89.694
19.266 32.127 87.96
18.502 32.02 85.916
34.55 49.757 89.218
35.302 48.608 87.344
36.393 49.093 85.093
37.956 50.744 84.473
73.284 24.618 73.72
74.197 22.656 74.455
74.64 20.368 73.57
73.531 19.086 71.688
57.06 51.4 75.7
57.133 49.987 73.544
58.951 48.722 72.321
61.485 48.769 72.811
82.269 62.128 64.935
84.5 62.662 65.111
86.197 64.456 64.316
85.796 66.808 63.626
85.746 32.693 79.131
87.465 34.102 78.032
87.972 34.338 75.306
87.114 32.327 73.447
81.532 57.823 88.648
83.891 58.36 89.503
85.333 60.656 89.094
85.256 62.178 87.372
55.243 53.7 74.761
52.84 54.098 75.022
51.192 53.427 77.187
51.632 52.495 79.313
12.818 75.279 64.687
12.62 73.143 66.01
10.475 71.321 65.556
8.226 71.996 65.096
60.263 79.17 59.653
60.291 76.966 60.093
59.291 74.926 58.73
57.816 75.058 56.519
65.689 51.765 73.069
65.847 50.831 70.901
66.087 48.514 69.927
67.113 46.32 71.021
39.564 71.66 48.618
37.778 70.119 47.674
38.073 68.511 45.536
39.693 68.357 43.855
60.04 34.251 87.728
59.088 34.152 89.547
57.613 31.801 89.563
56.624 30.577 87.657
1.643 18.137 67.274
-0.892 18.612 67.266
-1.665 20.834 68.644
-0.814 22.455 69.506
38.997 61.893 70.384
38.497 63.913 71.352
37.083 64.767 73.163
35.336 63.615 74.772
90.113 61.107 59.888
88.7 61.205 61.645
86.478 62.593 62.167
85.945 64.356 60.861
78.595 35.437 57.865
76.84 34.114 59.061
77.038 31.62 59.921
79.456 30.228 59.719
4.668 92.185 79.345
2.78 91.121 79.523
0.882 91.17 81.455
0.995 92.456 83.372
17.77 13.187 95.655
18.923 11.372 97.005
21.317 10.57 97.101
23.457 12.038 96.291
70.04 68.638 75.815
69.702 69.32 77.688
68.646 71.787 78.733
67.768 73.532 77.93
88.902 32.586 69.109
88.869 31.945 71.526
89.636 33.266 73.526
90.809 35.421 74.051
68.659 58.697 46.545
66.839 56.925 47.403
65.457 56.996 49.49
64.475 59.236 50.714
71.165 55.999 69.509
71.717 56.565 71.925
70.445 58.155 73.587
68.74 60.006 73.237
51.353 1.41 46.362
51.548 -0.678 46.238
49.628 -2.041 47.103
47.285 -1.376 47.913
90.423 4.749 59.967
89.308 2.98 59.056
87.127 1.519 60.124
85.714 2.035 61.835
61.457 81.907 66.489
62.839 81.758 64.565
61.614 80.927 62.133
59.411 80.871 61.703
33.592 1.376 62.781
34.149 3.273 62.681
33.478 5.096 64.311
33.044 5.335 66.749
68.751 52.696 71.684
69.037 50.599 70.239
71.13 50.284 68.224
72.85 51.692 68.449
14.957 55.684 48.082
17.418 56.099 48.752
19.465 56.197 47.582
20.282 55.893 45.549
3.513 65.301 83.89
2.54 62.951 84.486
0.097 61.843 84.392
-2.147 63.211 84.669
25.153 84.946 89.299
23.184 86.607 89.251
20.893 86.407 89.944
19.998 85.148 91.96
34.418 83.694 82.081
32.94 85.323 82.404
30.053 85.402 81.858
28.612 83.427 81.621
51.699 62.639 65.783
53.294 64.949 65.631
55.613 65.214 64.365
57.214 63.601 63.328
34.078 12.317 62.96
35.052 9.905 63.532
35.984 8.4 62.176
35.362 7.392 59.954
83.907 32.099 5.541
81.153 32.194 5.448
79.418 31.435 7.076
79.741 29.38 8.515
44.742 56.55 62.604
44.275 58.488 63.498
45.947 60.251 65.037
48.051 60.457 65.271
40.993 78.016 77.129
43.553 78.472 76.365
45.403 78.055 77.617
46.537 76.26 78.632
17.311 38.287 70.395
14.856 37.538 69.417
14.132 35.501 68.292
15.127 33.134 68.006
2.324 42.901 80.09
1.653 40.167 80.264
2.196 38.22 78.612
2.549 38.367 76.021
44.355 48.96 81.192
44.255 50.961 80.016
42.525 52.205 78.479
40.385 51.661 77.602
-1.252 58.112 64.967
-0.239 58.198 62.586
2.138 57.795 61.834
4.149 56.748 62.829
64.629 65.582 75.364
65.573 66.325 77.522
65.031 65.68 80.056
62.858 64.631 80.804
53.436 80.59 67.593
53.777 81.073 69.962
52.416 80.403 72.184
50.392 78.634 72.457
20.781 24.619 63.523
21.3 25.443 61.172
22.692 24.274 59.29
25.182 23.46 59.355
16.242 37.722 1.213
16.7 36.631 -1.366
18.591 35.546 -2.199
20.637 34.308 -1.365
48.16 86.569 51.83
49.532 86.388 50.029
49.611 84.207 49.045
50.45 81.833 49.951
18.908 41.686 43.342
19.439 39.467 43.175
18.996 37.875 40.901
19.319 38.215 38.581
73.05 5.405 41.157
74.186 2.741 41.571
76.129 2.021 40.942
78.623 3.338 40.716
31.375 37.517 5.692
29.592 38.767 7.059
27.699 37.903 8.859
26.694 35.904 9.376
39.859 42.836 55.203
41.39 44.959 55.865
42.611 46.53 54.02
43.116 46.153 51.551
83.498 58.814 66.658
85.137 60.145 65.883
86.593 60.161 63.7
86.597 58.987 61.734
80.564 58.162 47.105
80.05 60.179 45.711
79.203 62.832 46.587
78.761 63.505 48.658
41.433 6.418 89.465
41.04 8.906 89.045
38.946 10.174 89.871
37.593 9.712 92.296
83.661 50.187 41.696
81.772 51.14 43.163
80.364 49.671 44.847
