13.251 55.359 95.19
41.505 50.393 59.969
39.266 50.731 59.66
36.947 50.187 61.019
36.335 48.92 62.687
46.035 85.748 53.226
43.905 84.507 53.533
41.711 85.24 54.266
40.438 87.262 54.489
13.648 62.127 9.113
15.058 63.128 10.443
16.14 65.628 10.54
14.837 67.699 9.813
46.622 61.778 82.882
47.612 59.593 82.413
47.905 58.544 79.805
45.621 58.861 78.039
4.677 42.281 55.785
4.597 40.264 54.267
6.216 39.072 53.153
8.707 38.957 53.115
53.853 38.135 93.34
51.987 37.348 94.699
51.039 34.828 95.085
52.41 32.566 94.534
80.122 78.214 60.414
78.221 78.94 58.96
75.71 79.401 59.634
75.139 81.105 61.998
48.03 67.181 90.222
49.229 67.823 88.638
51.614 69.023 88.539
53.244 69.236 90.041
6.421 50.854 57.612
6.45 52.932 56.604
7.956 53.719 54.454
10.21 53.247 53.953
76.236 7.743 61.715
78.2 7.062 61.65
80.421 8.444 61.642
80.913 10.656 61.513
49.978 74.719 91.438
49.203 72.619 91.272
46.68 71.571 90.594
44.47 72.652 90.025
30.539 54.094 83.906
33.18 53.059 83.879
34.62 52.311 81.692
33.519 51.445 79.765
32.553 19.074 92.842
34.974 18.387 92.785
36.129 16.478 91.214
35.664 15.596 89.201
42.522 43.32 52.98
41.428 43.723 54.897
39.577 42.265 56.06
37.965 40.428 55.308
91.259 80.752 70.101
90.692 81.323 72.497
89.629 83.621 73.493
89.569 85.755 72.773
91.469 76.756 68.731
90.148 76.037 70.819
88.707 77.396 72.472
87.071 79.488 72.081
56.337 70.351 60.04
57.917 71.963 61.182
57.623 74.079 62.716
55.692 75.597 63.062
13.522 82.892 12.873
13.783 80.508 13.203
14.877 78.524 11.627
16.119 78.991 9.531
13.095 61.875 54.074
13.112 59.825 52.258
13.446 59.944 49.89
14.954 62.332 48.604
13.64 -0.044 71.431
12.411 2.189 72.143
10.114 2.642 73.011
8.11 2.36 72.275
27.392 64.4 96.626
29.127 65.998 96.87
29.325 68.485 95.677
27.986 69.742 94.208
15.715 11.84 77.856
16.461 12.243 75.522
16.677 10.602 73.788
18.927 9.129 73.347
2.407 60.62 82.155
1.945 58.722 82.359
2.2 56.576 80.982
3.42 56.339 78.674
3.259 40.925 77.17
3.107 43.676 76.968
1.449 44.89 78.767
1.096 44.82 80.945
0.267 22.587 58.343
1.35 20.636 59.96
2.265 18.461 59.448
2.557 17.359 57.206
23.236 36.424 65.185
22.401 34.085 64.316
21.832 33.391 61.95
22.684 34.078 59.794
39.571 10.126 68.088
41.398 11.587 66.551
43.598 12.029 66.649
45.631 11.087 67.951
7.53 50.756 79.053
5.265 52.069 78.299
4.142 54.009 79.279
4.08 54.902 81.428
3.437 67.672 59.924
2.07 66.359 61.865
1.799 67.346 64.366
2.135 69.461 65.281
82.959 46.961 56.578
85.012 47.851 56.766
86.124 46.353 58.384
86.053 46.168 60.59
44.133 4.223 12.713
44.323 2.93 10.468
42.23 2.146 9.106
40.115 1.549 9.225
89.281 91.818 75.418
91.045 89.965 75.786
90.638 87.714 77.108
88.56 86.401 77.092
0.058 0.318 9.789
0.428 2.522 9.516
1.812 4.351 11.175
3.271 3.605 13.063
13.058 0.413 90.546
15.225 0.413 91.626
17.473 -0.562 90.516
17.906 -1.392 87.939
80.902 76.508 78.188
81.341 78.613 77.355
83.263 80.303 77.754
85.459 80.203 78.9
73.044 78.243 81.495
72.887 80.668 81.502
71.283 82.018 82.862
69.361 81.281 83.967
16.876 72.813 65.207
14.545 73.159 65.381
12.644 71.55 65.224
12.138 69.27 65.792
5.643 73.828 88.876
7.309 73.779 90.242
9.125 75.743 91.168
9.75 77.81 89.659
46.604 67.53 41.846
44.25 68.096 43.25
44.254 69.441 45.574
45.822 70.533 46.808
38.345 71.673 75.24
35.645 71.369 74.762
33.725 73.026 75.665
34.269 74.945 75.907
12.884 86.382 90.566
13.352 88.722 91.833
12.356 90.557 91.872
10.265 91.748 91.393
32.5 68.458 49.019
33.641 70.738 48.867
34.71 72.01 46.919
34.422 72.156 44.633
23.69 80.76 59.952
23.667 82.369 61.785
22.365 84.697 62.086
21.746 86.203 60.464
11.695 73.748 66.526
9.066 73.799 65.995
7.224 75.188 66.926
7.042 76.979 68.593
24.368 59.651 49.141
22.636 58.347 48.639
19.782 59.02 48.455
19.356 61.042 49.13
2.1 71.381 70.578
3.084 69.672 69.635
1.943 68.209 68.057
-0.329 67.268 67.824
33.343 1.193 60.389
31.888 -0.707 61.023
32.765 -3.148 60.022
34.245 -3.77 58.13
23.923 15.856 71.489
22.569 15.033 73.707
21.114 12.744 73.872
19.677 11.607 71.916
65.265 58.265 53.278
63.227 58.518 52.304
60.82 57.415 52.403
60.144 55.494 53.549
25.66 54.163 45.927
23.929 54.992 47.425
24.149 56.557 49.515
26.454 58.301 49.846
74.77 30.107 52.026
74.862 32.126 53.576
76.698 33.691 53.935
79.199 33.765 53.502
71.382 13.895 1.364
72.285 12.326 0.761
74.843 11.201 0.631
76.976 12.046 0.858
37.495 82.999 57.811
39.24 82.999 56.516
40.597 81.524 54.754
39.506 80.204 52.897
9.166 34.857 45.95
7.746 36.164 47.013
7.728 37.72 49.27
9.465 38.341 50.473
17.226 52.308 0.613
18.52 52.684 -0.868
20.7 54.163 0.015
21.56 54.487 2.27
21.754 74.463 62.22
19.555 75.289 62.148
17.905 76.047 63.913
17.569 75.537 65.95
66.846 6.728 48.999
65.149 6.026 47.706
62.785 5.569 48.019
61.269 5.21 50.043
-0.371 84.195 95.836
-1.104 81.982 95.817
0.697 79.493 95.577
2.661 79.323 94.431
56.597 7.135 82.004
57.769 6.937 79.806
57.696 4.993 78.093
56.59 2.546 78.238
19.87 74.17 79.665
20.992 72.201 79.601
23.569 71.612 79.312
25.447 73.22 78.633
37.529 64.494 70.962
37.79 64.574 68.615
40.085 65.331 67.393
42.656 64.831 68.206
28.459 11.106 50.362
26.213 11.761 51.916
24.749 9.121 51.896
25.789 7.006 51.66
49.121 15.361 81.828
50.476 16.708 83.699
53.141 16.803 83.865
54.902 15.578 82.699
24.638 63.406 77.454
23.409 65.0 77.488
20.811 65.505 76.348
19.231 63.865 75.524
6.73 48.211 77.942
4.605 49.547 78.008
2.417 49.152 79.082
1.643 47.389 80.501
3.617 80.262 70.348
3.098 78.257 69.244
3.618 77.507 66.793
6.15 78.053 65.84
57.821 75.579 42.542
59.671 76.54 41.378
61.067 75.229 39.107
61.102 73.479 38.332
21.845 45.932 41.157
23.178 43.919 41.573
25.7 43.575 40.732
26.548 45.809 39.351
55.398 55.479 27.794
52.894 55.332 27.607
51.343 53.91 28.761
51.53 51.657 29.944
70.901 44.868 68.753
69.509 46.255 69.899
70.577 48.647 71.213
72.671 48.935 71.598
11.903 70.498 62.637
10.59 68.827 63.692
7.953 69.122 64.338
6.67 70.668 64.055
16.96 4.149 2.504
16.206 6.024 1.415
17.333 7.265 -0.415
19.806 8.091 -0.476
55.111 51.753 51.918
56.616 52.489 50.329
57.577 55.252 50.486
57.774 56.686 52.542
37.03 92.776 85.007
36.566 91.465 83.315
35.013 89.357 83.023
34.356 87.397 84.513
21.428 67.03 55.424
22.69 68.896 56.039
21.863 71.492 56.432
20.13 72.673 55.91
10.45 70.39 14.908
12.552 70.637 14.092
13.162 68.926 12.597
12.043 67.547 10.951
42.092 87.727 4.323
43.875 88.481 5.235
45.771 90.115 4.272
46.485 90.46 1.998
65.724 5.405 41.925
67.633 5.12 42.941
70.176 5.255 42.204
71.185 6.324 40.25
40.804 62.634 62.926
41.725 60.927 63.86
43.024 59.062 62.954
43.091 57.662 60.807
36.423 88.996 60.111
37.257 87.199 58.241
39.448 87.222 57.032
41.578 88.557 57.756
87.207 64.519 67.908
85.948 62.7 66.995
83.819 61.751 67.912
82.995 61.965 70.25
67.031 14.297 67.044
67.641 11.487 67.97
69.599 10.307 67.285
71.28 10.914 66.42
15.755 2.111 72.517
15.489 1.538 69.734
17.51 1.186 68.27
19.85 0.505 68.582
2.563 13.999 17.038
-0.209 13.529 17.324
-1.175 11.428 18.35
-0.124 9.315 19.275
81.445 6.598 86.885
80.841 8.116 88.662
78.268 9.169 89.244
76.016 8.514 87.819
91.181 35.74 20.912
90.293 37.203 22.971
87.953 37.125 24.175
86.163 35.714 24.064
14.298 51.753 47.342
14.238 53.168 49.881
12.429 53.649 51.146
9.947 52.846 51.176
71.848 71.339 80.582
73.001 73.215 80.361
72.129 75.889 80.231
70.631 76.862 81.119
74.888 82.34 84.288
73.449 83.733 82.958
72.889 86.515 83.111
73.638 87.693 84.949
1.09 14.192 88.396
0.733 16.711 88.096
2.187 18.844 88.589
4.321 19.162 88.664
66.603 60.167 54.63
65.194 62.566 54.311
62.726 62.689 55.074
61.407 61.567 56.038
61.917 42.988 45.473
61.489 41.142 43.771
63.001 39.386 43.38
61.612 37.683 43.758
84.391 61.691 0.08
82.252 61.286 -0.382
80.0 60.625 1.039
79.753 59.741 3.217
32.443 43.763 7.731
31.077 42.86 9.505
28.612 43.025 10.117
26.962 44.709 9.806
11.196 56.415 54.608
12.434 57.154 52.669
14.859 56.899 52.102
16.43 54.905 52.826
25.322 54.211 90.179
27.359 55.394 89.078
28.787 54.697 86.938
29.188 52.565 86.022
37.513 79.38 76.012
39.142 80.824 77.425
39.393 83.526 77.327
37.645 85.114 77.105
58.636 48.83 45.504
56.999 48.751 46.958
55.164 50.494 47.824
55.596 53.096 48.026
28.832 62.614 94.916
27.399 60.562 94.334
28.346 58.505 92.821
29.953 58.521 90.837
87.153 7.541 62.428
86.466 6.355 60.078
87.114 4.441 59.045
89.044 2.867 59.434
29.504 88.707 86.171
27.109 89.253 85.312
25.341 90.808 86.505
24.975 91.784 88.607
45.423 28.16 72.517
47.229 29.559 71.25
48.955 28.8 69.84
48.63 27.425 67.443
62.3 83.322 44.779
63.386 82.577 42.814
65.082 84.047 41.027
65.277 86.185 40.591
27.89 78.008 36.409
27.17 76.566 34.977
28.786 75.512 33.215
30.942 75.895 33.08
79.8 53.987 39.695
81.013 52.009 39.41
83.114 51.549 37.787
84.21 52.539 36.025
85.91 40.163 53.765
88.201 40.229 54.421
90.304 38.398 53.842
90.151 36.482 52.787
2.264 76.713 0.327
2.757 76.064 -1.681
4.491 74.733 -2.562
7.227 75.292 -2.581
45.309 60.301 63.404
45.936 62.073 63.769
44.311 63.763 64.769
42.291 63.043 66.283
89.675 48.456 79.678
90.954 50.762 79.867
91.37 52.365 81.686
89.834 52.904 83.55
14.512 47.45 70.499
17.126 47.451 69.891
18.083 45.39 68.498
17.59 44.57 66.286
79.399 82.703 7.154
77.425 81.897 8.031
75.868 79.86 6.669
76.48 78.801 4.921
25.763 48.247 39.419
27.449 48.505 38.077
28.938 50.82 37.277
28.479 52.847 39.145
63.56 87.747 -0.957
61.163 89.273 -1.355
59.362 89.756 0.038
58.938 88.514 2.521
29.897 15.855 73.652
30.436 15.098 71.477
31.82 12.883 70.504
33.149 11.074 72.008
5.507 37.304 72.959
3.314 37.74 73.561
1.949 38.151 75.717
2.693 38.197 78.135
89.121 65.431 89.332
88.157 64.549 87.578
89.455 64.828 85.475
90.693 67.235 84.846
23.673 90.419 83.51
25.82 89.634 83.152
28.01 90.952 82.241
27.493 93.14 82.396
1.772 78.284 92.089
3.36 76.73 91.127
3.412 75.247 89.057
1.772 75.023 87.069
17.66 91.91 63.224
17.594 91.004 65.734
15.907 91.696 67.517
13.777 92.331 67.665
25.703 3.746 17.791
27.772 3.432 18.423
28.182 4.555 21.048
26.611 6.229 22.046
5.435 53.069 4.471
7.927 52.794 3.619
9.95 53.856 4.496
10.694 55.124 6.628
73.034 70.665 3.849
71.944 68.861 2.991
72.629 67.167 0.807
74.64 66.964 -0.528
16.799 60.597 73.617
17.807 61.87 75.618
16.474 62.594 77.801
14.951 60.83 78.578
11.975 69.133 39.416
13.132 67.825 38.05
15.991 67.901 37.092
17.825 68.845 38.283
28.61 71.261 73.966
27.123 71.313 75.616
24.976 72.442 75.907
23.91 74.541 74.708
10.957 48.951 72.854
12.329 50.103 74.067
11.558 51.6 75.699
9.842 51.295 77.532
2.612 68.983 93.067
0.929 68.171 91.377
1.138 66.266 89.781
1.846 64.144 89.899
18.628 16.961 5.039
20.108 15.903 3.784
20.353 15.031 1.182
18.303 14.42 0.237
58.672 4.616 27.819
60.343 4.119 26.571
60.145 1.958 24.992
59.13 -0.0 25.017
70.496 18.328 46.784
70.909 16.428 45.459
70.224 14.151 45.442
69.666 12.437 46.929
19.764 57.661 91.297
20.586 56.241 93.273
20.957 56.713 95.576
21.248 58.795 97.107
72.257 87.344 44.366
72.076 88.274 41.848
73.63 88.608 40.217
76.16 88.347 39.943
10.845 7.086 69.714
11.488 6.845 71.8
10.084 5.23 73.375
7.371 4.735 73.341
16.165 88.352 45.664
14.345 87.508 44.842
13.018 85.246 45.731
12.868 84.684 48.421
70.634 17.065 70.27
69.712 14.798 68.964
68.156 13.205 69.93
66.579 13.111 72.155
82.058 83.885 76.134
81.057 82.082 77.549
79.223 80.695 77.408
77.838 79.706 75.374
18.923 27.571 32.594
21.087 26.605 33.409
23.246 26.453 32.665
24.864 28.037 31.225
51.103 23.247 89.787
51.845 21.488 88.063
51.544 19.14 87.789
49.682 17.266 89.12
16.357 5.079 25.801
18.532 4.29 24.945
19.568 3.767 22.607
18.28 2.791 20.512
81.803 26.98 1.899
81.547 28.816 3.057
80.059 29.327 5.602
78.803 27.65 6.748
33.913 16.693 0.135
36.211 16.769 -0.701
37.428 19.302 -0.371
36.407 21.042 0.968
5.844 34.393 41.834
5.094 33.417 43.885
2.509 33.68 44.942
1.525 36.222 44.958
88.18 87.342 9.162
86.694 85.213 8.316
88.203 82.916 7.341
90.401 83.006 7.052
17.259 87.524 92.667
17.261 90.197 93.018
15.704 91.671 94.159
13.597 91.305 95.277
82.076 84.561 78.79
84.101 83.432 78.33
86.241 82.592 79.881
85.856 82.528 82.321
25.066 82.045 64.439
25.682 83.668 63.058
28.101 84.355 61.996
30.305 84.006 62.521
27.928 72.809 80.77
27.994 72.179 78.335
29.827 71.93 76.819
32.232 70.992 77.03
29.603 69.031 28.055
28.327 66.911 27.953
29.071 64.525 27.319
31.578 63.715 26.5
41.807 66.249 91.288
42.045 65.377 88.957
44.66 64.224 88.051
46.73 64.709 89.204
62.957 40.963 67.617
64.627 42.305 65.957
66.008 41.687 64.353
65.576 39.8 62.211
29.738 85.985 60.61
31.756 86.782 60.643
33.908 85.737 60.007
34.503 83.705 58.836
52.924 82.184 92.83
54.433 80.017 92.509
53.81 77.543 92.867
51.922 76.313 93.685
83.428 69.346 45.235
81.353 69.183 46.286
79.173 68.054 45.744
78.677 66.279 43.989
69.118 77.277 78.373
69.69 78.96 79.525
68.405 80.257 81.635
66.648 79.393 82.77
33.156 68.594 53.382
31.065 68.138 53.663
29.61 67.638 55.609
29.963 68.299 58.075
70.52 84.467 15.933
69.429 83.714 14.157
68.81 81.105 13.151
69.171 78.854 14.31
45.048 79.319 28.426
45.257 81.037 29.668
46.482 83.117 28.725
47.828 82.966 26.374
73.57 57.169 73.675
74.233 58.249 71.662
76.132 60.092 71.269
76.725 62.304 72.56
20.442 72.611 60.184
22.03 73.4 58.485
24.388 72.714 57.854
26.15 71.163 59.139
25.178 14.978 2.628
26.123 17.502 3.667
24.526 19.31 4.803
22.388 19.553 4.703
87.05 36.07 26.895
85.584 34.494 27.88
82.749 34.544 28.032
81.312 36.27 27.732
55.351 18.414 66.358
56.232 20.175 64.527
56.69 22.694 64.945
56.751 24.201 67.182
52.659 69.593 60.23
51.423 67.58 61.264
49.64 67.496 62.686
49.034 68.925 64.518
11.365 85.732 25.738
12.993 86.81 24.183
15.219 88.092 24.624
15.987 89.245 26.789
53.309 32.798 67.876
51.87 30.98 66.574
51.83 28.528 66.803
53.705 26.898 67.606
61.465 90.794 24.631
63.068 92.089 23.023
65.189 90.963 21.57
65.507 88.849 21.204
17.674 22.57 10.608
17.822 24.08 12.751
17.419 26.97 12.801
16.068 28.298 11.584
2.414 11.536 32.337
4.534 12.355 33.88
6.93 11.646 33.796
8.413 10.967 32.282
20.865 0.769 25.354
21.065 1.646 23.402
22.682 3.917 22.584
24.608 4.685 23.523
87.82 19.947 15.464
90.28 20.106 15.704
91.671 21.327 17.215
91.368 23.378 18.986
83.274 28.962 29.323
83.305 31.951 29.628
80.746 33.221 29.96
78.814 32.481 31.32
72.201 88.785 38.094
70.308 88.332 39.885
68.941 86.401 39.915
69.04 83.885 39.504
85.26 30.782 28.331
85.157 32.186 26.388
86.929 33.135 24.627
89.319 33.146 24.721
83.865 45.805 4.826
85.072 45.942 6.461
85.251 47.786 8.151
84.635 50.356 7.734
61.521 32.024 43.086
60.846 34.433 42.918
62.605 35.996 41.82
64.987 35.59 41.382
50.776 26.637 37.821
50.162 26.434 39.896
49.395 28.15 41.808
48.711 30.709 41.601
44.915 12.923 9.815
46.53 10.997 10.351
49.0 10.527 9.465
50.775 12.315 8.596
39.266 32.052 56.784
38.956 33.015 54.693
39.893 32.368 52.179
41.355 30.323 51.507
77.515 14.915 19.935
77.948 16.296 22.14
75.906 17.388 22.787
74.206 18.544 21.727
51.467 71.035 10.674
50.549 68.769 11.696
50.118 66.518 10.717
50.873 65.649 8.307
61.839 30.704 36.137
59.825 30.855 36.555
57.794 29.234 36.679
57.777 26.515 36.794
17.283 19.043 13.921
20.308 19.005 13.284
21.367 21.422 13.674
19.783 23.377 14.487
51.739 30.976 44.066
49.186 30.551 44.299
47.875 28.776 45.68
49.032 26.85 47.223
5.507 16.62 34.337
6.43 14.364 34.598
8.817 13.435 34.531
10.89 14.112 33.472
71.9 2.991 21.218
72.561 3.707 18.663
73.423 6.105 17.907
74.538 8.015 19.386
73.891 32.786 5.979
75.866 34.068 5.844
76.755 35.496 8.059
75.945 35.242 9.979
53.717 8.436 31.613
52.784 10.652 30.884
53.926 13.003 31.48
55.417 13.603 33.253
55.419 25.8 32.208
53.765 24.938 34.123
53.118 26.363 36.352
53.31 28.385 36.902
54.775 79.915 20.706
56.981 80.215 19.204
58.706 82.1 19.215
58.931 84.177 20.606
47.306 48.901 31.747
45.042 47.922 31.121
44.214 47.389 28.54
46.006 46.789 26.643
51.763 15.365 64.171
49.949 14.519 62.95
50.35 12.222 61.081
52.771 11.703 60.802
2.84 3.749 36.013
2.621 6.229 35.828
3.687 7.957 34.125
6.076 7.735 32.939
64.674 67.034 33.102
66.294 66.275 31.537
67.054 64.088 30.926
65.888 61.661 30.859
20.778 4.336 49.989
20.608 1.818 48.944
18.974 0.888 47.239
16.941 1.595 46.475
59.396 64.591 79.343
58.461 65.946 81.033
56.595 65.611 82.697
54.954 63.834 83.23
85.718 84.956 30.69
85.464 86.878 31.248
87.323 88.813 32.672
89.38 88.81 33.155
4.888 4.202 77.928
7.097 3.731 78.26
9.408 4.898 77.229
9.812 6.776 75.553
35.801 26.868 95.372
37.67 27.805 96.315
39.037 29.957 95.776
38.371 31.848 94.003
29.155 90.345 18.723
28.873 92.867 19.711
27.213 93.881 21.13
24.91 92.718 22.534
30.66 83.828 6.191
31.979 84.282 7.779
33.757 85.99 8.253
34.502 88.295 6.997
5.965 31.589 21.221
3.968 32.567 20.701
2.411 34.268 21.916
2.562 35.597 23.854
71.156 57.218 25.243
72.164 55.794 23.747
74.369 56.592 22.342
74.708 59.058 22.436
23.085 70.251 30.051
22.141 67.754 29.656
19.859 67.014 29.608
18.188 68.015 30.995
67.934 40.728 13.302
66.497 38.406 13.543
67.265 36.399 13.035
67.904 34.819 14.99
41.803 71.462 19.858
43.424 72.243 17.953
44.018 71.061 15.695
43.405 68.551 15.889
16.845 26.403 37.354
15.836 27.87 39.222
13.967 29.509 38.929
11.884 29.44 37.065
57.659 43.099 18.232
56.319 40.979 18.84
55.11 40.703 21.001
55.351 42.053 22.816
36.161 37.601 36.137
36.74 39.168 34.835
35.775 41.186 33.539
33.683 42.407 34.232
0.816 90.191 30.484
1.601 88.071 29.204
3.77 86.943 29.209
5.755 87.915 28.904
39.571 91.548 10.854
38.427 89.32 10.308
39.553 87.616 8.136
41.092 88.189 6.844
28.84 12.907 41.277
29.974 11.781 42.631
31.959 10.066 42.243
33.057 9.226 40.454
85.896 82.035 7.907
83.568 82.729 7.077
81.578 81.077 6.716
80.852 79.013 8.039
76.506 14.832 40.453
77.225 17.104 41.237
79.499 17.882 42.007
81.196 16.841 43.624
65.246 19.497 26.584
63.923 18.314 28.516
62.032 19.861 29.974
60.589 21.461 29.074
59.296 16.98 5.228
58.883 14.982 6.947
57.156 13.327 7.177
54.583 13.519 6.211
61.474 82.949 19.761
62.281 85.753 19.056
61.828 87.513 20.53
61.21 87.841 22.844
67.676 13.342 97.608
69.288 12.041 96.82
68.911 9.918 95.235
66.55 9.043 94.688
69.601 13.999 3.7
68.397 14.041 5.916
67.661 15.663 7.381
67.283 18.467 6.975
4.354 33.418 48.617
5.703 33.902 46.818
7.619 32.502 45.632
7.126 30.076 44.899
49.612 82.71 51.506
50.49 83.266 49.552
51.197 81.77 47.405
50.936 79.534 47.047
54.753 18.235 10.087
56.383 16.835 9.355
58.915 17.126 9.148
60.649 18.529 10.231
68.771 77.058 33.28
66.554 76.795 34.416
66.239 76.038 36.954
67.595 76.62 39.01
64.808 33.726 16.428
62.168 33.521 16.358
60.324 33.455 18.134
60.545 35.486 20.042
48.667 4.952 11.96
46.541 5.591 11.42
44.879 7.275 12.605
45.1 8.478 14.564
33.226 82.527 12.728
34.165 83.24 10.974
34.155 82.51 8.332
33.831 80.333 7.339
81.95 77.034 49.038
83.519 76.022 47.383
85.709 75.317 48.253
86.621 75.899 50.717
53.883 13.154 13.071
54.82 14.528 11.087
56.718 14.276 9.587
58.77 12.239 9.44
47.404 32.323 47.32
46.715 31.15 45.656
45.098 31.893 43.394
44.102 34.251 43.47
61.5 77.173 36.843
60.729 74.964 36.283
61.729 73.144 34.462
63.036 73.381 32.768
70.233 -1.259 89.939
68.291 -0.069 90.737
67.816 2.844 90.333
69.977 4.53 90.135
80.063 33.747 26.813
80.095 31.447 27.422
81.887 29.471 26.817
83.663 30.095 25.923
70.833 54.003 20.905
69.918 51.917 20.324
67.586 50.948 20.955
65.577 52.227 21.796
41.36 42.137 35.706
39.285 43.334 34.878
38.418 45.61 35.247
38.149 47.003 37.222
35.018 21.239 21.702
36.915 19.787 21.605
37.026 17.378 23.076
35.666 16.491 24.425
43.011 43.108 33.55
44.377 44.85 32.031
45.398 43.592 29.673
46.132 41.817 29.086
49.109 91.436 28.944
46.523 91.482 29.475
45.335 92.082 31.472
45.774 93.339 33.158
82.577 22.194 26.765
81.789 24.405 25.661
81.272 26.571 26.855
80.967 27.431 29.384
44.602 51.199 4.747
43.899 51.5 7.274
45.019 50.102 9.27
46.567 48.621 9.361
59.547 31.098 16.714
60.835 31.71 14.383
62.405 30.712 13.248
63.49 28.502 12.659
66.085 7.695 45.564
68.153 7.333 44.129
70.26 7.368 44.31
71.982 7.79 46.227
67.873 27.063 6.251
70.163 27.284 6.92
72.049 29.215 6.491
72.328 30.758 4.773
74.085 25.279 9.611
73.374 26.839 8.031
73.472 26.974 5.195
72.696 24.852 3.812
28.576 48.544 41.756
25.941 48.352 42.193
24.692 46.355 43.252
25.64 44.275 43.206
48.112 5.961 9.11
46.639 3.58 8.67
47.463 1.103 8.771
49.853 0.301 8.472
61.131 14.914 4.993
63.832 15.493 5.349
65.818 13.601 4.351
65.578 11.694 2.8
89.515 79.324 2.047
88.533 80.908 3.225
87.452 81.036 5.665
86.267 79.466 6.463
21.271 38.193 14.323
21.793 39.755 12.586
24.148 40.494 11.586
26.498 39.851 11.958
86.861 72.886 44.126
89.193 73.947 43.997
91.467 72.879 44.019
92.206 70.353 43.424
83.465 69.001 48.976
82.054 70.517 49.65
79.457 70.115 50.951
78.104 67.967 50.896
65.915 57.889 23.172
68.159 58.693 24.571
70.169 59.736 24.154
71.685 59.927 22.033
60.562 11.746 30.01
58.356 12.605 31.18
57.894 14.653 32.567
58.868 17.001 32.728
74.86 42.028 34.967
75.767 42.782 36.816
78.058 44.379 37.215
79.333 45.456 35.8
64.363 54.283 46.265
66.275 54.26 48.071
69.085 53.571 47.518
69.929 53.546 45.255
80.948 5.829 84.041
83.534 6.136 83.964
85.133 4.981 82.713
85.686 5.23 80.258
52.351 2.383 28.356
54.749 2.369 27.979
55.647 4.484 28.218
55.194 6.323 30.016
76.293 8.846 95.848
75.964 8.495 93.62
77.469 7.866 91.486
79.76 7.69 91.223
90.374 19.607 -2.125
90.446 21.6 -2.489
88.457 23.611 -1.575
86.794 23.071 0.02
38.95 76.755 22.669
40.689 75.44 23.8
40.638 73.461 25.333
38.681 71.69 25.754
62.784 70.427 29.128
63.112 69.02 31.17
62.18 69.008 33.242
60.42 70.535 34.498
30.792 58.271 24.812
28.511 57.773 23.158
28.333 56.123 21.412
29.951 55.947 20.27
63.255 37.023 37.966
61.835 37.229 39.711
61.142 39.421 41.492
61.938 41.794 41.205
49.273 61.289 12.705
47.149 60.445 11.814
45.821 58.235 12.571
46.699 56.245 12.999
53.07 34.851 21.642
52.487 37.427 20.865
52.659 39.547 21.776
53.366 40.669 23.885
56.722 64.135 56.029
58.681 63.249 57.078
61.064 63.832 57.177
62.562 65.121 55.949
5.758 39.294 27.666
6.087 41.856 27.099
8.463 43.201 27.319
10.031 42.17 25.871
28.596 80.173 39.628
28.085 82.426 40.537
27.958 83.617 42.439
29.398 83.212 44.802
44.27 33.716 75.618
42.296 32.661 75.042
40.283 31.442 76.832
39.838 32.415 79.17
23.175 39.212 64.491
21.312 38.149 64.584
19.086 39.448 65.111
18.554 41.817 65.469
22.887 55.228 24.679
25.038 54.065 23.92
27.494 55.168 24.546
27.303 57.244 25.451
74.0 17.685 28.657
75.786 18.197 26.547
77.563 16.797 25.465
78.22 14.661 25.448
64.564 7.147 4.218
66.021 8.101 1.576
67.638 6.502 0.556
68.183 4.307 0.861
4.864 28.314 44.231
4.528 30.916 43.196
2.501 31.548 41.888
0.141 30.903 41.841
50.936 41.917 23.116
48.89 40.896 23.756
47.311 41.501 26.015
47.346 43.593 27.399
59.345 89.737 91.974
58.355 88.357 93.639
56.032 88.204 94.602
54.151 89.863 95.053
68.025 48.458 21.68
67.089 46.731 20.322
64.668 46.284 19.655
62.513 46.582 20.584
51.008 33.471 16.548
50.568 34.238 18.606
51.243 33.093 21.231
52.647 30.671 20.966
42.317 44.964 28.482
42.598 42.994 28.547
44.165 41.398 27.142
45.005 41.624 25.0
86.254 53.69 17.985
87.038 55.805 17.361
85.984 57.836 18.777
85.216 57.733 21.278
25.623 45.297 12.1
24.559 43.244 12.431
22.34 42.407 13.107
19.96 43.133 12.631
76.533 37.165 30.85
76.109 35.101 32.036
75.673 32.755 31.464
75.982 31.51 29.258
11.969 24.347 14.762
13.523 25.55 15.234
16.019 24.306 14.775
16.491 22.01 14.887
42.523 5.843 85.501
42.042 8.02 84.447
42.362 10.456 85.45
42.737 11.34 87.908
64.792 78.932 35.422
66.296 79.799 37.622
66.958 82.015 38.558
66.145 84.441 38.413
28.83 20.93 31.1
27.404 22.194 29.329
25.982 21.27 27.343
24.83 18.758 27.225
2.763 38.428 27.252
1.378 37.502 25.789
-0.533 35.596 25.867
-1.533 34.48 28.072
64.532 27.555 7.224
66.023 29.242 8.282
65.29 31.003 10.395
63.348 32.06 10.693
-1.316 15.372 34.437
0.916 15.325 35.486
3.086 15.244 34.841
4.132 14.938 32.266
58.981 64.445 6.807
59.768 61.817 6.586
61.186 60.976 4.855
62.412 61.989 2.88
11.429 46.213 27.839
11.508 44.804 26.127
13.094 43.513 24.647
15.792 44.002 24.542
37.809 50.556 38.963
35.82 50.162 37.686
33.743 48.697 38.698
32.489 49.025 40.571
66.741 42.164 18.051
66.616 40.907 16.025
64.678 38.77 15.76
63.653 37.543 17.84
71.287 36.711 83.096
71.268 34.634 83.24
73.415 32.729 82.419
75.275 33.056 80.982
50.282 41.288 20.32
49.398 39.596 21.516
46.797 38.747 21.65
44.693 39.799 20.574
57.763 90.707 2.193
55.698 88.996 2.142
53.937 88.679 3.492
52.663 90.08 5.049
71.155 86.831 10.794
72.995 85.765 10.1
75.056 86.044 8.637
75.494 87.729 6.73
23.493 42.021 9.563
25.499 42.346 8.829
26.716 42.624 6.626
26.322 42.359 4.19
67.047 48.98 66.505
68.792 47.107 66.587
68.549 44.758 65.438
67.17 44.003 63.501
60.834 49.175 18.278
62.038 47.277 17.903
61.316 44.825 16.614
59.244 44.027 16.166
84.858 22.783 61.952
84.72 22.154 64.615
83.839 23.735 66.515
82.642 25.975 66.327
89.777 18.639 13.069
89.968 16.466 14.12
88.747 14.513 14.499
86.696 13.569 13.7
15.386 34.951 41.21
16.608 33.718 39.533
15.078 32.024 37.802
12.878 31.882 38.427
60.113 18.956 6.598
61.37 19.981 8.252
64.098 18.935 7.796
64.887 18.013 5.775
25.575 62.021 29.661
25.842 61.936 27.13
27.943 61.397 25.826
29.792 60.533 26.001
75.044 57.825 41.214
76.444 56.49 42.954
77.854 54.333 42.98
77.918 52.519 40.957
57.418 13.556 28.685
55.863 12.124 29.749
54.146 10.199 28.693
52.887 10.245 26.797
66.147 36.793 33.709
65.178 34.932 35.569
63.777 33.155 35.163
63.98 31.946 33.662
68.374 50.992 17.106
67.02 49.551 18.383
64.763 48.242 17.793
63.849 47.69 15.93
32.199 31.261 27.821
30.636 29.168 27.747
29.475 28.514 30.478
28.272 29.934 31.693
-0.65 1.232 37.689
-1.393 3.873 37.208
-0.242 5.907 37.378
2.258 6.458 38.646
75.724 86.465 59.5
74.229 84.888 59.81
72.354 84.455 61.795
71.999 86.475 63.268
89.233 56.274 35.592
88.999 54.385 36.537
89.129 51.945 34.962
89.953 52.114 32.645
70.227 67.931 95.297
68.869 66.137 96.24
67.915 63.935 95.31
67.518 63.144 92.932
58.807 28.805 39.678
56.546 28.138 39.197
54.244 28.136 40.107
53.559 29.409 42.633
3.741 38.896 19.087
5.179 36.874 19.258
4.699 34.386 19.127
2.668 33.212 17.833
66.062 64.121 1.914
67.869 64.772 3.484
68.525 67.304 4.436
67.399 69.33 4.106
18.455 83.69 42.039
16.617 85.188 43.284
13.888 84.823 43.197
12.683 82.528 42.54
16.288 47.624 72.959
17.596 49.395 72.0
20.261 49.876 71.509
22.132 48.108 71.447
71.816 27.271 10.296
69.824 28.199 9.281
67.179 27.559 10.045
66.227 25.581 10.237
56.468 68.77 62.008
54.377 67.783 61.283
53.285 65.819 62.052
53.921 63.888 63.706
-2.308 36.643 81.48
-1.095 36.368 79.638
0.127 38.672 78.99
0.716 40.401 80.541
53.257 68.176 13.616
53.616 70.546 12.824
55.638 72.272 13.743
57.093 71.966 15.86
59.019 31.446 20.526
56.768 32.675 20.881
54.669 32.859 19.465
53.909 31.555 17.35
41.135 74.891 19.355
43.209 74.098 20.103
45.801 74.79 19.702
46.783 76.752 18.521
36.243 36.393 53.625
35.632 33.766 53.332
33.524 32.581 54.409
31.588 33.331 55.834
57.441 85.619 18.529
58.363 87.064 20.236
59.768 89.358 20.024
59.436 91.152 18.424
83.657 57.909 17.537
82.819 55.554 17.201
83.877 53.814 15.457
85.726 54.144 13.795
42.317 37.736 4.341
43.314 36.377 2.648
44.633 34.192 2.673
46.541 33.736 4.482
24.117 80.178 12.796
25.563 79.364 10.902
27.951 79.269 10.664
29.563 80.229 11.349
17.656 35.74 93.125
14.973 34.787 92.963
14.681 32.433 91.28
16.341 31.485 90.38
59.89 14.861 9.927
61.673 14.214 8.025
63.975 14.841 7.947
64.892 16.554 8.356
57.315 48.088 49.637
55.901 49.571 50.351
53.483 49.289 51.597
52.809 47.072 52.9
41.562 92.069 29.119
42.141 89.909 29.343
44.758 89.133 28.064
46.013 90.618 26.892
48.534 38.398 24.761
46.558 39.09 24.625
44.124 38.939 26.295
43.643 37.236 27.372
10.065 24.358 80.645
9.761 23.751 83.13
9.61 25.265 85.191
9.325 27.563 85.534
72.515 86.597 58.158
71.956 88.597 59.529
70.525 87.851 61.667
68.463 86.407 61.641
70.684 32.183 81.987
71.621 30.577 80.879
69.86 28.383 80.044
67.695 27.985 80.236
5.938 7.534 10.145
4.21 9.334 10.122
1.903 8.845 10.985
1.042 7.146 12.38
37.981 88.114 5.093
37.157 88.548 7.003
36.741 90.446 8.729
37.208 92.751 8.777
67.814 34.2 11.369
69.146 31.948 10.283
68.653 30.692 8.33
67.364 31.388 6.298
13.775 77.115 19.61
14.292 77.639 17.208
15.023 80.021 16.253
15.214 82.109 17.333
74.963 69.286 6.941
74.417 71.625 6.028
72.957 73.66 7.327
73.119 74.388 9.535
76.368 92.063 42.687
74.071 91.282 41.891
71.863 90.876 43.161
71.025 91.574 45.336
74.457 89.196 90.187
72.184 88.148 89.395
72.824 86.929 87.253
72.315 84.289 87.33
41.555 38.633 55.895
39.027 38.057 55.319
37.356 36.338 56.352
37.356 34.613 57.9
2.256 23.435 87.545
0.296 22.379 88.702
-0.841 20.062 88.421
-0.838 18.373 86.727
80.656 -1.11 32.5
81.509 -0.324 34.69
80.297 1.021 36.749
77.621 1.88 36.5
76.96 13.322 93.807
79.587 12.443 93.373
80.918 12.416 91.059
80.529 13.134 88.897
88.038 70.712 46.846
85.929 71.244 46.051
84.211 72.695 47.584
83.775 72.481 49.982
41.242 79.267 76.754
42.937 81.07 77.31
43.83 83.107 75.947
43.347 83.713 73.565
40.055 86.101 5.552
37.26 85.563 5.919
36.544 84.458 8.237
37.624 82.741 9.753
66.061 89.435 93.795
66.994 89.496 91.662
69.098 88.69 90.471
70.228 86.808 90.542
57.372 87.026 1.178
58.603 85.793 -0.628
57.401 83.502 -1.766
55.695 81.801 -1.1
73.012 6.405 94.924
71.599 5.749 93.216
69.979 3.909 92.905
69.503 1.61 93.686
89.785 18.651 61.04
89.448 20.599 62.602
87.284 20.716 64.344
85.314 19.112 64.648
65.012 34.122 11.281
65.21 34.907 13.751
63.437 35.898 15.269
61.069 36.182 14.968
18.804 19.285 81.802
17.184 20.579 82.264
15.203 20.096 83.635
14.749 18.134 85.01
72.95 85.672 80.438
72.815 83.381 79.954
70.35 81.863 79.46
68.546 82.603 80.57
72.255 1.177 38.794
71.384 1.241 40.832
69.767 -0.434 41.643
68.507 -2.255 40.396
62.885 75.325 60.059
60.691 73.862 59.875
59.766 72.189 58.173
61.213 70.828 56.772
58.704 44.614 1.058
58.841 46.984 -0.072
60.933 48.579 -0.701
63.273 48.13 -0.909
45.317 80.412 78.609
45.761 82.636 77.582
46.832 82.73 74.914
48.294 81.693 73.811
75.275 40.066 59.551
74.659 42.158 60.434
74.806 42.974 62.879
74.399 41.626 64.964
58.956 73.991 16.96
57.723 75.694 16.369
57.492 77.261 14.118
58.362 76.682 11.852
4.5 84.411 55.246
3.446 84.18 53.141
4.059 82.731 50.897
5.848 81.629 50.252
51.087 42.15 68.828
51.339 40.152 69.828
49.481 38.268 70.712
47.613 37.603 70.005
49.245 87.152 97.505
51.735 86.696 97.722
53.344 86.47 95.273
52.403 85.475 93.228
2.269 2.05 53.604
0.312 2.206 53.887
-0.714 2.949 56.375
0.186 4.853 57.829
91.275 90.662 57.442
89.802 92.01 56.357
87.258 92.427 57.031
85.937 91.355 58.652
54.25 6.992 76.793
55.397 4.856 76.445
54.846 2.576 76.105
53.089 1.383 74.59
44.674 31.014 67.208
44.977 30.823 69.931
43.816 29.619 71.501
41.01 29.357 71.538
36.301 74.234 72.031
35.257 72.382 72.211
32.492 71.876 73.234
30.479 73.028 73.019
86.276 30.32 2.963
87.048 28.031 2.488
88.781 27.096 1.417
90.861 28.41 -0.151
87.832 21.841 71.38
86.0 20.478 71.45
83.48 21.058 72.212
82.615 22.557 73.627
81.529 43.38 60.905
79.158 42.751 62.138
77.044 43.944 61.728
76.394 46.512 60.946
18.255 78.856 86.515
17.521 77.296 85.806
18.112 75.669 83.866
20.06 75.226 82.653
35.606 3.451 82.635
34.931 1.389 82.47
35.661 -0.765 80.867
37.086 -0.878 78.801
72.695 13.075 67.248
71.38 12.982 69.293
71.913 13.619 71.777
73.932 14.555 72.902
42.584 48.399 82.807
40.044 48.629 83.398
38.491 47.125 83.852
37.528 44.834 82.362
43.691 90.446 9.278
45.702 89.428 7.888
47.979 89.5 7.715
49.822 89.812 9.285
0.798 89.214 79.707
2.214 90.386 78.035
4.327 89.768 76.797
5.761 87.837 77.045
3.513 64.187 63.962
2.387 65.293 65.951
0.305 64.6 66.925
-1.019 62.582 66.461
37.606 5.61 84.896
37.121 3.273 84.827
38.92 1.791 83.16
40.887 2.903 82.133
80.907 42.145 34.509
78.59 41.152 33.505
78.258 39.4 31.608
80.069 37.918 30.384
85.541 1.822 55.811
85.515 3.474 56.981
84.448 4.095 59.547
83.075 3.305 60.587
36.481 4.57 39.8
34.664 5.76 39.974
33.16 6.539 41.842
33.902 6.626 44.051
45.127 59.598 60.643
45.914 61.591 59.554
48.409 62.35 59.448
50.764 60.854 59.562
83.696 13.958 86.623
84.461 12.096 87.673
84.093 9.434 87.174
83.149 8.352 85.26
74.529 74.957 81.875
75.779 75.202 79.811
77.845 76.965 79.361
79.309 78.136 81.114
3.471 50.045 74.694
3.053 48.301 75.549
1.015 47.359 76.898
-1.279 47.794 76.866
27.727 30.537 80.192
28.021 31.804 81.809
26.38 32.937 83.803
24.291 32.23 84.63
51.825 43.478 71.03
53.191 45.345 71.77
53.475 46.477 74.104
51.92 46.881 75.57
55.684 27.024 65.673
56.913 25.432 64.022
59.204 25.764 62.684
60.591 27.55 62.448
26.58 8.275 47.187
25.917 7.057 48.949
24.205 5.184 49.445
22.645 4.104 47.758
68.422 20.904 9.812
65.992 20.61 9.011
64.061 21.129 9.835
62.606 19.909 11.694
47.562 56.804 82.31
46.75 55.786 80.148
44.824 53.956 79.72
43.16 52.988 81.075
65.195 27.345 80.61
65.817 28.591 82.911
64.498 30.417 84.215
62.183 30.148 84.671
67.062 32.321 33.409
68.06 34.723 34.114
70.578 35.29 34.344
72.677 33.943 33.306
32.992 29.031 79.945
34.203 29.945 78.123
36.815 30.628 77.67
38.784 29.551 78.661
74.548 20.764 67.685
74.061 18.429 69.388
72.779 16.521 68.905
71.739 15.582 66.954
83.501 6.373 56.581
82.126 7.584 57.792
80.263 6.407 59.721
78.392 5.114 59.552
69.839 4.379 68.812
70.651 4.349 66.405
73.14 4.033 65.814
75.071 3.238 66.53
14.387 87.689 41.947
16.808 87.44 41.73
18.833 88.966 42.298
18.898 91.23 43.413
20.289 39.801 86.866
19.005 39.236 88.511
16.559 38.928 88.842
14.472 39.212 87.547
58.68 21.488 83.404
57.001 21.142 85.024
54.893 19.824 84.775
53.242 19.451 82.912
75.01 8.456 43.869
72.26 8.9 43.338
71.197 9.08 41.347
71.388 10.964 41.321
24.587 12.454 74.085
26.613 13.596 73.793
28.217 13.189 71.575
28.438 11.192 70.219
17.463 85.033 69.538
18.378 87.24 68.515
17.267 89.36 68.159
14.931 90.03 69.829
57.979 40.097 67.392
58.185 41.343 69.467
60.598 41.65 71.129
62.545 40.983 70.37
47.364 50.696 84.042
45.416 51.473 82.745
42.728 51.225 83.458
41.472 50.588 85.026
56.964 79.017 70.232
55.428 80.579 69.708
55.591 83.273 70.236
57.442 84.362 70.883
38.339 34.032 77.786
36.593 33.176 79.207
34.08 34.605 79.817
33.516 36.838 79.141
52.765 19.617 65.804
51.98 18.16 64.189
49.953 17.326 63.317
47.459 17.567 64.084
38.98 82.375 51.558
41.214 83.251 52.398
43.267 84.013 50.89
43.759 84.359 48.542
70.866 47.385 18.622
68.686 47.501 18.005
67.0 45.931 16.892
67.159 43.876 15.965
85.796 78.291 96.189
88.319 77.598 95.958
89.939 78.044 93.515
88.93 78.031 91.466
55.855 43.953 72.672
56.096 46.201 73.788
58.737 47.718 73.702
60.755 47.068 73.224
55.129 26.908 86.261
55.53 25.022 85.236
53.984 22.822 85.073
51.562 22.168 85.413
44.951 29.388 74.829
42.759 30.037 73.856
40.213 29.316 74.269
39.406 28.437 76.043
58.107 2.02 73.908
55.926 1.1 74.308
54.544 -0.327 72.985
54.961 -2.136 71.525
62.81 43.96 66.944
61.483 43.335 68.614
59.335 44.36 69.724
57.633 45.813 68.982
59.551 30.029 62.314
61.019 30.018 60.787
61.642 31.757 58.841
61.713 33.851 59.53
67.58 41.568 61.844
70.081 41.202 61.747
71.947 42.856 60.834
71.827 45.058 59.729
79.294 54.144 73.142
77.751 55.169 72.892
78.149 57.84 72.287
80.422 59.028 72.69
78.106 53.306 70.406
76.106 53.045 69.88
74.416 50.827 69.605
74.631 48.634 69.791
71.629 60.66 48.109
73.117 62.288 46.523
75.433 62.664 47.276
76.141 64.042 48.961
66.507 9.288 40.737
68.408 9.346 42.553
68.934 11.494 44.018
68.794 14.131 43.101
2.901 51.906 53.608
3.772 52.862 55.564
4.598 55.521 56.074
5.553 57.001 54.134
82.959 35.348 4.535
83.737 37.062 3.109
85.194 39.6 3.954
85.593 40.221 6.032
70.164 64.58 75.769
69.342 66.732 75.128
69.462 69.009 76.292
69.802 69.737 78.788
34.641 85.212 63.554
36.029 86.599 61.555
38.026 85.919 60.559
38.938 83.677 60.092
25.935 58.192 17.276
26.999 57.898 19.792
29.154 59.785 20.637
30.888 60.283 19.624
57.374 7.846 53.319
58.491 6.523 51.883
59.928 7.639 49.848
60.339 10.183 49.99
38.877 73.215 47.813
37.217 71.494 47.83
37.327 69.541 45.519
38.734 69.599 43.904
48.771 35.379 68.165
49.258 33.257 69.193
49.436 30.825 68.282
49.172 29.938 65.925
11.337 32.311 73.562
11.114 33.35 71.378
12.833 34.631 69.83
14.959 35.368 70.07
54.159 7.083 79.761
55.138 9.214 80.638
54.067 11.584 80.956
51.787 12.335 80.935
5.401 87.182 45.556
6.165 85.751 47.752
5.077 85.242 50.007
3.722 86.589 51.181
67.15 69.464 80.599
64.504 69.215 80.367
62.89 70.55 81.134
62.756 72.514 80.911
59.52 68.962 57.349
58.342 67.038 57.961
55.94 66.284 58.068
53.856 67.438 58.346
7.257 35.795 71.499
8.683 34.127 70.425
9.675 34.348 67.709
10.286 36.373 66.5
72.403 27.864 75.937
72.258 28.874 78.674
73.454 31.226 79.226
74.864 32.118 78.55
74.77 26.436 51.093
73.913 25.047 49.242
71.482 24.361 50.585
70.173 25.615 51.897
69.435 32.878 55.216
71.585 32.368 55.396
72.495 30.528 53.917
72.154 30.039 51.381
58.627 90.55 47.52
56.701 90.488 48.141
55.295 88.706 49.883
56.019 87.085 51.558
80.388 18.735 45.582
78.211 18.263 44.257
75.965 17.048 44.997
74.683 17.459 47.066
33.442 84.807 81.221
34.595 86.028 82.082
36.411 87.825 81.326
36.953 88.736 79.365
4.472 55.677 37.252
2.921 54.083 36.289
0.557 53.291 37.473
-0.307 53.537 39.593
90.637 39.143 73.649
90.042 40.881 75.84
88.973 40.297 77.813
87.217 38.344 78.558
71.645 88.574 65.069
70.189 88.852 64.028
67.25 88.081 63.821
66.925 85.767 64.997
81.832 90.189 38.25
79.877 91.0 38.165
77.891 91.15 39.802
78.072 90.06 42.324
26.378 65.12 54.402
25.563 67.26 54.701
25.559 68.89 56.884
26.978 68.479 58.912
39.791 54.072 14.804
38.603 54.298 12.699
37.103 52.568 11.279
37.043 50.044 11.436
60.142 21.645 85.524
60.452 23.885 85.42
62.24 25.375 83.789
63.824 24.672 82.375
35.428 6.966 86.024
34.78 4.25 85.811
33.29 3.235 84.282
31.311 4.221 82.856
85.792 12.156 90.64
83.573 11.951 90.448
82.29 9.695 90.515
82.491 7.574 91.622
57.369 18.495 61.295
56.84 20.759 60.998
58.035 23.016 61.913
59.521 23.116 64.082
71.048 80.899 60.407
70.159 82.951 61.251
68.548 83.548 63.299
70.178 84.55 63.857
65.34 9.443 68.976
66.148 9.155 71.513
64.837 9.457 73.901
62.219 9.764 74.177
46.931 54.43 77.068
49.357 54.613 77.466
51.042 56.587 78.018
50.255 58.768 78.375
-2.324 82.37 78.303
-1.085 82.44 76.517
0.921 83.96 75.555
1.848 85.942 76.516
36.887 37.504 84.921
35.911 36.378 83.353
36.682 34.197 81.789
38.488 32.69 81.836
39.285 93.432 33.195
40.538 91.638 32.744
40.37 89.611 31.383
38.745 88.643 30.036
73.151 31.725 58.079
75.075 32.331 57.173
76.568 34.776 57.739
76.503 36.402 59.026
56.156 12.492 60.426
54.347 13.942 60.956
54.224 16.119 62.815
56.476 17.211 63.666
43.427 28.567 95.011
41.094 28.028 94.845
39.713 26.099 94.71
39.972 23.958 93.879
6.526 22.993 42.206
5.371 25.125 42.691
5.856 27.412 41.611
7.618 28.451 40.727
59.883 8.499 79.507
59.827 7.093 77.301
61.864 6.132 75.976
63.435 7.132 75.404
88.775 3.174 52.412
88.11 3.554 54.457
86.894 5.426 55.647
85.926 7.203 55.05
49.726 90.165 76.05
49.613 88.583 74.467
51.489 88.394 72.814
52.368 89.712 71.277
21.807 54.226 22.58
22.546 52.701 21.308
21.914 50.078 21.031
19.507 48.882 21.706
65.756 61.673 51.441
64.129 60.398 50.594
61.605 61.078 51.432
61.123 62.884 52.919
6.233 0.272 72.633
6.042 1.605 74.212
3.604 2.095 75.878
1.722 0.682 75.487
11.91 74.853 90.961
14.068 74.74 89.834
15.584 77.087 89.596
14.54 79.257 90.897
56.367 8.202 75.549
57.476 8.296 77.641
57.766 9.916 79.242
56.343 11.712 79.306
63.474 87.472 91.698
61.26 86.804 92.631
58.879 86.547 91.37
58.492 85.49 89.367
57.547 30.684 60.665
56.416 29.421 62.441
54.2 29.678 63.682
52.418 30.985 63.442
0.98 93.051 51.701
1.584 90.877 52.021
3.544 89.304 51.268
5.184 89.473 49.869
19.116 19.677 34.366
20.64 21.889 33.98
19.7 24.252 33.221
18.113 25.687 34.255
20.937 4.083 20.48
23.701 3.823 19.537
23.755 1.41 20.2
22.231 -0.602 19.298
49.921 24.106 37.98
52.318 23.491 37.786
53.565 21.505 36.822
52.928 20.248 34.651
65.445 40.743 36.45
66.645 38.58 35.679
69.354 38.717 34.743
70.567 40.407 33.896
45.847 8.819 82.572
44.621 6.776 83.081
41.863 6.392 82.177
40.885 7.735 80.799
31.062 22.332 3.588
30.375 20.407 2.357
30.151 17.848 2.932
31.517 16.517 4.013
58.224 66.262 61.225
59.311 68.048 60.654
61.585 67.463 59.093
62.865 65.761 58.902
42.804 9.436 38.224
42.645 7.249 39.19
43.247 5.426 37.134
44.296 5.492 35.199
78.0 89.965 35.319
76.824 91.356 37.171
74.492 91.755 37.565
72.651 91.342 36.768
66.25 37.879 40.311
66.397 36.843 38.062
68.436 35.18 36.939
70.94 35.011 37.822
59.672 73.514 65.737
58.688 71.268 64.477
59.807 70.049 62.368
62.115 69.72 61.767
86.734 47.509 17.043
85.09 48.928 15.814
86.052 51.49 14.71
87.477 53.006 15.611
3.197 21.367 39.404
3.961 23.411 40.805
3.307 25.605 40.303
3.584 26.88 38.17
66.042 37.703 85.071
68.425 36.863 84.173
68.624 34.769 82.269
67.235 32.645 82.358
54.28 11.182 85.069
55.51 12.653 83.231
57.912 12.411 82.109
59.627 10.393 82.481
77.978 22.228 76.802
78.301 21.791 74.126
79.924 21.026 72.943
81.337 18.812 73.035
69.303 71.727 28.272
71.724 70.979 28.921
72.607 68.409 27.525
72.488 67.756 25.649
53.014 21.882 64.535
54.298 23.965 64.071
53.584 26.631 63.83
52.061 27.711 64.146
85.667 9.459 84.28
86.212 7.538 82.92
87.58 7.352 80.903
89.382 8.972 79.742
71.094 6.685 89.404
72.507 7.137 90.973
75.118 6.123 91.43
76.615 5.461 89.745
70.87 33.876 86.577
70.411 35.753 85.583
71.803 38.018 85.441
73.979 38.729 86.029
83.053 36.181 83.244
82.87 35.425 80.928
84.318 35.011 79.184
87.087 34.562 79.365
48.552 54.166 27.716
47.49 52.945 28.88
47.951 50.732 29.694
49.902 48.881 28.808
75.451 60.509 43.193
76.919 61.334 44.439
77.158 63.773 45.555
75.936 66.157 44.835
29.461 69.512 75.682
31.625 69.024 75.277
32.231 69.439 72.921
32.27 68.248 71.473
61.719 7.699 72.023
60.439 7.832 74.263
58.202 6.393 75.056
57.097 4.611 73.932
41.733 10.108 16.009
42.848 7.95 15.801
42.785 6.394 13.854
41.605 6.035 12.02
63.366 52.961 52.548
61.098 53.383 52.171
59.241 52.119 50.421
59.356 50.141 49.24
74.163 23.999 46.642
74.613 21.865 46.858
73.943 19.69 45.406
71.726 19.253 44.51
37.214 12.203 92.5
36.239 14.818 93.233
33.597 14.977 93.614
31.92 13.461 95.038
84.295 38.942 55.767
83.992 40.831 55.825
83.791 42.923 57.736
84.012 42.999 60.037
83.482 36.436 54.875
81.792 37.764 55.838
78.811 37.721 55.074
77.871 36.838 53.261
36.053 53.525 56.937
37.873 52.82 59.144
37.229 53.122 61.463
35.278 53.429 62.147
66.975 74.294 33.227
65.782 72.299 32.661
65.482 70.943 30.273
66.02 71.441 28.376
52.139 47.861 78.244
53.223 49.45 76.546
55.664 49.797 75.784
57.695 48.537 76.28
59.626 -0.801 77.211
60.271 1.59 75.757
60.506 3.988 77.154
60.92 4.547 79.224
5.323 37.286 44.31
3.945 36.896 46.434
3.562 38.197 48.454
4.881 40.355 49.165
4.491 88.794 24.282
3.196 88.258 25.752
0.165 88.382 25.821
-1.33 89.387 24.445
62.342 63.872 80.345
62.779 66.319 81.135
64.679 67.281 82.132
66.753 66.785 82.569
48.181 73.664 19.948
48.974 72.772 17.741
50.186 74.232 15.708
51.225 76.683 15.955
35.923 33.626 75.053
37.793 32.435 75.359
39.965 32.004 73.901
40.552 32.555 71.665
76.777 28.802 56.777
75.043 29.076 54.559
73.998 27.131 53.726
74.128 24.642 53.777
25.903 63.574 50.869
26.738 65.805 51.742
29.068 66.565 52.166
31.035 65.546 52.124
67.501 25.72 52.915
67.581 26.751 55.258
67.777 29.398 55.782
67.13 31.109 55.133
39.57 11.117 45.444
39.33 9.184 43.853
36.878 7.438 43.986
35.331 8.011 45.762
67.911 10.822 72.857
69.68 11.345 71.386
70.48 9.518 69.756
70.156 7.327 69.703
28.904 27.225 54.631
26.837 27.908 56.18
24.445 27.857 56.235
22.731 26.572 54.679
88.54 5.292 84.817
88.837 5.646 82.538
88.407 4.095 80.329
88.737 1.642 80.227
48.779 11.025 57.75
47.903 12.146 59.868
46.298 11.391 61.742
45.476 9.281 62.443
57.306 44.343 40.975
58.636 42.917 41.765
59.323 43.575 44.041
59.177 45.883 45.062
11.584 12.313 80.466
13.056 11.637 78.383
13.23 9.14 77.207
11.916 7.041 77.453
15.328 50.685 75.421
16.339 51.049 73.462
19.166 51.744 72.887
19.95 53.685 74.245
67.697 63.453 74.059
69.996 62.916 72.72
71.71 60.75 73.094
70.937 58.442 73.553
81.261 22.078 43.192
79.439 21.324 44.767
77.084 20.657 44.414
75.405 21.071 43.021
62.18 27.554 88.387
62.261 27.155 85.911
64.549 26.482 84.404
66.766 25.859 85.024
42.384 5.586 8.961
43.471 6.9 10.38
45.68 8.336 10.267
47.262 8.942 8.31
76.356 29.722 7.698
74.385 30.65 7.632
72.227 30.92 9.11
71.75 30.185 11.396
56.316 11.111 56.64
54.244 11.394 55.884
51.858 10.716 56.81
51.27 10.567 59.028
15.069 58.5 77.543
15.807 56.567 75.661
15.135 54.331 75.38
13.526 52.779 76.99
63.974 65.433 28.386
64.636 66.901 29.719
66.714 68.524 29.099
67.791 68.92 27.188
40.299 47.915 33.419
42.071 46.481 31.529
41.383 43.941 30.932
40.147 42.831 31.907
65.027 79.317 41.444
64.294 78.79 39.232
63.963 76.807 37.858
63.658 74.273 38.349
85.037 55.048 42.511
82.275 55.026 42.235
80.493 55.49 43.592
80.017 55.576 46.011
86.293 50.474 9.986
85.359 50.76 12.109
83.445 52.437 12.758
82.383 54.072 11.365
80.46 89.414 35.621
81.341 88.689 33.744
84.274 87.982 33.618
85.415 86.901 35.317
23.187 15.756 29.569
23.12 18.071 29.721
23.093 19.704 31.58
22.369 19.519 33.94
24.376 92.072 43.403
23.084 89.853 44.65
23.605 87.72 44.645
25.406 86.204 43.562
14.375 36.752 12.487
14.472 34.796 14.288
12.704 33.735 15.66
10.072 33.871 15.49
58.663 73.154 33.94
58.324 73.755 36.426
56.385 75.36 37.716
55.618 77.699 36.476
61.263 42.115 14.855
62.06 40.603 16.181
61.287 38.197 16.921
58.568 37.4 17.293
43.591 1.45 29.526
42.991 0.918 31.995
41.904 2.333 33.934
42.009 4.704 34.392
16.748 4.897 29.213
16.847 7.693 29.363
15.133 9.318 29.482
12.559 8.861 30.232
2.425 87.325 4.886
0.444 88.56 5.824
0.036 89.533 8.086
1.901 90.527 9.644
74.814 18.455 42.147
73.441 17.352 43.466
71.742 15.408 43.118
70.613 14.424 41.093
34.031 76.234 30.711
31.332 75.395 30.346
30.385 73.36 29.942
31.106 71.11 29.628
5.096 36.76 69.134
4.205 35.947 71.133
1.796 35.957 72.164
-0.084 36.885 71.377
64.83 45.496 14.458
63.697 43.435 15.293
63.813 41.057 14.286
64.65 40.134 12.799
12.367 31.54 65.999
11.624 32.321 68.472
10.1 31.515 70.083
8.301 29.512 70.088
51.807 36.078 16.66
53.271 37.128 17.981
53.459 39.771 18.801
52.226 41.725 18.273
56.61 14.603 54.363
57.673 12.343 54.36
57.094 10.489 52.481
57.51 10.755 50.01
34.181 58.597 15.367
36.45 58.461 15.515
38.325 58.04 13.685
38.238 56.581 11.64
22.269 64.58 56.544
23.878 64.424 54.317
23.189 62.741 52.077
21.419 61.548 51.54
92.358 76.855 44.943
90.887 75.452 46.023
88.534 75.56 46.453
86.594 77.062 46.167
2.237 50.077 38.252
2.981 51.397 36.302
4.812 51.122 34.62
5.652 48.68 33.958
42.396 77.259 22.848
44.109 77.248 24.451
45.445 79.399 25.543
45.316 81.651 25.348
62.165 80.621 63.374
64.228 81.264 64.859
65.961 83.442 64.601
65.977 85.203 62.767
10.836 78.097 16.036
11.898 76.629 16.283
13.721 76.487 14.27
13.661 76.311 11.953
1.252 62.21 21.613
1.761 62.184 19.844
0.226 60.674 19.042
0.061 57.879 19.249
47.747 25.199 39.216
48.001 24.493 41.715
47.678 21.951 42.531
46.658 19.937 41.5
53.478 64.772 58.305
52.232 63.323 59.035
50.142 64.306 59.81
49.163 66.46 59.507
52.325 23.024 32.919
53.855 21.388 32.469
54.271 19.773 30.406
53.549 19.693 28.071
65.189 86.847 16.85
64.371 88.015 18.746
63.572 90.249 19.132
62.265 91.63 17.798
53.67 85.213 44.952
53.617 83.02 45.054
51.433 81.307 44.643
49.307 82.49 45.115
70.162 24.171 5.803
69.017 22.875 7.95
66.149 23.277 8.036
65.432 24.906 7.328
27.048 61.93 22.905
26.652 59.724 24.255
24.526 58.298 24.502
22.963 57.641 23.15
65.872 83.812 12.008
66.537 84.494 14.265
67.216 86.744 14.929
68.909 88.462 13.703
3.799 64.401 14.076
5.965 64.006 14.689
7.732 66.052 14.377
7.337 68.323 13.356
19.226 86.634 44.329
21.301 87.257 43.122
22.953 85.703 41.628
21.929 83.58 41.153
10.532 66.812 39.267
8.832 65.264 38.663
9.408 62.611 37.705
11.519 63.003 36.9
14.636 70.314 16.936
13.009 68.796 16.032
13.281 66.671 14.354
15.524 65.456 13.635
24.709 23.665 28.309
25.635 25.213 30.274
27.137 27.435 29.691
28.394 27.115 28.188
44.544 84.242 79.549
42.334 84.054 78.896
40.193 83.095 79.892
39.449 82.169 81.782
48.174 61.355 9.233
49.418 63.159 9.078
52.075 63.513 9.605
53.881 61.737 9.726
29.448 88.85 11.426
31.434 87.752 10.26
32.014 84.961 10.379
30.304 83.088 10.89
6.445 72.436 38.421
6.069 72.151 40.552
4.214 70.591 41.733
3.055 68.91 40.338
39.27 86.054 31.271
40.141 84.42 30.559
39.013 82.191 28.943
36.854 81.449 29.248
15.682 4.247 5.029
15.109 5.661 3.8
16.458 8.028 3.988
17.353 9.111 5.832
60.886 75.955 64.909
58.653 77.104 65.746
58.309 78.778 67.972
59.964 80.091 69.273
70.637 83.264 11.719
72.441 81.313 11.535
74.211 81.282 9.184
74.576 83.288 8.351
24.464 31.138 55.845
22.528 30.055 57.188
20.34 31.089 58.025
20.246 33.85 58.594
63.531 58.903 24.961
64.212 59.642 27.213
65.193 62.034 27.966
65.68 64.194 26.789
46.435 35.269 23.904
48.801 36.123 23.395
49.668 36.834 21.129
49.018 36.51 18.705
