25.276 25.857 65.164
25.241 27.316 62.793
24.247 29.804 62.968
24.323 31.362 64.246
43.668 23.301 47.252
44.797 24.599 45.724
47.126 25.05 45.083
49.188 24.318 45.621
37.308 6.002 63.224
36.697 7.454 64.897
37.987 9.299 66.117
40.146 10.429 65.464
34.028 48.599 35.911
35.353 47.114 37.21
36.972 45.105 36.499
37.406 43.809 34.544
11.997 4.965 75.618
10.261 3.486 75.403
10.033 0.851 74.536
11.622 -0.589 73.872
18.752 18.47 30.969
19.43 17.613 28.733
17.699 16.285 27.766
17.058 17.038 25.374
32.236 -3.025 8.255
34.772 -2.516 9.054
35.15 -0.222 10.585
33.175 1.31 11.503
13.949 77.3 15.233
14.953 78.145 17.383
15.254 80.661 18.22
13.689 82.671 17.331
4.91 52.155 61.842
4.315 52.433 59.695
2.072 51.151 58.679
1.358 48.863 59.29
21.286 31.397 87.372
22.228 33.348 86.12
24.87 33.505 85.246
26.914 33.419 86.407
3.979 -0.211 5.21
3.173 1.947 5.925
4.279 3.477 7.469
6.564 4.069 8.192
83.363 79.515 25.934
84.623 80.16 27.98
87.091 80.973 28.438
88.649 81.839 27.009
52.636 10.167 82.147
50.609 11.527 82.255
51.498 14.039 83.148
52.667 14.539 85.171
44.152 45.041 8.644
42.733 47.206 8.394
41.757 48.532 9.981
40.448 47.693 11.771
51.018 31.55 95.193
48.856 32.356 96.244
46.54 33.069 95.199
45.611 32.727 92.836
28.084 76.576 5.834
30.113 76.871 7.398
30.418 78.549 9.341
30.545 81.112 9.002
44.067 8.562 42.96
42.899 8.772 40.565
41.113 6.901 39.394
41.206 4.494 39.496
84.384 72.662 22.758
83.801 73.948 24.701
83.569 76.719 24.867
82.869 78.2 23.205
34.702 49.517 80.726
36.667 48.827 81.92
39.244 49.558 81.913
40.54 51.241 80.267
34.702 64.611 73.938
35.206 63.993 72.028
35.614 61.865 70.648
34.874 59.584 70.934
30.791 71.356 52.091
29.319 70.271 53.74
27.057 68.985 53.434
25.535 68.579 51.583
47.478 61.725 35.883
47.92 61.476 38.382
46.29 61.545 40.532
43.859 62.894 40.623
45.218 51.877 9.642
43.043 51.036 10.155
41.253 51.859 11.876
41.461 53.548 13.362
72.002 21.348 52.95
73.108 23.103 53.718
72.438 25.011 55.475
70.426 25.06 56.538
78.167 26.148 52.243
78.512 23.986 51.916
78.678 22.426 49.735
79.619 22.902 47.516
47.489 87.73 70.013
49.486 85.771 70.535
50.1 83.826 69.328
48.492 82.095 68.104
22.565 -0.489 88.714
24.574 -0.852 87.884
26.523 0.614 86.594
26.542 2.911 86.101
12.62 13.785 75.737
12.863 11.293 76.203
12.616 9.291 74.525
10.434 8.982 72.788
86.831 44.597 3.668
88.357 46.393 5.214
89.996 48.105 4.707
91.33 48.383 2.121
74.733 51.213 23.502
76.259 52.59 21.655
77.838 51.449 20.021
78.983 49.152 20.213
81.266 8.515 15.048
80.334 6.168 15.781
79.262 4.468 14.776
77.872 4.13 12.418
89.218 11.016 20.666
88.804 11.802 18.269
88.666 13.986 17.357
90.466 16.132 18.198
60.364 22.216 25.056
60.805 21.304 27.375
58.71 21.769 28.958
57.298 23.564 29.214
86.811 42.573 7.639
88.397 44.389 7.219
90.04 44.068 5.173
90.021 41.471 3.687
22.1 86.793 37.73
21.785 87.535 39.567
21.149 89.742 40.643
20.274 91.854 39.796
81.622 17.257 23.412
80.105 19.129 23.735
79.959 20.992 25.124
80.906 21.547 27.646
67.882 43.24 67.828
68.323 45.338 68.947
66.016 46.62 69.935
63.786 45.576 70.729
37.314 14.09 64.156
36.614 12.076 65.536
35.999 11.723 68.015
34.836 13.24 69.614
7.468 24.108 14.792
5.907 22.246 15.144
3.556 22.286 15.605
2.571 24.234 16.216
15.377 12.378 -0.155
16.536 11.413 1.84
15.677 10.084 3.778
13.608 8.631 4.081
23.688 20.31 73.473
22.692 18.261 74.531
20.472 17.202 74.739
18.079 18.417 75.145
80.145 34.795 10.598
82.21 35.655 9.721
82.95 38.324 9.094
81.429 40.494 9.02
76.6 28.117 3.681
78.9 29.455 3.51
79.03 32.225 3.402
77.042 33.237 3.842
61.163 65.941 80.993
62.699 67.661 81.127
62.522 70.273 80.982
60.769 71.874 80.631
47.678 63.874 64.067
48.664 62.472 62.823
47.248 60.346 62.287
44.543 60.388 62.14
72.829 20.492 27.459
74.512 20.026 26.129
77.397 20.35 26.414
78.14 22.077 27.766
-1.136 86.451 73.442
0.638 87.984 73.465
3.357 87.682 73.862
3.768 85.43 74.761
40.589 19.305 94.363
40.228 18.692 92.023
41.072 16.625 90.434
42.051 14.458 91.364
56.17 47.948 93.18
56.938 45.728 94.507
55.365 44.049 95.776
53.498 44.284 96.955
4.68 0.276 76.418
4.621 3.183 76.055
6.579 4.587 75.719
8.54 4.793 76.879
30.652 16.165 69.994
32.368 13.978 69.606
32.051 12.353 67.982
31.007 11.694 65.983
87.257 12.902 90.519
88.121 14.998 90.357
88.529 17.08 92.121
87.159 17.471 93.838
23.564 71.358 78.945
25.86 71.077 79.15
27.427 69.622 77.365
27.286 68.965 75.284
33.505 34.325 83.442
33.519 32.739 81.707
31.766 30.914 81.11
29.735 29.762 82.561
19.351 58.18 53.455
18.113 56.309 54.153
18.445 54.239 52.91
20.831 53.347 51.859
3.619 23.702 91.956
1.126 22.782 92.614
-0.288 24.118 94.259
0.294 25.485 96.192
39.552 73.221 52.158
41.237 74.524 51.167
41.402 77.166 50.304
40.379 79.055 50.989
0.466 55.283 82.45
2.562 54.071 81.71
3.376 53.15 79.501
2.461 53.242 77.284
9.408 17.457 56.823
7.878 16.969 58.779
6.62 18.82 60.272
7.576 20.613 60.611
60.586 89.658 71.447
58.232 88.652 71.73
57.294 86.588 72.103
58.025 84.193 70.987
72.732 45.769 62.245
71.685 45.328 64.587
72.737 45.859 66.927
74.106 47.862 67.607
74.036 30.962 81.684
73.183 29.119 80.741
74.809 28.804 78.536
77.071 29.548 78.634
18.614 13.508 50.076
17.547 14.799 51.997
14.99 13.924 52.955
13.661 12.659 52.306
6.942 54.237 60.15
6.967 53.58 58.152
8.364 54.218 56.051
10.49 55.596 55.677
76.416 71.261 79.667
73.708 70.989 79.234
72.396 68.96 79.849
73.28 66.41 80.437
30.811 38.679 82.264
30.022 36.538 83.449
28.447 34.593 82.792
28.037 33.591 80.768
35.76 29.158 56.62
37.012 29.916 54.591
38.823 28.524 53.159
38.495 26.25 53.441
74.721 -0.074 16.308
75.074 2.455 16.06
76.9 4.101 16.605
78.604 3.952 18.208
44.169 15.563 60.892
46.612 15.143 61.192
48.673 16.057 60.249
49.392 18.135 59.952
36.861 30.606 48.837
37.025 29.695 51.158
35.876 27.27 52.139
34.094 26.09 51.491
73.401 45.687 58.602
74.564 43.93 59.447
76.023 42.008 58.467
76.078 40.774 56.506
19.06 26.949 14.277
19.585 25.11 13.139
21.673 24.505 11.619
23.793 25.281 11.384
50.797 81.888 70.887
53.037 82.443 70.164
54.852 83.913 70.919
54.372 85.786 71.54
20.738 28.351 60.361
22.146 27.741 62.237
22.027 27.994 64.696
21.023 29.625 66.136
21.918 17.167 78.584
19.645 17.431 77.34
17.351 17.867 78.189
16.7 19.024 80.503
21.037 48.934 49.83
20.456 51.089 50.722
18.32 51.464 52.366
17.397 50.158 54.01
42.528 13.548 84.785
40.353 13.335 85.303
38.937 14.979 86.949
39.295 17.032 87.691
26.789 76.273 78.269
28.77 74.965 77.722
31.125 75.367 77.589
32.594 77.629 78.034
27.502 61.875 53.212
25.661 61.342 51.549
23.631 60.094 51.885
23.302 57.936 53.592
40.665 22.087 -2.157
38.985 22.772 -1.012
38.834 24.909 0.158
39.894 25.416 2.645
72.11 63.665 95.387
74.097 62.116 95.886
76.532 62.143 94.849
77.378 63.322 92.421
18.398 43.075 16.025
19.56 43.829 17.734
19.302 46.132 19.375
17.782 47.705 19.258
22.126 55.333 74.422
20.92 53.372 73.345
21.498 51.185 72.518
23.655 49.609 73.425
79.297 46.941 87.143
79.963 44.767 86.549
81.632 42.9 87.968
81.777 42.868 90.484
11.938 31.532 69.853
13.641 33.508 69.177
15.118 33.474 67.021
16.021 31.462 65.829
66.472 26.963 57.605
65.019 28.915 57.425
63.181 29.822 59.09
62.257 29.17 60.624
64.386 48.858 86.734
66.515 48.387 87.603
68.339 46.566 87.334
69.042 46.083 84.963
2.201 21.643 66.32
3.01 19.556 65.692
5.118 18.903 64.072
6.924 20.127 63.268
16.341 84.835 86.599
15.146 83.212 87.289
15.199 80.373 86.73
16.477 79.093 85.571
38.301 83.722 83.508
39.086 83.465 81.305
41.331 83.185 79.949
43.781 83.877 80.935
70.311 27.927 85.116
68.805 30.169 84.753
70.061 32.689 84.317
71.976 33.647 85.484
9.309 38.026 93.854
11.962 37.3 94.148
12.614 35.956 91.988
12.848 33.423 92.503
20.98 87.525 60.717
22.045 86.292 62.313
24.308 86.614 63.643
26.217 87.984 63.052
42.083 82.3 57.564
40.656 84.282 56.437
39.512 86.168 57.186
39.329 86.966 59.761
28.946 24.694 72.612
30.722 26.566 73.597
30.324 27.796 75.456
28.554 28.581 76.896
40.256 49.134 57.403
39.158 49.285 59.441
40.408 50.567 61.899
41.553 52.414 61.801
46.889 2.716 7.116
45.621 0.452 7.557
43.025 0.128 7.483
41.84 1.473 8.518
54.193 16.209 29.259
56.611 14.76 28.854
57.062 12.719 28.577
56.03 10.617 27.441
82.471 3.447 62.493
83.741 3.542 60.516
84.785 5.962 59.769
85.903 7.488 60.814
61.641 23.26 88.55
59.297 23.091 87.539
57.385 21.418 87.76
57.193 19.3 88.996
9.35 34.705 66.22
11.358 34.453 66.361
13.611 35.193 65.175
13.604 37.449 63.533
73.132 89.075 61.428
73.192 87.134 61.566
75.513 86.127 60.749
76.977 86.656 58.723
23.8 54.53 98.337
23.933 55.826 96.102
24.816 55.199 93.804
26.189 53.433 93.086
38.413 15.613 47.095
40.294 14.578 45.836
41.816 16.662 44.89
42.405 18.682 45.683
40.975 70.856 73.395
40.165 69.008 72.125
40.92 67.883 69.747
42.936 68.133 68.273
16.806 22.248 58.338
16.068 20.259 57.026
16.528 19.585 54.336
18.415 20.765 53.409
6.524 43.345 2.93
5.3 45.172 3.791
2.742 46.04 2.898
0.865 45.084 2.541
71.008 87.363 86.969
69.243 88.622 88.317
66.759 89.247 87.587
65.582 89.136 85.099
27.318 46.284 71.821
27.332 45.574 69.356
29.467 44.647 67.87
32.106 45.227 68.574
17.7 18.239 52.031
18.39 16.819 53.591
20.88 15.888 54.082
22.612 15.437 52.475
3.912 11.404 60.03
4.8 13.826 60.77
7.314 14.573 60.774
9.329 13.611 61.055
88.121 23.509 64.569
89.818 21.949 63.629
92.165 22.358 63.64
93.02 24.077 64.528
40.142 10.646 37.94
39.3 9.712 40.344
37.394 10.395 41.886
35.593 11.918 41.97
86.421 26.508 69.69
87.242 24.62 68.153
89.257 24.104 66.87
91.678 24.39 67.021
74.474 41.329 84.708
75.991 43.053 85.087
78.307 42.91 86.82
79.801 41.308 86.778
21.154 45.989 72.255
21.968 46.325 70.434
23.78 45.134 68.629
25.171 43.611 68.923
6.522 13.735 65.294
4.992 14.78 63.494
2.591 15.952 63.717
1.219 16.34 65.646
17.526 21.191 83.745
15.12 21.005 83.959
13.166 22.787 83.929
13.388 25.292 84.435
31.511 6.306 42.317
30.307 8.097 43.007
29.803 9.459 45.418
29.647 8.751 47.507
36.709 11.071 45.137
34.892 9.779 44.378
32.201 10.733 44.665
31.179 12.249 46.153
17.538 28.085 12.203
15.322 29.26 12.445
13.989 30.221 10.345
15.185 31.632 8.409
11.325 81.81 18.151
10.696 83.331 20.188
8.97 83.792 21.435
6.403 83.292 21.276
37.787 22.175 53.247
36.772 24.322 54.372
34.447 25.044 54.447
32.191 24.001 53.67
84.819 58.018 91.958
85.976 60.222 92.611
88.885 60.412 92.982
87.699 60.848 94.923
16.585 41.768 14.898
17.136 40.275 16.545
15.957 37.82 17.24
13.63 37.832 18.013
4.251 77.201 45.682
6.345 79.037 45.487
6.045 81.468 45.873
4.413 82.68 47.28
3.091 23.36 87.019
5.361 22.939 87.727
7.318 21.421 86.637
7.443 20.256 84.386
7.984 28.534 86.429
7.111 28.114 88.771
4.903 27.274 89.897
3.2 25.863 88.939
9.591 43.755 2.918
8.648 46.22 2.717
8.225 48.005 4.54
9.766 48.336 6.505
37.05 62.759 65.735
38.905 62.193 67.409
40.336 60.22 67.894
40.164 57.69 66.873
30.398 17.549 74.771
28.743 19.07 75.41
28.713 22.037 74.679
30.299 23.512 74.721
13.352 80.561 64.908
15.072 81.851 65.696
17.097 83.091 64.676
18.187 82.145 62.346
28.704 31.802 79.002
30.832 32.614 78.937
32.719 32.193 77.105
32.629 31.747 74.693
72.981 61.616 71.739
74.711 60.033 71.208
77.02 60.89 69.162
77.132 62.995 68.764
7.022 85.701 51.882
7.883 84.621 49.786
9.463 85.252 47.985
11.548 86.601 48.086
20.546 76.432 60.417
19.855 76.813 62.542
17.941 78.073 63.625
15.955 78.654 63.007
85.275 12.293 59.894
86.975 10.36 59.396
86.261 7.949 58.342
84.452 7.262 57.345
19.08 20.928 59.921
18.693 23.271 60.056
20.142 25.286 61.6
22.267 24.815 61.877
32.711 25.735 75.132
33.19 28.164 76.047
34.688 30.052 75.252
37.06 29.286 73.576
33.294 43.32 66.694
32.174 44.734 64.808
32.902 45.405 62.624
35.303 45.723 61.747
21.092 2.229 66.851
22.184 0.739 65.394
20.743 -0.446 63.661
18.094 -0.108 63.764
35.157 7.038 66.925
33.656 8.808 67.351
33.279 10.453 69.551
34.539 10.852 71.477
23.056 10.376 47.433
24.393 11.116 48.996
23.663 12.86 50.934
21.221 14.179 50.518
83.596 26.591 68.438
82.938 25.677 70.593
80.894 25.432 71.807
78.382 26.351 71.297
1.187 45.3 6.427
1.545 47.491 4.771
3.457 49.193 4.519
5.691 49.134 5.255
29.892 39.472 84.629
31.514 40.439 86.208
31.725 42.73 87.315
31.175 45.047 86.101
10.191 28.618 15.967
9.158 26.319 15.596
6.996 27.155 15.667
5.572 28.298 17.607
49.028 64.409 86.917
51.226 64.692 85.474
53.017 63.062 84.841
53.095 60.48 84.488
35.291 25.762 56.808
33.445 27.649 56.89
31.536 27.998 58.035
30.432 27.099 60.301
55.012 22.201 59.48
54.195 23.588 61.273
54.364 26.317 61.554
55.298 28.063 60.111
31.879 24.124 77.103
30.283 25.729 77.485
29.434 27.279 79.37
29.551 27.383 81.541
42.183 46.998 55.327
41.353 45.04 55.825
40.087 43.262 54.539
40.135 43.122 51.787
28.698 86.446 86.172
27.221 87.132 88.374
24.966 87.101 88.752
22.881 85.68 87.305
6.293 71.197 46.985
4.219 70.862 46.744
3.095 69.45 44.941
3.517 67.388 43.674
10.899 85.691 21.473
12.974 86.989 21.202
14.566 86.204 19.375
14.071 85.454 17.0
15.502 17.338 59.523
16.297 17.603 57.104
18.081 18.047 56.07
20.62 17.576 56.17
10.221 20.54 60.605
12.06 19.757 58.704
14.302 19.531 58.958
16.323 20.817 60.463
88.684 50.304 38.756
86.405 50.759 38.526
84.812 51.744 40.13
84.413 51.332 42.594
11.471 19.566 56.142
12.056 17.17 55.801
13.674 16.062 54.174
15.262 16.832 52.749
21.334 71.334 80.639
21.711 69.301 78.928
19.614 67.471 78.243
17.534 67.707 79.45
18.745 14.421 82.686
18.379 15.329 80.798
19.152 14.926 78.262
19.774 12.804 77.077
34.196 42.673 87.085
34.122 44.989 86.657
35.944 46.938 86.655
38.411 47.02 87.299
35.76 30.75 22.441
37.113 31.057 24.138
39.095 32.691 24.761
40.441 34.168 23.39
11.817 15.272 59.323
13.459 16.14 57.838
15.194 14.794 56.337
15.157 12.291 55.532
11.95 89.052 98.116
13.721 89.673 97.181
14.86 89.126 94.621
14.131 87.942 92.849
21.661 55.454 90.88
22.054 54.444 93.119
21.387 52.222 94.262
19.201 50.548 93.793
29.156 10.213 71.743
30.44 10.658 69.551
30.968 9.282 67.38
30.521 6.944 66.89
87.792 8.165 15.728
89.416 9.678 15.699
91.677 10.035 14.172
92.174 9.022 11.939
1.731 43.11 53.886
-0.172 44.539 54.775
0.049 46.536 56.48
2.285 47.873 56.919
34.642 65.957 93.727
33.652 66.543 95.957
31.865 68.564 96.577
30.308 69.544 95.318
18.317 73.232 81.822
17.506 73.455 84.542
16.085 75.487 85.514
15.072 77.207 84.506
17.621 31.469 63.444
18.485 33.307 64.396
17.922 35.845 64.59
16.179 37.048 63.118
18.83 4.815 28.76
20.18 5.083 26.985
19.996 7.568 25.644
19.761 9.843 26.848
36.91 82.703 13.677
37.748 84.325 12.672
36.734 86.763 11.582
34.895 87.912 11.994
23.817 75.696 33.665
24.647 78.136 34.803
26.304 79.757 33.491
27.328 79.226 31.439
9.15 21.762 88.7
9.16 23.932 88.736
8.008 25.789 90.165
5.923 25.094 91.243
23.82 11.387 5.895
21.976 13.143 5.689
21.796 15.594 7.264
22.209 15.959 9.195
14.83 86.3 64.747
17.493 85.972 64.405
18.834 86.445 62.688
18.683 88.293 61.809
43.248 25.659 48.66
41.05 26.932 48.547
38.655 26.019 49.292
38.13 24.513 51.263
82.514 46.499 9.681
83.355 45.283 7.969
84.183 42.718 7.668
84.399 41.004 9.299
26.838 20.796 72.945
26.248 18.69 74.015
25.758 16.467 73.275
25.27 15.385 71.153
67.878 4.148 68.814
67.934 6.234 68.606
69.767 7.113 67.1
70.871 5.679 65.186
37.672 23.697 19.723
39.123 21.904 21.507
41.523 21.34 21.435
43.016 20.985 19.212
25.984 32.267 82.082
23.469 31.476 82.825
21.92 33.506 83.048
22.134 35.573 82.847
49.449 30.15 74.441
47.614 32.088 73.934
45.837 33.09 75.569
44.394 31.47 77.042
28.812 54.353 93.125
29.344 53.68 91.314
31.166 51.755 90.219
32.241 50.236 91.197
70.579 33.194 58.451
69.17 31.506 57.956
66.693 31.032 57.827
64.61 32.408 58.538
29.374 12.593 43.986
27.682 11.138 45.337
26.559 11.807 47.534
26.262 13.839 48.862
34.282 -0.226 88.334
36.249 0.226 86.629
38.359 1.979 86.886
38.958 3.223 88.59
23.731 17.621 11.218
24.604 18.775 9.481
25.184 21.717 9.584
25.302 22.992 10.906
1.448 48.259 96.023
3.875 47.489 97.039
5.288 48.889 98.531
5.612 51.623 98.387
26.12 17.839 76.627
23.813 17.227 76.688
22.568 14.486 76.918
23.573 12.483 77.558
22.19 44.943 17.463
22.099 45.708 19.636
24.625 46.098 21.172
26.529 47.296 20.341
24.564 20.012 76.356
25.451 21.886 75.155
27.014 23.964 75.844
28.091 24.448 77.993
13.907 16.916 78.947
14.26 17.847 81.015
13.332 20.058 82.249
12.304 22.041 81.348
62.479 22.085 10.605
63.865 23.373 9.562
64.043 25.853 8.565
63.172 27.896 9.705
86.511 30.844 2.616
85.192 31.343 4.264
82.531 31.884 4.25
81.333 33.232 2.525
90.869 52.318 57.918
90.978 50.009 56.942
89.336 48.118 56.91
87.662 47.506 58.147
21.269 59.904 73.995
20.802 57.974 75.075
18.887 56.123 74.965
17.326 55.638 72.796
27.237 87.126 65.26
29.874 86.956 64.708
31.178 89.251 63.942
30.872 91.589 64.937
41.959 -0.05 34.071
44.058 1.449 34.531
44.492 3.197 35.967
43.607 4.067 38.353
51.587 25.208 43.824
52.942 26.552 42.346
54.247 25.959 40.401
55.445 23.941 39.563
71.04 21.337 48.717
70.804 22.412 50.606
69.016 23.967 51.986
67.012 24.839 51.401
11.649 3.393 68.575
10.354 3.529 70.735
10.807 4.948 73.031
12.943 6.348 73.561
89.906 23.487 1.418
87.681 24.902 0.554
85.984 26.001 1.707
85.382 26.432 4.031
43.851 85.184 50.586
45.814 83.813 50.462
46.68 82.438 47.988
46.748 83.926 45.816
17.452 39.716 69.157
19.316 41.158 69.055
20.303 43.212 70.728
19.096 44.27 72.693
26.623 2.589 44.167
24.329 4.23 44.47
22.222 3.75 43.265
21.549 2.443 41.683
7.927 70.898 90.771
6.276 69.301 91.553
5.186 67.305 90.748
4.932 66.209 88.197
46.627 67.081 86.343
47.247 67.639 88.618
48.605 69.411 89.683
50.0 71.414 88.872
11.095 17.49 60.898
9.186 16.48 61.046
7.138 16.551 62.78
6.973 17.145 65.163
43.672 63.898 65.819
42.578 64.96 67.656
39.671 64.965 67.664
38.038 65.223 66.204
2.54 27.829 91.643
4.104 26.87 93.519
5.947 28.025 94.581
7.215 29.483 92.716
18.013 14.318 55.413
19.368 13.471 53.569
19.467 10.694 52.776
19.128 8.986 54.002
45.87 60.218 16.996
47.157 62.27 16.045
46.542 64.824 16.446
45.329 65.992 18.195
12.051 18.152 84.921
11.381 20.453 84.304
11.615 22.699 86.023
11.907 22.765 88.313
0.234 17.352 42.13
0.835 16.457 40.151
2.033 14.472 39.325
3.65 12.921 40.324
73.601 78.112 81.733
75.143 76.934 80.432
73.92 74.581 80.119
71.527 74.486 79.811
93.379 60.755 35.589
93.186 58.695 36.671
91.269 57.424 37.758
88.862 57.899 38.019
22.456 26.189 54.453
24.061 26.216 56.419
22.585 25.528 58.629
20.357 25.698 58.959
16.701 69.009 82.257
17.641 70.507 83.998
17.07 71.408 86.286
15.365 70.899 87.793
74.197 39.212 57.749
75.146 37.295 57.224
74.308 35.016 57.037
71.969 34.14 56.193
58.776 23.567 81.559
59.006 24.362 83.635
60.39 26.067 84.433
60.365 28.817 83.878
42.106 29.156 43.264
43.169 26.923 43.962
45.401 25.796 42.719
47.153 26.731 41.622
84.148 79.051 76.691
86.204 80.659 76.173
86.455 82.939 77.054
85.334 83.492 78.962
21.537 37.783 44.614
20.612 36.876 42.424
19.31 34.576 42.022
17.802 33.314 43.272
66.932 45.291 90.319
64.97 44.837 91.014
63.682 46.393 93.072
64.736 48.025 94.356
49.479 64.013 17.012
49.864 61.986 15.362
52.349 61.698 13.855
53.621 63.44 13.762
31.873 5.266 23.204
29.948 4.932 21.808
27.456 6.28 21.503
26.595 7.768 23.095
80.3 55.485 40.913
78.855 56.15 43.176
78.68 58.214 44.277
79.648 60.355 44.372
17.285 40.479 11.837
17.404 38.344 13.141
17.539 35.781 12.264
15.916 34.698 10.366
28.75 66.13 31.556
28.68 68.51 31.539
28.552 70.178 33.212
28.587 70.247 35.667
82.854 91.18 2.021
83.676 89.001 1.706
83.251 86.653 2.127
81.405 85.604 3.103
22.131 70.325 53.563
22.587 68.248 55.032
22.744 65.736 54.348
22.758 64.549 52.276
57.497 22.429 93.989
58.218 22.892 91.43
56.519 23.636 89.501
54.796 22.905 89.507
88.484 86.316 54.684
90.937 86.128 54.736
92.499 84.212 54.055
91.68 82.44 51.703
45.071 19.595 20.358
45.541 17.621 19.007
47.139 17.443 16.586
48.256 19.053 15.563
61.074 78.038 40.578
60.69 75.633 41.619
59.525 73.59 40.503
57.997 73.311 38.7
26.849 62.85 29.448
26.8 64.87 30.652
25.219 65.57 32.828
23.568 64.125 33.304
51.951 36.87 1.695
50.658 35.355 1.331
48.62 34.84 2.809
48.186 36.158 4.992
15.781 48.993 47.863
18.316 48.794 48.477
20.241 47.222 47.508
20.266 45.735 45.688
19.065 61.547 32.818
21.101 62.668 32.145
23.112 61.901 30.538
23.208 60.138 28.761
66.36 2.5 0.399
66.72 0.139 -1.019
64.616 -1.357 -1.732
62.664 -1.757 -1.046
22.294 66.817 33.935
19.867 66.174 33.685
18.753 63.817 34.787
18.986 63.033 36.728
11.837 34.865 89.463
12.613 32.596 89.796
11.374 30.22 89.647
9.397 29.515 89.49
20.76 55.401 3.534
18.789 54.397 4.326
16.82 55.881 5.548
17.263 57.93 6.966
40.296 35.831 97.957
40.306 33.363 98.532
42.624 31.946 97.136
43.579 32.329 95.076
71.672 23.451 25.652
71.866 21.159 24.695
70.515 19.173 24.762
68.106 18.572 25.367
16.487 34.449 87.664
16.982 36.279 88.772
15.293 38.42 89.824
12.811 38.089 90.038
7.006 47.007 27.278
9.547 46.456 27.415
11.363 47.54 26.39
11.335 49.107 23.98
18.968 57.864 9.655
18.358 59.911 8.928
19.087 62.526 9.502
19.889 63.166 11.812
83.316 6.25 18.22
81.47 4.666 17.721
81.522 2.206 16.22
83.394 1.143 15.266
58.261 2.833 46.548
60.602 2.234 47.602
62.975 2.852 46.6
63.89 3.22 44.446
82.44 38.672 5.756
81.911 36.84 6.493
79.346 35.638 6.465
78.195 35.308 5.016
15.99 55.357 2.843
14.105 53.374 2.814
11.936 53.476 3.895
12.078 54.479 6.091
77.726 68.179 48.047
77.322 66.99 49.952
75.21 65.488 50.856
72.972 65.218 49.886
52.51 2.678 26.248
50.729 2.178 27.779
48.613 1.493 27.86
46.59 0.875 26.351
39.269 22.873 45.914
41.768 22.159 45.511
43.608 23.019 43.807
43.327 24.17 41.738
31.567 3.308 15.369
31.692 3.543 17.853
31.607 5.657 19.571
30.662 7.998 18.974
51.283 49.283 34.619
51.364 51.634 34.116
49.926 53.599 34.759
48.22 54.044 36.326
48.45 58.576 35.705
50.03 57.163 34.547
49.479 54.985 32.621
47.495 54.106 32.226
36.131 82.21 4.79
35.68 79.938 5.503
37.285 77.692 4.884
38.71 77.591 3.028
22.784 69.006 32.613
24.809 69.615 32.496
26.294 71.568 33.764
25.816 72.95 35.497
30.297 22.105 95.845
32.602 20.017 95.417
34.785 21.012 94.707
35.389 23.106 95.044
54.459 58.42 34.709
53.056 59.495 36.567
51.1 61.227 36.251
49.856 62.379 34.736
38.96 65.332 89.344
39.537 66.468 91.162
38.992 66.086 93.782
37.325 65.199 94.461
76.043 20.089 75.997
74.219 19.729 74.382
73.742 18.146 72.273
74.562 15.825 71.771
45.269 60.425 42.801
44.498 62.089 44.818
42.76 63.668 44.804
40.495 63.712 43.881
25.329 1.42 46.204
25.095 3.556 46.927
26.352 4.711 49.243
27.495 3.712 50.996
43.089 74.917 26.857
42.49 77.143 27.942
40.633 78.146 29.162
38.8 77.346 30.557
35.044 70.303 3.91
33.418 71.542 4.422
31.172 71.203 3.22
30.143 69.062 2.353
24.609 74.02 8.974
26.679 75.272 8.869
29.144 74.484 8.621
29.89 72.963 6.796
66.886 67.853 34.092
67.819 67.582 31.737
69.963 67.441 30.703
72.454 68.258 31.922
52.388 70.616 13.579
54.004 70.677 15.17
56.104 72.309 15.569
56.778 74.251 14.084
24.936 74.593 58.463
23.413 74.539 60.732
22.602 76.454 62.211
23.899 78.656 63.031
24.47 27.121 38.082
22.892 27.08 35.953
21.209 25.6 35.272
19.433 24.049 36.719
76.82 55.445 21.846
78.691 54.428 20.4
81.171 53.868 21.524
82.539 55.857 22.727
58.38 13.748 56.888
56.793 13.999 58.336
55.358 15.789 59.513
55.658 18.301 59.922
13.992 53.143 7.753
14.617 55.041 7.193
15.34 57.367 8.756
16.35 57.697 10.573
23.727 54.668 20.427
25.72 54.044 20.996
26.56 51.528 20.819
25.6 49.499 19.239
6.978 24.13 18.331
7.838 22.168 17.133
5.924 20.196 16.923
4.108 19.787 18.561
57.859 39.428 23.553
58.645 39.875 20.874
57.194 38.286 19.045
56.806 35.96 18.953
48.508 56.89 37.746
49.301 59.295 38.306
49.422 60.581 40.86
48.411 59.863 42.819
87.423 72.738 22.921
86.952 70.363 23.306
86.662 68.478 21.438
87.897 68.801 18.829
72.141 49.351 25.069
73.023 48.953 22.627
72.677 46.422 21.18
71.281 45.092 21.923
24.18 57.095 2.653
25.881 57.582 0.887
28.302 58.709 0.876
28.991 60.377 1.897
81.344 68.56 27.665
79.359 69.575 27.707
78.744 71.767 29.34
80.168 73.268 30.738
57.976 25.509 60.26
57.862 28.074 59.801
59.319 29.458 58.066
61.409 29.011 57.025
65.748 42.278 19.268
63.746 41.004 18.215
61.033 41.828 18.336
59.744 42.483 20.24
3.946 56.625 38.134
6.019 57.749 37.26
8.232 58.738 38.517
8.873 58.765 40.604
24.528 64.377 27.515
24.571 62.299 27.952
27.089 61.592 27.151
28.257 62.036 25.164
85.202 42.525 3.76
86.995 40.861 4.408
88.446 39.401 3.369
88.574 38.624 1.049
18.513 75.829 15.832
17.801 74.025 14.356
17.874 71.338 14.926
18.272 70.548 17.181
27.885 70.985 0.411
27.863 70.83 2.843
29.116 72.645 4.399
29.443 74.794 4.43
7.01 76.781 46.841
5.356 74.979 46.568
4.378 73.275 48.245
4.157 73.368 50.245
85.011 12.834 85.83
86.09 13.543 87.838
85.939 16.048 88.925
86.311 18.014 87.523
38.335 -0.718 12.973
35.774 -0.949 13.817
34.125 1.003 14.208
34.305 2.952 15.301
9.525 60.281 14.623
11.49 61.812 13.647
13.925 60.991 13.204
14.698 58.312 13.234
19.302 13.763 5.193
18.47 12.372 3.437
20.167 10.845 2.654
22.149 9.874 4.197
17.808 67.786 17.269
16.14 68.939 15.9
15.32 68.687 13.658
16.03 67.568 11.605
15.111 71.865 90.298
13.276 73.093 90.423
10.923 72.898 92.05
9.853 70.962 92.887
12.727 0.079 23.854
13.004 -0.788 21.898
14.285 0.481 19.709
14.633 2.849 19.411
12.392 45.616 97.377
12.101 48.059 97.91
13.509 50.175 96.875
15.53 50.161 95.932
58.2 82.209 91.466
55.713 81.184 91.879
55.126 78.863 91.36
55.759 77.106 89.911
22.712 90.787 45.925
21.258 90.77 44.105
19.125 89.248 43.437
18.578 87.153 44.044
42.736 59.703 14.668
42.911 57.236 14.061
42.106 55.98 12.094
40.49 56.407 10.156
88.045 68.038 16.182
88.704 65.833 17.468
87.027 64.014 18.174
84.48 63.602 17.352
64.415 84.314 88.155
66.485 85.495 87.383
67.802 84.925 84.884
67.582 82.834 83.618
19.376 83.448 66.68
19.526 82.703 64.823
20.02 80.222 63.73
21.224 78.552 63.968
35.915 68.926 93.284
38.348 68.85 94.443
40.642 69.752 93.717
41.499 70.202 91.574
67.97 49.003 91.381
65.788 48.65 90.089
64.013 49.961 89.397
63.558 52.58 89.382
62.383 32.861 56.765
64.005 31.488 56.087
64.274 29.847 54.29
62.024 28.582 52.646
80.833 51.631 11.723
82.782 50.458 10.113
82.233 48.789 8.202
79.668 48.248 7.232
72.523 48.971 87.495
73.534 49.372 85.612
75.861 47.8 84.839
76.868 46.302 85.971
61.256 5.398 27.597
59.777 6.858 27.457
58.663 8.39 29.31
59.523 9.754 30.939
44.329 60.693 12.753
46.706 60.821 13.909
48.703 62.265 13.09
48.597 64.558 11.856
31.271 55.872 90.669
30.881 54.157 89.131
32.849 53.276 87.78
34.577 54.23 86.347
12.709 41.69 0.618
11.286 41.014 -0.811
8.924 40.032 -0.441
7.606 39.709 1.902
16.931 24.759 14.869
15.204 25.622 13.805
13.826 27.976 14.064
13.438 29.509 16.098
27.366 37.902 12.648
25.02 38.819 13.341
24.566 40.795 15.131
25.521 41.633 16.677
47.941 72.179 24.362
46.181 72.831 23.688
43.569 72.006 23.787
42.378 70.404 25.147
28.569 82.456 36.812
27.319 80.202 35.865
28.386 78.242 34.715
31.129 77.943 33.849
92.34 61.215 16.243
91.499 61.039 18.62
89.252 60.945 19.698
86.92 61.228 18.709
44.764 86.681 7.601
45.943 87.072 5.776
48.739 87.299 5.304
50.176 87.764 7.326
33.143 43.165 10.894
35.075 42.938 9.451
37.52 44.062 9.523
37.89 46.252 11.306
47.116 33.846 27.829
44.72 34.354 27.759
42.752 33.052 28.676
42.191 30.4 28.527
13.202 31.975 14.986
15.101 32.307 13.752
17.608 33.649 14.105
17.815 35.997 15.381
18.089 72.891 8.631
17.397 72.279 11.117
15.243 70.768 11.992
13.963 69.109 10.5
26.615 65.804 27.086
25.975 66.927 29.152
26.801 69.519 30.162
27.981 71.246 29.158
67.631 35.739 87.76
67.882 33.402 86.361
67.161 30.778 87.079
65.005 30.936 88.759
35.083 36.149 8.482
36.069 38.443 8.664
35.487 40.477 10.47
33.745 40.605 11.562
24.981 78.759 8.481
23.468 76.589 9.188
20.935 76.377 9.544
19.228 78.312 9.696
11.221 85.509 42.263
10.063 85.01 43.983
7.553 84.813 44.575
5.678 84.801 43.428
54.148 4.26 32.91
54.016 4.0 30.271
52.279 4.537 28.653
49.496 4.078 29.366
51.325 54.205 30.671
53.279 54.642 32.555
54.907 56.251 32.678
56.165 57.591 30.676
72.573 16.489 30.418
71.378 18.044 29.032
68.771 18.272 28.726
66.795 17.338 29.648
79.303 69.975 23.439
81.593 70.842 23.497
83.657 69.76 22.18
83.939 68.272 20.413
37.206 30.347 1.707
39.454 30.906 0.993
41.567 29.259 1.483
41.868 27.309 2.477
31.053 49.787 84.763
33.113 49.473 84.309
34.582 47.503 82.939
33.874 44.984 83.396
23.206 36.819 88.734
21.845 35.155 88.326
20.466 33.647 90.293
20.156 35.067 92.058
34.315 63.712 47.386
35.849 64.508 48.579
38.726 64.647 48.153
40.091 63.484 46.843
15.833 13.52 25.345
15.864 11.035 26.634
16.926 9.029 25.322
17.028 8.457 23.158
-0.684 75.705 3.152
0.33 75.608 1.258
1.962 73.821 0.075
3.125 71.969 0.858
22.345 79.507 12.279
20.006 78.168 12.193
18.337 77.969 14.213
18.293 79.303 16.557
83.289 52.253 21.699
84.367 52.24 19.614
84.137 51.041 17.545
83.224 48.763 16.833
7.106 65.541 37.598
8.118 63.309 37.289
6.803 60.795 37.259
4.7 60.211 37.22
45.767 11.268 81.947
48.043 11.493 83.3
48.761 13.983 83.915
48.635 16.167 82.444
69.553 61.269 2.137
70.839 63.321 1.955
73.131 63.667 3.362
74.923 62.18 3.527
0.762 4.05 81.836
-0.948 4.108 80.978
-2.875 6.109 80.844
-2.745 8.184 81.805
16.491 81.208 38.773
18.82 81.192 38.818
20.507 83.514 38.222
19.226 85.938 38.401
1.476 62.902 92.973
1.606 62.933 90.201
0.84 61.189 88.585
0.021 58.954 88.694
6.957 66.609 16.132
4.691 66.356 17.032
4.42 66.837 19.653
6.032 68.799 20.855
40.176 68.046 42.452
41.725 66.314 43.296
44.045 65.526 42.693
45.399 65.555 40.558
54.982 15.008 31.628
56.593 16.34 31.329
58.186 18.0 33.123
56.936 18.322 35.682
5.932 63.989 63.926
5.137 66.335 64.032
4.112 67.646 65.993
4.35 67.59 68.398
12.63 64.793 35.789
12.157 66.029 38.039
10.019 67.695 38.624
8.033 68.028 37.105
64.331 0.538 19.456
66.313 -0.684 19.649
68.899 -0.066 19.984
70.128 1.774 19.428
22.349 11.323 52.904
22.452 9.562 51.262
23.464 7.346 50.997
24.447 5.744 52.54
51.978 90.49 28.66
54.143 92.023 28.111
56.403 91.413 28.814
57.744 89.235 29.652
50.061 35.004 67.482
49.924 37.052 68.952
51.867 38.232 69.993
54.576 38.331 69.052
60.955 46.926 67.807
62.977 46.275 68.034
65.549 47.911 67.624
65.524 50.285 67.774
13.325 51.364 72.792
15.098 52.028 72.794
16.176 53.453 74.994
14.766 54.454 76.782
10.899 1.209 2.703
11.984 2.437 4.165
13.181 4.839 4.321
13.329 6.601 2.378
7.775 81.946 49.294
8.227 82.851 46.938
10.273 82.579 45.346
12.321 82.484 45.439
44.886 54.788 9.106
44.654 56.518 10.876
44.989 58.838 10.974
46.23 60.456 9.266
21.935 40.652 45.6
22.956 43.155 45.223
22.865 45.044 46.625
22.038 45.426 48.972
85.592 72.814 29.392
83.312 73.601 28.831
81.765 75.333 29.937
82.164 77.087 31.741
44.531 11.281 65.87
43.987 12.909 63.982
44.899 15.101 63.558
47.061 16.325 64.523
52.667 76.389 20.66
50.188 75.677 20.574
48.746 74.812 21.924
48.653 75.054 24.823
48.663 84.235 50.557
49.298 85.358 48.926
51.327 87.597 48.553
52.809 88.597 49.89
55.569 48.589 2.745
57.392 49.039 1.069
60.248 50.166 1.983
60.644 51.294 3.892
54.524 78.121 20.04
56.341 77.093 18.7
56.249 76.158 15.979
54.544 75.969 14.984
41.395 85.014 27.981
43.565 83.929 29.045
43.914 81.434 29.011
43.36 79.588 27.052
9.104 81.758 42.683
8.916 80.172 44.736
9.421 77.519 44.826
8.714 75.668 43.188
74.804 18.861 21.101
75.237 19.849 23.371
75.246 22.053 24.398
73.861 23.518 24.1
7.413 48.575 0.321
9.301 48.772 2.075
10.726 51.012 2.667
10.881 52.998 1.131
34.342 88.902 57.252
35.116 86.472 56.796
36.963 85.649 55.501
38.282 86.802 53.635
46.037 50.534 30.697
44.883 49.006 32.241
43.848 49.138 34.219
43.637 51.034 35.996
39.023 79.247 24.487
38.879 79.186 27.131
37.108 78.132 28.732
34.863 76.852 28.3
55.689 55.929 10.469
56.17 56.276 8.174
56.553 54.98 6.245
57.882 52.674 6.326
81.697 14.199 24.162
82.301 13.19 22.326
80.991 11.039 21.686
79.928 9.256 23.028
53.516 45.219 91.71
54.925 43.295 92.767
54.257 40.649 93.017
52.772 39.375 92.339
37.84 54.852 19.158
38.476 54.395 16.649
40.955 55.324 15.519
42.983 55.824 16.671
31.468 48.797 36.972
31.447 48.897 39.35
30.365 47.407 40.998
28.804 45.928 40.182
47.723 36.681 73.345
47.318 34.649 71.967
44.831 33.387 71.403
42.806 33.609 72.646
34.345 3.366 88.747
32.758 1.621 87.738
30.229 1.554 87.46
28.34 3.057 88.19
42.862 15.506 14.96
43.371 17.022 17.029
41.899 18.623 18.446
39.367 18.554 18.768
33.367 79.201 28.055
32.511 78.151 29.711
30.669 78.958 31.482
29.522 80.896 31.638
29.894 50.405 88.293
31.968 49.414 87.366
33.038 46.975 87.907
32.383 45.199 88.712
35.053 91.77 21.424
33.72 93.277 19.94
33.816 92.147 17.441
33.671 89.593 16.849
6.523 17.211 13.872
8.223 18.678 12.773
9.467 20.161 14.729
9.575 19.473 17.28
39.709 42.028 10.362
38.078 40.648 9.813
38.799 38.386 8.071
41.364 37.922 7.689
26.533 72.663 31.412
26.4 75.02 32.638
28.479 76.739 31.887
30.283 76.215 30.148
49.828 66.071 13.977
48.635 66.81 16.404
49.228 69.093 17.382
50.675 70.399 16.097
31.141 -0.18 12.265
31.533 -0.211 14.836
30.289 1.201 16.59
28.207 2.036 16.884
1.625 63.104 19.941
3.25 64.443 18.84
5.751 64.047 18.332
7.208 62.213 18.971
54.426 58.099 41.872
52.699 58.992 40.615
52.276 61.291 39.159
53.947 62.434 37.817
28.049 27.56 56.216
30.089 26.537 56.026
32.207 26.844 54.626
32.527 28.199 52.416
13.18 75.485 19.875
13.494 77.709 19.52
11.696 79.783 20.064
9.282 79.62 21.44
10.574 66.37 44.051
10.142 66.412 41.479
8.504 65.527 40.157
5.99 64.427 40.78
43.115 54.076 7.245
42.023 54.718 8.761
39.975 53.284 9.973
39.183 51.633 9.376
12.112 49.539 6.477
13.059 49.331 4.073
14.989 50.766 3.091
17.067 51.584 4.063
21.237 57.738 91.877
23.542 57.901 93.803
25.904 57.489 92.712
26.972 57.746 90.805
36.163 52.889 16.524
33.87 54.269 16.689
33.009 55.594 18.592
33.323 55.018 21.092
88.744 3.12 5.66
89.176 1.325 3.859
87.895 0.371 2.331
85.642 0.869 1.09
42.406 71.994 51.645
42.225 70.206 50.675
39.838 68.737 51.119
38.184 69.156 52.565
87.698 5.72 78.076
88.607 3.519 78.846
88.748 1.166 77.447
86.933 0.337 78.13
45.582 71.056 87.106
44.966 69.366 88.937
42.836 68.214 89.672
40.552 68.197 88.825
55.711 7.638 55.678
54.905 7.449 53.255
54.527 5.865 51.589
54.845 3.324 51.546
85.203 84.531 6.297
83.408 84.983 5.458
80.808 84.945 6.345
79.961 84.208 8.391
40.984 65.937 51.698
41.444 66.382 48.978
42.481 65.012 47.302
44.215 62.905 47.552
80.533 48.848 15.34
81.779 49.753 13.407
83.766 48.963 12.111
84.772 46.454 12.119
17.312 45.05 21.794
15.671 43.836 22.022
15.655 41.817 20.382
17.56 41.558 18.7
3.404 65.083 15.04
1.225 64.202 16.04
0.228 66.027 17.805
0.222 68.439 17.664
33.666 67.359 52.315
35.958 67.922 51.33
38.072 66.5 50.744
38.817 64.37 51.213
7.211 44.792 96.997
7.825 43.054 96.167
9.858 43.272 96.61
11.922 43.992 95.282
38.426 3.53 32.926
40.464 3.648 33.98
41.776 5.392 35.464
40.949 7.6 36.376
11.499 77.986 89.392
14.109 77.256 89.317
14.905 75.02 88.672
14.348 73.567 86.587
18.327 66.773 82.457
20.067 66.094 80.526
20.372 63.694 79.665
19.481 61.926 79.883
17.081 75.963 92.325
17.07 76.107 89.846
17.662 74.37 87.992
19.064 72.656 88.043
20.8 57.374 77.898
20.272 59.782 77.427
21.259 61.92 77.75
23.044 62.735 78.877
38.042 69.092 0.84
35.86 68.897 1.676
34.489 66.755 2.088
35.098 64.599 2.927
34.67 46.819 59.204
36.433 47.988 58.436
39.271 46.744 57.893
39.379 44.563 57.418
38.09 84.663 77.703
40.317 85.359 78.802
42.288 85.077 78.071
43.731 87.002 77.527
32.077 65.224 3.17
31.66 64.652 0.42
31.483 62.346 -0.758
31.295 60.096 0.524
28.923 38.053 86.888
28.142 36.251 85.612
26.005 35.781 84.344
23.664 36.574 85.059
23.368 36.934 39.29
23.342 39.474 39.429
23.297 40.809 41.937
24.133 40.276 44.013
20.371 68.456 83.382
19.962 71.049 82.858
20.218 73.125 83.903
20.501 73.638 86.227
57.575 50.063 94.773
59.692 49.191 93.735
61.597 50.296 92.39
62.783 52.474 92.653
16.867 49.593 68.656
16.593 50.169 71.039
18.058 52.063 72.473
19.055 54.181 71.495
41.568 80.631 52.625
43.186 79.627 51.616
45.478 81.055 51.269
46.805 82.367 52.946
71.495 41.687 88.976
72.888 43.055 87.909
72.327 45.888 87.475
70.733 47.021 88.541
31.517 8.905 64.57
32.972 7.158 63.165
32.323 4.585 62.91
30.036 3.371 63.043
78.331 78.319 82.604
75.815 77.977 83.2
74.058 79.746 83.825
74.078 82.076 83.938
80.047 41.04 81.073
81.683 41.953 82.614
83.871 43.596 82.02
84.957 43.839 79.925
65.81 64.774 56.137
64.304 65.999 57.222
64.077 66.806 60.233
65.745 67.402 61.284
30.139 35.0 86.731
32.245 36.067 84.947
33.756 37.524 85.231
34.196 39.17 86.902
42.093 55.228 66.683
40.848 54.76 64.746
39.219 52.688 64.174
39.841 50.298 64.729
86.847 47.07 55.325
88.396 46.023 53.544
90.946 47.669 53.237
91.075 49.701 54.31
4.847 53.46 84.885
3.85 55.895 84.795
3.003 57.277 86.55
1.842 56.956 88.317
5.096 73.952 70.573
3.34 75.48 70.922
1.927 75.95 73.008
2.371 75.278 75.507
49.978 39.597 3.129
52.453 39.484 2.346
53.4 40.19 0.224
52.915 42.097 -1.3
40.256 80.474 48.688
42.889 80.776 49.051
44.774 80.091 48.09
45.295 78.395 45.972
12.532 54.462 52.172
11.132 52.541 53.117
8.682 52.184 53.422
6.892 54.093 53.608
17.678 54.764 92.491
18.045 54.141 94.642
16.387 53.5 96.798
13.969 52.852 96.665
40.949 47.518 62.224
38.535 47.445 62.413
36.83 46.862 64.085
36.888 45.965 66.362
44.613 84.561 53.401
42.747 84.284 54.384
40.56 86.19 54.501
41.688 88.199 55.556
14.405 59.852 9.91
16.069 60.901 11.109
16.646 63.331 11.424
15.074 65.258 10.626
43.836 60.479 85.9
46.488 60.124 85.7
47.548 59.202 84.013
46.937 57.656 81.95
3.206 41.774 55.94
3.729 40.901 54.194
4.056 37.891 53.74
3.549 36.286 55.765
54.266 38.692 94.672
52.616 37.444 95.311
51.814 34.755 94.85
52.789 33.085 94.148
79.134 77.777 60.147
77.107 77.062 59.666
74.712 78.195 60.572
74.738 79.997 62.5
47.902 64.407 90.553
49.037 65.646 89.337
50.686 67.525 89.672
51.632 68.451 91.83
6.343 49.207 57.424
7.091 50.966 56.575
9.536 51.69 55.875
11.538 50.728 56.34
76.154 5.167 61.721
77.984 4.488 61.681
80.548 5.228 61.763
81.672 6.962 61.952
48.037 74.904 91.349
48.838 72.239 91.512
47.326 70.127 91.785
44.997 69.915 91.824
30.562 53.934 85.661
32.394 52.417 84.987
33.192 51.454 82.515
31.85 51.107 80.665
34.612 19.347 92.622
37.322 18.583 92.552
38.246 16.796 91.05
37.35 15.257 89.086
43.861 40.477 49.626
42.647 40.537 51.789
40.099 39.768 52.082
39.068 37.736 51.149
89.326 79.179 71.744
89.109 79.963 74.012
88.529 82.084 75.391
87.551 84.06 74.779
90.629 74.96 72.197
89.933 74.899 74.317
87.792 75.48 75.309
85.606 76.682 74.614
56.187 68.961 63.174
58.204 69.005 61.515
59.373 71.26 60.949
58.563 73.179 61.527
15.765 79.49 13.325
15.96 77.125 13.576
16.643 75.107 11.694
17.428 75.161 9.678
13.04 57.112 55.271
14.65 56.587 53.201
16.208 58.053 52.057
16.323 60.285 51.408
11.191 -1.087 69.73
10.951 0.662 71.426
8.598 1.918 72.386
6.417 1.361 71.868
27.225 62.685 0.938
28.932 64.236 1.234
29.166 66.378 0.454
27.679 68.312 -0.235
14.508 10.213 78.568
15.374 11.059 76.517
15.616 9.485 74.365
16.98 7.504 73.952
5.86 60.057 83.826
4.495 58.299 83.493
4.106 56.562 81.59
5.354 55.987 79.517
1.166 41.055 81.278
1.611 42.894 79.821
1.729 45.518 80.486
2.21 46.591 82.805
1.694 21.426 60.985
1.594 19.966 62.523
3.311 18.073 62.426
4.587 16.711 60.613
22.23 37.358 65.237
20.756 35.347 65.958
20.985 32.779 64.937
22.066 31.93 62.922
38.583 11.015 68.419
40.083 12.744 66.904
42.428 13.339 66.962
44.169 13.009 68.65
9.667 50.661 80.053
7.58 52.078 79.379
6.053 53.45 80.402
5.819 54.679 82.491
4.865 65.072 59.145
3.171 64.466 61.217
2.478 66.32 63.175
2.911 68.762 62.914
84.425 45.262 54.994
85.04 44.123 57.12
84.405 44.173 59.599
83.658 45.845 61.038
45.101 6.903 12.563
45.668 5.04 11.16
44.292 2.796 10.719
42.012 3.104 10.9
88.34 89.721 74.77
90.218 88.006 75.923
89.927 86.238 77.881
87.67 85.458 78.753
-0.609 0.991 6.467
-1.147 2.157 8.238
0.837 3.49 9.409
3.279 2.639 9.849
17.408 88.479 88.964
18.368 86.632 87.245
20.478 86.636 86.043
21.897 88.075 86.614
80.363 75.072 80.666
80.744 76.997 79.775
82.359 79.224 80.581
84.362 79.187 81.602
70.909 77.544 82.756
71.327 80.068 83.105
70.133 81.847 84.446
69.013 81.213 86.972
15.58 73.774 69.445
14.791 73.426 67.411
12.345 72.391 67.128
11.33 70.221 67.898
7.049 73.311 89.958
8.32 73.768 91.853
9.467 75.948 93.036
9.984 78.069 91.514
45.215 66.632 44.715
43.253 67.126 45.989
43.117 68.528 48.231
44.758 69.444 49.745
38.213 71.49 76.284
35.877 70.925 75.983
33.974 72.466 76.034
33.577 74.819 76.646
14.357 85.55 88.657
15.129 86.961 90.189
14.157 89.633 90.742
12.018 90.033 90.658
32.317 65.216 48.664
31.636 66.998 50.662
32.245 69.744 50.376
33.472 70.593 48.592
23.001 80.072 60.931
22.381 81.46 62.706
20.801 83.765 62.574
20.097 85.142 60.541
10.932 74.32 68.026
8.976 73.221 66.964
6.31 73.989 67.007
5.323 75.781 68.318
23.359 58.628 49.528
22.005 57.253 50.095
19.421 57.25 50.672
17.741 58.232 49.698
93.074 68.907 70.355
92.913 66.793 68.993
91.286 66.818 67.459
88.908 66.658 67.833
31.85 3.014 60.828
31.962 0.891 62.045
31.88 -1.742 60.742
31.927 -2.214 58.393
22.517 15.666 71.98
22.208 13.941 73.896
20.656 12.131 74.373
18.898 11.044 73.235
63.722 55.097 55.847
62.02 54.945 54.26
59.767 53.418 53.933
59.08 51.345 55.297
24.528 53.51 45.872
23.93 54.001 47.874
24.455 55.849 49.735
26.077 58.1 49.103
72.644 29.578 54.002
73.306 31.893 55.217
75.039 33.154 55.227
77.183 33.497 53.427
69.597 15.135 94.884
70.466 12.966 94.741
72.617 11.707 94.737
75.083 12.642 94.636
36.132 83.155 57.38
38.19 82.889 56.335
39.78 80.743 56.056
38.805 78.369 55.153
10.464 32.197 51.795
8.959 33.176 50.159
8.585 35.602 49.419
9.842 37.835 50.027
17.107 50.745 1.42
18.547 51.48 -0.142
20.272 52.99 0.426
21.75 52.997 2.713
21.73 73.64 63.061
19.419 74.147 63.189
17.838 75.025 64.628
17.409 75.488 67.048
69.922 5.2 49.574
67.954 5.686 48.132
65.457 5.197 48.437
64.005 4.857 50.566
-0.518 84.115 1.521
-0.757 81.63 1.266
1.186 80.17 0.177
3.458 80.608 -0.854
57.169 6.679 78.741
57.976 5.161 76.536
56.995 3.064 75.562
54.874 1.722 76.244
20.272 76.305 82.471
21.314 74.064 81.902
23.887 73.287 81.18
25.901 74.603 80.601
37.76 64.136 72.365
38.333 62.717 70.37
40.792 62.643 69.159
42.831 63.466 69.919
29.309 10.928 48.915
27.516 11.071 50.38
26.351 9.103 50.713
26.95 6.719 51.25
50.992 14.068 78.779
50.984 15.475 80.835
53.177 16.227 82.435
55.684 16.618 81.878
26.507 66.832 76.892
24.403 67.691 77.474
21.927 67.243 76.299
20.914 65.794 75.472
8.608 48.934 78.238
6.335 49.774 78.509
4.444 48.946 80.319
4.167 46.885 81.061
0.862 79.73 70.671
0.626 77.123 70.492
1.364 75.495 68.67
3.027 75.875 66.704
60.641 70.814 43.555
61.285 72.706 42.703
61.425 72.219 39.65
62.29 70.178 38.62
23.102 45.592 40.692
23.625 43.545 41.181
25.713 41.93 40.059
26.421 41.449 37.939
56.864 53.173 31.302
54.342 52.158 31.072
53.221 50.321 32.33
53.779 48.986 34.138
71.306 45.608 69.203
70.095 47.087 69.938
70.674 48.998 72.029
72.899 49.408 72.289
12.388 69.998 64.318
10.827 68.429 65.671
8.159 68.059 65.184
6.873 68.617 63.145
17.57 4.375 2.331
16.296 6.033 1.578
16.843 8.634 0.701
18.662 9.738 0.674
55.047 47.473 54.431
56.278 48.536 52.631
56.425 51.152 52.215
56.578 52.925 54.203
40.486 90.993 86.41
39.4 90.645 84.364
37.72 89.016 83.341
37.255 86.576 84.088
21.572 66.321 57.617
22.467 68.461 57.973
21.095 70.783 57.108
19.263 70.885 57.8
11.277 68.18 15.711
13.007 68.489 14.835
14.048 66.084 13.522
12.94 64.581 12.331
40.884 87.312 5.133
42.568 88.287 6.04
44.829 89.562 5.192
45.613 90.07 2.913
67.079 5.127 43.42
69.062 5.299 44.634
71.587 6.264 44.043
72.52 6.668 42.314
40.292 59.935 63.463
41.643 58.621 64.666
43.043 56.347 63.949
43.087 55.106 62.266
37.126 2.608 62.406
35.646 0.156 61.354
36.421 -1.058 59.369
39.045 -1.005 58.083
90.098 64.158 68.88
88.811 62.753 67.936
86.189 62.175 68.042
84.561 62.764 69.652
67.892 13.52 67.097
68.28 10.961 67.903
70.765 9.839 67.912
72.564 10.514 67.263
13.824 1.769 71.25
13.974 2.012 68.933
16.181 2.878 67.526
18.415 1.654 67.992
3.061 11.246 16.676
0.695 11.308 17.432
-0.846 9.317 18.188
-0.122 6.8 18.076
79.658 6.745 87.474
78.699 8.211 88.694
76.006 9.103 88.585
74.132 8.063 87.729
91.839 30.933 20.044
91.752 32.867 21.785
89.864 33.458 23.245
87.546 32.618 23.347
15.898 48.813 50.991
14.983 50.379 53.057
12.643 50.355 54.095
10.392 49.599 53.469
71.392 70.067 82.033
72.096 72.32 81.883
70.828 74.635 82.303
68.236 74.174 82.025
72.79 81.234 86.262
71.368 82.738 86.94
71.582 85.023 85.593
73.755 86.488 85.178
-1.767 12.057 88.607
-1.956 14.796 87.998
-0.261 16.399 87.605
1.186 15.857 85.833
67.414 57.618 56.669
66.116 59.68 55.814
63.586 60.187 55.997
61.823 59.219 57.357
63.992 41.734 44.277
65.144 40.784 42.112
65.426 38.586 41.765
63.843 36.99 42.948
85.883 62.176 0.03
85.007 60.615 -1.227
83.106 59.059 -1.15
80.928 59.694 0.415
31.816 41.915 8.643
31.08 40.32 10.292
28.437 39.919 11.088
26.556 41.445 11.144
11.702 53.335 55.937
13.099 54.453 54.715
15.936 54.809 54.651
17.623 53.689 55.628
24.921 54.482 90.535
27.012 55.051 89.841
28.435 54.178 87.765
28.506 52.08 86.607
34.285 78.038 75.835
36.65 76.871 75.363
38.765 78.63 74.747
38.501 81.093 74.463
58.383 45.474 46.975
56.477 45.801 48.447
55.279 47.954 49.594
55.731 50.242 49.243
28.741 62.523 95.048
27.554 60.523 95.326
28.16 57.976 94.619
29.408 57.286 92.534
88.009 4.436 61.502
88.394 3.251 59.406
89.975 1.379 58.746
92.075 0.46 60.18
33.313 87.868 86.481
30.796 88.289 86.13
29.134 89.371 87.863
29.36 89.466 90.407
45.37 27.528 72.932
46.17 29.896 72.142
48.115 30.398 70.783
48.42 29.718 68.222
58.796 82.899 46.734
57.756 81.102 45.252
58.866 79.613 43.547
61.049 79.376 43.006
28.213 75.543 35.599
28.01 73.82 34.519
30.542 72.623 33.608
32.609 73.555 34.443
79.05 53.921 38.945
80.638 51.803 39.158
82.73 51.379 38.56
84.423 52.241 36.671
83.148 35.294 51.127
83.563 37.857 52.311
85.902 38.238 54.026
88.242 37.563 53.578
2.824 77.111 2.08
2.734 76.516 0.122
4.527 75.596 -1.326
7.128 76.293 -1.729
45.678 56.757 64.541
45.884 59.024 64.258
44.56 60.69 65.368
43.109 60.783 67.479
0.672 48.58 80.601
2.278 50.459 80.644
3.262 51.681 82.616
2.33 51.757 85.06
13.833 48.444 72.462
15.874 47.529 72.081
16.919 45.802 70.228
16.333 45.08 68.237
80.349 82.956 4.348
79.769 81.843 6.179
78.738 79.362 6.564
78.251 77.554 5.143
25.937 47.468 40.143
27.611 47.85 38.406
28.861 49.892 37.913
28.66 52.029 39.556
62.548 86.105 0.338
60.374 87.556 0.326
58.675 87.994 1.862
57.652 86.606 3.823
28.369 14.976 75.32
28.801 14.67 72.761
30.282 13.205 71.406
31.865 11.618 71.821
5.815 39.316 76.296
3.423 39.919 75.776
1.166 39.111 77.146
0.95 38.646 79.692
90.877 66.252 91.096
90.824 64.788 89.749
92.138 64.51 87.593
93.657 66.3 86.718
25.662 88.208 83.846
27.717 88.056 83.974
29.808 90.352 84.647
28.866 92.034 85.024
2.662 78.965 93.394
4.272 77.589 92.63
4.381 76.196 90.607
2.927 76.149 88.481
15.545 -0.442 63.333
15.169 -1.659 65.389
13.851 -0.582 67.781
11.432 0.749 67.703
25.832 4.599 17.067
28.049 4.809 17.255
28.362 6.944 19.099
26.122 8.317 19.834
6.69 51.351 4.507
9.15 50.555 5.069
10.814 51.575 6.038
11.052 53.115 8.276
75.039 69.942 4.185
73.257 68.544 4.282
72.391 66.724 3.014
73.503 65.345 1.215
18.401 61.313 75.118
19.889 63.576 76.241
18.706 65.055 77.844
16.565 64.751 78.666
13.413 66.555 40.634
14.374 64.886 39.28
16.892 64.836 37.85
18.935 66.522 38.288
30.68 69.916 73.72
28.774 71.157 74.743
28.95 73.849 75.273
30.85 74.866 74.547
12.217 49.62 74.596
14.317 50.312 75.804
14.21 51.545 77.72
12.462 51.141 79.985
2.275 69.932 94.464
1.655 68.806 92.498
2.564 66.87 91.418
3.44 64.528 92.42
16.559 17.13 3.802
17.882 15.504 4.06
19.569 14.516 2.212
19.618 14.628 -0.036
61.28 93.505 28.84
60.721 92.839 26.554
61.343 90.584 25.168
63.114 89.42 26.395
72.104 18.195 49.324
72.102 16.957 47.183
72.203 14.372 46.834
72.067 12.51 48.141
19.138 57.095 93.088
20.364 55.606 94.588
21.246 55.736 96.922
21.562 57.554 98.642
73.831 85.31 44.657
74.004 86.018 42.103
76.086 86.581 40.97
78.512 86.076 41.322
8.938 6.813 71.625
7.938 5.827 73.095
5.797 4.241 72.961
4.297 3.851 71.05
15.967 88.868 44.152
14.188 87.275 43.459
13.217 85.068 44.477
13.146 84.497 46.97
70.346 16.49 70.111
69.758 14.267 69.33
68.359 12.294 70.402
67.276 12.178 72.953
80.239 82.689 78.512
79.646 80.212 80.291
78.445 78.456 79.943
76.857 77.509 78.098
21.244 25.294 32.554
23.457 25.328 32.37
25.383 27.211 31.994
25.244 29.453 30.929
53.21 21.051 90.972
54.301 20.158 88.916
54.471 17.701 87.887
53.875 15.674 88.446
16.124 6.161 25.354
18.584 4.845 24.696
19.046 3.506 22.342
17.13 2.796 20.615
83.183 25.898 1.965
81.519 27.536 1.684
81.34 29.17 4.195
82.337 28.667 6.179
35.545 16.385 -0.619
37.709 16.968 -1.336
38.368 19.716 -0.89
37.172 21.103 0.197
5.116 34.039 44.593
4.355 33.614 46.769
2.835 34.799 48.421
2.202 37.386 48.616
86.917 88.41 3.12
85.629 86.348 3.663
86.75 83.903 3.848
88.913 83.204 3.877
16.935 87.507 95.039
17.497 85.955 92.8
18.815 86.939 90.57
21.0 88.394 91.232
80.151 83.073 81.847
82.385 81.985 80.45
