80.464 7.065 16.876
78.382 5.525 17.032
77.287 3.854 15.681
87.492 10.336 17.738
86.548 11.813 16.346
86.632 14.481 16.122
88.178 15.893 16.652
59.323 26.523 25.897
59.262 24.255 27.472
57.328 23.285 28.832
55.052 23.68 29.011
-2.997 42.117 8.524
-2.493 42.051 6.113
0.137 42.248 4.932
1.866 43.38 5.895
19.196 84.792 39.382
21.387 84.575 38.888
22.783 86.485 40.526
21.388 88.067 41.944
77.387 15.914 22.991
76.76 18.355 23.397
76.645 19.851 25.307
78.097 19.893 27.419
59.023 42.43 71.653
59.07 45.054 71.479
61.074 46.622 71.608
62.82 46.499 70.36
37.365 13.282 64.539
36.831 11.146 66.33
36.149 11.249 68.7
34.913 13.088 69.851
7.642 23.669 13.712
6.221 21.638 14.564
3.938 21.495 15.416
3.102 22.657 16.714
14.631 12.971 2.314
16.061 11.02 2.472
15.879 8.645 4.0
13.614 8.101 5.558
25.64 14.4 71.52
23.621 13.487 72.965
21.264 14.707 73.205
20.87 16.709 72.889
78.839 34.684 7.904
81.16 35.715 6.627
81.164 38.091 5.802
80.144 40.439 7.027
77.47 29.608 97.315
79.201 30.101 99.028
81.238 31.215 99.139
82.623 32.469 97.389
56.321 70.461 86.694
57.281 69.753 84.659
59.647 68.963 83.922
61.618 69.237 84.827
46.239 63.441 60.549
45.133 61.71 59.181
42.527 61.298 60.291
41.33 62.705 61.855
70.387 22.074 27.515
71.71 20.461 26.756
74.561 20.031 27.275
76.194 21.948 28.145
6.665 87.725 76.186
4.897 89.181 76.079
3.25 90.01 77.693
3.093 90.084 79.981
38.435 17.097 95.205
38.472 16.228 92.665
38.724 13.527 91.914
38.2 11.728 92.664
57.048 47.017 92.594
57.536 45.014 93.67
56.122 42.885 94.112
53.755 42.347 94.737
7.937 2.026 78.103
7.553 4.635 78.555
9.235 6.482 79.107
11.719 6.433 79.166
29.201 15.5 70.015
31.392 14.208 70.107
32.564 12.605 68.651
31.754 11.821 66.11
1.263 13.793 90.391
1.523 15.922 89.838
2.238 18.172 91.393
1.482 18.18 93.91
22.028 68.511 76.445
24.222 68.675 77.925
26.951 67.487 77.124
27.297 66.681 74.796
36.075 34.191 82.74
35.651 32.746 80.716
34.087 30.948 79.923
31.693 30.616 80.658
16.216 58.081 56.699
14.107 57.211 55.703
14.173 55.035 53.837
16.055 53.676 53.248
7.277 25.444 91.482
4.911 24.846 91.974
3.306 26.188 93.465
3.385 28.208 94.952
37.112 72.419 51.576
38.241 73.855 50.159
38.641 76.481 50.003
37.704 78.405 51.118
0.704 58.181 81.521
2.506 56.767 81.91
4.01 55.182 80.332
3.983 54.653 77.937
8.137 15.124 55.602
6.825 14.583 57.427
5.301 16.118 59.011
4.498 18.414 59.196
58.023 82.173 72.078
57.99 84.293 71.017
60.215 85.985 70.745
61.788 86.674 72.469
72.56 45.94 61.665
72.956 46.122 64.031
73.442 47.626 65.3
75.264 49.498 65.589
75.02 27.78 78.294
73.601 29.463 79.27
72.44 29.336 81.819
72.97 28.123 83.662
16.885 12.127 51.468
15.489 13.086 53.184
13.578 12.126 54.517
12.465 9.929 54.994
4.483 57.777 62.434
4.904 56.198 60.546
7.396 54.712 60.634
9.18 55.019 62.32
73.869 73.636 78.497
70.98 72.884 78.945
70.332 70.384 79.241
71.745 68.364 78.84
31.773 40.674 81.141
32.748 38.702 82.484
32.546 36.012 81.853
32.231 35.086 79.631
32.081 26.979 58.428
33.382 29.13 57.132
34.72 28.835 55.337
36.157 26.747 54.486
72.501 89.586 18.638
72.402 92.234 18.68
74.162 94.234 18.937
76.009 94.47 18.179
42.815 13.716 61.105
45.14 12.964 60.87
47.265 14.536 60.7
47.784 16.439 60.595
36.59 28.996 49.553
36.603 27.642 51.126
34.817 27.958 52.593
32.355 27.999 52.591
73.76 44.768 57.247
74.716 42.667 57.331
75.426 41.148 54.934
75.297 42.523 53.09
22.519 24.866 8.778
20.805 25.485 10.031
20.628 27.742 11.869
22.062 29.865 11.932
54.338 79.515 72.655
55.502 81.556 72.637
54.635 83.834 73.531
53.163 84.482 75.143
20.566 28.901 58.845
21.12 30.474 60.648
19.849 30.713 63.178
17.952 29.593 64.029
22.286 18.933 74.108
20.48 18.57 75.611
19.469 20.385 77.497
21.48 22.14 78.451
16.638 48.93 51.251
15.862 51.276 51.543
13.423 52.104 51.787
11.037 50.604 52.224
43.045 12.748 83.404
42.93 12.614 85.931
41.147 13.363 87.486
39.39 15.424 86.938
26.604 69.956 73.308
28.264 68.696 73.228
30.036 67.969 71.449
30.97 69.117 69.518
22.423 60.821 54.527
20.372 60.856 54.144
18.373 58.875 54.531
18.795 56.418 54.238
41.195 22.123 94.912
39.301 21.072 93.313
37.339 21.741 94.444
36.403 21.564 96.712
70.931 62.602 96.813
72.636 60.713 96.009
73.96 60.586 93.674
73.876 61.867 91.483
19.069 43.585 17.978
20.24 44.266 19.84
19.693 46.076 21.652
18.106 47.624 21.981
23.443 55.436 73.577
22.042 53.586 72.413
22.419 50.9 72.881
24.574 49.688 73.54
79.053 45.525 81.529
80.696 43.963 82.101
83.111 44.017 82.806
84.398 46.506 83.301
15.252 30.969 63.661
14.904 32.033 65.568
13.237 31.556 67.557
11.767 29.621 68.191
65.964 22.888 59.425
66.804 24.807 58.291
66.12 27.205 58.615
66.022 28.64 60.479
66.636 48.134 89.609
68.61 46.485 90.101
69.732 44.892 88.276
70.514 45.617 85.844
6.858 21.468 61.412
6.201 19.092 60.984
4.674 17.611 61.855
2.75 17.862 63.542
12.322 81.503 88.792
12.786 78.76 89.022
14.571 77.617 88.37
16.541 77.666 86.702
38.944 81.592 82.745
40.441 83.19 82.031
42.349 84.175 82.605
43.045 85.384 84.903
69.36 28.895 83.235
68.729 31.022 82.91
69.591 33.252 84.114
70.456 33.731 86.146
11.833 35.937 91.217
13.101 34.128 89.5
12.302 32.388 88.663
12.911 29.933 90.023
21.128 88.184 61.558
22.547 86.773 62.352
25.034 87.072 63.336
26.388 89.421 63.714
39.672 81.875 56.848
39.516 84.406 56.681
38.76 86.142 58.006
39.928 87.244 59.609
31.644 23.837 74.365
33.374 25.978 74.806
32.778 28.044 76.392
30.952 28.718 77.555
42.976 50.304 57.401
40.809 49.918 58.359
39.486 51.016 60.368
40.002 52.983 61.565
42.606 5.364 4.01
42.923 2.765 5.171
41.761 2.164 7.123
39.331 2.825 8.161
52.461 16.68 27.267
54.408 15.824 28.007
55.261 13.244 28.294
54.029 11.42 27.951
81.34 4.231 66.362
81.715 5.997 64.843
83.664 7.357 64.206
86.18 7.481 64.655
61.432 23.094 88.484
59.072 23.714 87.692
57.25 23.245 87.787
55.692 22.081 89.554
7.632 33.848 68.286
9.826 33.141 68.425
12.267 34.244 67.628
12.683 36.209 66.052
71.608 89.304 62.727
72.255 87.38 62.388
74.55 86.867 62.024
76.354 87.73 60.27
25.049 56.333 2.347
25.583 56.98 0.103
25.937 55.065 -2.036
26.911 52.833 -1.965
40.058 15.393 41.055
38.547 16.169 42.64
37.727 18.954 43.042
39.821 20.776 42.879
46.695 70.008 71.775
45.842 67.749 70.759
45.128 67.259 68.503
45.447 68.557 66.282
16.045 22.802 59.129
14.884 20.476 58.803
13.987 19.467 56.703
13.425 20.216 54.448
7.51 43.275 5.644
5.834 44.711 4.415
3.69 44.25 3.27
2.361 42.389 2.861
68.156 90.57 87.623
70.221 89.039 87.86
69.141 86.772 88.94
66.817 85.692 88.718
27.425 43.398 71.195
27.124 42.588 68.749
28.87 42.91 67.333
29.613 41.034 66.082
15.207 15.358 50.274
15.103 16.46 52.106
15.752 18.982 52.785
17.804 20.172 51.782
5.73 8.504 56.597
3.62 10.137 57.32
2.802 11.053 59.205
2.975 10.437 61.638
1.974 21.773 61.635
0.714 20.039 62.395
1.376 17.986 61.123
2.015 17.513 58.792
39.779 10.244 38.185
38.576 10.825 40.446
36.93 12.986 40.72
37.674 15.203 39.688
88.089 25.482 66.683
85.665 25.226 66.612
84.641 22.94 66.044
85.526 20.879 64.745
75.363 38.226 82.602
76.933 40.165 82.475
79.478 40.147 83.034
80.993 38.044 82.992
21.598 46.049 75.023
21.65 45.621 72.579
23.071 43.76 71.188
24.783 42.358 71.81
4.303 12.868 62.544
2.047 13.114 61.959
0.022 14.81 62.824
-0.269 15.977 65.078
21.473 23.907 80.59
19.217 23.168 81.601
16.952 23.717 81.624
15.808 25.649 81.017
28.592 8.544 42.692
28.996 6.674 44.002
28.681 4.044 43.509
26.774 2.86 42.299
29.16 10.776 46.963
29.462 11.201 44.437
30.807 10.223 42.747
32.879 8.736 42.964
20.108 28.761 14.286
17.67 28.137 13.975
15.772 29.782 13.033
15.714 32.114 12.549
5.296 78.96 21.337
5.144 81.578 21.41
4.426 82.945 23.311
2.576 82.229 25.26
38.665 20.64 45.337
40.774 20.368 45.427
42.272 18.502 46.187
41.995 16.59 47.503
79.528 58.361 88.904
79.748 59.481 90.901
82.291 60.435 91.531
84.352 59.678 90.944
17.403 42.347 15.854
17.979 40.609 17.343
16.956 38.341 17.909
16.036 37.506 15.656
7.079 77.874 46.261
7.33 79.933 45.623
6.139 82.402 46.528
4.904 82.744 48.503
6.076 25.774 85.345
8.009 25.248 86.738
9.678 23.44 86.652
10.399 21.924 84.315
11.664 30.042 84.259
10.989 30.223 86.378
8.896 29.333 87.922
7.001 27.986 87.166
12.942 45.059 3.565
10.573 44.867 3.67
8.643 46.572 4.491
9.083 49.079 5.397
36.859 64.753 64.492
39.057 62.783 63.869
38.484 60.193 63.58
36.51 59.015 63.083
34.107 22.648 77.754
33.523 22.012 75.517
31.275 20.85 74.676
29.737 19.762 75.583
12.799 81.894 67.009
14.945 83.226 67.183
16.667 83.928 65.814
17.327 82.71 63.239
30.573 31.223 77.411
32.715 32.074 77.995
35.007 32.258 76.537
35.414 31.292 74.122
69.308 62.517 72.462
70.468 60.713 71.807
72.247 60.791 69.647
72.396 62.234 67.712
6.627 85.01 52.279
7.52 83.814 50.455
9.588 84.081 49.102
11.609 84.573 49.005
18.412 77.952 61.932
18.214 78.255 63.936
15.816 78.351 65.63
13.775 78.783 65.062
91.006 10.829 55.536
91.513 8.497 57.217
89.809 7.422 58.675
87.638 6.972 58.581
18.754 21.517 58.089
19.39 23.207 57.376
20.424 25.594 58.335
21.531 26.051 60.299
35.852 25.108 76.334
35.643 27.677 75.857
37.13 29.289 74.475
38.988 28.85 72.961
32.806 40.984 68.726
32.238 41.965 66.234
33.75 42.623 64.349
36.326 43.033 64.263
17.853 0.449 64.298
17.322 0.089 66.6
18.425 0.668 68.863
20.604 1.613 69.528
36.373 7.654 68.965
34.489 9.111 69.653
33.617 10.226 71.685
35.34 10.574 73.968
22.574 10.896 48.262
21.744 12.098 50.501
19.746 13.134 51.31
17.551 14.17 49.853
84.931 24.263 69.268
83.171 22.607 70.225
80.722 22.634 70.539
79.035 24.425 69.931
2.714 45.594 7.007
3.838 46.85 5.056
5.271 48.901 5.277
7.064 49.776 7.159
29.596 41.258 83.085
31.545 40.326 84.736
32.839 41.537 86.585
32.99 43.703 87.136
11.032 24.816 16.373
8.71 24.177 16.223
6.431 25.271 17.489
6.073 26.649 19.471
49.822 67.155 86.908
50.937 65.147 86.341
49.958 62.672 86.593
48.056 61.738 86.831
30.291 28.072 60.034
28.527 28.146 59.093
26.687 26.072 58.635
26.381 24.479 59.823
53.811 21.924 59.848
53.52 23.643 61.759
54.745 25.607 62.292
56.588 26.877 61.21
36.116 24.18 81.163
35.062 24.978 79.129
33.506 26.838 78.702
31.77 28.015 79.848
43.343 43.909 57.396
44.533 44.277 55.364
47.02 43.403 54.569
48.447 41.6 55.12
27.53 84.905 83.934
26.755 85.131 86.31
24.264 85.387 87.018
22.164 84.0 85.987
6.533 70.629 45.863
4.515 70.312 45.126
3.93 68.362 43.699
4.624 66.075 43.429
6.565 84.573 22.476
8.463 83.866 22.587
9.224 81.838 21.113
7.965 80.665 19.251
17.193 19.018 55.743
16.415 16.912 54.546
18.173 15.738 53.409
20.87 15.946 53.766
9.079 19.729 60.855
8.719 18.356 58.977
8.814 19.149 56.391
10.571 20.361 55.253
88.512 48.532 35.889
86.363 49.507 36.693
85.654 50.877 38.25
86.235 50.535 41.093
9.397 17.975 53.509
10.217 16.308 54.545
11.945 14.177 53.601
13.326 14.284 51.809
21.031 69.626 78.911
21.097 67.793 80.781
19.154 66.116 81.412
16.482 66.856 81.437
20.023 16.733 79.066
21.761 17.561 77.762
23.116 16.331 75.82
23.9 13.973 75.625
35.536 43.315 85.868
35.168 45.431 86.14
36.894 47.573 86.707
39.189 47.494 86.787
35.984 30.523 19.954
36.633 30.918 22.335
37.863 32.963 23.504
39.024 34.944 22.556
10.612 16.569 57.981
12.102 16.901 56.246
14.022 15.474 55.445
15.396 13.396 56.338
8.966 92.327 4.12
11.072 92.93 3.021
12.846 91.131 1.293
12.523 89.336 0.202
23.948 55.549 92.201
23.433 54.864 94.427
21.492 53.257 95.315
19.289 52.855 94.258
31.037 9.065 70.561
32.26 9.885 68.351
32.711 8.661 66.19
32.018 6.272 65.516
84.313 6.786 13.301
84.273 8.94 14.273
86.166 10.289 13.97
87.375 11.362 11.957
1.179 42.15 56.491
-0.575 44.266 56.877
-0.328 46.459 57.515
1.195 47.702 59.106
35.034 67.328 93.298
33.428 67.147 94.941
30.848 66.526 95.138
29.711 65.024 93.472
17.891 71.584 82.135
17.185 71.539 84.529
16.129 73.35 86.037
15.029 75.664 85.676
16.665 32.725 62.07
17.009 33.931 64.269
16.313 36.054 65.209
14.795 37.731 64.656
19.683 5.351 27.349
20.913 7.077 26.893
19.984 9.66 27.837
18.482 10.063 29.646
34.552 85.41 8.798
32.656 87.352 8.75
31.602 88.548 10.512
32.001 89.11 12.924
22.321 80.205 35.231
22.857 78.307 34.718
24.874 77.577 33.665
26.383 78.632 32.242
12.389 23.382 86.805
12.682 25.803 86.378
11.79 27.793 87.691
10.611 28.207 89.851
23.75 13.169 4.263
22.642 14.736 5.088
21.867 15.451 7.427
21.418 14.19 9.474
15.384 87.8 67.104
17.675 86.817 66.379
18.938 87.394 64.299
18.89 89.381 63.392
40.738 20.671 50.055
40.728 22.98 49.212
38.899 25.207 49.861
37.53 25.167 51.298
82.661 47.328 7.947
84.785 46.063 7.416
86.175 44.661 9.097
85.596 43.551 11.308
34.661 20.246 73.918
33.249 17.936 73.695
32.494 16.633 71.741
33.145 16.487 69.505
65.186 3.149 69.837
67.585 3.173 69.995
69.274 4.951 68.594
69.056 5.988 66.689
38.861 24.795 19.472
40.286 22.951 20.742
42.113 21.557 20.176
43.29 20.885 17.832
23.918 38.019 84.892
23.215 36.946 86.608
22.619 38.367 89.116
22.776 40.751 89.302
51.118 30.469 71.862
49.461 31.465 70.649
47.615 33.188 71.101
46.408 33.364 73.567
29.317 54.153 94.587
30.283 53.165 92.451
32.156 51.84 91.65
34.041 50.561 92.498
70.816 31.198 58.569
69.679 29.494 58.12
66.793 29.43 57.19
65.251 31.051 57.863
26.959 11.916 42.693
25.884 9.89 43.919
25.127 9.802 46.365
24.943 11.724 48.348
32.554 -1.652 87.293
34.616 -2.052 86.273
36.449 0.038 85.802
37.31 1.87 86.974
23.422 18.56 11.339
24.484 19.671 9.361
24.484 22.641 9.742
23.177 23.426 10.978
3.242 46.017 98.065
6.027 46.258 99.078
7.225 48.477 99.386
6.68 51.212 99.189
27.8 17.76 76.121
26.061 16.443 75.561
26.355 13.737 76.591
26.216 14.038 79.06
22.438 45.337 18.921
22.503 45.986 21.377
24.347 47.33 22.629
26.23 48.858 21.547
25.17 18.492 74.007
26.862 16.531 72.788
29.332 17.176 72.07
30.186 18.591 73.011
16.021 17.226 77.547
16.013 18.199 79.449
15.986 20.774 80.338
15.809 22.823 79.349
59.093 18.282 6.665
61.378 18.682 6.681
62.561 20.875 7.153
62.052 23.098 7.121
87.685 28.422 4.23
85.747 28.873 2.61
85.034 31.523 1.611
85.011 33.451 3.125
90.157 51.082 60.464
89.665 49.725 58.55
87.625 47.961 58.048
85.744 47.206 59.314
22.683 60.149 73.201
22.594 58.118 74.991
20.091 57.011 75.502
18.124 56.553 74.101
27.718 85.564 65.438
29.032 85.577 63.381
30.431 88.003 62.436
31.504 89.801 63.616
39.548 -0.655 33.398
41.045 1.516 33.53
40.74 3.756 34.327
39.653 4.618 35.92
50.388 25.394 43.845
51.781 26.816 42.344
53.37 25.947 40.324
54.14 23.728 39.393
72.318 20.988 48.237
72.725 21.736 50.428
71.341 22.523 52.454
69.058 23.319 52.818
15.475 2.575 70.798
15.213 3.521 73.004
15.553 5.658 74.084
15.724 8.017 73.327
90.99 24.53 1.358
89.123 25.453 0.428
86.693 25.736 0.875
85.701 26.292 3.234
43.235 86.572 51.512
45.369 86.39 50.989
47.065 87.421 49.349
46.866 89.061 47.473
15.704 39.115 70.65
17.456 40.378 70.007
19.522 41.589 71.673
19.101 42.131 74.534
23.982 2.254 41.869
23.041 1.874 44.32
20.689 1.099 44.931
18.725 0.433 43.966
5.894 70.706 92.392
3.599 69.817 92.369
2.55 68.405 90.283
3.647 67.468 88.351
47.813 70.983 90.034
47.27 72.332 91.521
48.214 74.988 92.096
49.786 75.908 90.531
8.136 17.528 63.206
7.111 16.172 61.33
6.683 13.835 61.036
7.27 12.014 62.122
44.401 64.406 63.568
44.896 65.583 65.652
42.674 66.468 67.18
40.898 67.636 66.704
3.266 30.893 89.206
4.051 29.202 88.56
6.095 27.979 89.836
7.701 28.459 91.505
17.992 13.4 57.463
17.841 13.359 54.807
18.917 11.637 53.132
20.941 10.05 53.461
44.232 61.996 16.596
45.294 64.124 15.926
44.381 66.656 16.187
42.889 67.674 17.773
14.543 19.264 83.435
14.115 21.309 82.517
14.78 23.767 83.26
15.15 24.759 85.507
0.584 16.718 43.497
0.029 15.478 41.423
1.318 13.687 40.456
2.86 11.934 41.181
73.482 82.053 80.316
75.073 80.528 80.111
74.159 78.029 81.211
71.871 77.328 81.611
4.53 59.272 34.334
3.798 56.964 35.433
2.054 55.349 34.995
0.553 54.955 32.995
23.355 28.935 59.488
23.96 26.649 58.912
22.93 25.255 56.751
23.268 26.14 54.288
15.934 68.833 83.108
16.742 68.837 85.227
15.712 69.044 87.515
13.384 69.732 88.112
72.14 41.241 57.318
73.711 40.123 58.576
74.561 37.798 58.455
73.28 35.5 57.782
53.45 27.752 83.907
55.008 26.033 85.29
57.996 26.123 84.841
59.133 27.944 84.414
42.598 28.577 45.275
43.71 26.345 44.824
46.171 25.764 43.844
47.542 27.233 42.198
85.637 82.277 74.352
85.38 82.181 76.857
83.535 82.737 78.215
81.203 83.983 77.453
18.769 40.631 44.591
20.026 39.708 42.966
19.951 36.945 41.787
18.309 35.341 42.388
67.177 44.763 91.501
64.877 44.977 91.654
63.443 46.187 93.927
64.665 47.457 95.764
47.946 65.263 16.973
48.444 63.546 15.112
50.72 63.299 13.774
52.956 63.374 14.283
27.483 92.768 18.553
26.763 94.634 20.022
25.572 94.554 22.644
24.15 92.553 23.275
82.705 55.451 38.292
80.961 55.586 40.359
80.318 57.232 41.881
81.244 59.577 42.507
17.45 40.334 11.463
17.526 38.484 13.698
16.397 35.91 13.478
14.649 35.09 12.229
29.41 68.074 28.245
28.93 70.662 29.305
29.609 71.467 31.425
30.531 70.657 33.651
83.335 86.646 6.328
81.75 84.701 5.874
79.438 84.32 6.202
77.491 85.473 7.3
19.575 71.425 54.198
19.444 69.318 55.911
19.104 66.979 55.233
19.144 65.471 53.421
53.934 28.299 89.202
55.266 26.832 87.99
57.722 26.011 87.961
59.534 25.882 89.629
89.35 90.687 54.847
89.817 88.452 55.019
90.035 86.513 53.553
90.302 86.6 50.589
45.027 19.171 19.375
45.867 17.398 17.907
47.674 17.193 16.228
49.32 18.742 14.853
59.681 82.284 42.87
58.011 81.27 44.405
56.104 79.385 43.625
56.876 78.072 42.19
28.39 65.671 29.201
26.854 67.255 30.499
24.598 66.227 31.798
24.18 64.291 32.658
52.147 36.249 1.122
49.86 34.96 0.95
48.86 33.123 2.075
49.074 32.368 4.664
14.865 49.454 47.905
16.836 48.352 48.713
17.979 46.117 48.661
17.58 44.525 46.652
19.406 62.085 33.311
21.118 63.429 32.113
23.356 62.292 30.713
22.984 59.712 29.622
66.795 4.389 95.675
66.9 2.012 93.985
64.706 0.711 93.365
62.415 0.776 94.571
22.32 66.362 34.173
20.65 65.237 33.896
18.713 63.684 35.385
18.874 63.118 37.749
13.884 30.994 83.167
13.543 31.474 85.725
14.108 33.267 86.877
12.501 35.584 87.078
19.82 57.011 4.412
17.403 56.898 5.694
16.323 58.452 6.925
16.853 60.456 8.135
41.326 32.59 97.952
41.144 30.532 98.59
40.563 28.407 97.404
39.159 27.743 95.508
70.946 23.3 23.702
70.048 21.416 24.428
67.173 20.865 25.217
65.763 22.474 26.247
14.144 37.58 87.808
14.389 36.933 90.334
14.433 38.244 92.566
13.307 39.947 93.346
7.405 46.948 27.678
6.905 44.806 27.025
8.802 42.46 27.017
11.341 42.806 27.003
14.641 58.29 12.823
16.046 58.584 10.572
18.511 59.21 10.195
19.861 60.589 11.205
86.873 6.126 17.054
84.717 6.885 16.115
83.019 8.717 17.108
82.63 9.7 19.233
61.48 5.102 47.882
63.773 5.121 46.915
64.699 5.56 44.552
63.568 5.896 42.269
84.649 36.517 2.509
82.822 36.193 4.032
80.476 34.906 3.443
79.246 34.684 1.666
15.639 57.08 3.376
14.336 55.42 4.792
11.831 55.123 5.151
11.479 56.3 6.753
78.016 67.708 46.405
77.656 66.376 48.782
75.656 65.616 49.916
73.005 65.455 49.105
48.93 4.901 27.231
47.06 4.427 28.908
44.682 3.729 28.491
43.289 2.962 26.68
39.354 25.043 47.121
40.468 23.084 46.576
42.451 22.776 44.734
43.083 24.129 43.078
23.516 2.742 18.062
25.685 2.222 16.468
25.808 1.442 13.967
24.072 1.143 12.218
49.677 53.708 32.582
47.166 54.681 32.972
45.754 54.328 35.022
46.064 52.168 36.638
50.825 66.538 37.381
50.697 63.905 37.06
49.526 62.497 35.41
48.241 63.058 33.118
34.746 83.288 1.983
32.619 81.829 2.715
32.497 79.998 4.128
34.141 78.126 4.686
22.466 69.48 32.786
24.358 70.402 31.459
27.019 70.813 32.078
27.939 70.747 34.212
32.737 23.802 94.649
32.983 21.27 94.796
34.854 19.982 93.362
35.206 19.938 90.854
47.19 66.773 43.379
47.405 67.496 41.197
48.831 65.993 39.13
49.463 63.783 39.328
40.995 66.289 90.328
40.651 67.491 92.26
39.129 67.374 94.433
37.375 66.537 94.783
76.229 18.986 76.027
74.85 18.329 74.577
74.099 15.972 73.445
75.298 13.823 73.118
43.303 60.845 42.813
42.518 62.455 44.737
40.685 64.054 44.782
38.421 64.536 43.046
26.367 -0.489 45.534
26.321 1.836 44.843
27.452 4.191 46.218
28.204 3.971 48.608
41.085 75.757 25.802
41.507 77.849 25.861
41.945 79.936 27.73
40.779 79.702 29.895
34.329 70.401 4.504
33.076 71.385 5.322
30.515 70.644 4.368
29.775 68.535 3.784
23.383 75.046 10.067
25.613 76.389 9.765
27.777 75.6 8.988
28.424 73.44 7.676
67.22 72.364 34.927
68.696 72.955 33.152
69.694 71.487 31.478
70.245 69.127 31.061
51.049 73.5 13.506
52.7 72.4 14.828
55.002 73.203 15.7
56.285 75.349 14.935
22.222 74.5 59.717
20.493 75.164 61.988
20.943 77.162 63.68
22.461 78.994 63.567
25.962 29.227 38.134
24.821 28.391 36.326
23.663 25.809 35.996
22.79 24.352 37.47
75.196 54.39 16.327
76.486 54.16 18.332
77.219 55.65 20.265
77.007 58.11 20.361
56.334 12.365 56.842
54.813 12.635 58.468
53.285 14.985 58.862
54.069 17.173 58.601
16.188 54.783 8.19
14.485 56.608 7.411
12.388 57.408 8.936
11.373 56.868 10.675
24.0 55.667 24.262
23.81 53.237 25.081
24.254 50.952 23.688
23.716 50.622 21.25
6.929 21.828 18.007
7.678 20.727 16.397
6.124 18.692 15.547
4.171 17.827 16.818
62.111 38.886 22.768
59.567 37.288 22.211
57.321 38.348 22.317
56.558 40.73 23.312
44.334 55.485 37.772
45.114 57.675 37.996
46.164 59.029 40.26
45.13 59.034 42.411
86.875 71.717 24.474
85.27 69.832 23.371
85.12 69.36 20.757
86.325 70.547 18.749
69.761 52.021 25.922
70.734 52.63 23.685
71.264 50.617 21.724
69.819 48.863 22.078
23.479 59.063 2.677
25.02 59.501 0.876
27.363 60.379 0.951
28.55 61.995 2.488
79.503 70.397 27.662
77.227 71.031 28.464
76.471 72.497 30.48
77.376 73.109 32.545
59.594 27.59 60.527
61.243 28.111 59.208
63.287 26.518 58.897
63.234 24.292 58.317
64.622 45.202 19.656
63.659 43.211 18.716
62.282 41.229 19.667
60.452 41.489 21.36
3.717 53.471 37.273
4.796 54.296 35.045
6.932 55.768 34.561
8.514 56.79 35.943
22.265 64.321 29.392
24.476 64.597 28.621
25.921 63.239 26.45
25.108 61.528 25.38
88.977 41.243 -0.204
87.997 41.734 2.086
88.352 40.26 4.333
88.303 38.207 4.879
16.586 76.117 17.207
16.306 74.247 16.012
16.638 71.502 16.629
17.098 70.831 18.813
26.886 69.159 1.894
27.394 69.521 4.152
27.98 72.076 5.54
27.322 74.32 4.958
7.929 75.119 47.426
6.074 73.752 46.361
3.71 72.746 47.595
2.922 74.582 49.007
87.25 13.818 86.622
88.957 14.536 88.354
89.286 17.075 89.251
89.2 19.148 87.766
35.234 0.641 11.705
33.205 0.373 12.557
31.247 2.305 13.519
31.844 4.673 14.189
9.076 63.777 13.315
11.165 63.296 12.928
12.725 61.164 12.692
12.098 59.109 11.947
18.58 8.346 3.089
18.678 10.532 1.392
20.394 12.211 1.141
22.836 12.315 2.093
16.32 67.805 18.517
15.078 69.254 16.928
14.812 69.234 14.537
15.982 68.375 12.564
13.037 71.167 90.572
11.879 72.605 91.378
9.459 72.774 92.764
8.592 71.402 93.961
12.574 0.508 24.183
13.803 -0.545 22.911
15.953 0.74 21.717
16.119 2.972 21.198
14.662 46.625 1.651
13.565 49.09 2.156
14.421 51.406 1.334
16.512 52.015 0.273
57.695 85.874 92.161
56.266 84.332 93.224
54.784 82.576 92.341
54.978 80.84 90.378
24.377 89.647 46.868
22.328 89.926 45.393
20.197 88.509 45.402
19.392 86.465 46.786
41.66 61.51 14.837
41.233 59.056 15.398
40.185 57.51 13.22
38.875 58.042 11.6
84.463 69.407 17.595
86.174 67.078 17.684
85.472 64.87 16.749
83.185 64.044 15.52
63.313 88.029 95.553
65.243 89.316 94.012
66.75 88.384 92.265
67.374 86.237 91.467
19.857 84.669 67.533
19.214 83.362 65.744
18.984 80.859 65.082
19.672 79.029 66.046
35.827 69.721 93.86
37.782 69.513 95.207
39.994 70.604 95.376
41.349 71.854 93.448
65.696 48.97 92.151
63.418 49.808 91.174
62.518 51.728 90.317
63.131 54.219 90.855
60.76 29.968 57.413
62.801 29.673 57.464
63.712 27.725 56.411
63.385 26.726 54.26
78.362 53.255 7.154
81.101 52.876 7.564
82.538 50.737 7.072
82.1 48.89 5.928
79.295 44.017 84.616
77.838 42.195 84.101
76.312 40.987 85.168
75.976 39.811 87.306
62.222 4.107 30.686
61.671 5.688 29.382
59.581 8.077 29.478
57.64 7.634 30.648
43.229 62.645 12.426
45.298 62.748 13.6
47.402 64.288 12.649
47.407 66.52 11.552
32.202 57.499 92.333
31.236 55.382 91.303
32.185 53.973 89.512
34.29 54.435 88.064
12.871 39.424 4.984
13.377 41.51 3.46
11.652 42.743 2.043
8.991 42.618 2.468
15.394 25.26 14.641
14.269 26.787 13.084
13.255 29.094 13.572
12.363 30.206 15.789
27.505 41.201 13.704
25.58 42.077 14.938
25.065 44.368 16.028
26.809 46.445 16.28
48.031 75.283 23.655
45.984 76.567 23.905
43.246 75.356 24.217
42.617 73.555 24.692
28.915 82.57 36.711
27.111 80.639 35.778
28.159 78.544 34.374
30.251 78.537 33.195
90.234 65.582 14.438
88.367 65.148 15.985
87.521 62.367 16.439
87.35 60.661 14.982
42.132 85.769 6.276
43.869 86.99 5.406
46.195 87.236 6.066
47.978 85.626 6.997
37.221 40.785 10.217
39.107 41.682 9.443
40.301 44.297 10.054
39.107 46.18 10.444
45.675 36.464 27.102
43.243 37.16 26.771
40.99 36.311 27.474
40.556 33.428 27.246
12.003 33.011 15.226
14.394 33.126 14.864
16.389 33.235 16.136
16.781 34.64 18.334
18.28 74.251 11.711
17.292 73.139 13.734
14.861 71.669 13.524
14.191 70.542 11.229
25.374 66.639 26.402
25.036 67.821 28.574
26.224 70.347 29.194
26.939 72.075 27.901
68.777 34.102 88.114
67.122 32.502 87.309
64.692 32.081 87.795
63.256 32.636 89.439
38.543 37.189 7.32
37.134 38.987 7.61
34.87 39.314 8.938
33.647 37.947 10.461
22.698 77.684 9.481
20.657 76.631 10.453
18.21 77.841 10.708
18.066 75.883 9.22
12.459 84.499 43.106
10.593 84.089 45.039
8.285 83.51 44.981
6.658 82.445 43.26
49.112 6.509 31.853
46.985 4.902 31.419
44.619 5.602 30.85
43.363 8.048 31.026
50.836 61.215 33.167
52.248 59.39 34.57
54.575 59.123 34.895
56.558 60.413 33.651
69.976 20.558 30.03
68.048 21.115 28.777
65.671 21.672 29.49
64.579 22.897 31.417
79.088 71.537 24.853
81.416 71.373 24.172
82.702 70.034 22.313
82.079 69.511 20.061
37.181 29.048 5.208
39.522 29.36 3.786
40.751 26.982 2.913
39.458 25.259 2.706
31.397 49.744 85.723
33.459 49.811 84.67
35.158 47.817 83.531
34.339 45.481 83.586
27.621 41.168 92.585
25.726 39.989 92.02
24.006 38.252 93.452
24.0 37.647 95.615
32.259 63.941 42.241
32.159 65.762 44.556
32.513 65.364 46.682
34.093 63.424 47.841
15.805 16.812 28.889
16.217 14.379 29.233
17.621 12.821 27.4
18.261 13.305 25.161
-0.613 77.478 2.601
0.4 76.173 0.989
1.219 73.673 0.855
1.009 72.023 1.892
20.56 79.548 12.904
18.873 77.875 13.478
17.089 77.899 15.264
16.448 79.387 17.163
79.173 52.627 16.419
77.637 52.159 14.85
75.588 51.734 14.875
74.255 49.71 15.53
7.263 63.656 37.574
8.52 61.378 37.257
7.485 58.899 37.529
5.031 58.216 37.677
45.232 11.904 82.362
46.374 13.174 84.488
47.876 15.186 84.49
48.944 16.573 82.347
67.893 61.224 2.772
69.626 62.918 2.622
72.314 62.49 3.818
73.58 60.538 3.561
4.118 5.768 81.776
1.694 5.032 82.107
-0.518 6.652 81.805
-0.835 9.124 82.355
18.933 78.159 35.25
20.423 78.828 36.955
20.362 80.861 38.702
18.581 82.013 39.708
0.148 63.499 92.787
0.951 63.878 90.312
0.314 62.707 88.294
-0.647 60.438 87.888
5.863 68.93 16.705
5.325 66.829 17.955
4.37 66.323 20.266
4.504 68.19 22.412
39.893 67.087 42.356
41.569 66.126 43.103
44.061 65.718 42.201
45.06 66.429 40.163
54.591 14.716 30.931
55.827 16.911 30.648
57.375 18.101 32.626
56.22 18.369 35.006
2.471 64.772 67.134
2.529 67.103 65.85
3.142 69.588 66.935
4.19 69.777 69.383
12.213 63.64 35.334
11.756 64.642 37.203
10.026 66.563 37.996
7.686 66.586 37.138
65.273 0.508 17.575
67.74 0.001 17.83
69.439 1.706 19.398
69.583 3.83 19.511
23.364 14.603 54.091
22.763 12.393 53.178
24.349 10.51 52.199
26.548 10.775 50.59
48.037 92.577 28.596
49.665 94.2 28.977
52.347 94.3 28.883
53.933 92.363 28.361
55.329 33.265 65.892
54.486 35.11 67.492
55.8 37.031 68.734
58.014 37.595 68.679
61.079 50.41 72.602
61.102 49.1 70.411
62.213 49.568 68.404
64.336 50.951 67.779
15.281 52.039 74.342
16.737 53.811 74.907
16.408 56.14 76.03
14.667 56.368 77.524
7.809 3.583 3.782
9.946 3.597 4.831
11.906 5.687 4.92
12.484 7.096 3.265
8.484 80.833 49.088
9.183 81.658 47.084
11.393 81.633 45.846
13.578 80.647 46.328
43.484 55.799 10.318
43.197 57.678 12.032
43.54 60.132 11.816
44.586 61.566 10.315
20.998 40.21 46.156
20.945 42.834 46.442
19.936 44.299 47.895
18.925 44.194 50.377
86.464 70.575 29.074
86.275 72.709 30.378
87.114 73.455 32.545
88.834 72.249 34.096
45.361 9.615 66.286
44.493 11.723 64.81
45.538 13.895 64.505
47.465 14.938 65.587
51.777 78.945 20.275
49.428 78.265 20.313
47.669 78.12 22.009
47.818 79.007 24.601
47.293 -1.209 51.655
49.078 0.572 51.046
50.532 1.935 52.344
50.678 2.395 54.892
53.944 47.269 0.167
56.175 48.066 -0.388
57.857 49.583 0.765
57.633 50.775 3.199
53.567 80.341 19.092
55.154 79.251 18.329
55.621 77.991 15.862
53.993 77.338 14.922
39.14 86.915 28.114
41.796 86.702 27.874
42.9 84.268 27.747
42.237 82.263 25.996
10.3 80.604 42.06
9.833 79.682 44.423
9.504 77.114 45.249
9.332 75.148 44.154
72.468 17.861 21.805
71.253 19.558 23.137
72.915 21.535 24.229
75.0 21.971 23.666
9.094 49.135 0.965
10.688 49.978 2.849
11.245 52.401 3.579
11.732 54.134 1.99
31.155 88.297 56.888
33.038 87.185 56.993
35.27 87.06 55.863
36.44 88.603 54.236
43.596 53.988 33.783
42.362 51.866 33.841
40.418 51.096 35.242
39.708 52.137 37.273
37.465 80.47 27.326
38.174 78.722 28.781
37.794 75.96 28.488
36.463 74.671 27.007
53.936 57.229 8.998
55.266 57.52 6.897
56.055 55.656 5.235
56.625 53.07 5.588
76.999 13.399 24.395
77.796 12.589 22.567
76.533 10.43 21.371
75.33 8.864 22.061
54.974 42.543 87.515
55.167 43.026 89.947
55.87 41.549 91.863
55.46 39.079 92.386
35.332 58.325 20.103
36.12 57.687 17.664
38.257 57.683 16.447
40.434 57.559 17.318
35.385 47.109 38.333
34.715 46.989 40.993
32.696 46.208 42.068
30.784 45.11 41.475
48.619 41.517 70.466
50.108 39.256 70.969
49.415 36.76 70.796
47.473 35.704 70.151
33.377 1.941 85.442
31.38 0.027 85.426
29.049 0.386 85.151
27.53 2.521 85.061
42.886 15.656 14.633
43.175 17.233 16.492
41.729 18.99 17.631
39.331 19.542 17.222
33.805 79.801 27.422
33.228 78.588 28.987
31.509 78.775 30.831
29.327 78.898 30.68
30.877 50.145 89.504
32.623 49.487 88.023
34.153 47.169 87.796
33.974 45.098 89.269
27.445 8.409 21.171
25.91 6.27 21.707
24.507 4.975 20.184
25.453 5.105 18.056
8.77 22.44 11.431
9.863 21.274 13.627
9.629 19.295 14.68
7.864 17.202 14.093
40.058 39.4 11.192
39.698 39.253 8.665
41.18 39.333 6.67
43.737 39.623 6.414
25.827 72.944 30.669
26.135 74.704 31.88
28.076 76.43 30.674
28.541 76.724 28.45
47.681 67.91 13.98
46.329 68.527 15.928
46.228 70.845 17.319
47.609 72.21 17.683
29.508 90.037 13.007
28.337 91.861 13.646
29.68 93.07 15.753
30.21 92.188 17.83
-0.54 61.252 18.752
-0.445 63.302 18.31
1.555 64.594 16.859
4.035 64.45 17.183
50.097 63.158 45.539
49.301 62.945 43.331
49.223 60.795 41.557
49.085 58.285 42.354
26.378 32.444 56.251
27.795 29.774 55.987
29.976 29.642 55.445
31.012 30.118 53.397
11.379 74.351 22.391
12.128 76.85 22.265
10.714 79.009 22.098
7.98 79.317 22.712
8.849 67.518 42.302
9.994 66.292 40.8
8.715 64.231 39.658
6.725 63.211 40.448
41.883 56.182 8.423
40.75 56.591 10.161
39.148 54.825 11.112
38.405 53.007 10.282
14.116 49.936 4.816
13.912 51.988 4.079
15.848 53.711 3.734
17.854 53.899 4.506
24.506 58.372 92.523
26.885 57.245 93.041
28.602 56.468 91.818
29.271 56.255 89.505
31.898 57.934 18.174
30.295 57.808 20.559
30.921 56.454 22.431
32.73 55.252 22.853
90.384 -2.544 3.537
90.268 -1.342 5.857
88.147 -0.138 7.059
86.077 -1.698 6.489
40.324 72.135 50.287
40.083 70.726 48.895
37.977 68.965 49.18
36.757 68.512 51.472
90.101 5.502 79.339
90.167 3.519 80.547
89.082 1.24 80.032
88.684 0.531 78.112
41.882 69.867 91.31
43.628 70.526 91.638
46.009 69.177 90.813
46.252 67.533 89.068
56.84 5.215 56.708
55.185 4.65 54.832
53.668 2.893 54.361
52.978 0.661 55.092
82.093 84.81 10.926
80.433 84.46 9.882
77.593 85.511 9.968
76.614 86.961 11.203
40.143 68.118 47.747
39.53 67.3 45.495
37.241 65.621 45.136
36.198 65.152 46.981
79.615 51.133 12.996
81.119 51.87 10.951
82.942 50.571 9.722
84.184 48.436 10.346
24.652 44.284 24.796
22.499 43.936 25.883
20.287 43.234 24.143
20.356 42.68 21.891
93.558 68.425 15.037
92.062 67.096 16.485
89.546 67.389 17.441
88.354 69.233 18.068
30.363 65.606 51.873
31.532 66.9 50.273
33.864 66.343 48.973
35.893 65.788 49.84
7.861 45.242 97.033
9.585 46.53 98.066
12.119 46.763 97.499
13.448 46.303 95.719
36.583 6.082 33.393
37.473 6.035 35.837
37.769 8.628 37.391
36.847 11.119 36.275
10.846 76.874 89.079
12.833 75.596 89.728
13.759 73.241 89.109
13.769 72.358 86.967
21.319 62.596 84.18
21.344 62.968 82.025
19.365 63.055 80.218
16.706 63.032 80.522
15.314 73.732 93.042
16.046 74.259 90.518
16.902 72.762 88.764
17.879 70.694 88.613
21.879 59.613 77.337
21.401 61.135 78.73
23.438 62.773 79.881
25.6 62.28 80.048
38.047 70.589 1.005
35.569 70.251 1.794
34.581 67.64 1.563
35.932 66.089 0.758
33.523 44.486 60.239
35.165 45.184 61.941
37.84 44.492 62.2
39.366 44.119 60.312
41.177 84.629 78.482
42.371 82.281 77.282
44.179 82.881 75.383
44.982 84.546 74.193
33.199 66.65 3.443
31.195 66.367 2.154
30.494 64.77 0.282
30.666 62.22 0.671
30.99 39.896 87.977
28.99 38.693 88.425
26.735 39.084 88.822
25.564 41.098 89.781
23.467 39.661 45.617
22.43 38.891 43.701
22.291 36.419 42.691
23.384 34.286 43.183
20.641 65.881 84.264
19.167 67.868 83.826
19.555 70.409 84.885
20.53 71.037 86.871
57.662 49.291 94.276
59.532 48.454 94.145
62.183 49.458 94.169
62.94 51.706 94.71
18.447 49.692 71.755
17.985 51.465 73.398
18.912 54.204 73.247
19.933 55.097 71.705
39.025 78.915 53.632
40.309 80.127 52.114
42.052 81.909 52.064
43.354 82.904 53.678
71.703 40.124 89.549
73.894 41.157 88.212
73.383 43.824 88.06
71.818 45.23 89.653
33.568 6.336 63.194
34.691 3.928 62.307
33.518 1.683 62.442
31.151 1.03 62.772
77.21 76.927 82.874
75.301 78.147 83.647
75.22 80.727 84.337
76.846 82.57 84.431
78.55 39.7 78.507
79.963 41.006 80.444
82.213 42.012 80.342
84.141 41.909 78.503
62.209 64.786 53.665
60.768 65.727 55.315
61.617 67.487 57.495
63.381 68.849 57.616
31.037 36.817 87.373
32.189 35.538 85.258
34.565 36.435 83.987
35.903 38.274 84.317
36.75 56.274 63.732
38.084 55.199 62.377
37.254 52.761 61.864
36.272 51.336 63.395
88.854 46.333 53.937
89.893 48.023 54.901
88.558 50.679 55.73
86.469 50.516 55.887
3.971 54.776 84.925
3.569 57.096 85.156
1.634 58.536 86.356
-0.076 57.802 87.776
7.08 76.163 74.663
5.347 77.848 74.318
3.395 78.427 75.719
2.083 77.109 77.638
48.299 38.646 96.992
50.725 38.563 97.545
52.753 38.88 95.566
52.687 40.112 93.506
36.826 80.98 50.21
38.788 81.936 50.813
41.257 82.123 49.608
41.565 79.995 48.1
8.687 55.535 56.355
7.47 53.492 56.393
4.782 53.072 56.475
2.915 54.832 56.908
18.575 55.491 95.492
17.544 55.771 97.498
14.797 55.047 98.165
13.464 53.563 96.636
40.103 48.862 62.01
37.927 49.43 62.268
36.157 47.786 63.149
36.34 45.752 64.998
42.884 85.905 54.017
41.246 85.512 54.779
39.143 87.19 55.177
39.082 89.514 55.813
14.17 60.61 8.457
14.535 61.086 10.628
15.278 63.453 11.908
14.616 65.504 11.66
51.597 58.825 88.565
50.076 59.616 87.094
48.975 58.081 85.671
47.347 56.606 85.823
5.867 43.215 54.959
4.36 41.704 53.192
5.356 39.775 51.387
7.315 38.683 51.262
54.409 36.513 94.176
52.415 36.308 95.09
50.355 34.543 94.969
50.454 32.167 94.057
79.027 77.311 60.227
76.945 77.99 59.056
74.603 78.911 59.994
74.381 80.385 62.056
48.927 67.494 90.151
49.975 69.588 90.129
51.194 71.041 91.452
53.22 69.882 92.0
4.541 50.017 58.951
6.408 51.453 58.081
8.336 52.482 59.39
9.437 52.222 61.368
75.205 5.499 63.3
77.348 4.316 63.165
79.934 5.118 62.116
80.96 7.037 62.221
43.697 76.206 90.705
44.691 73.741 91.269
45.103 72.636 93.593
43.202 72.589 95.28
30.601 54.085 87.009
32.611 52.75 86.097
33.244 51.997 83.606
31.512 52.093 81.658
31.032 16.975 92.326
33.092 17.654 92.909
35.395 17.41 91.807
36.414 16.128 90.193
46.725 38.937 52.112
46.123 38.17 49.981
46.728 35.861 48.7
47.808 33.791 49.644
90.278 79.469 73.383
88.586 79.78 74.478
88.279 82.526 75.784
90.169 84.031 75.448
92.628 73.667 73.071
92.34 75.639 73.88
90.609 76.898 74.914
88.146 77.193 74.452
57.176 70.787 60.026
59.054 72.192 60.557
59.313 74.943 60.442
57.792 76.715 59.462
14.247 79.871 15.436
14.295 77.496 15.409
15.123 75.743 13.428
15.867 76.34 11.082
10.949 56.382 60.818
10.275 57.269 59.025
11.179 58.959 57.267
13.577 59.925 57.081
14.119 90.341 74.862
12.402 92.094 74.082
10.064 92.286 74.129
8.262 91.075 75.642
27.535 64.041 -0.662
28.001 64.536 1.634
26.455 65.653 3.566
24.747 67.434 3.4
17.512 6.472 75.789
15.512 7.759 76.404
15.154 9.682 77.801
16.387 11.023 77.904
5.569 61.064 85.477
4.329 59.458 84.276
4.759 58.244 82.109
6.687 58.091 80.632
0.548 49.228 82.462
-0.466 48.267 80.361
0.457 45.828 79.234
1.367 43.897 80.111
-0.476 14.985 59.247
1.635 14.887 59.84
3.638 13.861 58.903
4.401 12.947 56.924
20.747 36.788 66.783
19.262 34.729 66.082
19.587 33.262 63.769
21.534 33.06 62.26
38.699 11.132 69.326
40.2 12.533 67.968
42.449 13.02 67.677
44.594 12.03 68.969
10.071 52.313 81.456
8.423 53.719 80.754
6.871 55.489 81.664
6.275 56.286 83.656
86.373 65.702 60.829
87.181 64.704 62.889
89.2 65.868 63.726
90.957 67.313 62.565
84.886 47.698 56.842
84.343 45.708 55.195
83.179 43.576 55.773
81.547 43.019 57.792
44.13 6.523 10.815
44.401 4.45 10.324
42.433 2.827 9.9
40.048 2.745 10.687
92.314 87.463 76.637
90.624 87.624 78.171
87.968 86.772 77.863
86.837 85.918 75.661
-0.906 90.272 9.86
0.82 91.324 8.339
3.49 91.061 8.196
4.913 89.276 9.324
15.966 85.406 89.276
18.226 84.946 89.443
20.282 85.501 87.98
20.454 86.327 85.935
81.446 76.101 79.507
78.872 77.198 80.566
76.668 76.423 79.921
76.113 75.474 77.878
70.899 77.346 85.144
71.52 79.549 83.796
70.43 81.968 84.105
69.167 82.798 85.824
7.153 67.452 69.48
7.196 69.508 68.026
9.121 70.96 67.341
11.065 71.655 68.183
5.579 73.201 90.658
6.924 74.004 92.683
8.459 76.145 92.953
9.649 77.309 91.141
45.013 68.099 43.082
43.828 67.217 44.68
42.114 68.647 45.602
42.34 70.481 47.426
36.078 72.083 75.107
34.008 70.508 74.939
32.331 70.287 73.194
30.776 72.082 72.519
15.987 88.042 89.528
16.104 87.319 91.815
14.25 87.128 93.665
12.09 87.831 94.057
28.27 65.815 50.132
29.141 68.078 50.077
30.549 69.333 48.135
30.955 68.346 45.748
21.52 80.497 61.384
20.548 82.006 63.244
19.519 84.308 63.284
19.597 85.975 61.854
11.341 73.815 70.013
9.406 74.035 68.814
7.324 76.168 69.623
7.064 77.03 71.821
19.437 55.925 49.508
18.209 56.687 51.6
17.131 58.751 52.267
18.287 60.589 51.993
90.869 69.673 65.599
89.695 67.816 65.665
87.362 67.239 66.237
85.039 68.33 65.803
27.649 -0.791 59.354
29.539 -2.243 59.252
31.924 -1.879 59.706
33.121 -0.109 60.635
23.311 10.592 71.795
21.605 11.36 73.815
19.615 9.938 74.639
18.329 7.758 73.563
65.983 58.967 52.709
63.771 58.632 51.986
62.196 56.477 51.975
62.974 54.025 52.772
22.221 51.545 48.777
19.92 51.531 49.002
18.827 52.337 51.245
19.127 54.263 52.039
72.21 30.717 56.042
73.22 32.366 57.278
75.345 33.729 56.828
77.284 33.527 54.974
71.899 17.428 96.627
72.681 15.11 96.241
75.166 14.208 96.786
77.091 15.221 97.862
34.64 84.618 56.772
36.811 84.176 56.136
37.975 82.417 54.869
36.951 80.561 53.438
10.257 35.504 44.036
8.338 36.125 45.873
8.727 37.634 48.17
10.787 38.938 48.93
18.676 52.375 2.394
20.074 52.771 0.842
21.932 54.751 1.78
22.222 55.371 3.987
19.704 73.285 63.82
17.731 74.229 64.151
16.444 75.569 66.027
17.47 76.546 68.118
69.603 5.652 50.4
67.776 6.089 49.295
65.274 6.667 49.653
64.259 7.9 51.582
-2.197 82.032 96.449
0.022 80.603 97.504
2.302 80.663 96.839
3.145 80.912 94.748
56.45 9.025 82.035
57.245 8.346 79.983
57.614 5.78 79.062
57.691 3.543 80.458
20.328 73.016 82.72
21.002 70.816 82.397
23.204 69.553 82.015
25.563 70.977 81.147
40.658 64.684 71.763
41.236 65.373 69.377
42.321 63.882 67.681
44.525 63.011 67.668
29.234 8.12 47.649
26.97 8.755 48.24
25.666 8.031 50.566
25.823 6.431 51.771
50.735 12.669 80.208
50.866 14.023 82.329
52.858 15.534 83.252
54.518 16.941 82.127
26.004 59.64 74.833
24.769 61.136 76.394
25.787 63.555 77.504
27.756 64.683 76.803
8.702 50.547 79.886
6.844 51.863 79.648
4.367 51.783 80.366
3.042 49.479 80.82
2.794 80.496 72.926
3.009 77.914 72.85
4.023 76.373 71.017
5.097 77.052 68.637
60.362 77.731 43.757
59.349 78.07 41.608
59.232 76.116 39.275
61.554 75.224 39.272
23.25 48.039 43.927
21.374 46.603 44.486
20.756 44.323 44.053
21.915 42.372 42.618
56.768 56.337 31.614
55.824 56.463 33.524
53.183 56.901 34.025
51.246 57.299 32.693
71.931 45.79 66.64
70.541 47.341 67.65
70.595 49.105 69.7
72.536 49.66 70.374
1.392 69.725 62.648
2.233 70.995 64.043
4.856 71.107 65.214
6.508 70.63 64.661
19.729 5.021 95.216
17.236 5.076 96.259
15.508 6.899 95.981
15.855 9.295 95.057
59.989 49.363 51.447
60.323 50.725 49.471
59.791 53.407 49.357
59.996 54.953 50.786
38.988 90.586 85.21
38.413 89.453 83.621
37.073 87.073 83.199
37.064 85.115 84.843
18.622 65.768 58.052
19.506 68.031 58.405
18.096 70.365 58.783
16.164 71.082 59.294
9.394 68.278 16.105
11.901 68.264 16.007
13.257 67.39 13.453
12.308 65.936 12.632
39.56 -1.057 5.601
41.63 -0.934 6.653
44.019 -1.155 6.066
45.301 -0.938 3.81
66.195 5.636 42.267
67.896 6.006 43.983
70.131 6.641 44.053
71.658 7.817 42.762
34.705 58.849 60.91
36.074 57.283 61.097
36.4 55.241 58.982
35.142 54.447 57.556
35.488 90.89 63.095
34.907 89.084 61.116
36.072 88.752 58.681
38.519 89.327 58.502
83.204 66.614 67.782
81.495 65.625 66.555
79.293 66.176 65.67
77.685 67.615 66.172
65.133 8.695 70.411
67.02 7.246 70.038
69.204 7.844 69.258
69.978 9.92 69.562
16.285 88.806 73.605
16.26 90.873 72.085
17.736 92.449 71.242
19.558 93.681 72.2
1.548 12.019 13.79
-0.574 11.566 14.737
-1.865 9.402 15.445
-1.418 7.031 15.05
79.974 6.615 87.202
80.749 9.004 88.394
79.137 10.93 88.936
76.591 10.779 89.511
90.561 27.746 20.776
89.97 30.079 21.746
87.43 31.058 21.956
85.202 29.489 22.19
8.179 51.581 51.633
9.125 52.793 54.041
9.817 55.679 54.068
9.633 57.275 52.38
62.947 70.884 83.271
64.7 70.6 84.598
67.274 71.002 84.317
67.801 71.989 81.928
73.939 77.418 85.883
73.414 79.758 85.682
73.302 81.887 86.999
74.343 82.566 89.166
3.907 11.357 88.258
1.971 13.06 87.789
2.099 15.592 87.295
4.017 17.126 86.718
65.979 63.417 55.676
63.773 62.816 54.756
62.26 61.342 55.182
61.75 59.427 56.989
62.495 43.336 48.197
60.635 42.149 47.34
60.923 39.883 45.918
62.758 39.036 44.277
73.139 57.48 98.778
74.048 59.393 97.918
76.104 59.748 96.388
77.404 58.216 95.171
29.138 42.216 6.901
28.802 41.362 9.068
27.051 41.677 10.808
24.735 42.673 10.777
10.462 54.108 59.366
11.636 55.004 57.327
11.886 53.285 55.089
11.457 51.012 54.986
25.469 53.222 92.34
27.576 53.93 91.693
29.352 53.594 89.541
29.231 51.789 87.757
41.249 74.42 73.086
42.246 76.016 71.56
42.01 78.191 71.02
40.857 80.374 72.533
54.525 46.017 47.198
56.199 46.08 49.379
57.097 47.851 50.778
57.194 50.294 50.57
30.281 62.519 94.381
28.065 61.411 94.92
27.501 58.912 95.409
29.083 56.738 94.706
83.118 93.599 65.084
82.556 94.009 62.877
83.843 93.065 60.48
86.301 92.423 60.571
31.506 87.281 85.615
29.565 88.136 84.379
27.409 89.351 85.642
26.495 89.032 87.738
46.074 28.873 71.48
48.485 28.888 71.401
50.159 27.506 70.761
50.449 25.916 68.735
57.999 84.887 49.481
57.329 83.19 47.983
57.462 83.984 45.62
59.535 85.202 44.246
27.868 73.14 35.516
28.008 73.41 33.466
30.032 74.524 31.625
31.357 76.117 32.244
80.307 53.453 38.609
81.359 51.181 38.505
83.185 50.169 37.092
84.121 51.009 34.872
85.55 35.897 51.468
87.778 37.424 51.771
89.925 36.518 52.053
91.061 34.586 51.591
2.504 78.162 1.545
3.11 76.497 0.095
5.07 76.615 -1.805
6.079 78.795 -2.114
42.212 59.049 62.69
43.42 60.576 63.573
42.254 62.374 64.57
40.042 62.326 66.477
90.578 51.188 80.168
92.318 53.181 80.882
92.207 54.554 83.232
90.431 54.829 84.708
15.315 49.535 74.42
17.817 48.867 74.661
18.86 46.584 74.396
18.132 44.565 73.06
75.791 83.884 6.205
76.468 81.672 7.36
78.284 79.864 6.341
79.497 80.379 4.803
26.962 46.917 43.344
29.701 47.013 43.313
31.168 49.056 42.209
30.401 50.714 42.486
63.013 -0.01 0.784
60.857 0.154 -0.046
58.517 -0.643 0.863
57.634 -1.107 2.842
34.46 12.865 72.741
31.93 12.9 72.631
30.127 14.257 73.606
30.156 16.45 74.947
0.121 32.747 74.243
0.068 32.117 72.012
2.143 30.878 70.705
3.691 29.402 71.434
88.414 66.416 91.687
88.047 64.986 89.974
89.793 65.458 87.919
90.715 67.441 87.342
23.502 86.463 80.368
24.807 86.331 82.689
27.258 87.394 82.93
29.107 87.49 81.011
0.684 79.297 93.297
2.667 78.826 93.457
4.378 76.679 92.242
3.149 74.758 91.429
15.292 -0.758 67.69
13.959 -1.818 68.788
12.613 -0.964 71.27
13.231 1.235 71.496
14.63 89.284 20.282
13.001 88.427 21.867
10.664 87.044 21.403
10.452 85.383 19.342
6.883 51.685 5.33
9.461 52.269 5.534
10.566 53.881 7.25
9.377 55.676 8.822
73.616 68.858 4.024
72.093 67.001 4.091
71.437 65.273 2.43
73.114 64.131 0.637
19.416 61.046 74.798
21.853 61.499 75.502
22.858 63.35 76.707
22.053 65.817 76.917
12.809 66.971 40.805
13.343 64.997 39.657
15.86 64.29 38.451
18.122 65.297 39.446
33.72 69.361 71.119
36.057 69.366 72.011
38.328 68.168 70.847
38.771 67.919 68.402
15.712 49.342 77.239
15.476 51.641 77.168
13.856 53.41 78.575
12.502 52.958 80.466
0.237 69.461 95.714
-0.206 68.513 93.305
0.874 67.009 92.048
2.633 65.046 92.406
19.956 14.751 5.023
20.433 14.375 2.845
18.775 14.835 0.585
16.836 13.699 0.923
56.057 4.388 31.1
56.345 5.79 29.021
57.229 5.396 26.737
57.792 3.237 25.312
71.292 18.681 47.681
73.768 18.564 47.927
75.218 16.788 47.595
75.364 14.469 48.513
22.354 57.479 94.606
21.458 56.512 96.079
19.722 57.143 98.091
20.961 58.53 99.283
73.622 87.967 40.548
74.966 88.898 38.81
77.591 89.787 39.021
79.34 88.61 40.321
11.552 4.008 74.446
11.177 5.639 75.406
8.811 6.527 76.251
6.809 5.47 75.777
16.931 87.787 46.718
15.556 86.667 45.415
14.243 84.075 46.068
13.826 83.202 48.122
68.282 12.912 72.88
67.088 10.926 71.994
65.384 9.486 73.058
64.61 9.326 75.406
78.487 82.884 78.075
77.745 81.757 79.749
75.879 82.417 81.877
74.751 84.029 82.472
22.656 25.269 30.464
25.029 25.638 30.478
26.491 27.203 31.203
26.437 29.661 31.848
57.121 17.698 88.858
55.44 19.79 87.982
53.115 20.064 88.51
51.419 18.93 89.391
14.533 11.499 24.11
16.071 10.932 26.004
18.978 10.126 25.445
19.598 8.773 23.49
83.485 26.736 1.832
82.514 28.765 2.531
81.128 29.353 4.688
79.177 27.908 5.704
31.946 15.231 -0.589
34.323 15.505 -1.812
35.217 18.041 -1.367
34.384 19.568 0.421
8.008 34.832 42.358
7.007 32.781 43.185
4.261 32.298 43.295
2.414 33.939 43.527
84.827 85.701 10.603
84.748 85.16 8.055
86.591 84.976 6.346
88.818 84.753 6.644
17.412 -0.825 94.215
17.813 -2.014 92.369
18.961 -1.812 90.073
20.843 0.12 89.429
79.895 80.663 81.239
81.097 79.057 79.716
83.216 78.529 79.105
85.593 80.07 80.044
23.237 81.211 65.567
22.641 83.482 64.195
24.391 84.609 62.304
26.872 84.57 62.359
31.992 70.844 76.8
29.947 71.098 75.188
27.608 71.831 75.696
26.301 71.587 77.773
28.422 66.986 26.15
28.169 64.835 26.554
29.557 62.708 24.822
31.454 63.139 23.204
42.527 65.33 93.884
43.396 65.792 91.564
45.284 65.282 90.242
47.605 64.754 90.726
61.204 44.717 66.834
63.106 45.727 67.732
64.313 47.747 67.19
64.253 49.534 65.188
25.529 88.511 58.333
25.871 86.609 60.278
28.695 85.515 60.215
30.21 85.837 58.619
52.645 83.004 0.119
53.434 80.945 -1.329
52.686 78.631 -1.591
50.658 77.463 -0.61
82.262 66.965 46.336
80.005 65.915 46.282
78.455 65.002 44.365
79.308 63.547 42.449
68.17 85.06 84.679
70.285 86.475 83.726
71.939 84.277 82.447
71.278 82.731 81.652
29.925 67.16 54.357
27.879 66.321 54.289
26.127 65.779 56.158
26.2 67.016 58.454
69.805 73.882 5.103
71.126 75.642 5.237
71.235 77.084 7.72
69.623 77.033 9.503
44.564 79.247 27.472
44.195 81.075 28.671
45.678 83.342 28.126
47.523 83.19 25.998
72.669 56.898 75.146
72.844 58.251 73.102
72.804 60.648 72.765
72.335 62.638 74.385
18.491 71.258 62.656
19.478 72.039 60.385
21.737 71.681 59.375
23.407 70.161 59.489
23.077 14.366 96.688
24.86 15.717 98.255
24.193 17.487 100.152
22.276 18.572 100.778
82.32 30.4 23.087
82.485 28.931 24.883
82.067 26.164 25.213
80.66 25.07 23.555
53.455 18.341 65.669
54.44 20.328 64.39
55.128 22.581 65.327
54.972 23.71 67.672
51.524 68.195 61.502
49.708 66.626 61.606
48.118 66.189 63.449
47.611 67.201 65.646
13.595 87.805 25.181
15.206 88.654 23.877
16.902 90.772 24.07
16.975 92.356 26.064
55.508 31.871 68.193
53.008 30.884 67.245
51.994 28.653 67.66
53.032 26.326 67.657
65.2 87.953 24.709
65.314 90.638 24.44
67.247 91.976 23.3
69.469 91.236 22.426
17.816 22.019 9.132
17.767 22.703 11.418
17.0 24.933 12.438
16.461 27.031 11.683
3.505 9.596 33.109
3.52 11.604 34.028
6.315 11.848 35.016
8.374 11.448 33.879
19.738 0.892 25.451
19.768 3.546 24.998
21.704 5.166 24.863
23.474 4.368 23.859
87.697 18.555 15.108
89.881 18.504 14.806
91.867 19.083 16.369
91.921 20.948 18.211
76.112 31.703 30.255
76.042 31.177 27.802
76.647 28.608 26.897
75.948 26.339 27.715
72.772 88.567 36.646
71.819 89.375 38.743
69.507 88.368 39.995
68.464 86.296 39.478
85.206 25.886 28.341
84.295 26.635 26.426
86.259 28.204 24.708
88.594 28.159 24.809
86.984 46.798 4.301
86.924 47.466 6.634
86.342 49.822 7.782
85.179 51.62 7.155
59.505 33.48 43.012
60.385 34.765 41.342
