69.42426520240977 80.33836595546161 34.76941167142607
69.19607703935344 77.83876002196259 35.35480020789799
67.33041623294879 76.5518213732475 35.173388037417624
65.76854140143128 76.59899951527528 32.48072694196256
73.78748288840872 66.01429293614659 52.51701496891876
75.76189684571905 64.77605268474818 53.71164817818025
76.63128750290906 65.3227488781652 56.119277746942025
75.90140898744076 67.13855195096805 57.3873285820042
49.151729115076456 73.05780379119284 34.06674156866495
47.38063193819349 74.38508335109283 27.126434882458206
46.388968938254955 72.16078620353431 27.367190699120716
45.97564989600778 70.40535727159872 25.106054118639847
45.397833371704436 71.33819954193417 22.752836189797822
86.7468871377398 83.0338706696389 44.38343059916619
84.36513462968598 82.28034806766547 43.29747135599339
82.68197920152036 83.46847757715301 42.38019768391922
75.63724496648052 65.69124956345091 46.82521352158617
76.9025096559827 63.80197886197768 47.602917474569544
76.04019441699917 63.180500487730775 50.18946900899664
73.96088411807739 63.607337489562155 51.31189650372531
83.23871644524408 65.18568759201698 50.8441188659821
83.62007199989905 63.49599287262835 48.65911225647555
86.01174025025476 62.44502621912336 48.04691100065924
65.01918319601403 75.92173855790864 27.644499303765574
64.52859567502912 74.37256097760854 25.543902507707116
62.10676534659653 73.52443566114992 24.712248486490477
60.404209268204575 73.85239305101183 26.087271415277392
77.420350033449 67.41609784714717 60.12640112327746
79.45167230768551 66.31013625071469 60.375956853153
61.289850680833766 59.229003947286635 43.75059537542409
59.94005426255951 58.54845560038038 45.309456442655794
58.04767317809817 57.29002794140198 44.987960394308175
80.88459653489636 64.35605544168449 47.67232141664785
79.29610293707167 63.69896078149663 49.08132469740875
78.47292502778785 64.62910808278431 51.432639605283164
79.05633834994013 66.5200176758931 52.9055921602156
71.28639889695103 78.32484846403476 41.29413807833847
73.42374513008194 78.55085141484601 39.97887445874689
75.87120075858572 79.35122281307873 41.03848629140745
76.00620340618347 79.93621725776897 43.291112001480215
82.20878500449038 81.46294189430868 44.808394780340066
80.49238365390072 82.18933557292422 45.02695094482933
78.29618275236554 82.12617194015301 43.43054889159817
78.02578866509326 80.75152110694724 41.37020279235414
68.96899586747794 66.18059196610149 59.54201791510448
69.90504296309841 64.02121939618695 59.62284876999949
86.70410373050224 62.711718157057405 51.97211754288759
59.65616314654211 71.03705669835759 28.38202802349482
61.85970846881269 71.94396185691078 27.324267947503074
63.72041991400704 70.77383666001091 25.68368039124346
63.897387942331356 68.33598641460533 25.193820673342394
64.34111575575457 51.89844195586373 69.6122821250849
64.39470656242342 52.96861394179544 71.7874600620146
66.15523904129256 53.04603091691744 73.66675386336394
68.0791193010922 53.59540216482229 72.99473905639456
48.278345854033795 69.43441879049017 26.291955557374557
50.29875792149761 71.34852319251502 25.96611374690941
52.79848932601808 70.78595149539487 25.487265045737608
68.98906787709429 78.95831395119059 45.57682101937621
68.59138981330756 80.57683039299032 43.74243805304611
67.4771971413896 80.35167294956538 41.71027314180388
66.93434501617534 78.31192090451232 40.177194324389355
63.84847539980968 63.123538265275116 17.257589701406083
64.65160295117474 64.96315728272354 19.08625544226485
63.68362579539216 65.68090917853266 21.13664718391935
48.45262115661511 75.09759389479204 30.912966042856475
48.6047572757103 76.12288704296955 28.81242410830635
73.59705183160594 62.9127730550677 10.37456259082699
75.62856668816357 61.8850657669553 11.428911955477155
73.33306814542198 55.3743651128306 76.56391485058147
71.58897935530217 55.687915803211276 75.56123512991601
68.97836101027417 54.38386913498325 75.93359954057958
68.12845804865657 53.80412638368351 77.8279684972117
73.18836513315094 67.44377707581059 14.593912731475262
71.01394009265121 67.2613922950023 14.307211923204555
68.966926665078 67.9230202107282 15.548789994657515
68.56160787555166 69.78637936222384 17.269264765336896
80.696825922458 56.87292381998093 74.91224367625638
82.75423045425163 56.97120263803107 74.15510725873433
85.16130292266877 57.245810176741166 75.22495745220003
85.05174485196896 45.29010629390188 58.73060227086956
83.03516040930991 45.85104436702752 56.99250151108425
65.07607057428024 68.81235614288116 18.039815041591847
64.4507774056766 66.91646853634757 17.18058703978592
64.78159101077811 65.80211105825225 14.823406570193097
77.99546894538571 57.27073986874712 75.49551560527291
75.60861478945776 56.35199738206927 74.4839039087309
73.51035173812288 57.077780699849455 74.34231811710262
85.10454924084539 59.3229991757956 72.54803311329229
86.35710977722513 57.13306412715522 71.92568375127291
73.59942674649432 64.81703159750155 14.418333128232126
75.70420682278244 65.11851017817382 13.342059109929703
77.89356359626622 63.014176078837394 13.155774520020364
77.74136974192157 70.35038681989722 30.283772677293555
78.78290926083245 71.59494757749397 31.92210360817243
81.67578709237827 72.15975262808713 31.568020557562875
82.97401108726491 71.25144736952122 29.974288557926304
83.52687937183734 92.95260394842012 28.330764183721993
83.12805532537833 92.46438693385014 25.648903531498704
81.46101520232895 91.0326873796345 24.61457693673986
80.12293049854306 89.05709991522467 25.24380119586565
64.69763078097101 51.35037145475107 75.61865746242857
65.47918381575114 53.375527019621764 76.83342141687623
57.205346838681336 49.72562323159381 70.56307836583841
59.69206295283362 48.58246425799803 70.61766471605284
53.69564620187357 74.24520170913036 32.47874453642053
51.501825776480665 74.6555903807452 32.22744650577082
49.789989672526026 76.42986315104584 33.06550024619522
81.79242268195634 43.744377995689284 60.15742124310763
83.8615372626015 43.04434208102861 59.459538233210246
86.03034610458077 43.29368889388697 60.53106539871116
86.91270964035064 43.462151727704125 62.76020066433127
81.11637030153476 44.42032956265919 94.45921531246101
80.6475343416701 42.151312820970844 93.41411082837483
81.54220988492797 41.559801452554176 58.68165456790418
80.33162892056797 41.77883364831571 56.56190490547077
77.95130486105796 42.42738025327295 56.17653097419429
76.08948673926376 43.521311641439 58.12857917192198
52.8998591736316 61.67728907594954 52.23724963164706
52.90285161488457 60.90194075400345 49.645864129966476
54.42727938920214 61.585368928908956 47.964088914816934
86.18048388904026 50.82169622648824 69.15753964056503
86.73787764041104 52.70845405857072 70.3620661769401
65.99753101438641 42.84685551199822 92.169360429416
64.9014279139159 41.391291487385196 90.69746457660207
65.41479080476756 38.85902992416629 89.94618404937658
67.39855537905585 37.836349506690084 90.06383627204188
82.53300728798278 41.3218402802179 90.09010942617219
83.47871990372187 42.926779484285774 88.7496502379198
86.12659799475695 43.91959459336041 88.81169834783992
79.8273949737866 37.66481813282476 78.86507557845674
82.05936721947255 38.25290539207441 79.92481203274212
84.28671966054766 37.06964400407124 79.76931266816148
84.57627339180027 34.40760813776448 79.74552686891104
74.64128138463178 35.694112578282585 80.51065775235543
77.26216466187847 35.56926089534217 79.78606488384433
79.24288357917467 36.54333816767379 81.24202289872306
79.0505415589844 38.05553447872933 83.5541565319243
86.70103884355443 40.16950021271092 81.31562801484235
84.0419625559106 40.28561490777192 80.96773993215352
82.58759328090153 40.72632423896446 78.91370032366906
86.293351920048 37.046048205718506 81.86972927945394
86.94721265362149 35.179819036329675 81.23617754711995
86.77162215692788 53.110407162461236 73.23288065200428
87.29667835741235 55.421931981205226 74.51396300994777
85.53557102403522 37.69132635243687 77.41341090882925
87.13412740548488 45.0242978612459 91.99184697813351
76.47564246510211 37.62897258267847 77.98930225408624
78.21690155115137 39.658533607369115 78.0196959926606
80.59006317368922 43.71408415748707 89.27062168585883
80.37278171009613 42.73341667292697 91.46783814831996
81.60902264545908 42.22364777190677 84.43476762558242
83.37127738882528 42.298812815161114 85.96540686745757
85.97370721857368 42.40809247486192 85.15223142509879
86.56556990642251 42.42765036002947 82.9215260810555
82.0707965330414 37.71901746836054 83.11343946308463
84.32447650157525 38.40092422203802 83.11827911266981
85.49496060788435 39.71028327510234 85.4466418112524
83.89895891925651 39.68728878921338 86.79537359625937
79.07083996961507 40.356859392437364 90.91283966554683
80.8455216333179 39.65221866851447 88.81580631865052
80.94640611418633 40.293711050816185 86.62928419966234
78.7114694896374 40.48884163143261 84.92275664894764
85.96121948250963 56.471456188792445 77.51359086990468
77.54793630749299 44.76143359640381 93.13420472124237
63.22302017435923 42.82404355558041 89.32011722205417
82.01488664443298 43.07240007849071 80.52686428231802
81.00627351495939 41.165250406664846 82.09731526797692
78.85242328850227 40.43699625887558 82.16608805258046
77.3356719955384 40.20712805990017 80.5394427825447
65.99804737965314 39.60370739552837 87.37205086688977
41.886342856344186 84.25263276765776 12.214548766019888
42.36641655016174 84.88437560150459 14.95234156575351
19.13056739852676 93.40613210361627 29.48183411980758
20.34934057794469 92.16592351725987 27.734164032036393
21.635392954974805 90.07867073757534 27.56433001647197
22.945073214800033 88.72071236463852 29.572614168699726
23.063287047910027 92.61690396995881 33.152472518523055
24.070160288023803 94.72569532413644 34.171772516523404
23.762122669454413 94.74127679964246 38.58945082862257
20.61113835103427 94.44080327985434 38.39720127724243
19.431240223351413 90.52168732501967 25.409919528515502
21.92713975720563 94.16969124525994 28.184109450226067
21.412684737954056 89.34104818587727 24.316251687257513
21.082961690793116 95.17181567667858 33.62788195563638
19.713792388896003 95.02639456286533 35.903279226175236
13.437888813582555 93.69235728940657 25.802127422272452
26.570463913662483 85.81761267918303 13.910034243281464
14.048621412086442 89.58051444949855 23.860459521218004
14.775994437273061 94.12810747083235 23.48639382999042
15.366694944649796 92.09676437630672 22.452618502803993
15.655705497739065 91.51223653928334 19.921595388687788
39.07579175386084 83.0142562563325 14.123642206283307
38.17471441827328 82.30327338050448 12.340428557831489
35.78997568698633 81.1832389917649 12.086231891767138
33.68771447953133 81.87375698852071 12.921078301793061
41.057236268463456 81.8336171171901 13.029974365025334
20.9606105780688 89.53659529775788 17.76790033317016
19.194190129435775 89.25338696220707 18.883202295416655
18.24676708458694 89.9770311875689 21.205028882634615
19.12632690545739 91.73338256746226 22.923716814211588
26.576835377461325 88.34085694327437 11.759063401348275
24.855171555369903 87.18143192828566 12.7593462406113
22.706862834621386 88.20047766850738 14.182820297463818
12.16908388814834 91.73444157991385 24.64228787532734
22.80107699246224 87.94223341292826 18.655504764665412
17.465124935229916 94.35226195573159 23.664452661964354
17.92328812315049 92.69967208422577 25.423796284026977
36.00355943379638 81.99958611094972 9.119018786995593
6.899481828676094 94.6349575806625 28.69747609500843
38.38031796944502 82.97745102088173 9.891734875725694
39.42292642213799 84.51730090038843 10.954934121385902
22.721865019652316 92.39180667019178 26.238618887985695
24.72694383725338 91.84989851557194 27.688375425306162
27.221025035125415 91.51769424335178 26.87665257581091
54.33167879942417 93.49299006855799 29.34755121936948
24.723204391792937 90.95624907225739 30.048078929335816
24.67660401539542 93.14380323136908 31.059043253851414
26.79249749438986 94.34757855935295 32.35759976796329
29.059392007186833 93.60966655028248 32.43916185554385
38.315958790183274 90.85808087366114 30.783652486151855
39.29421900162597 91.13923628476454 28.896574029224137
42.203386105644825 90.99373349254638 28.310633935527616
43.86955574235031 91.19112115550685 29.819236696977896
24.589921408240617 94.65592070787157 28.793164147118286
38.29706295185948 91.59400504684483 24.83611880431867
36.56999789931712 91.11111670949214 26.548322935603
35.62182595736758 89.26971835319196 27.576669690950006
33.71740177752671 89.35095464925658 25.89495530675586
32.994464521330826 91.52378633605053 26.30140244239411
31.054165816000285 92.63642325327262 27.508801861471664
29.053257761725806 91.63410703331996 28.49059902517916
42.365185163774896 95.0009666816815 32.50235901428824
40.68452260805106 93.57762872578577 31.55338509635232
38.21200184655055 93.17429949283824 32.10430897620664
45.15201758690305 94.34137541124198 20.94354228478748
40.14696197459841 92.45566818539548 22.22473941697338
35.918095009344555 94.42643716698657 27.927639681854785
38.00537895762664 94.09302332054786 29.375537481366546
39.97912082922527 93.46626264765585 27.661812603008006
40.08801852153948 93.53461453845739 25.41149153788865
26.96076256470594 94.51997571161567 27.633748520096486
28.760569285890305 93.63677799781313 26.25698238557534
53.10771507928116 92.46045699266284 27.160190887651893
36.20928209173185 92.33297416932412 23.039440209900494
35.5444562424908 93.51598519077235 25.474644354577958
33.723843263679974 94.58261199037983 26.155774997030726
42.78189071192676 93.5625867565459 22.91376923314243
43.08639345344828 93.79470476610963 25.465492221867137
44.329211370860214 92.59862867565458 27.118482005786685
49.45988352484791 94.53928436844284 30.99766350966436
51.51699844018134 93.73808408268486 28.96229356497775
45.426519143869136 94.63213020660818 31.541089365331366
43.42487734348411 93.89794239912106 30.12958726861588
42.45434611802903 94.78411963170834 28.15926790190664
32.16729888806958 94.3176332473444 31.80953548189349
32.63451598872728 94.04569594933619 29.65491402970177
34.443366462038355 91.9273819811722 28.70614501193237
35.820231731798366 90.36495678968873 30.138910764452117
36.67668329651052 82.06768186125358 6.734139273798409
39.24862229322909 81.88798610143782 7.9500545210290765
40.302727257851444 88.67242028887438 17.91027967045843
45.939967841683256 90.32750072439971 17.023931988656848
40.37268445527778 90.58288803039508 24.27253453677962
44.90384737535353 92.37487786990236 19.812017222419744
47.56335387242775 92.12296955616772 18.563420040703242
48.99534967853544 94.120596261199 17.89903182373879
38.1425016799648 90.08399668158344 19.288008392606187
38.405045290835226 90.8825441472503 21.66469677734338
36.84055993948371 87.70743940109385 18.733009909833065
35.31765627736164 92.11201360506028 20.95437496552862
42.71143811339552 91.67867210214568 21.403581296143763
37.47824288592402 86.94818655008044 21.605776548243607
36.50730922850139 88.9715209347058 22.814159190850926
34.110698521467185 89.70971970953896 23.154837795681537
31.687077224986385 88.28936252626822 22.56129036753524
69.96152085343498 95.00157085351816 2.9158776897353413
67.77527543469925 94.65479833844874 1.1449152163982665
64.79656911741247 86.83394434255479 9.657264962555294
65.6410116402662 95.11635830809092 3.0785051127087755
77.66448214076766 63.331442830415966 1.1767358314443548
78.8990175167877 62.759420143044416 3.385089078608863
83.50456119816496 83.70048494259375 0.397152837250326
82.63320469132536 80.46694702990564 1.1316764830009578
76.89466907096549 68.20348369265287 3.329395900586817
77.81325170600996 66.49877397897603 1.7695160971069395
76.59016646991321 65.48576299483534 0.04845389083973427
73.56542058604359 62.4338229728633 2.910239723433386
75.5192744436069 62.4284508751149 2.5677508393550714
76.87054753279821 64.82100713601358 3.783394623400158
82.80067428470961 65.2699498695514 1.7773499428722255
82.86902592081248 62.97512929260643 2.299610213539192
84.44183587932672 61.39344293116334 3.1604083554520273
87.03934610010036 61.45008754982544 3.62169983595884
83.2379493299845 69.21302467025401 9.191530876226295
83.40861584055116 67.45326181762556 7.7641697200043325
78.78692516838404 64.32954231255619 6.003824704842184
80.99022782828479 64.04693692527479 4.653160188938529
83.34922857326514 63.21812015716373 5.54520886769903
87.1810079532195 64.72869489987562 7.078272277487199
80.6670785725104 65.09738107534366 0.1297933411837694
80.60972386512456 67.07257074787765 1.7333633567422768
82.78679882832752 68.38219851387026 5.498046323058852
80.85421385107809 66.8658791679658 4.507651849382288
78.51655066940994 66.80988939508607 5.219518455729198
84.03454198554255 82.48347064334658 2.4707758546738767
41.419247206364844 81.60457663184606 10.638847315295353
62.16971871847263 93.95241654782176 27.196060542817584
59.47085379965903 94.01333086102639 28.211913808035792
57.85100909408967 92.38415590237203 28.017656382279057
57.03051832609202 93.46395040629157 25.145259017094663
55.51888443884688 92.18375696226104 26.64241694393864
40.72924607337965 79.63745155744893 8.954582106095314
82.03267282190494 91.71121549500029 20.383504775559835
69.0071667183128 62.10661170708206 8.004311135240995
72.99068923158008 64.4557580593073 8.45029120120231
72.28778000696306 62.709378522474864 6.654752042734003
72.98611083881605 61.84465961267557 4.935991043624962
69.28994065940547 84.37711683753112 14.263002234352774
67.24099784576505 85.70601380500258 14.5108501625353
64.87664742860241 85.27469112665962 13.358461516061046
63.62598839637525 83.40269269121859 12.40013854986185
77.99607823514224 81.30929441867532 5.041174093259002
73.42415724006216 81.99067333572762 5.980877904175539
73.68586205519941 81.68862874730624 8.016836776776774
63.42777231399144 66.25438773667061 12.0537615604222
62.69641579124512 68.32956578238941 11.756668618818505
64.03345341754051 92.78188818337868 18.11619160650219
64.41111076948985 90.94459255311334 17.273116575952894
66.49927574855278 89.32050128376126 17.233391296611945
68.95853708224459 89.6865830356024 17.57781369123923
86.51409081574278 94.05655144033967 20.18818098051998
62.13772751707866 67.30716543787827 14.58558314218304
78.99779132033045 86.23696679057946 15.473785505047779
78.18094635911693 87.64451497097437 17.743131016844718
78.72667271328122 90.27886104935108 17.875173669398652
80.60000185698568 91.70891650392069 16.754673570811754
74.73957044327366 92.54709717673025 18.648300316519496
73.90960722845561 90.98852372885635 17.11289178777775
73.02270967775571 88.5396246494472 17.497834696968454
73.27510839888998 87.24488491027932 19.204896223977368
57.612821766746954 88.29165652318147 18.38520188126433
59.184364910838774 88.75878548818669 16.62982644596627
58.976534026683964 88.41287008816401 13.921588341789604
57.408124482801355 86.61254851348065 12.747509689084017
68.09341509352151 88.24799194743655 14.006096994788539
70.01193068744197 88.34419946392664 15.541669591308068
72.46748192803096 88.91597145185408 15.01131205265784
73.56884365932376 88.37408977445831 12.456372232744787
61.78005798755476 86.91133237862884 11.655794644074293
61.80322548789842 87.75310793839526 14.007832655091775
63.7276495284586 88.98454738228922 15.25415551187072
65.98007238229162 89.51611707395486 14.464776982996666
48.81976207881207 90.15386064933648 16.15845444371027
76.30247724691164 89.02813157163642 11.919820057267268
76.61477304496394 88.72885308646337 14.491176327381167
76.7591259226627 90.62299189926881 16.17253224807388
76.24529959046214 93.11805401065567 15.894479498880061
76.65545289489955 64.77562302756847 8.762065825767158
62.855988712817236 92.75542733991877 25.21445688329076
69.03472744986107 65.90055410062604 12.161278257186177
74.22412994557962 65.78000321409688 10.240309819000075
71.73577399427457 62.874582462043975 2.545994532189255
59.87817006238732 93.44879241030024 19.135490233897283
61.4873690270456 92.03582623702509 18.302915173968834
61.23483932105465 90.76673769993087 15.941890494785941
59.92248492626607 90.87510386087294 14.055395324392189
61.20965924251546 93.84278962951538 22.702371329218877
62.93436074521691 93.25912831067376 20.88036974677153
77.36889672668853 87.47805048094214 9.924859420093284
75.86024810327861 86.00997342155794 8.992352005350819
76.61529328267285 84.76229067629991 7.035785850590118
76.33240963344116 91.8101338195987 22.409438395305145
68.25754707423485 61.891522367732705 10.539892019574939
75.64994233803729 86.61670291958453 17.589755218157308
75.43222704537118 86.52475481123881 15.325515836957091
74.02333615668421 85.17549208846594 13.713593687715925
72.30131392311276 84.24507066967652 14.422285193950492
66.16764777174419 85.84724588370113 19.61848076352507
67.37418166508274 86.44526987708232 17.4422359969108
69.88656635457161 85.80264012222159 16.582588907359654
71.7045852212444 85.68425216176495 17.696666479800758
73.40195485002566 85.88140173986307 8.531571039396946
72.57589821328189 86.13717033102537 10.679165030847651
71.09319583722845 84.55150811481293 12.195998858648458
81.15354276789654 94.42317990946245 21.075258702601612
79.02927266187262 93.13162257704727 20.81709425815043
77.5503058880493 92.73925186570322 18.909970810580617
78.72238503164313 90.55201356387923 20.792932189449957
76.14484840107598 89.48449917507045 20.66468840030182
75.60733132515281 86.90218745019457 20.395551381157965
80.39403138961812 81.81364063628165 9.562309707403665
79.13923309851315 82.83788857431425 7.792963126355607
80.23827326364828 82.83845852286895 5.318300779511913
82.29416623015553 82.68937817233662 4.6287777636310095
76.82060205880673 81.37502375351856 9.065938161341988
75.52075409753763 83.27226453281607 9.346872300962314
75.76048588615089 85.07036649064781 11.472616109314647
77.42242519223129 85.38375471650441 13.280795770722822
71.17002431874117 62.262940335356966 10.102071773150481
65.41821898126821 85.2227668414049 16.659595795567423
63.3141123035753 85.43971639924055 15.334207118767798
60.91193113705458 86.63265861495636 16.413166996781197
60.75009480526573 87.12796228482841 18.17882422130292
66.01276729152941 66.07861881114793 13.070223256870825
58.56020583567823 90.13443445874996 23.895452533491696
58.494618529112046 92.43962540740878 22.48365357928103
57.51836548337462 92.95416205471801 20.075830228248073
57.653913859922795 91.18549714018286 18.69114040560962
60.947323707637295 90.68607883609987 22.905967385712714
61.0247066729134 90.15626445749874 20.4867188663209
62.73817918324704 89.16819002363364 18.854671329441988
65.25953137897683 88.20089476488899 19.467691577768765
61.69630499560397 83.62146473083116 14.269124846712618
60.005387511492856 84.98446547343708 12.820051813238688
58.53064180191284 84.26347850262847 10.99310823451507
58.06180584204818 81.99446176094014 9.948003750428887
43.41180251476449 82.69000445196751 8.703253351470062
42.31569941429399 81.23444042735449 7.231357498656123
42.82906230514565 78.70217886413559 6.480076971430648
44.81282687943393 77.67949844665937 6.597729194095924
59.94727878836087 81.1649892201872 6.624002348226239
60.89299140409995 82.76992842425506 5.283543159973837
63.540869495135034 83.7627435333297 5.345591269893963
65.58451937219267 82.82006965571252 5.7376546664246595
56.46481305936249 77.89868341869861 0.08804945397837415
78.6210855571934 80.90543901947682 2.63531101955741
77.05267601331077 79.10511744479345 1.461232366851827
68.46431360932148 82.64642958064928 4.872177121478086
66.8145786620499 81.80754395689583 3.5535829079433583
66.12039374914166 81.61682602518368 1.0666113333489944
67.60446900791504 78.337189342446 0.5059691408161261
65.00270926425208 78.7321870004974 0.13973941609662283
79.56703645677548 83.36767279218574 2.769118002160001
64.54839890586295 84.8674468012152 8.525739900187562
67.20790540293716 84.61553848748053 7.277142718471048
68.63990120904485 86.61316519251181 6.612754501506613
58.0043346740673 83.55723309745636 5.804514607912888
57.78705321047421 82.57656561289626 8.001731070374
59.023294145837156 82.06679671187607 0.9686605476364658
60.78554888920335 82.14196175513041 2.4992997895116287
63.387978718951764 82.2512414148312 1.6861243471528433
62.90923210826243 79.55343221507164 1.980534733306461
61.31323041963461 79.53043772918267 3.32926651831343
56.485111469993136 80.20000833240665 7.446732587600875
58.25979313369598 79.49536760848376 5.349699240704568
58.36067761456441 80.13685999078548 3.1631771217163793
56.12574099001547 80.3319905714019 1.4566495710016873
54.96220780787107 84.6045825363731 9.668097643296422
40.63729167473731 82.66719249554971 5.854010144108207
43.41231888003123 79.44685633549766 3.9059437889438255
80.1166967135125 81.68002663354842 0.028977532100699633
61.585209274353474 4.932303280521354 94.51094142095646
62.44428939122394 3.287930219270291 96.04909479842297
59.00687161110321 2.0692994951778205 95.32358901251159
66.56411270059135 3.284609908800972 94.26495609457685
68.22790255603799 5.0966503993644 93.43507358050721
70.15414816321133 4.753962808744024 91.91419068145277
71.36994593890964 2.4582521843906564 91.13478379467644
68.09168642872629 6.232558830569921 95.83101035276043
65.95068516625378 5.649696773312935 95.41647786101842
68.8397134651518 8.48410622509999 94.16895448428136
73.31687166619258 4.276144871314793 91.1549710972661
77.51826068922334 0.4551204237018329 89.40824769806535
85.78282424127204 2.8798374397570785 91.27272674326649
86.94588053133376 1.1500864038802534 95.6645708180963
32.42444909373592 14.729775735393314 80.94829608538502
16.617446134160062 20.7712627801669 93.29302225920374
19.02785287722195 21.13288508404978 92.57666893848534
20.297885204418304 23.25037237101282 91.70089066863315
34.76065292206948 7.614587007422083 88.63401604069442
10.315525944008193 16.135607317473347 93.35589719534342
11.964596834952442 17.837960538181974 93.1417029936993
14.464848479212197 18.05870730580454 93.9313149656803
16.205401070996615 15.874896863563206 94.21642045436744
31.664693632247037 25.106538751519377 93.18085484120708
29.694479153782087 24.925548852719906 93.79011771713509
34.61231980308265 5.988626309221041 86.24552662024838
34.26627210328706 3.8308846841618096 87.02560594534387
23.04868849117645 22.64390425923367 91.59089325433952
23.153015089860403 21.532336026892576 93.93746402766118
22.94904058583337 19.52409376240222 94.8256917253039
18.86676301114447 20.291569883236637 95.22251784418145
20.385725010712193 18.49643383688815 94.8217979356238
28.55152011850574 21.077919380394476 86.4093951956252
30.144966971597864 22.234578455768993 87.97604753728999
29.77301554880883 22.280278967933054 90.82921694101336
27.743491408626568 21.747432748559465 92.02124361538239
41.461245474296334 24.835555422100295 91.70501530618937
43.591847089296905 25.346617701678717 92.82812000035173
25.222002251339916 0.5795141717387338 86.46691524440442
27.568937816396737 0.7130628075406018 84.78464605345121
30.053938839548195 0.30773075495217644 85.57854837119395
32.405883658105616 16.708242952992663 82.40616678176089
30.4620838891014 16.73549813158 83.95806182649642
30.196311423727614 17.439149084788177 86.27670112750776
31.737056000436517 18.681902770925664 87.92401340733657
14.20821981991136 21.428684803878095 95.70503994969137
12.853829969690452 20.408918649750316 94.18418505587404
8.61591039451819 19.183596844842654 95.9410568320507
19.82338612687451 4.4344618835090825 90.75505814666124
42.55925296249211 16.85405354561014 74.93573082127465
20.178698965337933 25.218361257779392 93.78326475123225
18.226394311197836 25.935030472069553 95.51148165186389
28.8865217379722 26.223150226105815 91.39943008036201
30.58606574179433 24.707200819291472 90.7633133065982
32.59714296957912 24.82842785187805 89.36532150431708
33.483325543390734 26.484746991583545 87.86839055079263
45.33910103776715 25.696468260867327 90.59344037407939
26.73621168198752 24.346476186903644 90.64619399456677
25.372596908219293 23.185816115172262 92.60249778036706
24.25821765289013 24.238388467535266 94.83303514741127
24.63865524531788 26.05855543305818 95.79784394043881
19.726767425079665 18.296947171745558 92.19396416181898
17.310677915633146 18.25118271706607 92.47112068469804
26.1123597526245 17.830523331218803 85.71814260801824
27.9525541201452 18.707359660638527 85.46569070922358
21.55413342650322 24.049971773439367 95.52461384183712
20.898628057272614 21.74861844703933 95.95618157201413
50.74104008119334 22.903176834831356 88.0489631669985
48.89321185289032 23.243643793245077 89.39470346369482
48.20894203722338 22.14356138124429 91.86668516353475
49.46944479676012 23.605943442638406 85.80560789996738
31.17960860855226 19.169043393272283 92.53067255004143
32.05425521541195 21.50945900854196 92.33870471341214
33.76940933826005 22.430250130567067 90.82886958837956
35.273760012760235 21.935308396013212 89.22992804664958
39.49398331824045 21.885379399145428 92.90313006521646
38.61691757959491 24.083662282849605 92.7813699993292
36.07850314369814 25.033357827482178 93.30780878039984
34.00279403662793 23.822116361785135 92.99539022665529
48.07500895994456 22.173319082317633 83.37430025133935
49.03084463702767 20.882373977522647 85.73343155541907
30.729134897231923 21.229729841803003 84.66775211693688
32.48953423629787 21.201420574104315 86.48041770399024
33.70670223104428 23.197300619184578 87.46504399543876
22.214168071177507 0.5155518329992081 86.82937698891789
29.791677685085336 10.500051768527934 79.71258719309628
28.624009499282685 15.291808723206485 82.85351272623579
30.233149088045014 19.861122583474852 95.19603777288809
28.7368570512062 22.142588675416853 94.84140035898426
26.396173236205392 22.58093033374707 95.88198121517418
38.79528605249036 25.571527959733835 95.44514408406951
38.495053924556935 6.478791677461892 86.20730833756758
37.15223968673923 4.858124195968917 86.87640862440213
36.18372542040686 2.4996605092977053 85.87458443641054
36.60683219137558 1.669198701295288 83.67228579961349
30.97848484347173 1.6938712352761607 83.63428405420069
36.393260851671236 1.461960096380204 80.91325410803132
37.932132676244336 2.457136908260127 80.06128658676474
45.79302923329078 21.992382036627234 87.69823484415721
45.25565446400223 23.066166865106066 89.73291586597642
43.119062082661465 22.630964158239454 91.3871438447205
40.82742394849544 21.56929991296494 90.64679449133523
35.26196359065104 27.78086771464825 90.17308253277457
35.44745996036148 25.820785329684014 90.82510511154912
37.20767432440315 23.706715490106266 90.15921642963723
39.476319401241625 24.125000333438273 89.81194385447677
3.2400277713154226 74.93072727531926 76.58679226204056
4.508422864086876 74.4208534294369 78.6230501972397
7.088431524409187 73.52691389701441 78.51758923489652
8.78267790361764 73.7779064121461 76.92143487979723
21.493171075959246 58.9864459523324 84.29684643476479
20.125904643394254 58.897168987801585 86.139298199313
17.33183993509535 58.77336425217129 86.4785659120395
15.575113232783805 59.762545684100445 84.89865662045753
5.589151103357009 58.634968750201075 92.77077374309224
7.001771774828745 57.18472654533841 91.26852305206185
9.108146947650361 57.986326014576186 90.00813404544347
10.296208246095388 59.88857505414299 90.04967093925185
0.8420094635001731 14.282727691997698 92.70758514487686
9.893770546410467 71.93259097497955 81.23324706116996
9.946732420402723 72.31710148611243 79.00070977673278
8.568330088672491 69.46922937375992 80.59111479888556
6.709845772325722 70.84252564600061 80.59288736470143
4.6899732692313485 71.10736059213845 82.51556810824958
5.077399790023581 70.81441092159142 84.81679503347749
32.532320056878504 57.42235500807126 87.8348588131148
28.30466243975922 59.388916029163404 87.25535363732187
26.95341749957727 57.53990282357913 86.91284007993808
19.97915070162622 50.497595822838065 73.29501915341979
21.890457553793993 49.67039512700326 74.66441153267745
21.934953209168192 49.93665220328725 77.44391012884962
20.920634221878707 52.02451202065452 78.79988686505736
6.297678590504343 73.38106019826542 81.3330193062401
3.956783616666511 73.85629546062556 81.81077158264802
2.855363861459227 76.16487987540927 81.73685224114858
0.12101888358865127 21.41100236538278 94.81927479790754
3.4863022640660275 55.63184944788559 84.16903800899583
34.155327184641784 51.64325174251808 73.7689470647465
29.13598806987744 49.55587322875859 76.10449413620738
2.3953654858132025 6.63544993862024 61.73026738064494
1.617916405021477 5.280008228395143 59.77413897151102
23.10690761562732 60.22395394024425 94.40438480353114
39.84087152879967 41.686622959768066 88.2144387057934
24.906576835280426 57.86389105183711 85.17014942946271
23.34489540945846 58.429743517037934 86.6840457191035
23.318126948996667 60.393828367147606 88.16524538914442
24.939786067710894 61.9759960136953 88.13720517866237
22.287916923455118 63.56883434718914 56.556340372494475
20.258265714326555 64.11574426996462 57.8536325424947
26.505630671012117 49.26004253390139 79.96307494051939
24.904397618088133 49.19671700203064 77.88931653836565
8.964233991624068 80.17756367769803 37.05957898167744
9.059345145297105 79.95713673655541 39.266529244257654
10.43550121838978 78.4131861218665 40.759754177557404
12.512675102489785 77.24347511555352 40.51594299623197
11.26781438175024 77.5641195648615 47.19033512399515
13.091533658781685 78.36866123653346 45.85892616429161
14.276171312305063 76.95150114221721 43.50121942819601
13.436163011400549 75.05972952511455 42.506688136444765
12.539058907327501 57.56258736303191 86.52056925087989
13.270947385872537 58.43912343215763 88.91613473452618
14.80278179311863 60.227028949809764 89.55759427107745
16.211248083892933 60.88239685199355 88.0743742565419
2.339918540438746 79.89608747281974 59.71256586259903
4.003708395885381 81.70812796338318 58.88268334852938
5.92995400305871 81.36544037276279 57.36180044947496
7.145751778757034 79.06972974840943 56.582393562698634
17.308358404649624 72.36029724442662 67.50040591614089
16.660097286457574 69.79959521711397 66.33697821648448
18.461640823793388 68.68870552552295 64.77387939744048
21.581477695824272 59.19278534416863 92.45554024760433
23.745218977899654 59.26250583839805 91.11950651078926
24.624554831806652 58.042179276279235 89.2679302359178
23.894518830694203 55.92161755700237 87.79668312405173
35.76683724901899 45.251994256776946 93.11535170541578
37.503259865232145 44.726374628193135 94.42542698544592
14.527542853053749 78.59085686025 52.52988286393408
16.12335056961131 78.57708844815804 51.195747652272786
22.765981460681814 58.81620324980183 80.99201183318543
20.85682987789277 57.01305299454562 81.9699496153356
20.366254488763598 54.64276898419404 79.76605871891776
21.65806110424037 54.55896963194109 77.96738541813701
9.814967077731929 60.78573304654034 94.90867337162288
11.138035369776446 60.417346557804834 92.52689196977802
13.766644047370741 60.982470918382226 92.18783692769613
1.9604751763092456 74.01348958083938 39.63794558111177
0.0052629713293964415 75.04482288913654 38.74236665409402
24.979401271846843 75.55223355077574 45.02724181028834
4.450036251698066 55.89801848254043 92.30880955726747
4.21720428808362 55.30872473250889 89.8962392333257
6.432339453252362 54.272056382894206 88.68174126125768
8.408514667742635 53.79384439423365 89.5897220744418
20.449830092972622 76.62902918717471 46.96046841200018
18.444017032139552 77.513270807867 46.300227888496664
16.323589193765983 76.32522581947208 45.13447577521734
15.507994390878807 74.12215841811442 45.61899887521812
18.928462272852936 51.77690133331472 83.25137194872123
20.303881622370362 52.60693661847265 82.22160572861387
22.70332839951641 51.62156439198995 80.75051853630717
23.803821088007954 49.65520164027941 80.47829410080925
15.250237465190303 55.37590018437493 87.55799902686827
17.70841371370027 55.139282987043686 86.86193549269298
19.19136380498822 56.227558669909584 88.81052406823459
18.48623878010108 56.105216047137034 91.38091510111076
2.096510287555341 20.057027216712136 93.32379875340673
4.381704191808198 18.391226319835184 92.41448874293815
6.633675452814026 19.274308888451827 92.06234704549594
26.766029735641656 51.635956167130395 78.72649158096819
24.666618238309276 52.36923775193121 78.72097431789777
23.449882213407484 54.38137490213801 79.8261688300694
24.590367089912053 56.59605031638365 80.9020013776307
5.49192285985754 17.22771117121396 85.11016046645074
5.832158791322825 13.18801047095583 82.93071799856897
5.64077437910852 11.89524284278405 84.92135947561084
6.662774596381736 14.829826464098291 87.99267392172449
6.770358372764969 15.644069419203854 90.0429393907553
24.102722939478003 75.42916397766462 40.44400380234066
23.556503364968815 75.80778133973513 42.939836989983284
1.7820955962295166 66.23088897840239 57.378676017697956
22.36218188366074 40.97641138573623 92.27102833025761
22.453787226606345 41.25837180377653 94.42081826440904
20.213697309253906 41.011454168807035 96.09136932866393
5.6097023177654775 19.429986232317162 89.56685064833013
6.251813596793484 17.641342336338873 88.12698146101276
0.9472274695058865 54.534790335046836 86.73896134790645
34.006129069423864 43.446696193343 93.23813274103911
32.95139994542308 41.58105879172999 92.1427261375304
30.864769413281255 39.816978201833365 93.21151145225332
29.524393399477976 40.145066783015736 94.85935100091109
3.8674922685736752 82.84403639458871 61.27862012078261
1.7264910061011611 82.2611743373317 60.86408762904062
39.7606695621616 53.14242902145258 73.08922875006053
39.52875928423868 54.93361741452424 75.13621933669869
1.1324076483458745 74.64993574136375 78.10035776631925
0.28211169153873433 73.505265788189 79.5711070527208
21.868469712162963 51.622094259880065 71.18317030528225
22.37709650252878 53.58134324371581 69.71574808144997
24.389998188369706 65.64097403518332 56.79233138937359
13.157318697497796 58.40976379469433 91.66744812531047
11.022482365070159 57.81655150824257 91.90555271286762
9.922281304337737 55.39299408978995 90.91411014137267
10.98753529544229 53.92921401752739 89.59023413847727
1.4586095792319043 0.5882883379031508 49.4121894710065
4.490295430097079 5.495129766990801 65.91430074164735
20.11839544129366 53.99160723905132 86.6442306517275
20.15862513322298 54.26368272670959 84.47188006154934
22.448699231690053 54.95409617087161 82.7594643282047
24.238874538675166 55.60061172388435 83.5781235083653
3.68436188818615 72.69869143231213 75.13020494128295
5.62370061110621 71.62925247317234 74.51223630090256
5.917909262321781 69.47035288443446 72.83996860065781
4.379319483471506 68.3523392593199 71.26657275289153
0.32109560621370486 66.03349078360097 61.66149443998155
0.23645081277962945 64.7358088248517 63.90600776831375
0.7218457303570289 65.50069820669799 66.34059153916795
1.4390692278895103 67.5743662601102 67.2387070806676
13.598581747229709 69.01535742891858 66.05462978096361
13.523386431188246 69.25448682820894 68.47096460631585
13.685949385854807 71.12851927539312 70.02862466458605
13.026044603674412 73.47671116724426 69.86216834747106
8.415352177956446 72.38824369706342 73.44339786742296
7.75771486694045 71.16037244577356 71.34775413563837
8.897024670594712 69.47476806495766 69.96417864527322
11.080711593916446 68.7431550064989 69.77103031374179
3.8008271957989446 74.41637811830063 85.1905514429532
1.247515931469365 69.11686342375219 82.44499085857515
2.268363695150923 71.42322444393811 81.5899418548288
3.1043008703250368 72.38807679373353 79.43313254759188
3.4733479059344132 71.23764630464505 77.42801522448062
21.027770184330215 67.45057701478541 70.76695960302104
19.865305545202943 69.39695368909899 69.47395184993708
17.164399977054597 69.83220709664049 69.12024020702025
15.945745313011686 68.27349484736952 68.84798984008656
23.638610242191028 68.4222373244342 62.19461146039087
21.986388607870982 67.5836031649725 62.520589290933366
21.00542039854117 66.12320422020203 60.228580894092566
21.86160496292303 66.39331908919038 58.30715645330147
22.929960069847464 62.18115317962292 58.85852078254969
23.562472022074772 64.48236304927347 59.611964709802216
23.954916261025147 65.21804953533687 62.170975047900605
23.088479036246635 64.2453506565813 64.28722399400083
6.46961307965885 16.52936861197432 92.67428277636684
4.787362294393928 14.835820876660524 91.99366886673268
4.127446716628729 68.06929889077433 64.05860968314585
3.9984508174187945 67.03553646123672 66.59272672477783
4.7999978878591385 67.69436421157654 68.59834641513959
6.222312526661826 69.76756649219669 69.3126272080371
14.748520049620307 56.50930940737832 85.2532213681196
17.235911621806704 56.527451592823006 84.77908644331849
18.610306317362795 55.690694018393536 82.83224072792083
18.170500406525488 53.88585971459442 81.38765285606044
1.6570203440497884 56.88498012622828 85.65128830281932
2.0691293196555964 56.59730237481036 88.08133019300269
4.251587753961549 58.00664759595791 89.5223912083407
6.025953160509463 58.528361270363085 88.24467924491306
4.765891693216498 63.653923758572084 60.176108310875335
2.508121087251497 64.27818327761337 60.897358761581614
0.07251584814385514 63.4677581873405 59.82555406824671
0.5092467409824881 5.486074868091035 63.92510698471131
0.30574408048515256 3.6558506128786292 61.95814856181535
22.708658374639633 47.28948158278333 77.0001574058335
3.6352182203062946 65.17401656226022 71.13072800622287
4.071087402960547 64.79604812376034 68.82903026381653
2.8142637768474104 63.829110438283834 66.81043663684567
0.8888823107413327 62.330461521122345 66.54105475584664
1.5899833081077634 9.33756726403246 63.16724587310294
17.140177445089858 71.90953038802935 70.93784734682515
15.490076268747162 72.92180802440322 71.75384334693815
10.825631491296077 55.80747544853533 87.51136788173396
8.70663983520292 56.24335868718887 87.92135146546428
6.389187758582469 55.96400204387529 86.24740695999027
6.0320196984068035 54.90157961488417 84.32016061663177
42.70835161981359 53.804099057163 78.97898337338255
41.25668643755817 54.23565639372044 77.16500646115594
0.8682605021243023 1.7607987855787155 47.00119313706955
24.657174635676274 68.62116074632094 64.6090190934097
22.123629782211076 68.90439035991825 65.19734697880531
20.59870587597463 67.67132633563774 66.69459286320742
20.939800639622057 66.1345672759443 68.29884021165758
8.330413384812635 67.0382557131319 66.35802480572497
9.842367756747112 66.62711212034188 68.31655130495844
12.279325637104803 65.61511077153266 68.30254475194809
13.975271752893708 66.3192714428894 66.2131484469376
1.4832402195862668 7.419922210785777 65.3947624672658
3.0845707436003136 9.43373652867719 65.96534736231821
16.11131024613926 81.02802105442424 44.06326689016103
15.76081461885943 78.9292034583481 45.66881014612594
16.461371376910336 78.5664435595913 47.95140189559662
21.49390567033424 71.2236000695737 66.1205946376656
4.381886054643271 64.8671283939889 56.30903547409049
2.6045208476138835 63.06282436740429 55.60609041179223
19.904127064690282 63.5210474096684 66.58449664942013
18.48965663450361 65.38387237206453 66.45324405190347
16.26132680389705 65.83804025551365 68.17207252979324
15.473151335421363 64.59175724280742 70.14427648042812
9.009794362885579 79.21335890890873 52.14299328695508
9.543566188687091 79.65331085010729 50.013018698376186
12.152346418500303 79.37071597277897 48.98432837889762
13.965790288564428 78.18602970261352 49.69715525752754
2.874753640350547 84.59203853596131 53.79544802729881
2.040021445186938 82.71662794881289 54.81500378539384
1.494335438761886 82.3891443506808 57.177497743783476
1.0276407468430206 84.16311627088288 59.27467022966189
24.99313671226464 38.34079870110152 92.6375060370452
25.117659150388516 40.78234434114471 92.77766588955228
27.221075589250997 41.312543879213216 91.86820073351484
28.045795179984264 41.766041223883974 89.76328381248449
26.765351422092248 40.52967132418298 95.30927374964895
27.64798121226623 42.271111687282925 94.20044282786631
13.782690836744527 80.11221572255525 42.87305457706782
11.886643310024995 81.08936305510585 44.69795141904452
9.349154945123189 81.61753446147708 43.85556860581663
8.736857155569272 81.1676831412748 41.811076236887935
39.95437402730818 44.13457803810355 93.97581120513469
40.48467640454896 46.594226538301676 94.61206122394513
33.22027190853866 37.83409162017007 91.19163827866855
34.030339720820386 38.543146980379056 93.70186470147848
4.670255304247589 80.92534577227133 54.91562554509995
6.795066839408525 80.61095752063655 54.33563093397687
7.997289847049639 81.70126643770377 51.871083194466195
7.122281461944943 82.39758009086688 49.92268896460957
24.620193504633836 61.657313438542374 90.84186549622672
19.49101688842113 77.38763780468142 43.08355484102758
17.562916000405643 76.24240756252031 42.54434368611922
15.329017511870656 76.57162290199034 40.78802825622367
14.74258547322044 78.80808760730311 40.406775250965104
17.964133908214166 73.86003427082343 41.010362624627135
15.814010377968888 73.5984728010292 41.95694706966427
6.16678043998587 73.17748450296946 85.5405638603706
39.22125247081183 43.207868702438105 90.34179732993404
36.99224446894116 41.70964275339883 90.62047290263008
34.8231152839808 42.029898193815946 90.21703972496688
33.461219777921144 44.4150587722314 90.0515089814686
42.058500177550926 41.04837133909739 90.08509217032397
9.09267750603996 80.88762243533357 56.602580865288296
9.787012143740773 80.10421016610238 54.44820082839212
11.666350344313328 78.49830450038243 53.665198875524005
13.294066529070722 77.06659798772061 54.85585746608754
26.379708830886464 64.61446426642806 58.728028977619424
24.998328712087684 66.96209112596277 59.46662162282756
25.793621498489372 68.75777994613233 60.87563267141632
27.427043131021374 68.8217530987247 62.652713905508556
31.860259498424053 39.888339648911 89.73879969052983
30.01682053155679 39.70566304403458 88.45408003129529
21.803914191704543 62.24770354631891 89.4138915253785
20.548471655186404 60.3282756057791 88.37000340343684
18.717861861963314 59.01981748684269 88.87958336432033
17.057314513526546 58.77472205809786 90.74214126208062
18.205841152845235 66.63420855339268 60.4855645977194
18.80742056889336 67.33220356376576 62.423514421216396
20.318340483323524 65.6319964965318 63.57428384571681
19.96965803868785 63.251495401066606 64.01273553994065
6.376608115649656 80.97363056829597 37.37690730050142
7.46750098395328 82.54095544377986 38.92116537521952
28.48736018673004 52.11462507526351 74.60901652869009
27.323564107978868 51.8437709513699 76.184022558511
25.046583811189265 50.98712249412566 75.73334425450224
23.6368616667509 51.5960223010274 73.56114231421412
2.513555160850775 76.76449292186265 39.94206573492737
3.9125787958945017 78.36208864383026 39.410009731779276
6.934204187925163 78.25285269355797 39.47573491469384
8.277819865757609 77.08874145236742 40.92296310987953
9.97952880185705 68.76593564340924 75.30986548104909
8.782100844159231 70.92736019250084 75.973128017825
6.1933007626388035 71.26351655469533 77.08650705555466
5.329573803322997 69.49475017870179 78.69226023238967
30.960758391198127 43.77033902583094 88.85075081775223
30.376186142401338 42.939066058042734 91.2516856536753
29.69011638400028 44.15079694694425 93.18426246430644
28.165086201950263 46.58661708312549 93.20599045044216
3.202384583512966 53.37157862937503 88.13676446049341
4.976487154433726 53.26160138723656 86.23179124938007
6.119692241388875 51.803931768190196 84.84634653080549
35.98662019124595 40.633391763996656 92.99786849570347
36.13766261688013 42.449837344803086 94.31545285150243
28.626172833334916 38.73557069791044 92.23278639211793
27.77539834616493 37.501789046118624 94.257800248797
7.044795027637902 66.86041315705818 73.5267701093508
7.650313163636083 67.3709272471036 71.15346475988738
7.021648627928178 66.15422542199862 69.03887731954009
6.2438274528498034 63.50692841210934 69.05676225656646
43.318464113458006 55.107705789559574 75.77188952317336
44.18224535706609 53.725942404955134 74.06183351996087
0.7361045240352051 78.77966863804149 40.36544625901415
18.238540675811784 48.41413349515416 73.72018089522328
2.925825740922245 77.27321049172721 36.948370401702704
1.1498755576171429 75.90226864537122 36.470306349266714
12.348328921981814 81.90335605568266 48.33960136206242
10.513192211222497 81.85565868011703 46.708528760179036
