50.80972474427567 85.00796450606876 45.96665246193289
50.90267653971255 84.27694557231133 48.4445328127254
50.794023977737595 85.67802687585686 50.66072504199527
49.90846695880576 87.73891897773822 51.45642635620296
35.17011927812994 13.853107261057067 8.62710105452537
33.474096737223896 12.005613121698131 8.944001279563716
31.01336023866739 11.534254014548992 8.79010236798086
29.155323371539644 13.455532309491208 8.241178656730556
45.240200507720964 47.184323496220735 80.95846442781902
45.11104877797333 48.88624248843343 82.48547453520598
46.82479867798338 50.76179248309576 82.20216670906878
49.11686670077655 50.923314119120555 81.84170548288652
55.75920357089663 61.93894092610635 85.40988662482455
54.347722404449165 63.18531998576606 84.36904602407553
52.507370708268326 65.15983391730529 85.38659492768494
51.73466716646515 65.66485946724093 87.31811284944139
44.97931958155081 22.781638742794758 8.544310317567504
42.925266311554246 21.14603129520834 8.852343035708378
60.78311507128441 42.55609006764417 17.112489397037233
61.82247130027839 40.06211420358501 16.858107707887985
61.960826610641384 38.86500219405712 14.490220722612381
62.323398837459415 39.64042343498798 12.27006997756745
30.11505920505169 16.619253409029902 87.39945204649258
32.07508826545334 16.47742641825951 89.16520257045283
34.037998929409525 17.720428435704576 89.25258357084813
35.74525287692697 18.71086417708371 87.240550924761
1.654321486304552 39.267808818574466 20.14954755630465
0.6213683273957765 37.42341345126822 18.337930783301342
38.0915718017071 19.636930569711303 86.09088196910157
38.41096431882439 17.211444360162766 86.47630090163294
40.34911005517369 15.749744626080247 85.7512495306401
41.75794663937281 15.46414521586034 84.10496855502326
20.0767561532435 48.14390678072459 22.883096245157823
22.737614920244962 49.35257959458107 22.784007432612544
22.747999611278374 52.009697719099435 24.189851852441432
21.543896646692026 52.686613572489556 25.923417846992955
55.9859441167929 17.355376065736458 28.00856835954475
53.71655033879372 17.464942017531158 28.905981230856515
52.584162794379054 19.23191217972216 30.539380708445112
53.10864056383712 21.60200331661088 30.925551157517603
36.449021323512376 68.2222870111319 3.570075128435725
38.630636777071004 67.89619211889297 2.464312869648747
39.328419300301235 65.49179964042796 2.9473798789525083
37.57374283333387 63.611499733140235 3.941637208243398
51.758286437158574 87.00905599552378 89.37153452235661
54.00337678216029 85.56805627446128 89.60581314911806
56.36921339149651 86.83085423469468 90.18629859996372
57.21526105943589 89.11103220669169 89.92462674160873
46.34812973695438 34.01514038323316 37.064117413719075
48.59421277255861 34.29797918170641 36.60210992460892
49.7931634281411 31.89596532850316 35.98874258368395
49.08789316015911 29.57001466686417 36.7972281069816
0.2045673924192215 16.567246725321315 12.790406582623458
1.8156646459148764 15.942584737256484 11.900850516071646
2.4738189425287955 91.14356045721307 81.42847804594984
4.790657666769777 90.78807992393035 82.49343692418455
6.875936021491355 90.9275828551682 81.65215660452178
7.995969185219431 91.79181055086849 79.1986109196413
63.948107805128735 43.435931575506395 30.4778356645987
66.10759944844881 43.48932648569626 31.99936561901839
67.80397883933163 41.93123657555802 32.176013771250936
68.0129333680174 39.42402701065949 31.463792894824763
24.116457996702454 8.885265247578605 64.7052131068932
22.12696581202478 8.48678679647426 66.350377721241
19.438105184439944 9.417415808673741 65.85371922849943
18.337883058699642 9.582878830348784 63.62318391169197
50.092738788548424 55.402771818606006 22.302616697366606
52.33984383237128 56.11589648778585 21.836432313941057
53.29202514938374 58.471947413830655 22.96947031541322
52.130104194624245 59.799813055882346 24.909169444559595
73.50726602386942 50.142151497562544 38.462228122292395
73.09592172917738 48.79193651020061 36.31059801961107
70.57413996354826 47.831622686305955 35.34447204260215
68.56986754058659 47.69861831575909 36.36245469997978
49.71935922175255 33.613913697116466 71.96834810063287
48.223583922881666 34.93903525778968 73.01354308174851
46.2863687599508 36.58877477234276 71.73729371984605
45.791912427435946 35.967450416724745 69.4359833934199
32.280170606720375 61.2329562045101 3.029755340846687
34.01268642993136 60.52246131371814 4.45815166706231
36.49351803889312 59.3009656481827 4.081635603243131
36.88243244123341 57.97129581079348 2.248218867020476
60.778320348124936 29.589194286380316 31.72615628428645
62.87978618771271 29.91668395824563 32.311872136732
65.29286081928001 30.236465956096197 31.279278986100916
66.02759058764171 31.191128020377402 29.434685065224173
60.860651988682704 29.587093188655373 10.612356323919107
61.4744642137717 27.4289140472382 11.213829571716811
84.2434020911714 26.206569329024774 42.96762755292791
30.417118643806898 66.4824703998066 88.7823634751829
29.834156175643447 64.59465362600359 90.42322073392492
29.68378807437789 62.062349583315154 90.07209109774735
29.472173045174674 60.5985352849475 87.86966831788122
20.030624189035365 47.47680959985403 2.3589471094196073
21.76298002628043 46.540088582638546 0.6195635478684055
6.59720177853236 41.32192157642811 19.476485734728794
6.206354768606997 38.91217666379399 19.256530481763665
4.852783182611983 37.492517503208354 18.02874954770946
2.7852111426934134 37.40590267362232 16.91656059443001
34.73069112833364 46.1351126820521 86.9562427628767
34.13126395685831 45.18304383007673 84.54266417607954
33.01057320803682 43.23616485276839 83.64287800088239
31.583032849834648 41.6588605695575 84.67278722646755
73.9159316059723 27.623756153354755 69.27698978445176
71.31969443656203 27.82912781185598 70.03914734003446
70.5182146419901 30.319585657710824 70.89590214201873
71.40272092570007 31.484902326491326 72.77328237981223
81.09526671204766 20.436488450748552 21.46097371370283
82.28243323679902 22.743153827648364 21.282277470023516
81.22757290550574 25.16118943761683 21.726469616926742
79.0490406102419 24.894681119969203 22.948055043859092
73.31691433447962 90.1217983313967 94.68211747889276
74.45246996485554 89.18103199366905 92.54590915971767
76.83186360299288 88.70420154589954 92.25052289144168
63.18946047987493 14.404024872053377 23.943390022986726
64.89753941961922 14.675145944819617 22.191958677193423
67.43566027288996 15.209648832325549 22.257258747676218
69.06286706991882 15.383192207501171 23.95761566784242
68.13258013098267 64.30795610889419 19.393947679405226
66.41000920532701 63.20404672669487 20.528664723520297
64.57479275704434 61.53613483286422 19.629734003434347
65.01460656405413 59.71674462646994 17.628974092989385
75.53657337789494 76.41095784929276 85.54041373511869
73.22278159283498 76.74701598989643 86.46871311698796
72.57140148649431 77.16313476223316 89.02487431256294
73.9910059260175 79.13613784055848 90.47737914618524
57.2034969115522 13.287372864297915 21.490733676073617
56.45267520612136 12.900197792280432 23.88174170162654
55.95965786001949 14.699913608073155 25.76071746835023
55.89924839014933 17.089750471795277 25.327048663129588
0.5464182238240572 41.68343405866425 87.24296563539778
15.219529144303513 54.7017520903589 87.12794574652231
15.408038652307624 55.53278130731853 88.91809601351015
14.445420310034883 54.392512529703446 91.18022704837958
12.16962187984357 53.263126917709975 91.68778014793591
56.777445701507304 79.34057685576312 89.36035539982407
55.58065910047701 80.95399323853937 89.7445565962172
56.37735146275469 83.46009948812805 90.04617877001486
58.31961676654265 84.60530396697898 89.35857186830401
57.92069024282042 34.345108004300414 88.8675455543009
57.23633955468567 35.27329230032692 91.11370405722359
58.34301471125435 37.42560719699715 92.17864999979938
60.289337807678336 38.78282844218541 91.21103662556438
52.85235854437179 43.728241113974384 14.834061406659073
53.15833009368679 41.41439777387517 14.171784044810959
55.191384089195985 40.15157474210893 13.414641330392218
57.57082100817696 40.64911732462636 12.823898944542579
38.478196613238346 46.35333197169592 17.125438481881044
36.55240856328969 45.573440124662 18.31735931088231
34.834103564005524 47.678965139672286 19.057188388108596
34.77916323724365 49.986041031999 18.04120333708785
54.54071262421645 38.35336422981983 15.85533168692492
56.5206210227625 39.32887337246718 15.795844384522816
59.240541574936465 38.538832764430936 15.228625962522692
59.79598686008725 36.820641501107055 14.155288943711918
2.1116053428141495 58.185161901879944 10.753341218294366
27.94519137967564 58.826197474906145 71.52899624645367
25.305329002785182 57.901023933007075 72.22203427633613
23.04279529928406 59.601111917899864 72.1967613959069
23.09493309230223 61.98445217932899 72.16855087688762
31.28167602982802 64.70890701272307 54.52111751613603
32.52438028896175 64.41470087707421 52.997443533348275
33.957038474537306 66.14209447733259 51.78923938431955
34.99045882168964 68.24618025517088 52.439354419037706
38.4001687050592 5.024565762674952 25.178439512118818
36.8427995425976 2.8579462575720087 25.756891627262405
37.54064783595697 0.6170559030942013 26.24619239672464
48.33098128581045 70.85747238095307 85.47710736505277
47.80752866667046 70.01395464955594 87.23751574828447
45.61010744877437 68.07382665953158 87.9842880069195
43.72193970895615 67.92057290263496 86.68389334064317
69.25547915221223 18.859500242281253 21.416881993710447
68.97310688163007 16.853785576840377 20.961522283340976
69.39339363875824 15.819196351764477 18.763709410678143
69.61149103057413 16.789499408640705 16.530241965726976
41.05756809270086 84.99395016804199 17.17894801619933
27.79924299735929 0.7155918167955795 25.231029386914653
26.523879805349537 0.826913726887977 27.50062480646836
44.75929568083758 46.17806382877728 37.362448403468846
45.97832079945986 47.54612750416124 39.18799743535132
47.532722482986735 48.99696351138746 39.47892785946183
48.775987253504226 50.534458088579875 38.43373194311315
24.65338982507518 50.30714546525731 2.817685267365932
22.797154445832863 51.18766057195755 1.90523016064455
20.049355387496306 50.701182914974595 2.5652666399018935
19.19394981176921 51.30570291452134 4.466161718846873
57.59438580133604 32.272694960096665 36.79790003870527
55.30467910522548 31.323432418454768 35.655990901209364
52.94156788385927 32.071271245285885 35.9388350633065
51.72520330763476 33.10403478340614 37.50926810647827
60.72897482291419 31.140346916221073 94.1523438455761
61.12810345484128 30.24609458036673 92.04379596970327
60.954585917729574 27.73845377070817 91.33691014680899
60.969971087844705 25.695280048489902 92.35094942194559
22.52369686388865 79.93767519873082 76.12008241367731
20.208482602798373 80.0015791212452 76.0172762774375
19.04361402100243 82.20889772422159 76.0513170407711
19.125361580812758 84.32620044246879 75.19116997329718
82.1779994159461 37.707402780483626 29.970910689926285
82.54519847214448 39.93122930908067 30.571570769288652
82.71091684841619 41.082491541984645 32.532328542329985
82.07571984942018 40.739066275239715 35.07628092307068
53.160442132159496 36.92791216782466 34.93713849090826
51.47482237044757 35.443666951493384 36.378729768217525
49.59655856996347 36.40570124814446 38.02239386102342
48.253795817087195 38.5767731450692 37.16372666443314
47.787191806955185 21.449841808078016 30.999587599977673
48.475856557851 23.73362885736269 30.673458720749203
50.65868459305254 24.93322902992992 31.650213942412726
52.37208148033919 23.735278947668274 32.75152287513394
55.70133335250512 1.9556756047128319 19.888159084411384
55.187626331198125 3.841426339495268 22.131000496209015
55.80463724243137 3.437681748751622 24.397592091464087
45.056208129582245 42.68402803941761 40.04044448462454
43.33298574278097 44.6823355094386 39.278887889069296
42.32513347959467 46.579917945243764 40.586521916574576
43.71812209639499 47.94113825011584 42.58444944539437
64.45869980972356 9.935916706889609 19.350400418680028
66.08744829850798 9.696461174043122 20.441015668406365
67.77867236589614 7.45167862321292 21.12734418903028
68.06989808618208 5.615619937198638 19.97745921607548
81.75745343107798 26.907445617459043 26.543551677106976
83.63152978585772 27.20724840797851 24.957897804486542
86.07058812406349 28.151443520959987 25.142194737116267
52.00407834766723 9.829160829192883 23.565417454101308
53.29846497712593 11.983279820157778 23.53998904666504
52.4284882393061 14.560529482187803 23.888416006654918
50.21200616764002 15.297216603998246 24.482811969175597
40.933299683391105 32.25991215074158 93.10763608061778
40.56730899625392 43.60627516340772 38.64989764124974
42.4175290655754 42.906762779426494 36.75960161437522
41.56585188656057 40.13463939404366 36.02049038239167
39.15049379395295 39.69640393055549 35.06693295620578
45.82637052764424 43.522083445690456 37.65720444651309
44.62777297366512 41.31843763230918 37.24353924849868
44.05599956368231 39.97557284355412 35.17125928770988
45.463209394295646 39.8757992554972 33.100021764751595
52.24554835369214 32.53106000089386 72.25429189070793
52.3344823649763 30.36863246236804 72.61159122506893
54.610870958000675 29.2666821935679 72.83195932293181
56.41386254557633 29.54705288992008 74.2424919416478
19.484318911458377 24.71935570554205 57.29235008619833
18.862587335654467 23.596334524960454 55.258832919684295
17.220343824507584 21.96343258287081 54.741478220142724
15.42640520620284 20.805460646573035 55.86762538025728
73.22787164790216 45.684630392107316 35.323421648450726
74.86373675600952 47.32074028905455 34.414481745273335
75.82954189909428 46.85586609681356 32.04240794119577
76.56357691794764 44.812827474005324 30.936221603245293
68.96490312724809 30.39277031428899 74.39277933053233
68.05443429482041 30.831615283295555 71.70541403657323
66.9216782237544 29.48443664159799 70.15740233174331
65.27225756293528 28.404121448490404 70.88043817027982
19.19328160314367 18.0232537233861 33.11315123166582
20.769471575083248 20.23105687354788 32.4756396835226
23.002688337846013 20.75486437017952 32.96680049755869
25.124906361557546 19.577871690917732 33.68917828188414
44.47920815561206 20.47012753888168 93.40467912600097
42.086759214020034 20.083662523521763 92.55943503693774
39.720468862413675 21.623980887836552 93.3120650438702
39.31384677188451 22.968869444161047 94.89481622443293
59.179660027740375 27.268845309004647 87.72682617415902
60.76634494476099 25.04146832675458 87.63002758931735
62.147410359063386 24.201817321476128 85.77122436352039
61.97841694758711 24.599809401545834 83.150898502954
63.97820979899945 31.301949547471775 92.05412260009007
63.534064066929375 29.64996678364427 90.73670305816384
64.45357097403567 28.714633310556323 88.3552036225098
66.83198091660225 29.1520999297735 87.45107842378528
58.66103215674232 35.64511729668733 11.62985555205035
60.908559247135486 36.232699834358876 11.499536656047212
29.53149050522013 32.62280605327441 18.66020803969541
31.444851421890313 33.82813747535688 17.920511233164326
33.66434016380569 32.46882752002142 17.117531472049354
34.66593023091749 30.378132100058476 17.6842402985077
65.76428034011427 40.84369578482287 13.36114408015121
65.21011109897155 38.90224769548206 12.570146135856268
66.8935351972457 36.72540170513468 12.062601444029278
69.01018445391891 36.76918073138023 12.087773497199386
4.804804291324667 1.9939751613097019 4.942165088153074
3.4243797199439423 2.0507664934688656 6.978819238936365
3.6424613742184846 4.0640948181370335 9.134523131219074
5.245015578311853 5.70481565234069 9.563798712579084
28.808213747860254 19.309294807779178 27.12089133129698
27.649168720244877 19.845597692329367 29.234944641088447
27.37991822389 22.383421449506752 30.51729491092739
28.685310883940534 24.425920026335216 30.087696277834716
17.018738016776545 30.734577837091567 16.09894929121411
19.32114848970178 31.762251027772013 16.622230211352555
21.484565497905482 30.546105526952548 17.340861673369577
22.26415333882382 28.31894567079131 17.07375319074773
42.61905183170177 18.530066064350088 26.916817086776803
44.56055297708387 19.143315402762543 27.71587510850639
47.33089003646124 19.23883079991253 26.7920355474684
48.16139713444348 18.70888656758989 25.079430469561093
49.21545427063414 26.001497284050444 28.173608843775863
49.887595121453415 23.82691671499899 28.259573836072928
52.3944691839793 22.899824750165525 28.779229434728954
53.761029556888566 24.111609032235997 29.752839353993995
66.9408288112927 42.18806572417107 11.35322584341648
69.38545066294324 41.47621917711728 11.342718580673898
79.22097899280784 39.593282149805816 27.617293699788302
80.45572337834719 37.03845989464262 28.254002423905522
82.07318471403174 35.99766948035143 26.68374315242386
82.23160682391654 35.93387453242103 24.322073307712195
40.09980336435893 32.58481090157549 12.14031884538467
38.75499159833784 32.18305696720292 13.834065571531381
39.30838194871974 29.809467042654404 14.666478201015225
41.43372189897919 28.59268585736104 14.397304244528105
48.62883466517481 42.95544152341093 17.341605860012788
50.86405420247489 43.396869164213456 16.605250512482066
52.858160514361195 42.1425132913482 17.28186818562387
53.129440494153094 39.764824419612744 18.27736252183316
41.8834739849718 34.640801172537344 38.94039585234131
42.335526733930685 36.66268713589736 37.06443223069558
44.71528436072753 38.19466703313403 37.023981907528274
45.87038595046684 39.04852947199188 38.67084726583701
60.719436007439896 15.047318665322026 22.313062411636434
59.96325233174963 12.907401239502958 22.145254148288853
60.15068476779424 11.04225749056975 20.23206382921056
62.17502261492674 11.23517636374989 19.151795382767887
59.97348683719661 22.226100386661482 86.3521581524434
60.30962925281914 20.257121613941244 86.43009873116405
62.290077356816354 19.005844296451603 85.46636360140037
63.872794900357704 19.9740657517986 83.61340424518337
65.59824954237077 45.01479022174161 94.89769900325918
53.22574696327747 31.332869763266704 70.04531827062127
54.19466632590361 29.211744878192903 69.63463443591438
56.76083267347056 28.54154911764632 70.02529581653444
58.81001826233759 29.479751695117965 70.06269195484529
5.376423455861884 71.90067801961405 81.70169186944469
3.822606211501464 72.0511972347638 80.06768866474957
1.105007486818646 72.72754877799206 79.86639574759901
66.42266176464146 32.298798113299384 33.57365127792071
66.41625099469331 34.63550264684913 33.487099731652236
67.39843585416608 36.538452546469685 34.86461485112408
69.36038989118488 36.294863586390456 36.71997526707952
66.75018215363305 59.165290676438865 21.70023027324223
64.97217652140128 60.834336639585054 22.06764157852704
62.68402742840801 59.81176592526056 22.10125035716999
61.3883659085677 58.09336946205828 23.29284873954152
84.7163666026632 39.22535924751989 35.577009835646486
85.51553603778027 40.68671109531138 33.402547592965945
85.93739273952899 43.03702857068062 33.39323421481761
13.618085208247846 47.21464679054022 84.9076637432035
12.838672075324963 44.86392677091567 85.23687600358053
12.250337225110416 42.83643031701237 83.85985510030787
13.389630860712163 42.56739534260111 81.87859256645352
15.899770239870259 21.480682115761734 29.026175671397763
18.079079712480016 21.049316036652016 30.180747650915958
20.356482225303576 22.15511858250644 29.587615433468034
20.65646292823985 22.96217945408651 27.720414028463527
22.910859289392047 31.364881716055564 59.37978533733389
23.204759430527126 29.403173258720535 57.35118786945513
20.99641685528414 27.93462708467458 56.71498076782714
19.136603600660344 27.120029530786617 57.95915402929242
49.87662258138599 30.092017618181682 32.38859431668728
48.67600602261786 32.23010521283916 33.23454838303124
50.43616071022534 34.21343752178456 34.20851472075233
52.74846221960086 34.34303493953461 33.7596860781345
48.0823161696927 26.442181725223808 30.504339780315526
49.13213152207333 27.37168253633839 31.952692199788046
48.01107915558943 28.940113748719867 33.95909279775296
45.961339738598525 30.220753084776955 34.088397955489675
82.86727387361444 10.416166324432288 56.82200445748599
83.1189051883639 8.740289888760397 58.35865719140471
83.148589537034 6.296702459257506 58.517731449569155
83.10778250180412 4.263253079575005 56.714092668551366
53.21527817112385 26.294852725384686 31.46997652224886
52.965941476439355 28.867287850734797 31.87603466267285
52.44047326568925 30.087271226528166 33.92705085847208
51.80553952495648 29.45278967991623 36.22076970738936
66.38552945846479 52.84312389057637 94.23008633280709
56.979840415860885 44.6725984744668 57.89915835382737
58.07409378512598 45.42426691868679 55.62337362893221
60.049529268879624 46.42113308882528 55.055504131844984
61.55779413950753 47.856950648553074 55.83584184123743
50.62710188111574 22.207103821275425 25.713371240479294
51.55044323162167 20.545932521580337 26.761839117169405
52.57597524747037 18.24947530146688 26.45928284287805
53.33136749910723 17.125316201289888 24.331535469173037
20.06543629446619 35.68155406541606 81.15770998487055
22.494203581389122 34.627329875057775 80.83680828534992
23.47570632254639 32.40851871512598 80.04947690238139
22.258656468136795 30.225537181141625 79.20089552082094
78.31262469806732 42.76408752090304 93.82744424611545
80.01519099353433 41.26896413136472 92.76859399111258
79.19983301924425 38.68298840770506 92.25255936664237
77.54251881483913 37.332649386453284 93.37015381483843
45.18324893940361 44.00211563032624 18.758425930553237
43.36672855684075 45.30659089653569 18.644215480291685
41.16260715444859 45.09541298559924 18.173224155967134
39.925813269783426 43.87587257319095 16.001567479406546
25.365075566712086 22.08736340913494 73.04031804904025
23.80607768992761 24.32046042502736 73.984025716449
21.58554486564389 23.740006800011873 75.54412024763114
20.325058557723803 21.79060750959863 75.48503106253627
77.2816926905721 9.747906124808882 43.409895002490565
77.94234477014952 9.613214663883339 40.81848425944481
79.95816684418577 9.053062223927363 39.799100783111165
82.14514036480465 8.078924899932572 40.693081768064005
0.6637385392877904 47.38187905543082 70.42284426009225
1.8940140184362906 49.62806611421457 69.633544652838
2.535513478552924 51.60351097123284 70.98338959288576
64.40752689789687 25.17543962019093 28.700718666956803
66.74829999968102 24.29322451243237 28.406665190297257
68.53939708182514 23.824383008624693 30.06945690366077
69.07240260218823 24.908840631053668 32.25814237867114
29.211261379719993 30.686181249486236 51.86913902956982
29.80035167335013 31.326583427556763 54.224370614108494
31.37903315451977 32.98245739391392 55.07902212989352
33.510411151213134 33.87931080995103 54.65542798878143
28.511854585634612 46.18734492421416 59.93712583950472
27.576840655142636 47.185431443608266 61.86429846324132
26.56458567301331 49.59025146791903 62.26536828465271
26.864260395545127 51.77798379890871 60.93229454545211
17.349971843220438 39.04688877195717 41.08467074306921
17.42064178652178 41.67529244538966 41.23643471452293
16.78087012685481 43.316363934098 42.758058374781925
15.246538902600937 43.312392283463 44.287982899295855
41.55286814907052 29.618026101918563 92.87046977539275
41.34697461593397 27.305025530800705 93.81963200311652
42.195499651302114 25.082593476359296 92.59747462815744
42.567677776947036 24.3363889727069 90.41938023973128
43.91134677238773 29.746088041796153 72.19427889398833
44.94235598256004 31.828632392309437 71.26797788028023
44.98670370791131 34.198622322913266 71.92236840859006
44.69293987059583 35.31407548305952 74.00971667484355
38.469695826431526 29.13819055454346 19.469597623485864
37.85487524911522 29.64513517104841 17.13073876614026
37.02101235849934 31.864995311928936 15.986541172945785
37.22669034133431 33.884516624626606 16.485199960597853
54.64072136843331 55.94375209774385 41.26674585481661
56.089598446131234 57.83084013538641 40.98067566475326
56.214096668111125 60.22040249843483 42.6426908252603
55.02049598436429 60.59390916295725 44.84485214207329
56.988610677395485 9.468402879516423 86.61964306836526
59.40466839059208 9.033607536451804 86.40291495193944
61.02586184308952 10.469367983058637 84.88009728056642
60.769178709913305 12.871936273370466 84.19446543078104
71.37554805450822 38.29144121078429 12.06491550328733
46.83806550293396 76.86061363865115 6.617802476094697
47.64515000975969 78.34865618281651 8.813164146753588
46.49196317235683 78.07140231903746 11.237793405241742
44.10807067398196 77.57086097767144 11.908689511471112
55.50814405461244 51.552196758442115 61.0722426808211
53.278030720552515 51.93096294021686 61.270784495865364
51.86164495969461 54.30570219880103 62.37320705126982
52.77894810312592 55.643287075860655 63.752654451106096
56.030273758445816 43.42924598576535 94.4156987260146
57.63834665390964 42.2170505012978 94.1598760343649
58.26407675003328 40.276213887910615 92.32158430552624
56.962420406482956 39.58164689640418 90.58277281416133
78.70176967280798 55.39369776646863 11.889043886754425
78.23471042145292 53.24254495992593 12.667154641032445
79.140890009644 50.721384029808355 11.937535170914863
73.45322251348692 42.36798546743921 91.33069282198733
75.24398626482876 40.04457076814864 92.27570424116719
75.47847528146023 38.06834568261422 91.38283103998928
74.25497984835921 36.55913833892735 89.33260443803242
68.19290590432604 71.37075788668086 21.61665542549934
67.08099542507394 69.27721730968986 22.549198597952866
66.54532310339472 67.20941672639435 21.89849804189278
65.91779902048353 66.08592887618353 19.976590279740012
35.22595403654236 47.15523089884854 43.478897612665456
36.48806824539448 48.146448038803314 41.74009711248215
38.0840370916527 47.3499943355586 39.75209688565679
38.080245648107585 45.2382234192354 38.78491875400686
20.478928848646508 52.00340456191604 85.21205278899176
19.47674121300227 53.47157546279692 86.29534270346007
21.01836549542326 54.680139224847125 88.58889831255618
22.676833713982965 55.12538132759169 88.67035271968648
48.775107495487 37.15389621493891 74.35697382667976
46.29545565599307 37.22617419665048 75.19017281526399
44.71549948953434 38.91388279242623 75.24122141435755
44.51551449512802 41.391441140760435 75.08001745203626
64.41046508374843 23.506021320734813 83.42132009671558
64.94786343145341 24.840337355862786 85.39962724192794
66.43045868452205 26.350625571560585 86.2075276929316
68.24327832660155 28.112341862739594 85.21164926656598
56.05255018199309 31.932345749165943 9.302334336350526
71.59750663655264 32.195042176012144 65.05275496595847
70.22468914792155 32.09344782864166 66.55806250185496
70.51895427165617 32.82261119979128 69.34279445024046
72.07604003058533 34.25712654282432 70.41138439220724
64.30416395191924 40.57783270426001 10.371939020525552
52.82678111549355 75.78584911416023 66.8200357375286
51.55295280957112 77.16292354746511 68.35703554206519
51.75097704004349 79.2300038973718 69.54058363591356
53.44883119422286 80.9606752178766 69.6322669346039
46.66939771181497 10.110947541051793 86.85259373030925
48.1704619778791 9.29905972590774 85.52697005373581
48.94025469356969 6.835674842846196 85.07662038894661
49.40001200986373 5.334507055707529 87.02023252631076
81.623379659002 5.9232968238147174 35.44653138629568
82.95354519343381 3.917254345554459 35.733322274314986
85.22198740785366 3.1479430411598104 34.92552548041559
86.70066572691172 4.07428548546683 33.20075271601974
34.09009662258871 37.55425455334678 13.168301954746367
34.14956155027894 35.07519476287695 14.291098085691424
35.63547471672025 33.12684408353349 13.916951782203594
37.03815454770965 32.723078390860884 11.976246521718677
42.04027692752803 45.658948688358905 36.42069268670617
42.49367299414369 47.226769848242164 37.782563690288114
41.07068709764954 49.52912678581737 38.61129330987694
38.65914541711837 49.85162980516674 38.626482525817046
52.55825549074851 72.55093132529846 45.957397411749305
52.49096771014736 69.92579706202599 45.83914102793978
54.121844221269775 68.53017675101155 46.06991868538205
56.68171802918633 68.66767185841985 47.20833909037301
63.66287215255827 77.23187390486763 29.775457945288267
63.56673650432906 76.57357379540308 27.5686720747306
62.87618000962484 74.5391563810505 26.33633146306819
63.913929910584024 72.70335028149007 27.31271913172061
46.28947769017667 29.386778750985695 14.575769844762771
44.359389069832645 29.044114145917767 12.549004632658713
45.43127710705076 28.751914438375046 10.006966945408138
47.61766276522181 28.70370192443406 9.567695041793124
40.61166282060097 13.282970079248159 82.97756655299145
41.916783667047326 11.332181252396921 83.28322130363081
44.22989491636522 10.427421821668725 82.09892449309334
45.23355414338956 11.215883715151692 80.01860425802607
29.748460359559605 53.224386183269786 21.24639538813206
28.068738206762838 54.149493110619694 22.74280707503125
28.42271097761327 56.095915202920466 24.534358978814378
30.205087346561527 57.71272455784927 24.78745942540791
82.13444950867918 24.205561028569882 26.580472350223044
82.55639759169688 24.888811417687915 24.248788019301713
84.45308025224077 24.461992266762483 22.727825460213275
86.72523302186602 23.484182442434953 23.07260132329703
33.91355010296433 36.61104539336252 38.439169110971754
34.36410053438879 34.00292191414558 37.535154766222234
33.15508860729458 31.97921966942249 38.12064128237425
31.319463261326888 31.078330213558587 39.26389214284509
1.856814041759757 70.2094931891794 78.88352583986105
3.3115837634107006 68.21974975298518 78.15224694371173
3.0270979027759006 65.66674477540847 78.34827436278437
52.611380770371895 9.527396612770682 20.742309480666094
54.31874415802142 10.513689588357558 21.441816344769197
56.85526295712134 10.642532564443181 20.887367897865328
57.93039991354564 10.576596327363603 18.71999540421262
42.373332474574624 19.304774361286178 85.55273131173793
42.40247685201428 19.412172924686857 88.37953366169374
43.45068161760834 20.850546765904998 89.97734764036728
44.99368205148618 22.88576457745022 89.88122643198417
47.62764324623407 24.16041420598571 26.485791819163765
47.35627272285772 21.83215303363311 27.603894780774503
45.7067950305376 20.910166170915534 29.23920353566721
43.67248399281189 22.212372283484893 30.434171070380216
8.48843549606792 57.467087923487135 49.4278258168256
7.352386759560717 58.682235221691286 51.07058847690512
5.975465503745363 60.876156854047174 50.904220751605514
4.962993916896866 62.3000530209574 49.070773519004796
48.031895960278234 27.882415998829213 90.99649247691728
45.77224853042294 27.63641359960165 92.4873530510308
44.813702481025494 25.475883182558857 93.49287464217556
45.66170460446375 22.916649792896315 92.84060735946859
45.10521236948533 13.974259406081705 45.29057496334092
43.10092919602511 13.39484633940307 46.24880864194604
40.790947989317935 14.362079769474569 46.71386528836476
39.54349811978018 16.366613842019394 45.95158509613345
24.193227320987035 1.32406258036902 7.876079750218231
84.35734562885004 12.183804682318756 55.52769271177565
86.40871407883466 11.127722697720198 56.93414796001572
56.54039264878344 30.00438734588925 32.61681540314012
54.91529281187617 31.976833916572406 33.28337909399207
55.95713516968827 34.56084765621714 33.14235484392345
58.417871964256385 34.35261222965951 32.585908127098605
76.34353334371067 78.91436416646636 20.721736583882397
78.14123337339126 78.01862348654932 22.37139747065628
79.25625154378184 76.08001453367572 22.62239979307922
79.57634215651196 73.93128144406583 21.1158605481974
51.969326454805675 77.69717416848768 94.01945155105398
50.56421983264249 76.93759382036549 92.21417759731379
47.906032618769046 77.9755568857715 92.41280300199931
47.42809171530517 79.3636362513883 94.97992015650169
46.379771806036906 55.508079484656726 44.51326612664713
48.016757310102314 57.81987255422924 43.49398567768403
50.26021614005066 57.419019778776274 42.93584880618839
51.9820716838254 56.037735060728025 43.687510823446694
31.450798849619087 7.469235450779706 11.132730926201301
31.92150992010478 9.036027170753123 9.219145049653735
34.168965509743956 8.91056710596722 7.704398219172068
36.077804554163436 8.000729971615156 8.03230962142122
64.01364579238694 20.652227415806664 49.262766955895195
62.564921854320616 20.294364138095254 48.02465455926006
63.17986131533456 19.617115400885467 45.561996177040875
65.23951525757425 18.470986995482317 44.67543164662582
69.65923409052202 81.0534371525147 87.87369577326844
70.74203356316175 79.08064317768259 87.33748819773011
69.83036097775086 77.04757246163837 88.32362618042055
67.16315927331553 76.53674522275129 88.75310014979893
4.946627041535036 53.49393842946982 52.991871920531594
5.78843564831377 56.14778473989862 52.34696731605027
4.189161762953331 57.980876852364894 52.208383758067285
1.5197655361950337 58.07047144695152 52.77293986820612
37.04542803935325 43.733845296524194 54.53797932922551
34.49105586237567 42.966873380684206 54.514283418060785
32.567298670395715 44.063764397013415 55.21873888974175
32.32267287199191 45.748417022848614 57.52058590467913
1.4589211486650544 87.57581278486866 24.621208201958318
1.7836908410392813 86.15440763410017 22.783858802205348
64.71427581404677 30.096713812094283 73.54773788447805
63.185125766160986 29.891317885438145 71.68616011246579
60.5714419431468 30.39261278680721 71.50153402892708
58.84105994036152 30.295578670925106 73.39133992302348
1.7384458819869626 44.141008500370255 44.47801750390993
4.358865502680572 43.83496321402049 44.86614984551763
6.07659361142496 43.580761464643295 43.20448854813398
6.28958262853622 44.367298582042885 40.819199841747256
18.260259656006834 23.483270020926827 76.379517136734
16.35098413057518 23.45638144010429 75.18890195950657
14.151365167274893 21.893450790655972 75.46543697436272
13.267771895265968 20.60133086545915 77.50427963377851
11.656540817774626 35.443187359906254 15.5353851113943
10.422290585553425 36.62693900900845 17.025574214189675
8.051199142448285 37.44487026936612 16.985413867932163
6.081812768708889 37.12459366040076 15.276874255561564
49.746084718824044 72.36083317024028 86.84704134047469
48.321463287359634 73.75963664759144 88.55905043545805
48.794488972969184 76.15813189515548 89.38202596103868
50.12433486821348 77.93204062956458 88.65310012768425
33.447847964309766 18.4050594545497 27.450606425554035
31.116929814110776 19.262885136228658 28.435986580369004
31.56471724567394 20.690257888040346 30.728892432170916
33.09986639683668 21.997759627621235 30.90073078847779
42.588458443286264 59.04828302585981 61.03792670681945
43.711051984843074 56.980244398881965 61.623885384103566
45.97178218742341 55.923279076227615 61.55281457061139
48.30115062292375 56.917349299336145 60.47297539226284
25.84182794084838 72.17467106747797 35.794308983571916
23.781933569778122 71.64303770815934 34.92337712031764
22.451289433695624 68.93794991514233 34.49458323037762
23.649892265429802 66.81308078360081 34.64812177511324
1.8406355913960373 37.55020986463601 41.32642665764669
3.064881009624504 39.10062586252583 42.54262204168656
1.88370551557802 41.43384206675717 43.60337545972014
61.57958268021345 63.500881075845555 82.19427814047891
62.084763757143634 66.10678316938117 82.60047728411325
63.792374266673946 67.02052510013087 84.1912454324482
66.13797638123263 66.32564801753821 84.68969762725783
86.08388662947274 23.11601988213355 46.04226373114037
84.8452249320524 25.4055638402084 45.89468096622981
82.45587141720563 25.926252595258244 44.967805183976786
80.74893866312458 24.243866548672106 44.08856949408709
0.46201589191488324 32.46377961132128 41.55638594981092
0.5642815929776237 35.18342630025225 41.3108390146235
24.889187666136362 70.32114761238336 73.07188799156883
23.145473993902584 69.46727329066195 73.8607051595142
21.939132546995033 70.53547868951283 75.71261196201314
22.640551759957958 72.3319514181087 77.33655208917634
6.622029871707203 26.028308261054658 38.163875163260414
4.541920050095878 26.879783747846957 38.232282151110674
3.5464346839760905 29.09341476192647 37.62993685786412
4.802893036048801 31.311037148461367 36.90136681221214
62.010855776914504 18.591181962113446 89.58906197361672
63.3318262756332 16.877068345648055 87.35696977157788
62.24863208000315 15.05734113004718 86.25744785371275
59.93024370070283 14.079673503205909 86.7140763840886
51.17800648958856 55.31683357021868 84.06482543349664
51.423943979520494 57.726409569181506 84.28177238326359
53.24983268409272 59.17460451948663 85.20670244086939
55.20989579374494 59.09354891097825 85.79483616669056
48.212221214180396 69.48531103976293 52.11402980488184
46.06212778255287 70.28805456464832 50.204227012159244
45.232276259559 72.68381253734441 50.12941160649658
46.35719807389444 74.24277276742231 50.962673856629756
57.8223092718094 31.50278529240867 94.21142984164356
56.86024458798489 33.589196654545816 93.79340760905035
54.27960576138649 34.3814315256401 94.6013288973415
79.69571345853456 15.981998576403196 63.15821631013667
77.33777592919213 16.21992693212549 62.91136718679402
75.69187104831126 17.860125313061438 63.29091494970654
75.55403291047037 19.79760312324848 64.42508648082129
77.72732546982145 15.181712319490124 77.2139134165413
79.02252964048037 14.943177754290867 78.92202926666255
79.72136946781204 16.35493995397602 80.76435733518342
81.1597879975231 18.542501858552704 80.8149936171835
28.63428617246862 17.942036685813253 73.25801240287436
30.757806641086766 18.00730672312729 71.34687388526244
31.65703855844107 16.40839731807979 70.16972720060248
30.756088065047162 14.610198656099842 68.59642680574012
38.9856669477255 67.78565517940704 24.367305070835798
41.21187757014016 67.62737131350512 25.63332158340088
42.04434586860472 68.91336543398347 27.752763974216005
41.29780006659124 71.27994222679555 28.312620836111098
56.83559914146224 5.1190128709519165 87.2606617066673
55.46175505539538 4.570701921402048 85.93394912592704
52.93396006772951 5.123845978623894 86.25676545855109
52.02551074284205 5.861106504360292 88.36991726000227
77.93962468527154 29.359045934863587 90.59831947432579
76.45201518829478 29.11292623734081 89.04613343537959
74.15070484755012 27.48017331209444 88.97031613820263
73.37150283742335 25.856550682860973 90.02846410337298
7.905872916180252 6.870520999435188 26.360823950327596
6.426666976605947 4.592446078904884 27.013937500054997
4.443963673872213 4.6784434603232485 28.581745046513472
2.799469315421312 6.904185206407485 29.345746642635042
33.58001300673297 59.99487698578027 47.65058794712265
32.86937748044805 60.6788941579986 49.8577811513804
33.879507823966755 62.421132676237576 51.50669175896308
35.787521473837145 64.28800229998174 51.09001665599976
55.94519846265089 50.68337557867908 39.53880602947111
54.92969966269438 52.40443849707756 40.497268613191444
52.47039052442351 52.67449694382898 41.66425695673607
50.34693422567267 51.48399513894453 40.184392435557704
21.919769613645215 44.20783918637547 59.12543954133988
24.39620147761578 44.112617730822315 58.43230946819678
25.987312959844637 46.35872366658091 57.98589310387333
25.147315811364773 48.44133457053525 58.578109473870185
0.7748376088343343 56.05738889719254 28.83557732640678
3.8524948595135844 63.64712736305657 35.665863838054
1.5396978820042082 63.24388085681083 34.041883119535754
13.610389214052853 45.5103484800222 61.30163917303751
15.457390611370442 45.73957998732855 62.76869591281806
18.179545448359974 45.12256757798352 62.34473673678317
19.34856419389932 45.14015757522534 59.835106278346245
7.1227991805441695 41.69208405593647 38.38780580763413
5.355312795433328 41.72584765850145 40.19760895447874
5.109664456714383 40.992687587309874 42.41790337435531
6.328200254806171 39.221312683123564 43.79290913685317
40.432959587804 51.90705486778955 85.33333187681137
42.89548595881297 51.57556137222275 85.23810728691495
44.78423984974413 52.7338897299708 86.07861761896072
45.00608954079566 55.15972414526703 86.76839586243457
2.920936182951169 63.991273153601846 31.651891907346545
2.4906651537041453 61.74786667320284 30.658822643102823
3.5709889105724604 59.54137643690104 31.241854866301306
5.71044855778768 58.94415388135729 32.610073831185225
62.55923322887493 77.67409602928814 6.054781599356424
60.505084575567956 78.39310919558852 7.82300816859784
58.513722775170564 79.71805702500588 7.418378800709543
4.5957284451486835 58.52394152458098 27.876712197093557
4.1131815734373065 56.0445518696899 28.372678098702924
5.383578612222878 54.165505481214275 29.40128857141793
7.905381961488949 54.13857435740361 29.730117383758003
37.728342417340855 37.318403772280796 32.90631822925491
36.923922464961564 35.494634581451486 33.55732335866791
34.990543251644624 34.92881877589783 35.03803456283752
33.179906483757854 36.35783140765089 35.763257838165764
11.287959751943937 61.19554949996374 52.71396533802108
9.760463548740669 59.86455945527619 51.743191273936134
11.17919937119852 58.41134453014068 49.840211460359335
13.338156765887483 57.732918011147675 49.61610301939494
11.45646885930572 40.12134464107781 64.8306411368855
9.577927049609114 39.68639451852442 63.534766504330946
8.154377156519384 37.28431413174175 63.12355939117883
8.269592472817209 34.993518503798285 64.14327462918202
6.616404141288551 86.88027751194915 40.977226996860715
7.573028165225636 89.12549912939112 41.22067509502552
8.221680582093017 90.69251062236505 39.268137642731936
11.690225684365657 78.47249675822495 56.180733771558835
13.329586306825586 76.7061493171238 57.26565443919821
13.318340597997409 74.35850647787088 57.45826688606917
11.504465873118647 72.50732570599234 57.270365606038276
19.211354040478508 34.400502203731094 13.835893638818199
20.661379392903775 32.19412516333869 14.398191538987618
23.206787216949696 32.2503897733362 14.771231740321237
25.08376821196807 33.68165530178811 13.840634161478778
60.10356627739191 34.50858925515937 49.85645031624395
58.64440044620195 35.95403269396593 51.11490148089176
58.400028037989294 38.86712110586813 51.29967220996387
58.94350009606309 40.27750230278095 50.03105743942682
84.48818236455557 77.53091255727979 66.83204693293044
85.21906277534329 79.15585198345954 65.3365991433089
85.26338184205316 82.13574541962625 66.10355841322908
85.03031781406858 82.96072012449348 68.13610116609591
47.0128989811653 62.92764408570473 21.760692485504208
46.823713766234064 64.12227545435736 24.027867678996582
45.24450967572714 66.07410952773333 24.782551457127518
43.21853878732612 66.82028662617147 23.836629601934025
83.81642868637671 40.97190336495304 71.1998713418605
84.18893898674422 38.69212833202807 71.15161490842186
85.10769348817635 36.81822865957629 69.79810984700735
55.1915464443514 17.52300260677406 64.53759377815248
53.800308232459145 16.09336218365887 65.92104578453393
53.0401413702542 13.645054553337165 65.66590957775078
53.12291532986158 12.341038387830222 64.1910673331078
71.4888654187723 63.31700120827904 58.94040829925812
72.4685215645977 64.05802904642752 60.87798096073206
72.84831022216008 65.98805352775145 62.20645272830686
71.60884128789843 68.28117396639382 62.147294259770874
86.06277174776078 50.33920792845383 55.34578624865539
0.8063120019082244 11.788987550840101 54.28387538072356
83.74939741959922 81.31353967788324 63.977474983081734
82.13536802468889 79.91551218612172 64.9582889918372
79.94516891781582 80.69942397092605 66.18344670021135
79.72416047668152 82.90592994299567 66.927658011744
76.81521319273135 37.17154646623487 88.07300431461664
78.42442927167383 36.25061996866276 90.04421975014694
61.561862603584444 63.5114357007666 17.187866735424247
62.05703100297545 62.529519790632136 19.226113725081117
63.29179818058009 63.543477401286616 21.486802693578444
64.02896111138404 65.80546244489925 21.87628944211548
75.18286307602811 74.04651351342618 63.674871627140334
73.44894977431261 72.61654574006563 63.99049496827408
73.06303202433546 70.10245379537973 63.58668696014163
74.55574407394482 68.12925484045824 63.344867725141874
2.2608090683181667 20.220729384208873 37.467681279781594
55.939665549297075 7.082023651804901 89.67570314326828
57.8427814864238 7.946772012530161 88.8722019536597
59.821159449404256 9.402534723242518 89.71703054263797
59.3703936234751 10.947571102260342 90.90951670221742
9.760150165634895 33.76403848352851 58.32829582479056
7.850803225326544 32.275575318533 58.42705731491436
5.486321655270359 32.232316483274545 57.528230717694164
4.270186472522059 34.07610247080951 57.330270074016205
9.035713365138403 48.9804923851654 68.03184602364422
6.862754506361222 49.701482807975836 66.87753424550179
4.790844501705388 51.02396357350953 67.6901039830278
4.469363121948861 52.576596952806604 69.55634776116445
13.636475234382456 17.740072847549257 28.57467508662117
15.01169064024939 18.687860849658737 30.19248842629042
17.501477098314368 18.69787738924964 30.953265555336536
19.458297020502766 17.6248113365315 30.033809032536983
27.0802379688022 13.369716899264224 93.79282378372758
28.498793915627942 14.18641588364036 91.62201284640207
30.836432181975443 14.414652802879909 91.32451808322588
32.800758099214534 14.044215415576828 92.32714946349928
28.04656878726783 51.722800279153944 67.35874391244442
26.334890859989205 50.812234636780765 65.84014410443746
26.074171525947957 48.188134744435324 64.68175723501923
27.709572713019107 46.39160796183421 64.52978255713273
33.48308702493985 46.195986375841805 80.28473283933387
35.70998028933917 46.31109493017593 81.07739118115447
36.56677178976796 47.980340560380085 83.19197417813477
35.713121278327094 49.946064913651114 84.08346866913698
1.5555938720443043 32.92254690985191 55.0993161544662
2.3102377631735584 31.67233108819504 57.03336640275701
1.312798254030935 31.21458609617854 59.157131701834274
1.7486285232857894 41.02042421526998 84.13970468071452
3.23208973997009 39.42471657960968 85.19112621458761
4.876196689125481 37.7192030837436 84.1216421627212
4.044327205930194 36.620290447225685 82.23642802571653
26.34944452747803 28.747966448903874 56.93127197540949
26.6662955400722 30.522315778004515 55.084383588981765
27.32811407952345 33.13203756970369 55.379843095260064
28.651405304034324 33.9831539771197 57.240694582507786
68.6296482356483 28.629543878557453 89.83008280247921
67.23356458436726 27.152794391927962 89.4918094952451
67.65348843385833 24.619900382333597 88.17796768567557
69.83509177731642 24.578444534823475 87.23529703300476
8.793391445055363 69.8977956205717 74.19199844380749
6.66345707354094 70.07857422404197 74.6124105510954
5.438584214609269 71.68166160908902 76.71615474094176
6.372564668401527 73.45314673957287 77.83151203560593
33.02720589415247 33.43869448594069 34.0117484513668
31.16911466211563 33.88767144542814 35.34512821381218
28.514885080764575 32.46488376131706 35.16349202418528
28.118645254882107 30.95893668248363 33.68149957126329
83.12530731413291 55.10527712306883 81.66653551926345
83.24245693232196 54.20768357665668 79.73757073157536
81.63891862242556 54.30856625597586 77.31532714153876
79.18896969241236 54.648824218159376 77.39162750185886
21.863963077783993 85.06602974580622 77.30463868207755
19.24499970435467 85.70818335174653 77.51024828847562
18.011743173055628 87.16464077250443 79.1850443785378
18.710240924261086 88.50882849667303 81.10361399049845
27.89735336561554 32.944823617446865 14.49314756854537
29.278077229910497 34.35376013868796 14.87204242046213
31.832390118755487 33.650638290285855 15.161740861715474
33.07284785420296 31.962394517230447 13.90379770911823
5.007796387396097 56.66722144185685 74.98033164756045
4.195337843129507 55.58896963427315 73.2958244014808
1.9855964334250653 54.347528972144694 72.6166510225186
0.6879149078292909 52.90232689648709 73.56425205656423
61.11697360390446 72.79939463976665 88.41873991219448
63.66589100751758 71.81257583887303 87.66032276323415
65.64051813833913 72.32896663020887 88.38165893154235
66.462420438376 73.48211486693668 91.07671152563536
63.79322146226813 61.954455146758484 25.819978776208657
65.170592820519 62.76024509319179 23.947550535607306
66.8079364773365 64.78384139688059 23.686639048873065
67.76748026945535 66.3015173877327 25.435356890796726
65.92013653825308 17.965515750691722 83.7088289853975
64.9245911998227 16.042577877494956 85.24792914882005
64.12004286365224 13.765900016761366 84.78755600377251
