35.468527879580215 72.48034639926173 53.52789134863156
35.41937204343057 74.71296826209428 51.986382159364204
37.18116173773791 76.28287933269621 51.34400880663716
38.71864865133826 77.2433976302533 52.9639333967929
81.22942293224168 67.29283558804961 46.549057862003444
82.35038641580269 68.0404702389825 44.19735664090584
84.50996020339038 69.263262304579 43.78710237295687
66.97073957179362 72.19942653892831 58.07220161554178
66.64352695315345 71.22178939002309 56.34863234712203
68.94183279005306 70.46159573374176 54.84131653583003
70.4159832664201 71.81212154078219 53.55907275756783
81.47073488294133 83.25037974632485 54.76291640092664
79.14040062398674 84.18678078122657 54.17751977658594
77.14399854284501 83.44187961862221 55.01336172861401
76.05871889264417 84.66750376375828 56.87953546580166
58.44326759940594 5.775164312370075 40.9751127165959
71.73502202538683 83.65748976930942 14.069700306804743
74.26009111470202 84.27472161295879 15.108085800011269
64.16709527606261 6.552079097654971 41.771079135932894
34.635353966556046 55.25250477610151 66.82117448299766
33.666861555937324 53.73046750465305 68.11029253145674
31.812906535038394 54.76435484144072 69.91520663955416
31.20299437490152 56.975729567339194 69.91818035525533
83.87462100373607 35.893799079597414 13.710954042279761
71.01617150832374 63.00550832610318 54.96323312379603
68.84833009511146 64.11585365826446 54.28079658067997
66.66706502118542 64.33328050311489 55.06676116810236
65.301552426951 63.097668268508876 56.30020841463859
73.53435303426144 33.44518370423025 62.95189673632134
71.87311685419203 32.821650316464115 65.06998830012708
69.12944264805634 33.27577100577037 65.17823535324644
67.61204127436689 33.453194511795054 63.30861289539197
48.79301210425778 67.90367818371234 43.8013027837603
50.89389561307356 67.73451951023824 42.859676365967815
52.26786601769414 68.76854640999876 41.00710295882907
51.924313580669285 71.2865453847683 40.10074840726134
25.482799671076975 77.77533158652338 62.779785616805725
24.53454970713286 80.10565146100603 62.44976319854201
68.55308815457515 33.99147132066006 71.33398153535033
66.53483854440942 33.24791876946356 70.06543650322223
66.19815121315276 31.777310353251732 67.9777355525814
67.74812078926116 30.021548203075174 66.8881573402674
74.49849157586395 81.60260487997377 35.16476356104141
72.51144662499598 80.24235167168291 35.99689224147929
73.0983028897326 77.75179023348575 36.90807200489604
75.46645739374985 77.1672191552528 36.240439169250074
71.82515788155776 88.93323943719075 59.83485759080712
70.75612417505556 87.01238446287142 58.98151407830605
72.01124437344409 84.55686838168097 58.311862045415225
74.24296497782515 83.82998789446889 58.5086245180426
74.71842440088395 81.15027042624725 57.63330166683068
72.79154721344486 80.29702743558553 56.38166964655052
70.2674243513675 80.8149001149572 57.509317991606395
70.3259649293666 82.41719180750486 59.75757388554525
42.234668724238844 74.44881412602216 71.09030335381074
41.43919874322326 78.66977809156522 69.46166573920839
41.55460931369125 78.98459663669122 67.2933412548948
68.24530794517749 94.82931421094034 59.52201432174016
32.99082884274442 58.043947325525586 50.91088464450329
34.850015686238194 57.12069719180676 49.638680175536756
36.98239644716059 58.200504376351546 49.03096270985922
38.51936408468014 59.65546681167808 50.44949527269324
54.29766234216522 20.60241264636605 67.45005320849033
52.304021919670404 18.964046572213533 68.53400015667252
52.836038419674686 16.489819953538486 69.22187199879893
66.11736168736174 94.47526204938441 41.90279859166721
30.182843717028856 90.80542564329816 63.28130479305891
31.784113153555378 92.91357534992507 62.76919613083948
34.18594171580221 92.78714458344403 61.562482795147574
35.3961865902763 91.13263354091562 60.21282556243666
80.68849096511151 37.148723752595835 9.827892844502273
82.29530350815871 37.61255519208012 11.571181200954891
81.93620988636796 37.854415104648986 14.300561939907672
79.71923253813031 37.693050386871676 15.399926411924971
57.743856300821484 72.15411199922633 35.941083016874074
59.98756649904405 71.02455315307502 35.2383174762602
62.33425619535656 71.88271306444173 35.48810912892367
62.864868028545644 74.59196080668995 35.30216864682954
41.414153917731504 52.4374184394725 43.81505507615155
42.89899380699632 53.96558838674151 44.239561969375735
44.52095028327935 55.27516636277427 43.21026054054788
45.9135176250115 54.695972211961426 40.7847556295637
49.14184125606741 87.11361484338148 22.937130253422765
47.65772535022974 85.52986068941152 23.46772054229832
47.900942841660424 83.05592657701145 23.317695665793504
50.09278599027817 81.83918285518405 22.282465145057806
57.64524460552133 70.98996509393261 62.01116344641005
58.82765802883955 68.76962372577206 61.316004367961064
60.98270391407471 68.15423288155401 60.423275820175704
63.11133721794881 69.33039440249422 60.18608496099625
33.385208118585005 96.44237408332327 60.5070667327665
30.975072769705804 95.78353391629646 60.236803326661644
49.201863018169156 87.00381796011692 51.316130564700615
47.69011483127543 86.29021843023749 49.410819367928866
46.305290057524054 83.82825247590411 49.125238586173275
46.07103724000329 82.11996252058715 50.260887657770226
23.950598143220212 23.82481358943965 60.454371449198646
25.444727878565878 24.332734506483327 62.521919887398305
28.22144140470102 24.911102685752144 62.10674348076519
29.579700875820198 24.49378094040446 60.382870534162436
77.41081378910476 42.00484414724882 41.87162899405362
75.97780468214873 43.89315586705084 41.25848284276448
75.48602003741347 46.31877553837929 42.49628835085517
76.36933750666606 47.09465228177369 44.40088083143617
25.566986678027057 50.543501872492946 2.1579586597857365
27.885744933723977 49.52307730809593 2.327277576242319
28.697231526305682 47.28105455823849 0.6852413727413109
77.92815819356491 78.89723880106256 56.08498000884416
76.98358447019663 80.90751076765143 55.14585444587113
74.86484760848649 81.61239651707733 54.06791473587644
73.24069863069461 80.49866970765038 52.801681208789375
54.770989336538705 70.83866715352744 61.82178951387688
54.692616456482035 68.2483424012814 61.93398950046253
55.821192057000026 66.59275872285112 60.486892663866
56.541187662098984 66.92146841173466 57.92733569795728
71.58615227712284 60.81973947281588 20.90517869933164
72.09854174491744 60.10156184809903 23.080059401691297
70.57260976275096 58.09715606852256 24.429636202910146
68.2467293366567 58.23218040056754 24.823395434182494
44.14513566052132 5.859726745847483 6.093944721075065
44.59459453467817 4.194419533238066 4.242632756943706
46.67142522908128 3.3393518234601163 3.059386840788709
49.130606603295284 3.941304265981854 3.6477246305739555
44.10224325194877 89.00038678875444 48.93236095175736
43.937218589372634 86.69346455546038 47.72246915128859
43.47519290637403 84.36615223932316 49.00085426988492
42.66899175921171 83.64140447510889 51.000277190653144
41.293358857394644 33.92871731420941 80.26152735483805
43.597719287424546 33.28472326395693 79.69647223937113
45.59751050087631 34.47566519670752 78.474172463246
45.812906514647224 36.44220355416134 77.28446971114198
39.95963278918592 80.55719123267399 48.472986108783
39.72367831146219 78.73725975719339 49.80032126140826
38.69047879375685 76.13524710805054 49.20038461770081
37.331471508128146 75.46993847823228 47.37329493527655
84.16050265849887 24.259627544216556 14.716981620804036
82.06273055790332 22.16358336881097 14.690056906352678
82.47807653119658 19.84690329360894 13.5871421519705
35.44262383480527 32.265312926923166 63.536921388371844
36.026955069942396 29.84995028784724 63.66634446732908
34.85354434915928 27.67189893536877 62.227231896302875
32.90325068003617 27.42148897931619 61.32922387118196
14.839328243726788 27.751506728290703 53.49109754487542
13.336226167585398 30.015948125849512 53.78771178626746
15.187138857010467 32.98746567873398 56.58392396688919
45.03685893384614 77.0044158531062 49.912954790579704
44.530394985468426 78.94732701260169 48.71559832141183
46.04440529179903 80.78341049366793 47.67220874594602
48.3572589989758 80.86531377880696 46.925899641503435
29.19095863728983 76.21924064142839 33.28050315099723
28.034735497726732 74.93969674939736 31.560031074125575
25.454887331280567 74.1855533548223 31.389410304558243
23.877511132346402 73.68453445467824 32.91128535849047
74.4075813679632 65.58283442281946 53.94983367038261
72.17160081134074 65.02636769975366 54.042636045970895
70.16513157981855 66.76734773644544 54.59995165563795
70.07558811631681 68.50231116191672 56.21829829538581
43.64337490418213 32.778756913595245 82.5571667095622
41.13412422776348 33.301535984203795 83.02054904477049
60.19136444649364 21.119775499558322 4.15195224109259
58.087284926211964 20.420223068678197 4.758538960401192
56.17050454429341 21.689697240034516 6.1819903226254835
56.11630408837225 23.7817867464008 6.9703823426001446
33.45844593015403 34.22484304217661 18.174931693934973
31.494346872164584 33.297376840667404 17.493110575307337
30.522131154566807 31.0216889332239 17.243353097025118
31.186017737139764 28.617238113235878 18.095393973730932
53.61056080962401 57.38386413211881 63.14410849794915
52.36488989544903 55.33433274091719 62.34246882527418
50.51435453806773 54.09414613009281 62.91398795393189
48.9117992757037 54.34416390661711 64.99323744652237
53.062691420703686 42.982654209034514 34.05901457576355
52.643332281233235 41.76252928352978 32.47067160989918
54.418373823945004 41.31475916693336 30.248989303786463
56.79990383831726 40.96326750193813 30.06378664319297
71.1424746307926 74.65616977246574 34.927020313748606
72.56304498880478 76.81663575551715 33.91131273595945
74.23899839987035 77.0478477860946 32.21374561154835
74.78402808490681 75.08031544245831 30.099350404836557
42.67918159670137 78.01685364940353 41.5145682582273
41.338639086212616 78.9508888289405 43.51893852624727
41.69242812303073 78.45557860631342 46.0921626680644
43.40589228245583 76.76976697597463 47.05980659020057
61.241393091554876 92.06414586585876 38.23383437752545
61.81097795098993 93.12967344096177 40.460598741903496
61.938179572936214 95.40438536775261 41.52494749576561
49.80578346489407 18.33764417422472 67.69989895063819
24.231879684517835 75.43255731303339 12.778302263328335
23.73242629200136 73.57016106324342 11.398952205443479
22.50814558111893 71.25398889455911 12.010340275317976
21.135490716793665 70.5890241445064 13.757643873216068
69.3927343128501 60.50588936960772 49.101545484762156
70.31814344177299 62.75067900025867 50.40306116882484
68.53687834518117 64.27280469507318 51.64218776868936
66.20946682754946 63.811680127237686 52.530473666963665
41.094554750038284 17.01670119108822 57.7531785557579
40.17675352572607 15.401313465060689 56.557416365109574
37.188252852475806 15.430697901622413 56.23025129850682
35.56386372623361 16.137867867497057 57.53661248134263
34.14570819699419 75.67144975114469 32.69472568885924
33.15034032533318 77.9180143534789 32.42142047759
33.94357923598408 80.22851994627426 32.75463310010692
36.778972857966004 81.00549016180311 32.07637523383455
83.68148739905627 87.96486661434322 33.2781862080532
82.09124424330447 86.24273715825039 32.19625453302012
82.01198357467962 83.74418402922343 31.978491941110008
83.97490723621979 82.01399991378975 32.92406979585236
79.62454948386726 87.03087789905751 31.235327137109458
69.38869148541062 9.832090725912028 57.77051862619868
68.1628549278098 12.2720941699261 57.539550840978826
65.96080646133517 12.695873743111386 58.67381869656606
44.15256960440014 81.6416877840753 52.45014813781861
43.01669115076516 80.13245601907117 50.82146247702843
42.32505301008276 77.75065725094646 50.82695092938608
41.36789679561421 76.46880464401585 52.77256336294278
44.82783137806983 51.063552810726016 19.82849808731074
46.0188681845964 49.40111984009367 18.11739944493891
46.0245928678775 46.94595520850021 17.963027185931562
45.00071327023056 45.266011312857515 19.174715751145794
45.583960232156784 63.04951482846155 41.1695827236345
45.57715725146581 61.66328917909012 42.543629497191006
45.162293138495684 58.59295288881588 42.713102456134116
45.89107463975101 57.41037017334582 40.480365352852104
78.38031205215084 19.461103076747563 81.3299675152325
79.62137429539291 20.688655260514302 79.63670697478
80.98897682244815 22.952252589836768 79.77626390241713
80.83020229785603 91.57258163811264 52.409753159576375
83.0562793520626 90.82415518210505 53.49901852718304
83.44109651782931 64.0153498816679 39.39844084795913
50.59411883211376 88.2453750728851 44.64694429646505
50.48494111242342 86.14442707592869 45.91264081512685
48.40523819806144 85.13445485960357 47.13197798723197
46.07027529841809 85.23024193026635 46.72113176682898
22.33857065662339 18.566966605070956 19.050028956526795
21.76611141970546 20.474463397613253 19.728271150843376
22.801398326521067 22.72896009351749 20.36961161791201
25.096441157106284 23.42209057280168 20.36543739104415
16.94105171600549 65.7219646565598 7.273749078531048
17.05824009454707 65.8743598480575 9.981849552679025
14.902059414992921 65.56948662393764 11.51337032110913
68.39928192081253 47.97201809029391 48.64116923406615
69.91158774309639 47.782608463224136 47.64829023202234
72.31028305202626 49.24513874647956 47.062654196851085
72.46459382319213 51.50503270188703 47.70197721283788
69.94805882651725 92.25875222242045 54.7463889287679
71.46792606019494 90.52895518433412 55.34524081223348
73.8425806479766 90.69505168507196 56.78391408171295
74.03576255864812 92.24885239269477 58.848782442259335
64.99148535584897 80.03398570855026 57.15830119145653
66.89669852652719 80.93776015071025 56.48208948354511
68.25426974785374 83.25175652881656 57.08338814351433
67.55558392801292 85.11396282255149 57.98629459595783
49.16628519506868 94.84639987723425 46.82441430918901
51.10222850028686 93.04547373225907 45.72738019845585
50.18392067416576 90.18764812317086 46.23175550728611
47.91986369943573 89.42332310203406 46.48849025821976
35.837489205759155 16.49983329950948 52.519911458335386
36.285407764334686 18.038728145240874 54.23702063614221
34.716827666734304 18.424148190913883 56.117151450843956
32.350382130279456 17.475921632003736 56.38530879141314
51.60950951083978 72.85382249150291 64.97989432493279
53.76715778842713 72.78425669357934 66.03401178775879
56.148039412088806 73.41448109168017 65.44389695058034
57.163488020422534 73.46670178406261 63.35367310085281
39.79421671005812 28.57487683336109 57.488752161436715
39.72409972676095 31.257613007328242 57.87840979509586
41.441162878742375 32.9359174131294 57.73784148188503
43.327457466804596 33.27604604340928 56.44739633822383
78.41180671218022 38.27489370248456 58.393423265461905
80.50785165656076 39.56872966731064 58.90108250231359
82.81341257996115 39.38979059574363 57.51135319117183
83.24606575703969 38.839725624584574 55.39063609625581
66.05388630962878 68.52493884921648 34.70031537070188
65.94298123130619 65.96132083854963 33.22146949458025
63.72045345229502 64.34776173750213 33.50233798045976
61.974007465116564 65.64240689549452 34.43423534139438
40.241152940243374 56.216239066021046 21.362586500122024
38.788527125974916 57.127751371052135 23.051998086238743
37.120297181107865 55.48656556773373 24.95987097442849
36.266725555295366 53.34396585151898 24.50232166779672
63.88647336081585 72.80700961262065 10.520330905761899
64.94830209384388 73.86701127990163 12.313923994493772
66.4727824730406 75.74474254698042 12.698727175055465
68.28010439255473 76.89331848648578 11.392559076809507
84.58868860600724 25.345772923733335 50.47701279172745
84.65027075807473 23.126776321069414 51.08982539770638
83.0086913527382 21.580348646986046 52.581375306759355
82.02851292158667 22.281210949497005 54.688677503231325
42.804760722426906 7.186978154171797 4.198679843496341
43.86950302637242 6.238924488403184 2.4603943549832556
46.10954644790601 7.451222138499424 2.1695368398063697
46.83484241634681 9.774283591284867 2.4921466661944525
21.04938274773659 31.053607224231868 0.1756827604620782
59.95080739718712 16.06269598043712 26.208562989472295
59.299116714428926 18.22952416553153 25.78281828988471
60.81377090791639 20.462021511974456 24.54799599278461
63.03959464796797 20.529030509882467 24.000584908902898
61.299658239746016 54.38545981639731 6.9753167462464765
63.03154962494584 55.1498516287984 5.544457629001258
65.72949722378071 55.10271374626479 5.6333853267456995
67.17945697135816 54.20525760729564 7.585471753112267
34.73254823444233 23.10037104692659 14.427950946439001
35.47863918078701 22.373229288286893 12.137755377487139
37.73959981385089 21.015030999688737 11.613397265937168
38.82117700032484 19.432877222144516 12.851686456543359
28.225435531129175 29.41435790320463 37.609840713573654
30.193637858459113 30.40462949253861 39.05050863882117
32.243696932384395 31.26505710836615 38.67546755942633
33.87761767656275 31.834553780240483 36.92067283622773
11.547144805433463 47.67789655333104 14.101670823723357
13.443510492858515 47.70635476250325 12.493498253279622
13.195357426898315 45.62600681634211 10.901530240354134
11.772106145994433 43.44916968062326 11.163937942369708
66.01734927927986 17.572745762317002 63.66397533524827
66.97856150221654 19.878111796585756 63.713776182819046
67.09820447238631 21.80780739919743 65.48898439100411
65.90725253532821 22.282118002974514 67.5743270013378
71.20402269865211 56.306684058480165 6.627808638396324
68.78110586042617 56.54334071736741 6.497717410884147
67.20979144544754 58.76861015506416 7.278421331815046
68.13671727866847 60.852179203479594 8.340845102428023
67.53323617296402 24.46913439499828 66.00741579325823
66.56633302165541 26.504633305825212 65.62343269924384
65.4596706133639 28.27789915893257 67.10316795884384
63.79784224773764 27.822454016881892 68.42200058852224
70.42491658123221 44.0163948964077 2.0712022488572432
69.95285794577964 46.08952117933509 1.228395397486434
70.07699544929714 48.59580213442507 2.2043877965597427
71.03705621994652 49.359736050752666 4.79129209513481
42.28145620994205 81.10618179283179 69.25358926747643
9.591071300450535 16.152055636744656 3.3796727801129505
7.592548151542178 17.117293134644964 3.2020629985594584
5.013792770133211 16.37887194101996 4.090098889079517
4.333361950782634 15.000052889146273 5.8763777708329785
13.736378511921936 53.760188177959115 15.4797363350998
12.93086629282055 52.93946403765982 13.494699107617064
14.417395062983525 52.7042977447577 11.146168818202757
16.352647601442396 52.05454193527977 10.756637874902443
27.639125357182817 93.0502141648329 62.777695716686324
29.771003576443153 94.30997229297736 63.969907189473815
30.281153915203582 94.45164240855247 66.07116738239155
10.916535484177462 23.165761083058722 24.67928868524239
11.59009810559801 25.069395425266766 26.181690570896535
10.762265914158164 25.892737756189387 28.321864384250308
41.121531055644795 57.9044137428428 0.20114396021427017
35.542212010512834 78.23473346852676 6.844006367695992
33.6967595492121 77.2656252208118 6.391299945729909
33.400565667926855 75.66107715321398 4.415998578821784
34.9326635239586 74.68818292876796 2.805494416718813
60.27848866915986 73.02867940653293 15.594839420744181
57.95122692700504 72.93378464134221 15.01463323787345
56.07086025762151 71.63312591934063 16.344207387230306
55.669870482498155 71.58014580095755 18.912342510133687
83.55082152283902 25.49931823219063 12.030749527602891
33.365694061138456 80.46141666862066 9.782824533741618
32.20160783047809 78.7788565191019 8.328697642927395
31.030113117548478 76.60909806591256 8.640012815965886
30.882937057186975 75.16017845950078 10.212848610429285
81.22168916374874 3.1925788199408123 21.089499944847145
83.25791289095656 2.5770290491508017 21.24267561623256
52.06120732671684 20.226288622502043 9.73931695937143
51.50349604352747 21.13557725931231 7.618583640250444
52.13582493551777 22.814479798584713 6.121758556587452
53.52768019030313 25.01840629890602 6.2590326436069565
29.556273467204402 63.65932823729827 58.89448958697886
30.699112764402148 64.80807200725471 56.540723403676786
31.04351445129117 67.20577411598728 56.117694304324196
31.123977770259064 69.11981611443115 57.66361567257914
26.48857454640678 42.83932241069767 23.59734769456688
28.081259867929056 44.738955967583365 22.85324159684835
28.190466775888623 46.85699731471405 23.53280662361447
26.417486097447146 48.77275236209118 24.330415943228363
21.817214347600054 45.9667290709936 6.557112872731626
19.615387617023373 46.12679314865709 6.473906170769344
17.75868567897163 44.05972191598911 6.235404882862551
18.090899875182856 41.60927080326165 6.968493741975668
35.08793096147435 40.32455673968434 33.74374505156144
36.45775816077962 40.003990472154406 35.194776016986104
36.0170625092596 39.82938936841934 37.62312308782182
34.46629527311859 41.087759669326736 39.09967795509639
25.763831273658706 77.21310751863638 58.45362635817614
24.857845056542107 79.17428544585746 59.77427527274908
28.07608099076109 87.74458203547798 13.181939950099755
25.677378144878844 87.9097390371748 13.366607904252737
24.151031237844965 87.88615650697845 15.695756415803444
24.49547687464791 87.98971646315103 17.715024842521153
73.20383526569564 50.67576517087282 72.59726161127796
70.50717023079098 47.05172501004659 72.82943288170128
71.55514832648424 46.193455016350185 71.091126420805
66.71141303704599 41.538785229028946 1.4102547966657284
67.50609898414099 39.649266629317985 2.0166518552793433
67.70859773280024 37.28104091893689 0.6747639532853063
84.34564676390274 71.06531062396363 3.3694526897259283
83.42409163253963 70.03390889068422 1.5624841439572326
78.59854249240013 74.66844512642918 23.64644447768009
80.47528690742676 74.58577311557586 25.25942739010819
80.92633773774895 77.27124997543395 26.836259298648635
80.67783925208279 79.24217648689958 26.518915683829558
45.321148977010516 95.12772559857237 53.17793784060618
45.61587865254255 96.6936134572021 54.06446513955139
50.04422575298045 96.94082988058614 54.96218354084479
83.91990305157645 76.09998583426795 28.42086637652052
83.09585398952065 74.0837018098149 27.832927018834724
82.9276959625443 72.88948291986836 25.698323082330845
83.72566540594917 73.59688044079914 23.28916716623997
27.47067634996081 5.745180925940026 14.27268483384034
24.705052455167838 5.716633437078542 14.236733924234205
24.123902443433785 3.377403021937414 12.57938110892525
25.1897362757176 1.3436736710186745 13.205314653470447
68.89015241244476 84.55681140638876 39.27343057262688
69.06789931465649 82.42103093272024 38.2011186157288
70.0016016494146 82.22089660349778 35.48926068304645
71.39003522307823 83.35327825061674 34.36963963794234
32.72825129512835 3.4635496578054217 10.829799640540529
33.20260937317662 5.318254118042021 9.256569447234801
31.83048988669357 7.664630078730456 8.945256970577926
30.271028411484064 8.763556812819058 10.636130243321594
54.458836091799945 75.33713439159808 0.015105787806983115
62.33882516103628 85.41136133069634 39.68553146986464
64.74046504115886 85.5905429693439 39.88899350136616
66.66538260501902 85.78099401998753 38.22696981404642
66.60093702701312 84.68929042299432 35.77551258127539
74.07490913539785 35.58420685440788 61.522341590005595
73.42722207528303 36.337606922253165 63.554550798309506
75.30006748170872 38.49655641093491 64.27506602973884
76.38386051931995 39.82134611097738 63.1318766609788
81.76196042186756 0.14987784361514161 23.58944475928287
15.786420931693737 18.681997291761185 48.19269214178677
14.788174031263187 16.674779630368917 47.91911978180442
16.305516115193207 14.85704043697144 46.17417714476517
18.784167750454607 14.867731515825255 45.718590470294906
53.41108797421884 0.13336611202036072 17.104785581034147
54.28739148966299 1.5465414353613889 20.439420895298813
52.91812468393653 3.362897028676384 21.290860002919068
39.289051838656 79.08908760668052 3.4520853140350343
38.68918493403539 81.42471692957719 3.511465905731235
35.92210292028245 81.36373105562332 4.589066911970995
34.47398281569893 79.42449180361453 4.5108574050676555
76.17642286294726 61.18606781637426 18.030759634047964
74.44755701287968 60.723997016565626 19.51849474923437
72.62352534093412 58.54831945028208 19.639761251138296
73.00785380709917 56.91305456654876 18.383664635331957
37.61551946642664 30.209815354500805 84.32667017724648
38.270584540852255 32.33342740971456 84.037711159967
66.79710504467249 35.836787129776646 19.069971723331932
67.94744059983086 36.532073639850374 21.186211884290437
66.84063511406836 35.86538178688932 23.82972360641739
65.71473901014582 34.09358646959098 23.548987223712214
20.43768579772591 92.10323817241218 18.97610911851707
23.255264596778964 92.24872961014748 18.70958115009526
13.14993520757347 14.770539869372788 45.560270662564285
12.69903815777084 17.178540009513615 45.24879877863106
41.11321560363245 23.68612569342856 8.16338901250625
40.68910961258698 21.76608434816106 8.569094711847251
41.716601205710255 19.537754905463263 8.334703866215818
43.31751663026704 18.880461586698154 6.851239290932477
48.582422845603496 61.667352501201115 15.534118845335911
48.47938713254921 60.297287722724086 17.593826364701616
46.33101977844745 59.550518507800305 19.057423585304942
44.32279226666937 58.95082443226909 18.3838726703771
15.21693249968878 51.06866082431701 36.80957775156844
35.9052824265298 79.9361945083432 9.09885169364351
36.72888380362191 81.24804588459465 7.288850774339327
36.75591203358787 84.01733315858276 6.969294624563271
36.451898053337466 85.82269403496359 8.581859277225702
21.765588882468133 86.72897109052886 16.304381813133947
20.128938842600512 88.3664020427614 16.980054169152634
21.73414567432132 71.92258782583207 9.311405230825658
19.49060035286784 70.94430766878592 10.08029492203155
18.864440470765377 68.26751750853884 9.561043040312692
19.74130272687914 66.60736027612131 8.11328456947662
78.63652597438328 63.79264722938143 43.69604704815574
77.71675626254488 64.03164136634098 45.6171001912574
75.49010395596677 65.65158606195853 46.52873121467333
74.49315595554297 67.37119742408775 45.65618920950339
26.089041966082327 8.068982453084823 13.975604289626457
27.991810618258278 8.127784612358449 12.915260735218776
29.483650744861446 10.16104633144642 12.92785415328495
29.17147783891021 12.488783809604689 12.476164994977994
33.19094317035585 1.737440486548705 7.701812959617644
31.491659056361247 2.537753430148976 8.588082343022599
10.332552846397395 15.330967874047538 24.805707663777465
9.338889749392248 14.100314956192035 22.902299804207104
7.289429677074757 13.258650971929999 22.286515809908593
16.010044387122953 47.06965095419626 5.301685403858295
14.785641551372127 46.771872709872085 7.430925147313635
13.383453392743895 44.73048719562211 8.070236999659947
12.080793306188042 43.2017749069731 6.737705241980776
14.982679765675561 7.807707630939559 19.051493451759008
14.72827454544154 10.157967941666794 19.57683758511046
16.732041598656455 12.198505705028293 18.875491256190262
18.5989775199842 11.266720538303785 17.72910660643662
67.93801970793912 10.025743229255895 13.300372449524243
70.33416697797193 10.414260544310983 14.052808612283387
71.70274249622494 12.578899528448437 14.444604460823138
70.91545985921765 15.059557815481124 14.428071440509365
19.008576987383798 50.32484152741723 5.350935744522131
17.464343605216246 48.583341358655154 6.996650791736273
15.493326578455918 49.265081266923836 8.48976859716652
14.707779244976187 50.90599521557041 9.1621304162406
5.659034336543165 7.878677568075343 22.9740743370242
7.504352038031748 8.358095937077717 21.046321068873038
7.69776708639934 7.20726079379595 18.821929756356386
84.26230400030575 0.5821034232483124 17.82163193653993
32.26714300596404 64.79252543725772 0.9605040817568683
34.806842665934546 64.6136388814642 2.029999387629365
36.96294859872099 64.38501867995178 0.7195796455374129
29.326309225711682 10.70161463312057 8.883805524572269
30.678073425647263 11.810781956937475 10.442342760384152
32.91175158820991 13.235708999025743 10.197585143502856
34.9127813470362 12.738393185455013 8.623102923595514
12.470210231852022 11.624227411369112 21.45805493700846
10.06440831993155 11.761166079120189 21.226547163399697
8.027495295260081 10.481182587676557 22.657633461662677
8.071835185561563 8.820930943494469 24.21316706916566
37.84970332494536 6.928867561264619 30.79618024808046
35.669418674103014 7.964850715413097 31.727486831802196
33.44900807298668 6.944089195182755 32.418616081362615
43.86172669244841 84.46314527046557 5.366092530260107
57.22860177872306 61.17609882156785 62.1357215813754
55.426907743599884 59.78817037677165 62.64106811518486
52.97640134391094 60.675124125852506 62.92423638753471
52.35903752740667 63.05088465575644 63.18568518451524
78.55515627262837 13.082199725392165 55.78452336655476
79.54459824096699 15.3351649583639 54.85903050305702
81.72706534306853 15.96552697259884 54.216739647113506
83.95459863567619 15.276679323475179 54.03053309099667
14.217115900656111 11.61556328550346 39.31697982122678
16.67892043733231 11.194151297478449 39.63205904767474
29.724064314669207 89.658554288234 11.058025992948787
18.49151384567066 10.028168837356576 35.5378429157031
17.025674179816217 34.50771816545031 70.54966272818223
17.46892910409307 35.71783866927698 72.56483832453985
18.824609931009743 37.93424694888457 72.78644746765093
20.094450704345636 38.821767221094674 71.01397010905244
58.166399558510115 68.74807780474401 65.74889947907518
58.011303970867175 70.86696923698804 64.57505121568991
59.80738616143548 73.1343640298893 64.84124242173023
61.81369841823885 72.73390104838792 66.23504256353503
46.128084651833355 24.441811349595724 9.077353193314526
44.8573658942228 22.63843104759547 8.752136099295772
45.59684040816518 19.840166190964926 8.713735404320785
46.77133143891164 18.752602205714098 10.337396689479483
34.602998926057346 86.73636141712963 6.540076451006658
33.93310374567659 86.88044587597626 8.635868182301406
22.774580820480647 9.556813580426306 36.97329337996823
21.148373236117 11.16543665295588 36.71998350300693
83.0939336263574 42.046829294249115 58.23137273593042
80.75406943369215 42.03156133523587 59.22245195569797
61.62777655605969 15.49454322487066 22.657087469419654
59.25525263521665 15.011573737342621 23.634691054221506
57.421279803203724 13.025220376105814 22.559716683066465
58.06658451086396 11.273922098217525 20.808004259172822
19.464119400937996 3.510301735243048 13.864090274129776
19.469552597468216 6.081210987220834 14.028261949065579
17.683325397782802 7.149659328351319 15.432695755064982
15.442348779871232 6.181296381817748 16.404772486516386
51.40647654234802 17.76403134447818 7.496360607563165
49.78081411822587 19.29968329480222 7.948833085276878
47.36083744022454 19.745109953187036 6.320779858103753
45.896066606320716 17.618667545819125 5.674078472880589
70.18331159414835 90.03187557145586 58.27849303450122
69.63812262143698 92.13634246473674 59.624522789939896
15.555940357310877 33.32308953763109 5.607117175139433
15.220113147394391 32.21991900699601 3.516006139871484
16.97569788964507 31.333156965840445 1.644492334660266
19.33938630854228 30.43697391312343 2.148927141742167
80.27581166297456 0.10957054431607005 6.155301568810007
73.69491419328183 83.19512155303592 52.498503205968355
75.39109777292686 84.63394438149395 52.94701347842397
77.56799370015818 85.16046867443374 51.82645462458303
78.58894258302523 84.71737833903444 49.65124428651883
29.308476402488722 83.10569987249764 36.86599833073331
30.364954719155833 82.7995425877529 34.71365430297302
31.08545826749451 80.76294912267835 33.3968845024467
30.818377244799237 78.23559908928614 33.75630549358455
52.64742163927972 67.4561321157173 12.61441299800471
53.42135235658213 68.34351294561323 15.046580246172041
52.46614596686306 70.01801357173008 16.50975509558417
50.03702145196795 71.11394713209972 16.35923546061488
35.20087722831337 83.85562999368581 3.964319007866833
34.050131210960984 84.09524314459514 6.150764817763063
32.078579637845046 82.41336686898002 6.864366758707283
31.77522477015251 80.23864418394768 5.344677082883991
51.13212024456915 46.963951928352735 17.432274323459577
50.98141144968178 45.61842828962595 15.49678351979286
48.71076843489566 44.49300754467622 14.987598672880063
46.827395440747345 44.13385056545593 16.86107680103759
82.17598059675328 63.00036203213184 2.6862683238830485
80.56720667075315 61.48466796148002 1.3222185366129648
78.77423473796013 59.93554049367616 2.154076214235601
77.92076711430323 59.469575339985006 4.2115309574566195
56.95527203113971 74.1456089969844 68.13645289735545
56.0423396037 76.0309710863688 66.63185026920131
57.04877159986993 78.48201331170401 66.6370028267112
58.82754565519726 59.91497734905386 11.760322873518076
60.2486512729166 59.62495002798668 10.253004140848947
61.37218839500235 57.67167274263569 8.698963147972032
59.820162048397805 55.517515633130394 8.678346167233036
59.11704248207329 4.995505586941459 18.636456444926758
57.28434010518126 6.0589041857496495 20.031468969392865
57.41586563094171 7.8492425457394805 21.93498175541304
59.36410768533671 9.205381927333384 22.75545895286549
72.94059272328471 34.568879027599785 66.69276344173765
74.19135565446106 36.18443242640617 66.2137097331984
76.9544364779364 36.2600023231835 65.55766032807045
78.37327913339047 33.93759970050942 65.45038966415889
53.06927774577736 24.588277806330446 1.7044862895789221
54.78186992300668 25.090766390525108 3.6662452243177293
54.48026795311444 27.493499301312013 5.045934367578836
53.777327034887804 29.64963247458767 4.224426228326836
37.9966224159431 16.857096721791258 14.786805649267137
39.01720892735644 16.731756723871804 12.784799382746433
39.84731144417889 14.32067619267784 11.616840365896556
38.42933776248185 12.686527880775794 11.998542672231634
81.83344012667557 68.09814385250492 0.6077216131397952
81.89359736745386 65.31445257169692 0.9751346053300572
79.72173836278695 63.73328095374365 0.4428237192985762
77.53124264017531 64.16863725072439 0.7771104393032037
76.99705922124629 74.93471475967665 31.851414627163184
78.59457473967666 76.06713954180697 30.411925224652716
79.46459991693122 75.1727629907368 27.8036135595977
80.51781394229157 72.58109656708552 27.90395078855503
37.81311867568027 96.64515065347423 57.6283856905595
74.30423018105138 43.69883844290936 23.143129614721932
75.35863200089348 43.11867443744277 21.812820656377685
75.22152828922414 40.70384944784587 20.560529024850435
74.53990859469963 38.80154922173603 20.959799683798163
31.395447109163815 30.043989640902375 13.369471222829851
30.253656658079194 29.406325522256946 15.194475553082935
27.446575488613988 29.833397047217296 15.878012422324002
25.932877703745916 31.363603070817234 14.589528611597263
61.86262633291899 83.46135104709776 41.5519981732024
60.322780396541994 85.4400184447612 43.09263434293879
57.89959835899344 86.33792260894154 42.17529259746687
57.80001614111262 85.61224579654093 39.61931764672915
23.49409997494888 8.542924056764173 16.29495530243447
21.095104166500242 7.832905798661671 16.60754407786254
19.148334204857736 9.226720455729806 16.185282792446163
18.53919272325366 11.121059832250529 14.952049872946402
27.091983886044904 71.61082617195376 33.65661958864421
24.604283198038964 71.2773447841011 33.621607634670674
23.15553751115975 69.69804259798191 34.560524981071055
23.21389415534883 68.3316159705716 36.54218047900962
41.51077647935964 95.45948516885947 59.42465893984662
39.097017148830965 96.45207717876528 59.94376299985357
36.937941893152754 95.41248622511227 60.92271281108584
36.630631970275516 93.58702670359959 62.533518166604715
63.36175798190136 19.024113991151822 1.3069945386521316
61.66498377455264 17.13027254041015 1.29193934486445
59.84537680966077 16.618549169468093 2.7865265635447525
59.0900956255139 18.09480078108982 4.208543057515392
19.77334663141352 44.62500969460959 74.82388507817302
19.889705021793574 67.11059655712204 31.138210514233812
19.47171053327879 68.44934013460858 33.058011928018274
40.51520055529638 95.05112799765712 56.99449843442755
41.48556548187551 96.3263500384213 55.12292499788904
42.732446530393815 95.99163723968653 53.20266607513702
42.24972552268241 94.34667646070842 51.11720403120531
76.57088354015062 18.09079855322694 53.79429073307437
74.52569665818879 16.611521065999526 54.98300518207197
72.80459169874919 17.53256896019428 56.36374085983575
72.00264929645083 19.66155233044524 57.126573740608094
54.65834778704128 19.730380969875014 7.120444566657897
54.14268399223117 18.71947638713228 5.108994719282007
55.1683161413762 16.98693676167647 3.545354018048955
57.47620910640268 15.91226948705001 3.902079847050737
23.244436469574904 89.39824758693257 12.26355766695497
23.819135018856286 90.35140993073041 14.305689618287037
22.203900744333176 91.18298516580543 16.513852143905766
19.838228462614858 90.84218655415387 16.442942726864498
81.01694552320657 85.80821314048296 28.98942316755334
81.45029283781246 83.42347629618588 29.41547744177147
79.9463971472801 81.19058840508131 29.0824958060218
78.2442488275743 80.62633193578445 27.624930815435803
46.13196246454054 81.31660200413054 1.7530554931677857
43.730386132442895 81.47127564026017 2.7100564194836663
53.59214524044582 73.6743446145399 43.04646247502805
54.31137112855835 71.7591726529363 41.150778085824314
55.565277265380885 71.83664327272955 39.08514255133035
57.29813174316101 73.51531451808283 38.550128916395394
15.066827423912496 36.94651488680337 54.86478055881904
15.81873750768364 35.12904656677254 53.44386698816727
15.49889306787564 34.89820310614362 51.06911288954923
63.27829246656063 28.74044188689334 49.97756243297682
61.033156671343725 27.719686420286028 49.11848726499492
61.00578560117007 25.27682767231241 47.55031327000754
62.79240367709421 24.86272536410915 46.20269699463872
67.84841495274509 86.28283950517653 41.70034130757278
65.77787216052647 87.36387616776614 41.59172246532031
63.64063254839904 87.50917940385577 42.98182148713422
62.47235236038291 86.05666253911947 44.44477274637055
61.445460141471315 13.252691915521831 59.1266032615224
63.83096220570679 13.445726850357579 60.209397674451324
65.26293167566864 15.572832817624596 60.77502473344249
64.66828430834379 17.963722596337345 61.486654874346094
22.970899892419563 40.8773172437752 74.70780528814744
20.697203002613268 40.39194310846344 73.74360458586911
18.536159868905848 39.84259492485273 75.13350672652939
18.46711571224942 38.4578451973662 76.43528018281374
29.58595775750416 77.29894865257332 59.97630611513976
27.811818095447496 78.37895120488307 60.2321145437381
27.446113937178485 80.78607360282169 60.86857214571323
29.029772817839888 82.30755873444065 62.059951162963515
70.04599871280838 75.02339706569045 38.11292669420091
69.07783405709854 76.88658593538042 37.00033758794858
68.97479248105988 79.32811171089176 37.40323459676825
71.28124659128842 80.70915786551292 38.41427655853413
60.1497636060652 23.27404213329501 71.07813912466713
60.24987906129205 25.10467081814943 69.38229592235412
60.10296133179867 27.7574945445602 70.3582662395383
61.32616433644724 28.703737272814404 71.96956340197039
76.20546663529687 20.264118724382495 79.93001944770236
75.63460757300298 17.70249255509434 79.861761699059
73.73294256165163 16.497591815699145 79.12360510046177
71.44583825572357 16.954633268354254 78.98756035477842
36.75471526780337 31.53403899081883 58.444939993255595
36.449006792078876 28.953882915867663 60.084062292381
35.92987320519125 26.837704737395008 58.94731298884157
35.72762640619084 25.965094041928378 56.98929599765329
54.21509584825024 49.591166096638055 34.51350196458451
54.566454692679535 49.57779143244181 31.85753767028881
53.7695730915813 51.20035500380351 30.12363868943758
52.36094001931529 53.028255522128056 30.222549214432266
24.257110557684516 91.71237570726588 44.28126314674394
67.78803499289047 30.811935039882815 63.12694326477406
65.76599311546268 30.779043661554027 64.73167886009341
63.86681246377308 28.73583582329445 64.73724978080543
64.98023358423849 26.732992406748316 63.670669418194834
49.52210601580146 32.82577701143472 79.00077636025507
48.27836072012865 34.4813536011797 77.95746624638933
48.14189327541298 37.033851964581984 78.35921301316519
48.73843868236089 38.45844897847019 80.18558455788927
28.645979163464208 78.4390105925251 55.60891486682253
27.01929311670013 79.27678136858167 57.117149925381185
26.643682598877987 81.41732385879259 58.42139545655968
28.246443408649846 83.5220164266556 58.64445433211361
46.758284344532186 64.13551768139753 65.70002707700128
47.93674132917283 64.3002481987068 64.02630518316968
49.34761430628242 62.48130634173838 63.027751998633974
49.58008997630634 60.15323524763375 63.652112122561135
24.566674277109186 94.23757004081388 40.85709575776867
26.241340652600865 92.45544542511102 39.45347758357638
25.538467098705166 90.87998514464601 37.778270039029046
21.832535721361136 42.566694790846626 53.4461671410587
20.169114406469497 43.41607117809386 55.0359251549145
19.113988221171567 45.46026254403221 55.30954663633502
18.753218735313975 47.72246597631765 53.99041727014259
29.24162210652148 51.92434492650479 46.98369644060613
29.55029246300434 49.5915589507253 46.60199932876868
27.96493610942967 47.34862778954477 47.2796251718989
25.49991023709282 47.41655223427586 47.872239774443145
51.20256874102456 70.47069214096283 62.754663725117666
50.65491045486859 68.47740582959374 63.85365161748784
49.7185984942091 66.09913751482425 62.788680646280795
47.81175839474521 65.58432133824476 61.36508444960713
66.99365223365152 75.55788560062757 15.39123671475256
68.08129917479066 77.88784702296819 15.510539824967928
70.03306494756477 78.31233369222298 13.478440084101408
71.87815341841726 77.23942227061723 12.9781935918539
72.17564747066142 39.03795883710568 65.53845394298587
71.57168181798991 36.597314439145485 65.54582073678525
70.05609457858016 34.99802466823294 67.11395580225336
68.80792732738469 35.88232621664485 69.36903645925288
70.37650156754447 17.36714597336953 62.9520446496644
68.68317626719285 18.741014437196313 61.915236215204956
69.17160007807149 19.98262327602484 59.78132288934192
70.75513903901039 21.42112957077586 59.285617368401596
83.5278637823895 42.89238140769931 36.43245101439458
83.45014909906828 40.99643934652656 37.90748493549431
29.057634243713338 74.49497738073588 59.198863285724784
30.27934453646075 72.60318404861815 58.313917335174274
29.69193721523416 70.88790898936169 56.39158229196383
27.571265187555422 70.56185012177147 55.025523646155904
66.31710476683178 51.619267687225346 71.92298957337094
68.83162004426369 51.3353467018775 71.16375796910437
70.46019061105176 53.08920909751028 70.44177875560601
70.33084706485268 55.58363550489994 70.40819850417573
69.83833054597758 34.47180502906438 39.70254103611731
69.8988117020169 31.989736994863957 39.77797090550367
67.8663187714579 30.368357728309032 40.7887150970134
65.85879458720541 30.48055991189727 41.322245801092436
67.36391274479924 37.89114367619132 25.72917939639622
67.38762212116691 39.19373733163613 24.00254385668712
69.61066242279145 39.339475851616015 22.784244806994497
71.89602786758448 38.57509963775806 23.54048925079337
58.939322790188825 45.840662291711574 33.4140894871034
57.208349000548374 44.77080799361083 32.822760938316385
54.43778348097287 45.402948133729694 33.60481797444046
53.83056297898345 46.928184031819505 35.6141984344028
19.85978676454584 26.377839977629684 63.46327407163558
21.80622001769178 24.659430462792233 64.45857478901532
22.341431904364644 22.4439139754164 63.6041431308798
21.777141281913455 21.171654444764744 61.43305217641605
27.71786448459699 41.55430111830935 44.185567739025736
27.956316394115156 42.962518499322556 46.03826904007847
26.34240433190949 44.29894806694717 47.463729577268595
23.57448243337642 44.066146449161714 47.37442048328404
74.46506727473536 0.7251354217465757 2.8956259764526786
66.97854434016065 88.19284288923784 39.28735430853892
64.69834842241698 88.83919444646601 39.16256531281525
63.644681026631744 91.1462283830144 39.822198917616454
64.79924218300224 93.32993891055423 40.07591335567487
32.114857450531005 34.04133535328188 84.43750901006317
34.00303120819841 32.88984957041568 84.2643116369273
34.799470327159874 30.365552997663222 84.09004958440086
33.79587656283257 28.274763209344787 83.95115345282278
6.422544240537999 19.15645663450058 0.6563478963179458
4.49022968316507 18.371602145166296 1.4172156299857877
22.023635314289596 62.7755842766952 54.45343732783966
24.337198127051817 63.8390086605972 54.222930775172046
26.665748488502604 62.500378089320726 53.986007833950346
27.509864446474 60.57962527324061 53.21086022172939
15.900486853166674 35.42984533394779 57.97292230976015
17.193876278849455 37.52810864437176 57.47725339324465
19.812706078459023 37.48558498465816 56.26734037382164
21.007346453557982 35.678655792966914 55.84427790653206
20.060230584048984 85.81392069703833 13.958728467501365
21.681436288856514 87.29346932422463 11.994232446267535
23.81276815928092 86.75028328137896 11.178668516849406
25.522978656618832 84.63451608617308 11.505571485148025
33.13096609904516 70.39579265855181 56.40601216827478
32.521482673420145 69.04249294910275 54.20620418327876
33.69924526826967 67.21054527162615 53.25600301959585
35.872772638945186 65.88739582218155 53.652706318863416
45.817731339815204 75.60372875497396 25.339023424466212
45.766522672833005 73.71894909545557 24.41026049835354
43.391672485183875 72.00315820020577 24.168045942308055
41.6268825923706 73.01738256575439 24.61722372012449
46.21004378528196 46.069315901708144 6.412777194946939
47.75040149990337 44.51732744443335 8.009690748321344
50.37099450325657 45.007680880403775 8.82435793602729
51.690459411887936 46.77711541939025 9.110963145663911
20.383082727782522 19.412938841638223 65.4609606590935
31.01328307478932 96.92424801989279 39.407815794775026
29.113998029705634 96.43161924852507 40.97523394906407
74.36710184303021 19.118111868056616 8.811358254925763
74.2194791110177 18.4437824666668 11.291716692125236
72.63493792835243 16.684852529065736 12.636440034727775
70.82074633414675 15.272489965447932 11.609518626482942
32.39859465584559 93.63127738786253 36.581478843220694
31.6879535077027 96.06829797898789 35.519726834968004
21.49211146530861 18.842329621096344 63.09781993354349
23.696706786824823 19.461428375236213 64.15683936609874
53.03372608508827 93.67717378246243 47.858025840249496
50.785272418806 93.76535967472655 48.93520049984855
50.21573543731617 94.80260372819326 51.38811436391969
51.40727217488527 96.91544257052028 52.47292871587331
21.902620808867916 37.15614690229613 51.97002128083831
21.028510017436666 39.95405705199135 52.148343601272146
21.68003020518484 41.739056392436225 50.52628140391231
23.894898495545252 42.02795675518447 49.12019830598701
40.738473169101226 74.08903252673126 30.003007248515804
39.28586778828455 75.82457327106029 28.591694340418133
39.30638531804395 78.1656935349528 28.398914440557736
39.36673176984981 79.94595133182965 30.03515293850684
21.312327452844247 20.31363566356053 42.63915920660713
21.552351957236286 22.28746341074641 42.1884159156279
23.48867107255483 22.727748194855398 40.75884343392266
24.708437002237805 21.791017737303566 38.58538262149495
84.47413944392086 60.104778488077635 40.097805386502465
36.439464427972176 40.50259358279304 65.5546154720792
37.119327890170965 41.46365080452229 67.3974749841223
35.37491534666091 42.79468454067707 69.37395912063408
32.95721858726556 43.56188185145747 68.95337742078084
34.53646352645353 62.5417166082522 47.51687299282722
36.17069568157794 60.52435121631503 47.76866893998457
38.80164867894398 60.761172402988755 47.34362664789021
40.11121370009053 62.357636440213085 45.437957424690026
57.754731252857525 53.22159504780026 31.2633413429882
60.29704263145638 53.09728744607024 31.065095115470367
62.07885008166432 54.646599346651804 29.807978759503456
61.78006081863695 57.16043524528855 28.933438995702407
14.010863092304543 56.52674213880089 14.662990685634483
33.89214577330111 73.044324962305 56.019245493366995
32.25506562364056 73.8118549786695 54.78005777642625
30.859395571569937 76.53201602117542 55.39127493746562
30.334804445255614 77.05584080145356 57.58109387359501
