35.24808687868057 30.992776364551155 29.352065413870726
35.54225857193866 31.79257979979253 31.795314136066153
37.48872139585424 30.75686449421508 33.52512968013844
38.85424129500964 29.1069559432408 33.1921913181457
31.457341230363983 64.7348977352391 50.39275174722694
32.87951320832276 66.68393832344583 49.47591420989296
21.95438146027065 70.09946136655181 55.10507609069205
22.639865754490007 56.65495276520424 35.64189137218792
24.03359738491806 55.84818773797121 34.00241856220973
24.8771888965517 53.459531184716326 33.251654238809344
24.068332133670264 51.389351129672676 33.960188877287756
52.58709213444141 54.14379321250188 37.83904727253184
53.89221084655648 55.797610423272005 38.31671350518114
50.179090503093846 49.07870968570865 60.10572947326978
52.0792422247247 48.209538294407366 61.30268385540097
52.9084875038023 45.49797902857373 61.507460835832724
51.807987640679734 43.61512812289076 59.64007936115869
20.03679500015117 22.706753473038532 3.5774360666233482
18.378536501600827 24.11473630715208 3.634667022164987
15.896510877622491 23.701024104096675 4.512871917795356
14.860026753714475 22.0148494201054 6.097911288992949
37.762850985918575 67.40996618586641 43.497894300136416
38.69979406626058 65.16334018647409 43.236959505999344
40.50772806897174 64.33743919424818 41.87554447899493
41.771950998771196 65.28654338045699 39.75243213209732
23.11989513770463 82.26579138184219 1.5628145859092377
21.916819776704255 80.16853236928387 1.7135721715968057
70.78203239926137 45.27186863163753 28.727876928063942
71.41454497753342 45.784910523855544 26.584706592020815
71.9400460037479 44.13232305495958 24.369973908001512
72.8579266457047 42.00617934283271 24.18992114938618
12.78933300305253 5.208727636105298 8.551594507576235
15.395173545887372 6.136280635682925 9.032061410111833
16.299127147856804 6.918019263033062 11.036318928182874
26.949317901946095 90.06082809680946 49.665868707116566
27.45843152526089 89.39129517373682 47.43899920260428
36.35396667333156 87.7552668078217 40.24167105829255
35.441535103244796 85.53339515688876 39.7987746480336
30.44580480580803 83.74004845652509 4.700920559596807
27.926769161450984 83.50869333449542 5.975940163041756
26.099471651270154 81.74992350118782 4.673783200940566
25.80352362771235 81.30106106892504 2.2697963020588197
9.222488016416449 46.458176746221085 1.441701995976461
11.315349642231615 45.645647641759155 1.1294053247436624
13.210411806026595 47.50747609696442 2.561721539580101
12.764032232312946 48.683758012009925 4.459312658217101
40.21223102305234 30.064610503566573 37.80909377762356
38.749888397674454 28.753618979445207 36.241893639468024
51.92158547540461 26.790276017550568 31.649912626865266
46.914220836841295 38.268072932476166 15.475273636473181
45.44455818917883 38.902994716150914 17.11913020377916
45.15465290696613 40.733078251227596 18.799613467353193
46.4682872099698 42.793700496591065 19.15212427589663
23.673470171136046 50.65904192343064 28.240663676611238
25.98516191446832 51.8277039564833 29.55850876672442
26.04735459097308 53.68616615368165 30.73671178021731
24.62344357647212 55.75826343641019 31.07185829275368
32.634164083245125 86.01409111312091 40.41874410852752
31.134170263654344 85.63006913269895 38.14970640857053
29.872029081579402 84.1087329698576 37.47639992491063
27.873914933333452 84.11889772905401 37.962034957882736
82.40837695775448 58.17283396205702 43.4572187406715
84.38343575119406 58.95327636223682 43.92143475849814
86.82260033245639 58.83557009188266 42.31531527482262
87.01589401521152 57.380976960187084 40.407011046520395
18.338653337629474 22.245257205950583 25.846339786739332
20.361171157031492 21.43525601947136 24.810596646978766
30.113871890621283 20.83793150223988 19.764456434041033
27.963092880120367 20.146233636726418 18.45367556079827
78.05367675903001 80.44814209629466 13.273622910728717
78.74797458714951 81.28492061232336 11.103066867084243
80.75514384583006 81.54058520406227 9.808578410786895
83.33297502609145 80.84379430713427 10.278579641373533
73.18885709363228 89.4291181191335 16.47213888290398
71.1142140458807 90.7484257786157 17.242814529697807
35.33612535356787 52.70774039194451 4.504100126202089
34.082388572664094 50.86053440782152 4.262099310870576
33.16595610355186 49.64684205301222 2.346936955752016
86.31677887290071 82.43847696499367 43.38009662566417
86.66533075382375 81.64358535099848 41.07202458260119
85.02046488031323 80.55025024644196 39.32477015655389
68.32856480581368 86.34034914377104 45.97846168710788
68.59407385576996 88.31278192132703 46.39667847511973
67.02822183771615 89.36300244730671 44.97403426948063
67.21186062882369 90.1388363846842 42.28392774928185
72.10169740071336 32.475894471547065 62.787774300706594
70.55752634611265 92.56178873576617 28.83462673068095
75.08222916455165 92.88437540060238 32.59496344346254
34.73411296374119 36.60733402952046 33.45374049073307
34.07188848286544 34.45727644927787 35.23336798004295
35.64214228200423 32.8945012769105 36.41034190175866
38.377829367601315 32.65287407405176 35.75857575425166
88.99882626831675 80.73443884461955 42.10250903161344
87.91891876784621 79.15264604153252 41.16768766563382
61.04111564705308 26.271103866554615 27.53762450006662
59.10427120603121 25.75636395464264 26.194918490988428
57.42283617717876 23.882856843681857 26.244137771499165
56.740308025790235 22.313909630534457 28.33765473322023
62.64052240474939 25.39536843053778 60.2436267199331
60.46490271057156 26.48870260592134 61.70483876829482
60.20500187426587 27.804605031465776 63.617178154757184
61.76175122935454 28.70597177715981 65.36386975846972
50.91849664428815 42.19239993574502 31.692604961041244
51.78290848739165 42.82205690630176 29.399020776293913
51.83273419368075 41.69494212344093 27.045073557735137
50.0630130711079 40.86501854632074 26.235960237224546
28.233023656534392 40.48334555805288 22.839290842260453
26.321558135214477 40.041545802265986 24.03219066385193
23.825125611100727 39.47486424128744 23.026903738399838
23.179323291620452 38.52173153954264 20.788741070821704
23.493802930585456 19.16907323319172 24.064566867635822
69.57625771785159 40.16339301709252 25.495710479267522
68.0434946230928 42.28493828517995 26.398279503299737
65.52897194827669 42.37973894955544 27.001109833695843
63.753503188308535 40.80970561209534 26.34497142488022
60.560429966306856 24.8244986993138 54.730592316885634
60.9403521174781 24.413151582795468 57.25444422212043
60.245084953909604 25.533467840938524 59.03312183719777
59.06547094274759 27.871296190162045 59.555321457968
43.87022366562689 49.293161853399795 64.02399193277549
45.15178359460618 48.543521677709634 62.06481236549311
47.95122385306715 48.642970703057344 61.70533729544877
49.733433027626845 48.8058024057289 63.56349031146405
7.426976564646828 28.383094232471475 6.380932895143298
5.387254511582181 28.767897010641363 7.434549803336373
3.0016069769981555 28.929705427777854 5.656954494167575
2.865776914253519 29.01987052846348 3.7378306459508077
38.75834574926094 55.40726572771318 64.98225110046913
40.13751866817378 54.45630067085343 66.62079570428817
40.01445974238498 54.68623489369719 69.4002673839316
38.494961173257465 56.61672426951407 70.50164520849499
83.16120097210575 38.66219456643444 20.95590903186099
85.25921512567066 39.52360268599677 21.995317583474364
53.62538533959245 93.78646521045535 48.027872857297666
55.32254717926476 91.97225309671092 48.43908453306925
56.85937207723775 91.47290875286846 50.79414740118013
57.31067921840067 92.7070340243674 52.54569165524329
26.89887500574157 21.560268784018355 24.14035309292082
16.35045800225664 19.98658409489787 25.737770024101327
25.609000127437888 19.899154380437242 20.167009678752514
25.238354907336696 17.477443922098516 20.025482747854994
58.51253301572363 46.89004913218942 63.59949210401103
56.728612528932366 46.98379941120469 61.48281231305687
55.66689772828479 45.49554523309664 60.101508878434394
56.219619153888004 43.86319234537218 58.911551385895216
53.394663497343416 50.796172933396825 35.31598352990478
53.54412260470327 49.45915259357995 33.736764916788985
55.93718342336311 47.94021638609577 33.573681189518545
57.04078142070247 47.04741417881758 34.87005889839452
24.715933872833418 7.695019722136911 6.3732687288094825
45.748852477889955 22.758824296806065 22.880355439092696
47.77370275592308 21.53146039160316 23.264379064523677
50.222931894496654 22.165267310234363 23.25789785716392
44.32856490469323 44.551383272924895 23.471621230832106
45.62527059251959 42.416852254717845 23.896129132507536
47.35168351364236 41.83855392729396 26.01927745476086
47.95505192440872 43.05873625087501 27.964024082624206
52.536860992591684 79.95617899951831 31.836515523760017
51.40235346098239 78.5472745695721 31.12468152296549
48.708019495233536 78.97969359368703 31.83651544025374
47.609833282110515 80.7742128175777 32.38376347475676
67.57224167086324 38.67131672388139 53.95302113190053
65.65411204286893 39.70303616458434 52.95761080092383
63.561328674573986 40.91169339662437 53.61773717291845
62.582239517558115 41.25764909851622 55.82242494600103
26.351561409571673 32.78565590400657 18.074414709510283
27.872962176775935 32.4315924043941 16.13996903838196
27.680095830708588 30.64581974624285 14.00369583715522
26.349833030398063 28.541599824408397 13.681307825959312
59.7464976428221 37.519590465403326 68.0921238150681
34.66159948031306 38.9271832400644 50.998549109541734
35.68243821842935 38.33763252242089 48.509969567776025
34.53747881596045 37.58856887246486 46.60100651232176
32.16578647212064 36.46260543302446 46.130989654731906
11.20635833254143 81.85784408807407 1.4971357534748915
9.460783863562098 80.35201813446012 2.136023316051033
7.2347575914946685 80.20503110345246 1.3315089504037483
5.27068846546612 82.15175857582342 0.9074897857051811
40.3710216829965 21.367350336123046 19.779556665945684
39.7621203130321 21.935231215835003 21.95605943896366
32.23618661385912 23.982672681018748 26.95961664648897
42.844449481045196 39.99470708710118 53.292498962687056
80.13222434253387 41.15751428348769 51.196043034516585
85.56714252817513 41.97517923505019 51.68444802294067
77.68287306967166 39.428566383212065 50.05518558013176
77.80313191198684 39.62771885601495 52.43255840557008
76.07301531695973 40.62137488284866 54.09174329931311
74.16578105350132 41.9918413825171 53.70808827972003
43.13989491492948 43.02855726975375 52.808712524138166
53.87677655933589 89.61683254825071 48.531182057421866
55.65121540129521 89.0016792060541 46.80207335473884
55.53783408562418 89.22453682823519 44.17241392963386
53.96641065183116 89.86440488998024 42.68714335469865
33.53719866118866 52.654257808677606 61.2318696316182
35.01383925896475 52.11111245860342 62.73777423499643
37.42633569800556 53.28319063302892 63.814754231145976
39.03158613199744 54.25930452969353 62.412427243785935
55.010150406847046 83.29138192341907 30.03503424664415
50.33435028485687 82.91287071876799 37.22239604740878
49.395652459523255 19.75690448374997 44.598315322088645
47.29454090802467 19.48078260054549 46.54294375661948
44.839085676127524 19.713346073602192 46.26218677011736
43.49172090894289 20.140722220413323 44.17234475610131
44.804458857426056 25.153429657980162 4.008581577101823
43.375908369583094 25.778709149248705 5.594665851534413
42.13173225199769 27.660854865505172 6.397951614769252
42.720358708297894 30.05290803850679 6.567956502374663
64.4815966863969 31.92503795849252 64.18270642900397
62.11225713168867 30.952062962475484 64.03363900880645
59.816095204568555 32.09046198414881 64.98977211689662
59.084095997688976 34.348016076811874 65.10606851806844
81.71114120820395 34.81698016604881 6.831276556460249
46.294134138504766 34.656347175275634 10.37441728027101
46.04261660641652 32.15821080052786 10.249673409854381
44.06008444769492 31.577758698587036 8.212652448062654
43.154627852970115 32.91374500926166 6.847613574505531
60.20695252014068 33.72675013882765 68.72879099950896
58.082655368534354 34.525668028984605 67.53681261318583
45.872932840551414 34.1482348069958 72.5329185541458
47.62404366494068 40.397360887025506 46.506785559474416
44.805012013580175 40.66520389638928 46.040389581538605
43.23150041370207 42.24062553082728 47.256025580483325
32.42827047930564 23.874898903702313 3.115883830888147
34.001324263879425 24.66587062339559 1.4234770846060427
23.64152571057658 25.037374609412883 0.021670089946919834
21.008267164617784 25.807885922180986 0.19641803978566005
20.091330683866687 26.473862300133863 2.5821589790044195
20.766747382742647 25.210054399095338 4.807393535236221
58.08133717346256 23.956413779511017 54.24488304994617
56.71850573193473 86.70046979579034 47.53385471743776
58.99125786918871 87.96985717678665 47.24782896902831
61.06099248351976 87.61441139161646 45.69701206511368
60.806592895789464 86.42251162623586 43.37987078745788
47.59470801773545 54.47284774495202 65.02054361791454
45.90669544649725 54.18706458718052 64.16550841659654
45.56445393458767 52.06474221052185 62.454734457656386
47.062087240403365 51.04742519122596 61.02942489432975
65.44694417680573 32.13795641471288 66.6560988641432
32.66011652815993 44.287131909050146 56.824986762901624
30.99960195782268 45.71428439290716 57.22262266458195
39.07563251073068 44.334176791215576 50.124741058492624
38.872839677483114 43.136624275568465 47.8733040486278
48.599820486631195 46.38131855192049 2.5444998209143153
50.59022005091626 47.26207990521252 2.683959613399972
52.82144854465075 47.23810955604435 4.6702981759353825
52.48806044405659 46.40072339177238 6.82719506006159
77.62510114289476 63.77412493137799 18.64404943571202
76.8454510745185 62.052880787311224 17.055453216955435
74.18790414425476 61.208894899590675 16.831192983474672
72.52532133769792 61.97729365169092 18.00014389491604
59.92581231707204 26.075912173781198 23.342336642447925
61.98386662901031 25.064915597209946 23.890604162747923
64.72549558015011 26.425399802556786 23.92735637342593
39.99280429231401 80.53866785025187 63.092768519071804
39.48928353349224 78.28398956233782 63.19194290765805
37.582634599620775 77.08300869079301 61.57804993136707
36.09765129930887 78.06715159920597 60.01897544619617
13.445072475366832 25.77461860638661 2.0666887011366395
16.245921851774465 24.907686932549673 2.0442693062133266
17.65791305349671 25.234784726168318 0.4224812983149661
74.45969344575687 45.72828471792166 25.40680385242728
72.62617507815703 46.71726552889494 24.294453142134415
30.695247396879278 93.10614862470315 18.010602460188913
30.82953754912573 90.81230177724686 16.9918820995465
32.50635706720459 89.52133711147705 15.569780154496568
34.93214244162428 89.79145317820252 15.440910965078464
54.510311224555714 18.433259612528158 24.312672195511354
55.53034170470898 18.039573072720852 22.049531793074575
58.60126417762557 44.587930001736744 57.62755066344623
57.80390325029358 42.82565653942289 56.10350922934959
59.352000164141046 41.76505261152443 53.82330881289138
61.43778238000401 42.30644467747068 52.91715073921748
20.111917473378572 77.68229482102218 3.3356165048267044
21.567522285979205 76.99726408470478 1.535165887086474
21.948146361610036 74.84947242697373 0.2600685247255224
35.788709708115036 58.578835092866086 10.425133442004148
33.75267400242928 58.120234814118724 11.50342497829969
31.874310175484332 59.57575767472835 12.247634098601452
31.011104554038308 61.83154018770693 11.700340008689443
52.10341912380375 92.98210542959401 56.35065773821201
38.33831567967054 24.80406313197493 2.480866987535939
37.561743718700534 24.122419660068797 4.356788761062301
35.34339364485642 24.81485815240875 5.523021634280986
33.43568190345362 25.99706799067735 4.589529337477768
68.3998733482032 90.79681905251408 31.548670566786353
67.80582431297401 92.20387835242461 29.454645121254195
66.60655500909789 91.6669567910459 27.43592435418301
65.67370042708995 29.669508351075237 62.98243278716286
67.85270585623998 29.929443972181005 64.23121973024946
69.70009979304207 31.97090209078856 63.81804119001317
69.51263517910046 33.862629237960945 62.69094514778933
34.27065332123964 84.7331412729208 66.51696434910501
43.60021431932226 30.3290710389969 69.63140010320635
44.542977083952245 31.46469593761528 67.63988674525183
46.79160523197779 31.31975134708034 66.28143174831996
48.63552600720751 30.13900255178653 67.37838948796171
49.42026121805445 88.5619077478362 56.974880304427266
49.46535251571808 90.73558305625097 56.36634044263911
49.99396691746647 93.1854504237829 58.03265985248823
50.96040896430504 75.95247445913886 32.03306451605531
49.24088955113978 75.81204712727951 30.20851597747579
47.383370368965565 73.87334052470685 29.817875944649845
46.08421525786118 72.545180150622 31.501012838916633
79.8679750182642 40.79865498420073 24.12606058432227
76.85283841746941 43.91686268389845 25.5461843903679
74.87494494529784 43.469541060258244 24.087107163756794
29.258507867323527 26.511000417797725 7.937557093392932
31.93462881093674 26.341324983401666 7.2676944168966955
33.15896484244483 24.016349128535477 6.775126196790656
31.98205233215377 22.04335653994705 5.493815448348377
16.149870218943978 46.858237527603556 2.1787871930425333
18.599884395090232 46.32892381412717 0.8644986560102427
19.405976178067114 34.35171500154318 15.592809647614665
19.43132621901339 36.726929705898115 16.15957831928212
17.720122378867934 38.62832411076806 15.65180054370214
15.533267646095439 38.49690821797129 15.8519039456946
83.11046538358652 42.81002540089951 54.517082833543476
35.3673293909544 37.25239647235506 41.855196623828945
33.31196100421356 36.520566548005505 41.2958121119245
32.691786186107684 33.890272138248065 40.229027837944756
33.908826629700656 32.547842581707876 38.92336351071622
18.693382037412007 79.74739607863864 33.21764438051693
16.992714485473996 81.18235240731431 31.44986368029817
17.538649494473113 80.59828569270996 28.778659077190607
17.880262882642555 78.30769006571988 27.98078108991192
60.81573271607652 65.7836290128638 14.848202992427437
60.537119787430306 64.27167186174876 16.24015773522175
62.22572603717316 62.17798536374651 17.069100646305813
64.69312991617107 61.97477810972478 16.285795164615287
57.90261544079975 24.079233489929994 22.800419931911684
59.179721931969915 21.96717318027253 22.73781040734959
60.3705316071322 20.723982186908454 20.889394184016183
59.71525999274783 20.31882978627275 18.85015187355333
87.33763196599249 47.08541662095204 33.845772829834594
85.73764659026844 47.89561513435231 32.32608787764407
60.81546910391444 57.48505579132909 43.39151353100655
61.19688589924416 58.72765418089727 45.195605773534545
59.61664573639609 59.600012340173 47.53184707180262
57.77876602900186 58.78033314536275 48.36382467609599
21.10425591052609 81.75520701299077 35.83871575608796
19.750689402359054 83.36197548607122 36.36095226207433
16.632405886279642 83.29597361114263 35.9428662623014
16.137979095611705 81.92548781835761 34.41882628629616
73.71943173854372 53.61267588769873 10.14587077393328
73.66633902151031 55.545642791635544 11.456430989097058
71.72304337105922 57.146121792176785 12.182384168857778
69.3318447487045 57.01156522181043 11.618941922106838
47.467921086667374 87.05216067061116 37.758858211243535
48.71590908676498 85.52328252064936 39.34260748124404
50.168712791340894 86.1507787045518 41.30439564679645
51.07549387425643 88.38832483955224 42.28874345543233
37.244685332099245 63.15276901784434 21.036303329005392
35.562302758995045 64.85545649116872 20.601143645523255
33.25132454607893 64.45469417959984 19.196205585207224
31.693359157526107 62.60130069518774 19.155872413738646
44.46544463837055 48.086673911004006 20.31786756365506
43.23883574701509 46.863793686292716 21.623545539111227
42.387859662683894 43.97243476229844 21.120207474159937
43.09310696459046 42.61613097832629 19.410850484371323
4.080497285660931 39.435344977156866 19.294326466145478
9.356427731521038 50.76232982233123 25.852914549996715
41.586765674658054 65.82379343196627 21.170211533738666
39.460270581892345 66.60072831469462 21.326331690674632
37.34618417956636 65.71533219032506 22.78391739139886
38.02279400717711 67.64575745314704 24.143402347640283
53.164652102799934 51.25372032140141 30.05071024882159
52.84473746554129 51.49321152351806 32.18974392532877
53.96718405430011 53.04833228826304 34.13712707401623
55.715469132046415 54.77111250177172 34.23425981380254
44.7660342551171 65.59167172060577 17.002823605354795
42.75058403909157 66.28761333653814 18.085526007615115
42.94298180440292 68.18483061443702 20.536136822206345
44.71396664585283 69.88016676579697 20.905846868034786
1.0524610999425839 90.9591616764389 11.679718308906352
44.451338511888075 60.58772464797068 21.003216354997775
44.72042891718889 62.50442413985226 19.186458818272705
46.698239473717486 63.73713639109904 18.427060134082772
49.24155600791828 63.58745929899504 18.633497406292324
67.312231272246 90.40933178532346 17.45256253620212
66.090343904383 92.5550968480106 18.205662742202016
65.02699191342649 93.13106591720395 20.318041533649023
49.162875582967494 89.20229132547605 18.072041348254015
50.816274560933735 87.75623415767357 17.1496471915229
51.00075956716397 87.2989352517377 14.26181606605271
49.1672113915387 86.70584051336039 12.768700023056693
57.217144296492485 68.19203180644696 22.462842461981015
58.54161833692843 69.86395193371257 23.291485651133485
57.958815407639044 71.4469089636165 25.291317756968958
55.68740215877008 72.3234932122792 26.356973486932418
52.13949544526 85.26817603192119 16.74992824297809
52.251572741092595 84.9986333153545 14.341092698821027
53.29851966784011 83.27604961482886 12.607721168963288
54.80809735440007 81.65213819974883 12.91226869258483
55.2721083191409 88.41914612802766 14.209349767781124
54.15667370123856 86.37290495025984 12.948905403282215
51.82092981745674 86.44961192590156 11.624537974746728
50.66623728628287 88.02912226752082 10.34761941827064
0.7935309363532939 54.816565647420624 7.105208972588922
2.19586576183509 57.076411604885344 7.658702478736498
0.8861432632932701 59.0796783274532 7.440414595406558
33.01407022034619 62.09517400480659 40.19588447945772
30.456111040460897 62.41166400404565 39.435558485498014
28.751486117931 60.850494251912174 39.27825528906011
28.356411376487735 58.557113541216175 40.08911365303725
22.878569839052947 61.81582307202239 36.62519755257644
24.12237818563437 61.15552116843238 38.333892020241365
26.65557564560697 59.5880952118102 37.87245254180985
27.244200394842192 59.16782010178209 35.71380508196986
23.431719416239165 81.78601432966227 9.635904795364171
25.47531618508469 82.38791615658927 9.266059737173004
27.909574494183143 82.21000961936889 10.612766455819525
28.581187627325463 80.5014081139238 12.035104299078382
37.89034759624049 63.01541372432757 18.096353550822062
40.12939317713733 62.91225402791781 19.533597444359167
42.32865257462349 63.898373674959366 18.692983489450572
43.67763044399087 63.418621003964205 16.108920282776662
22.147905590337746 59.535705857702766 34.88330824909512
24.56193247523167 58.52670512129254 34.5872944896099
26.12730861845888 58.6052918579457 33.22599354959576
26.235546858208984 59.54932895947382 30.476499725595165
28.509333249253675 93.83925466373458 19.989893813977105
30.34171210242667 92.52398036413202 20.433978660013516
31.939749293916588 92.28229865775253 22.595515924878647
31.08845246129773 53.06578037038945 29.823558511070356
30.269892584214915 53.76187316533904 31.916140931729025
27.842927769067515 55.396722824368325 32.353033044037105
27.10944457179657 57.1582177839931 30.94752882376096
23.80955396411795 68.3071724678089 21.894123583318652
22.515965751475335 69.7746460146511 23.068012552942935
23.332464482251194 71.7024194088356 24.94767537066368
25.72248873448589 71.90291194565307 26.072921373369482
38.68179893180207 86.80076886676696 19.112906306633718
36.754366096676854 87.67478481922592 18.704436493824183
34.372536711007825 86.53378088558401 17.85070877926674
33.53962853368071 84.27585089576375 19.242673530533498
36.151927258466905 81.60867584787782 2.741493728317374
35.06996818983638 81.10869632631791 4.742159039831225
35.078172132519434 82.15936771387625 7.161892632519016
35.27397198894037 84.56267372239273 7.856589704784274
11.75826614314617 79.26124720782578 26.637275274163734
11.738065187290408 76.9866122708217 27.84030237731697
9.759574863397384 75.32664076576242 28.52365007346948
45.6279555785303 31.110102663255418 13.819766405720198
45.646506379625 29.872087136003564 11.511494223283858
43.745335826370976 28.727098344395237 10.133251170182348
41.53440309276851 27.763811875156357 10.943467759348836
44.19224214847521 66.49299065977765 53.985011942630905
45.823408738881895 68.02580559584582 54.85477583186479
45.719893436681815 69.48694074026429 57.40117203135145
44.01012437549856 69.8140013308359 58.798983833862515
83.08206099457878 79.37810357876444 2.4845422023193153
82.86293950446372 78.44212060866793 4.452356709051203
80.80008560400051 78.1884684758449 6.36193814833733
78.59971589506907 78.57996977694134 6.452101755686763
57.07564531288391 79.42220792886118 3.1584299965476883
59.33100127862125 80.09340440694922 3.506034030745238
59.42440204801963 81.93784808969485 5.460011649504567
56.867716612936 82.51170084315203 6.42976133136395
42.37723019363749 75.95840220240075 31.72743042369697
42.14502680824116 75.69759753476801 29.547632179233457
42.15486189014861 73.6172254442297 27.785623475915507
41.83382606846922 71.5917878472859 28.05129909098619
62.35878432868533 85.99715087156329 47.44123836850044
63.94257295859985 87.9589704374802 47.06167465472214
65.99855650476843 88.4061067430032 47.76868879976097
68.1052808616184 86.48417734927274 48.636065712572076
27.208819503512828 63.93490808762275 39.393191393096835
28.634115186728295 63.44428297215047 41.34777412924055
29.373860460772995 64.81711054479065 43.046882531527935
30.41128859095519 67.24019657558938 42.898160872750154
84.13079705351876 75.73654564569983 5.146992716540268
85.24236266857594 77.94663050854803 6.251538611026981
84.15070408411272 79.24075586373574 8.11772710077178
82.48521663121161 78.82882233766098 9.064915363347248
70.0160330686237 77.28436779925856 0.6236783506108685
69.04717616950359 75.78871444850134 0.025974001019667788
57.39061184878927 58.19398804650098 7.056726846040032
55.766155704452 58.728377020096616 8.9738563992408
56.347472223493405 60.009602989843955 11.300145922516668
58.106790580441746 61.303710106250946 12.013097558984958
40.55943592350864 69.38348485325494 20.61584031598946
39.47599227844915 69.26252275975723 22.657839201981254
37.83629235678281 70.93122811311362 23.963373727406054
37.62134164917312 73.32567558077965 23.694639964825452
40.00891504983217 73.80896498033889 2.5786298782116135
39.95196393665372 75.95558646187409 2.5216744280666386
41.43158537018179 77.51062399695456 3.963715087758321
43.236246877926426 76.81682290918191 5.708646914009992
34.687538684289656 87.02640094223078 9.658193784826208
33.30874894725251 86.89907734582157 11.066521961607208
33.68861610602379 86.05905203563061 14.015683073572355
35.513925648230625 86.89655881886118 15.499968905847272
55.5096927207431 45.55762317716772 5.306697525440615
54.08307022239167 45.620719732033024 2.8194172215246978
55.74744446781811 46.9381996397271 1.2109742259105822
58.41454781300876 46.926380264238205 1.1988354888893173
55.105798698033226 84.8821426808192 10.690534370741497
53.57936498086763 82.64986363531975 9.58618650475148
51.58141828329183 82.92924708138312 8.08206328564586
50.40678866278798 84.77365484055272 9.370568283497876
44.74547718434941 77.03285186185201 9.404280238468465
46.032398720373166 78.78710053857978 8.51881578395277
44.829196771382996 80.66451939019149 7.325139626200943
41.95240578560428 81.22640463087778 7.498474970537915
5.035547056197274 93.09438108262172 22.171628917155413
29.650233498502484 45.909152833712724 0.4818788062385651
35.1163129979084 45.867956132263764 1.054679907830167
23.37702507089004 87.59569796519268 37.85075433078253
25.54561142255902 86.24137037738795 38.087912976603334
27.70614190280274 86.89272831867733 39.557969345866155
28.595487718284684 89.60432690317866 39.982401190442395
61.729021819076564 74.22038839226886 1.3357799895850104
62.9847621220469 72.4920845209325 0.9048750841463635
64.5089041920952 73.49906985092616 2.4136297079130706
65.13612222004913 73.26037726681233 4.606935479939266
39.19371289364328 22.853346661396593 6.2580008755255925
38.76761495186321 24.823042928713335 7.096284758357468
40.59140244894694 26.18153342665747 7.682884880452384
42.82454530894563 25.732531137881633 9.245541684968313
28.400428707663202 91.87723408742845 16.533169673762952
26.695368318785004 90.82898296296669 18.03570987883036
24.331407239569643 91.3697155315692 18.54407248824322
22.829283392025143 93.38648932199457 17.595323210097632
10.688226217063967 87.0216432171273 45.126195411872736
8.860712250638658 86.35649605019626 43.27369643887751
7.222120245372139 87.44729269687336 42.35151968780518
66.7328466024964 91.74887723431544 15.24907760188838
69.35168347514968 92.326005444593 15.294387940819634
71.2420320383442 90.59274274127752 14.279194749192639
70.78894641463336 88.58330560248561 12.553532606435066
2.5676780272859654 60.77158285534178 13.308031381403536
19.117054202571378 89.11624636567775 35.31083609449714
19.71666089452485 87.035258764329 35.92266896157397
21.40399829988566 85.35182549423476 34.6387450716626
23.730539518336908 85.9348095951142 33.79193045533505
51.702937674220614 89.27991200489852 55.14493920239736
52.67822722796574 91.15293304266663 54.69777025120355
52.79961205088134 92.57911893005911 52.35643126611097
52.08948095901056 91.79794952531208 50.046869262089736
40.19055133816162 84.94745824874434 44.894488871844736
41.16416776637394 83.90687674470023 42.91757996943245
47.89761326176343 80.93540080029551 35.00465980845085
15.293149682301248 67.1217798127498 23.498734787416115
17.299260219855558 68.00694563968474 22.574696257009354
19.28821382590758 69.00669906786446 23.420357182686438
19.691190104417938 70.21679498645852 25.54707313800929
29.23773289738824 56.571231183845434 9.964710979205549
30.39246738932183 57.575818027847674 11.42227278990346
29.664183861998076 59.18810089372606 13.557109898032344
27.042139958933298 60.191965192739666 13.688555411185758
69.19698996387632 78.15522497906619 7.9622637734443815
68.37352617374782 77.19723111912573 6.013742185324616
66.01276928567312 75.69416489309295 5.80898688707971
64.37157382699647 75.1977237225576 7.454760848662681
6.321351328950904 81.12258877826547 12.70150793077203
4.224111095312987 82.1139779861517 14.11378426045153
5.227015112948435 83.31866650433462 16.395710762970776
7.6082333318621505 83.01636451929737 17.211345078514636
31.998429773159625 87.53803278649065 49.37711316380925
32.568182427333575 89.8232840169316 49.624044818571704
31.36773113481572 91.83096532278567 51.03430217767324
28.891032702078633 92.05021213150997 51.671951400489064
32.83167087553502 75.56647941942585 60.99775459281569
34.63803531546929 75.83657685764808 59.45369288774598
36.96892834781968 74.25272425140857 58.96827954352095
38.234433444353336 72.85146891664817 60.72723121937334
54.70907422152622 84.47255001636286 42.12840719345134
53.694366779878486 84.58680957992857 39.663338636931165
51.29655147101071 84.22847271633135 39.44480247975129
49.50708705273551 82.42476566961432 40.66123870359557
38.99832702943859 81.34207366831626 2.096975272058795
39.95890102496198 80.53639707416487 4.281657835225996
42.5165609615564 79.92976383986597 4.805814161122106
44.62110668920374 80.83504816721927 3.8087891343484666
32.73106959521786 65.57329994148803 13.340040703182042
31.2009666811647 65.25779781093286 15.210102436587693
30.38563938282803 66.62179580104821 17.113078801574538
30.32653203498406 68.77751411675094 17.573691828360353
37.019567175663695 88.08010821470818 49.62118677899617
34.96160018845144 88.90143687167446 48.70863298732503
34.85128403628172 87.73665454314377 46.239735399969746
35.799205635778655 85.69038260780694 45.38785886361218
33.468988619528496 78.58902038522781 3.6429307126073627
35.86842473644629 78.71164897803345 4.0493113943737695
37.80363430507553 78.28783536793087 2.2028263720648376
37.91301297151725 77.40192154470053 0.46458883489281466
0.0658236977730255 58.6269799764903 10.226092537919504
2.6175823493605668 58.52204811679489 9.809045825286182
4.329317094485448 57.6468684741241 11.006892330332937
25.038361070365415 65.67900002697972 40.367074498244314
23.797257380346103 63.67745073243 40.77893635164937
21.776876191663884 62.593198826260846 39.278828464726175
20.173580494023607 63.38931508591035 37.751619709445386
37.14423266652532 46.117645125301436 23.801037168186372
39.005547470941934 45.28488455714082 22.454093721652658
39.7997214620912 45.389521789957584 20.32148851694135
39.66568114989112 47.09568541747063 18.50248650152735
38.019236559679356 74.53894851511284 0.6501364238000641
77.39728124169933 84.66446258778308 13.844034422926963
76.58414729790238 82.50223128940104 13.780212898382356
54.40166662991589 63.52271678544961 12.587332985565586
56.39732437345495 62.32351833863315 13.887520217929788
57.6089441972876 63.250706158041375 15.776867475992038
58.42258967923338 65.83191742322856 16.11693789713529
36.190667177287345 57.57230975266416 7.446935711289796
37.16496106412343 56.27388006455324 9.270010469238095
37.38497021263983 53.41041960122322 9.040048371644225
36.54217065254101 52.29398094907812 7.385432080677873
47.121730782132595 77.74406384358738 6.30136957793393
48.830188446417544 79.0593770940222 6.523657054472688
51.42361384165176 78.84500334081767 6.417010337265066
52.730536383828756 76.738631712336 7.7463658333469665
28.305795939359836 47.31532240679778 25.676551317699953
29.664669521586674 48.21551358555381 27.376251624836627
29.647614688139676 50.8120022334843 28.59957673729561
28.45672485754762 52.5471514929294 28.44748764206574
65.96184484474827 40.189981703652876 17.884605976941646
66.53477252758148 39.173811285036614 15.205147285440248
66.4363383593918 36.73665214926495 14.465024478219895
65.37154740840293 34.80995950892257 15.227950257118469
49.45494796452538 60.934401539155616 12.60245579617523
51.71572822819876 61.31951491485187 12.659862701296833
53.75768400948477 61.54146058377318 10.939782759293506
53.56149039006235 60.412154117916835 9.159591800037317
6.870778112640068 57.30058595339628 5.341887626251203
7.164950935161226 57.50892677088858 7.628794872231808
6.139400051777177 58.57914909158153 9.354326522128055
3.8582020103083194 60.66495148877985 8.99564340370729
37.26706131091925 30.109224940849515 68.4957033744456
36.02352760173003 29.26986023083972 66.38995370470452
73.58698251399692 23.363935998825205 21.567087052544654
72.27877254232975 22.893409105859483 23.727877434887677
71.12683438865034 24.60779764058639 25.221994488834728
71.58547129041703 26.67530453531656 26.05335461508989
41.80844876148701 46.77499980760669 0.7427538257203543
41.995812360809495 47.390704404073425 3.1760291760201658
21.937492994114198 87.59877948881922 39.89204889621979
20.20939944717379 87.81543838848722 38.39839936349823
18.63474984831959 89.76466819516953 37.85623263144207
17.644332511939147 91.49654962188735 39.891347456984334
54.03508524842322 56.013344727769876 43.18410061018781
52.717741941478785 58.17207104580297 43.571646054634535
8.631550452624277 22.421845608235003 3.5811096510210074
10.245136073716385 23.669220679297368 2.538833987457887
12.873077093201154 22.939250381936098 2.001527064653016
14.331117245591926 21.441098240750012 2.878917364487279
9.473721596369156 71.46422006566449 23.227538683350204
12.161308415131204 71.54274953145028 23.337242688368477
13.905636581917944 69.46043383376468 22.597537626979374
13.362126787181204 67.35933173675262 21.68635805457358
14.527464404244283 38.16314476751309 18.31283290896907
12.579144081778256 38.50953051650732 17.586093298073354
11.157730273197519 40.04087577291377 19.90995753653501
11.915585322950971 39.65851712480433 22.343157005634176
7.019064462967812 85.6265760028764 40.436640799123744
7.275812957857392 83.21961788550719 40.13179284913368
5.672314801510579 81.18609215507584 39.29026856340316
5.549862055438931 71.56531531134992 21.458804325491737
6.439409553518242 71.53405575892984 23.55047286427437
7.230825104699713 73.47271910967274 25.17098632271887
8.323465948133359 75.60373015812878 24.760972648431643
14.2298932615349 60.62119546252154 2.115612312094079
14.65325174057765 59.05904108462888 4.08293259786836
14.832424692477954 59.54435952188141 6.559233440076589
16.43790677079295 60.715773407372765 7.53482403643782
48.73093382290713 48.861297670670815 1.2852490648116943
50.379053957084786 50.29370144867485 0.8522736656188037
28.8705545786763 32.530632899129166 10.953273366784968
27.175348660892862 32.941431714613735 12.748972855273948
24.632146275681308 33.93744588801221 12.319172392001642
23.42032740539144 34.83021425168202 10.37916973655054
28.77285631972767 66.26250052759062 46.97602843314347
27.805926199988882 66.548158231478 44.5597257334055
25.935844499873113 66.07066885979006 43.662971822110485
23.454550884604277 66.14861267952986 44.40935870051181
19.684630138814043 64.43704670041622 15.833574064514465
21.435538958896313 63.86876120448678 16.766690129791858
23.377872538037092 63.15155028833151 15.860968897538685
25.132994865194057 64.22330486053829 13.869211680330686
29.15201499088976 80.9042480493115 34.78714344193513
31.459933010297263 80.73346560611076 34.5343815906934
32.38671476677539 78.59680823678437 32.9048860456563
31.089954731287087 76.4535264731106 32.59421688773928
38.69573602958899 59.40834300410391 49.17856059039688
44.98875692061436 59.92831491450475 41.35653333219555
42.98399347103342 58.35457625728652 42.11880030172734
35.4351562034901 32.15327143835069 67.46191401909367
36.50316894387299 32.39829466797496 69.4495372280198
38.53912392316677 33.28252658271814 70.3763683895328
40.33170085369045 34.83429419515689 69.67557327934789
26.090846886331985 62.308926370928404 10.630486312179526
28.19799257962574 61.93796153885758 12.028096025567947
29.471138318429627 64.17288004638688 13.498340454857136
29.195348286257914 66.17192881452424 13.65786871536806
59.3475620241345 92.311134039089 50.19555349429926
60.28910672619005 90.97362252521818 48.40840649697991
61.213864441028896 88.21510339115619 48.844092483770005
61.45745829886383 87.1233284633351 50.63757791211099
37.9609770666076 90.48706730869301 49.85246376073168
35.87675536387647 91.68863326118175 49.01081738687613
34.0702561987002 92.96696731985588 49.91626948600405
36.524962873165926 63.548518673852115 15.72571630203134
34.65339830753129 64.2353444463014 16.16271565415163
32.294903336838274 63.04711544783068 16.132104229763137
31.70195384723697 61.073207983305394 14.481999419349386
24.803365380427948 83.43374283729433 32.751500567466465
22.446116758609733 82.55548317058442 33.693328435206865
20.285835576773007 82.01929855929092 32.303885344384824
19.82490997793473 82.21243162347928 29.763410188588185
55.12587200486179 76.42622387158207 5.925575085948551
56.69370130627373 78.38611120515343 6.3509520622750175
59.29362068568857 78.54137289147289 5.803627255620431
59.847541953530445 76.69431131947479 3.9481876749025178
25.910204394237454 56.909598422086674 39.19088171549469
25.663062994023694 56.442904500720594 37.01995233296527
27.042018110121475 55.09385288691332 35.395152091422695
29.118503878862356 53.821626555694266 35.758348385831255
61.59077989753375 50.545894079656115 62.61650487111684
59.691439978174394 49.232520029094424 63.47724527380738
56.93012571994602 50.39768854646591 63.65117079221391
55.87358355786108 51.499223259941374 62.01178069275655
59.32551725117866 57.56757165606798 13.299522429024785
59.671204587605686 59.97663221618852 13.625622550580102
59.708375803941635 61.28472269979704 15.782298182071026
59.68331584906436 60.65956411210542 18.274051757860576
30.035383014879823 88.91310797836968 37.39399490437504
31.408372825412304 88.50953764901413 38.726825217189955
33.97418411595255 87.977354431887 38.67005582516551
35.740912239599375 88.8849795542429 37.80366169130927
51.40618999958951 92.45439191628905 21.976283284272615
49.557530171053735 92.99499058991735 20.499614858506185
47.22540509433371 91.35543751433956 20.159122515990276
46.17793668860192 90.03402668182511 21.818967204910106
38.15484037638977 83.15180102036484 31.763349138767015
36.106162132781755 81.86198979060555 32.0479975087537
35.87017700605666 79.75466599711112 30.51236820536088
36.90255639460985 79.19213852235391 28.708095615159543
23.633853605851662 39.06772839627886 26.261670995325154
23.522897104231564 41.17097493461557 26.96857030332578
25.67754632935955 42.756742161984825 27.563844368651985
28.028311259729055 42.551253520975756 27.783657102831253
27.530533668942763 44.55737585441668 30.384881912933313
29.372401162560553 46.52508321135333 29.363606922851453
31.493601509006243 45.89391740806189 28.320066448158286
32.90401095032502 43.99181629116281 28.408845116592172
53.545949836182366 75.84646889613589 31.791808497330244
54.11420117144314 77.65914711887788 31.020597276636025
67.3604180706208 71.72564845807283 2.297350810357221
67.1475896049787 74.26666827478988 1.740691213437336
68.69451882694433 76.33201087375362 2.657751651563219
70.31740370356687 76.19858854297186 4.654462262084349
32.100143222043215 51.36342387844595 27.57963081699479
31.77977291433325 49.40483873396827 28.65387578582945
33.43383918296718 47.51426221727671 29.25305351171193
35.704437164211996 46.96695961968139 28.601761419718375
13.805391261933906 50.852280468664354 5.417500088539416
14.774735037831839 51.47677220226484 3.4663532448119394
16.57357093462213 50.89664783517316 2.1110517341808417
17.742971206715893 48.919580576031684 2.034129142236228
66.56949397801017 23.2772001497892 24.5962241320453
64.07297122967766 22.835553778083497 24.678029296354797
62.39272806493127 22.311558577728466 22.283303097296507
63.05767714288657 21.693789656603073 20.465370455549785
57.03930694918741 19.349539805033068 18.987679692867722
55.99019874951746 21.66025956557422 18.879105397303558
66.6468945409803 26.47819284985274 28.47089574056925
65.73298825130917 25.948954361624093 26.30683491116638
63.76210651016191 24.987363975877464 26.084088150105554
62.229501930687356 23.528050325306527 27.620275834656535
30.50329980924134 85.9608093412484 16.7842859151756
32.068257573991815 87.88098632006208 17.778948384868297
31.727370470442423 89.6966715115379 19.359399024746526
29.829389349326544 89.97752099465023 21.096922257345753
51.32569208529447 38.48404262787337 41.41000936877232
49.79619569122442 37.46412994290195 43.383580824478
47.65046596862446 38.24002388154955 44.47436708838696
45.99141562238236 39.59284164501291 43.78630770565953
34.279083065015 12.102485277163238 14.22942308994061
32.16064513861659 12.988090607772362 14.384102836179412
30.524508846556962 13.013177053672921 15.931362644999798
34.22254448264733 88.90854670372147 20.328969451044472
34.43818954323237 91.429502407381 19.545938487132542
34.99994145372747 93.36800469287029 20.656015845087325
45.81650480589484 62.23123347787752 46.499729031085835
45.92900211952934 59.80608827456528 45.858944442627525
58.78744633214499 18.645151691953398 21.77807881557367
55.781175558785485 32.2488737627071 41.83405798937146
57.24829635468409 33.23972599837131 40.151675632945064
57.00367410806948 33.030354003731716 37.71061506968254
24.47453624463706 36.48415652910911 19.620044948468557
22.402490583938295 36.452201678458295 18.76254178228482
20.62698461542442 34.52311381370291 17.959924204445336
21.715371587230766 32.9534856711877 16.420879672487658
16.508587388358645 37.74328011974623 7.888029437877967
16.958034142102015 36.57115947628685 10.593149067928861
18.419414653557034 34.01306799918125 10.39497951791182
19.338458342949345 33.169534588374184 8.753727639289307
38.74912131741042 36.05188094756178 48.02577105044285
37.61164648209152 37.289992416416645 46.758234046500874
36.018901437309644 36.413290615839394 44.47324885265072
36.86928685388302 34.16137761820127 43.220288632572064
71.50508012418014 39.91074406201944 23.581487133968757
69.301436923447 41.15368408860396 22.770815168958308
67.5844827400862 40.12808161094635 21.119338129661614
68.10837292364596 38.5299098745316 19.070410952629224
71.45617394297967 22.918901663657508 0.751599257704899
21.76526581599207 38.59194638252581 16.752668516757026
20.422156532451748 38.34043240971068 18.911906311308393
19.18910504433149 40.08011338839125 20.459002819943414
18.12248827656387 41.674845998886845 19.453967944976217
67.55885469822485 36.73430275417317 9.257450270303277
68.86666273320945 35.746406640321396 11.270209997575812
69.75934746418497 36.7837704966964 13.024976543242424
69.29003383184056 38.714335179888465 14.241568036204733
38.527990426773016 41.15727007821649 51.34969431748909
38.742285780462346 40.58474208534746 49.410865123837844
41.16032705770462 40.55084407474477 48.5998090050042
43.28716242032529 40.12952010297992 49.71164213086705
21.019547090769247 30.069437872584494 15.316474359960035
21.41100919852044 31.265012985243626 13.04795157298024
19.479751195097023 31.87840029474507 11.226545894491403
18.728070585843533 29.983875544742002 10.439133872034592
49.70647918526856 84.10956778455053 13.061682424784419
50.858931106274994 83.11448617999253 11.64239513197644
50.621500678957645 81.1443059818128 10.003154260832128
48.36201439557694 80.37588313161382 9.168358766850583
63.18681939867974 45.971520109151534 29.920323983588208
64.68302621964754 46.88948410040238 28.09580975925031
66.9441084729715 45.90556337691301 27.491114040815624
68.17844544236881 44.12026556305762 28.357948441862895
70.30446495611989 49.331339630971385 0.552419014300665
70.85972700325802 49.85530355352985 2.5717125839035395
58.599384607266956 40.962091845715875 27.017894222669195
59.20194334880739 42.81352733150963 28.346895076830556
61.655585213573765 43.808046619776775 28.76619028614186
63.59597433761661 42.71703225126619 29.037819087003687
21.680508430203837 92.87411874677679 20.202657320444523
41.289107796315704 48.65041690677131 63.003061543459175
40.17297564453392 50.63951248871894 63.33398711909239
41.590037139562575 53.15193475272547 62.67906098523289
43.497141743784894 53.02680745977926 61.32116694665435
41.99964454320697 78.00056285778695 1.0128729079415257
39.84867096733069 79.46987738442336 0.5843536742519112
58.648411563459696 41.231633161024355 24.23259295704923
57.16953128113253 42.446837267429466 24.94205368502534
54.393055479356946 42.01980627688843 25.442255956612925
52.993208844676836 40.04538916597245 25.398791582043792
37.4347243207472 89.63884553675244 16.991224386487048
37.01333146544998 91.13403833944369 18.531915502377917
38.778684154836036 92.21992403607831 20.31453957933828
41.32157253758576 92.49709381873049 19.745034868657516
81.64332416318197 30.0307573248368 28.68253326742037
83.90116810100162 28.822235408484985 27.789083822008276
77.20721520409681 43.18682992082243 57.5666140789966
54.59306669150394 39.96366489096576 54.3573600504568
55.68170370567926 42.33562946652054 54.21190738798758
54.869516578384584 44.64659943782103 55.148410390865315
53.40840979844326 44.887915955605024 57.429764760150874
19.843014182600495 21.018554719579527 1.1512575075709413
17.863429803180246 22.545564183666 1.3471387025373835
15.442297847809872 22.08282654502622 0.032995618243669166
78.0816491531939 24.821073008841562 26.57747401198655
76.4764354405803 24.953527121780088 24.413269666661265
65.53899064939714 32.677380741298485 6.945010084927777
67.39150499992576 32.953803904582934 8.726034929054896
69.44301801276322 34.5793675494041 8.666028516262491
70.83225949922112 35.17506092706229 6.83940482590306
11.964029541678814 75.09230073150627 2.574445586927855
10.806181104672673 77.51280978941014 3.1840707127332055
8.461875122936071 78.10891911573871 3.4863130937845184
6.075162344332685 76.88083233994938 3.0992432276086435
67.55977096383413 22.99652326433791 4.906540524305118
24.065048322999985 49.26213705271344 30.905799740049126
25.805607285501058 49.133117151658176 29.796743781111648
26.397269106473708 46.81559364262813 28.08497244893999
