9.473556153288323 29.116096226315495 60.02608391512438
11.593430938470142 28.49316292269619 58.762946533370105
0.7086031433018569 59.508725370743335 41.65629626007029
2.5988848350072282 59.687781199436465 39.88056946819864
2.9031403144239563 61.23630969371123 38.10476622360023
0.7470329545469276 63.19608595113911 37.15200405916792
26.705034869782285 47.84696403436503 15.244365483953846
26.455013730744 46.99529892313852 13.492885623095493
24.545544333786445 47.15364670268948 11.761349138357422
22.4901709108879 48.85201092882867 11.65737880655136
27.61254989773437 85.69943947184987 16.529849654996372
29.901585758978978 85.98929685064233 17.967623194663584
30.94420681004684 84.66861720335737 19.578391640559367
30.568928701719095 82.43022240863921 20.68116515821992
29.064795073888707 35.493451775671346 51.608484642212275
6.872709013268985 43.23383467614873 81.10430793490636
7.711845976265752 45.35919186857312 82.49728267220246
6.803550793738594 47.492996565599924 82.66259805960858
5.210336236233972 49.031146405567405 81.4851017150264
20.262152888396184 45.0618898444408 69.40974269196292
20.20957970039172 42.81832712003946 70.1168690247281
19.82405416193427 41.750146100781244 72.17944871667419
19.159187772887478 42.59948011222816 74.51343219816476
12.84413848215761 52.11370256823794 45.80858378710934
10.527044688978293 52.94159712456181 45.93466685285182
9.634951457754898 55.237194348953295 46.70309216221293
10.336913673210809 57.20776642106163 48.57006996287159
13.53720316998714 42.72681567838289 72.06421716503705
15.378498936971553 43.112939231648646 72.8577541205458
16.377377489870845 43.19365241021045 75.12629849455811
15.896853987077591 42.744254148378694 77.16650090479706
11.77571413607981 44.484426733447386 84.45708346453566
9.357856069390467 44.27259095341389 85.65901488888481
8.20745872190199 45.53004834925697 86.80865214786228
8.15787314713305 48.32380984273282 87.12836383611622
22.264335614019252 47.6035689414291 43.52632647860667
22.179399611784884 47.357245508811076 41.3065871810877
21.485411515571087 48.88997561894882 39.23732026421685
20.9054045495763 50.85999693600577 38.85248262114986
10.849220668251647 40.394403216846705 85.69170381622675
12.902644163637808 38.914939635508325 85.37180318018434
13.337551053581173 36.40909521095336 86.5804684625531
12.795972960451994 36.23755614152228 88.8286051695131
9.915244275655327 43.65716183576461 82.51525265116875
10.191376559770426 41.88328450176505 83.44554955417111
11.128035572959998 39.28272038694575 82.58621414379158
12.325985694317295 39.348942624000834 80.25471380925853
31.550212145072607 77.143603318323 92.94397965733798
32.72892537982318 75.86456016467085 91.19238665869126
34.19328601218878 76.74205404412089 89.2034198914854
34.44306327007649 78.52540281674561 88.05867149133016
6.716481816770005 53.98012642114638 57.53610781640497
4.764161370511315 54.455488079591014 55.69243731568414
5.379359116721049 53.32031143967133 53.27417532219603
7.063974241110123 53.56165439476628 52.04749276093618
30.972527886552577 81.65700777985327 76.39149755338059
30.29403174180236 79.13455809425264 76.36177511113348
31.53305458212764 77.16977215892756 77.64407012741353
33.43777292669562 77.27177767501287 78.86913001054334
2.353578538666212 45.20666990026549 23.181681879643524
2.755271456179932 46.89828769988869 25.02918668924449
1.8604415093240458 48.91227387258375 25.29797778028878
10.689279804442826 25.74151387319541 59.288396330571324
9.950553811905465 26.616112150251706 57.44779782456982
10.792926433397847 25.94147701683281 54.89700994359472
6.309296358176142 32.188533009343786 54.12606928900393
7.9867280093072255 29.974452147462586 54.05311125892347
9.684037524878818 29.5363601386458 51.810506738125575
9.931472720761793 31.01916832924535 50.1264493030189
27.599119831200206 70.82920016593768 24.00726375864296
5.097856654660995 30.304285869755336 52.111542702605604
6.099542832284333 31.209334312402238 49.70138399619245
4.538279385207961 30.995587363318155 47.60866308841604
2.2303154503587894 30.653563457340564 47.12952573401211
10.356416263790933 49.50786592062497 46.422909617498306
12.90085946102155 49.426609649122966 45.564345391316465
13.24535135606068 49.086049810172504 42.90864575381104
12.28843505723454 47.55506836278213 41.34418140126397
6.172293751534094 27.24419225662575 68.46009706340118
7.534760905425002 28.95044257073028 66.64258034675522
9.687324515457908 29.42253836997527 66.4306949370214
18.299242662115876 39.83202716727644 84.7019660602136
15.779143896995535 39.35360016585724 84.68714907489374
13.76142065135494 40.54192917098356 83.10666799260171
14.376148969033535 40.86086531145746 81.06754212661465
29.665674032271603 74.11900219369001 90.25675543459167
32.09063824681149 73.85467616154676 89.31971553320994
32.858290553912084 74.1563416050177 86.97293210124325
31.802133028444263 75.33193947769827 84.75776918969662
18.185966448736874 46.67520841288703 61.34106225782149
15.676725434416829 46.45399101691304 60.829885527063965
13.896541481558158 47.776696492617035 60.539702819772174
13.466455674823878 50.48090980262188 60.718571339503384
6.316778602300506 28.691949470376827 44.40125685112237
6.273325578700156 29.080873746705027 46.97497682636281
6.425900387047489 27.6781725324148 48.94096114615645
7.142560865950322 25.28174720341536 49.349580383101625
11.975219733268219 57.879154187583254 45.22054054952543
9.98464929915253 56.943639352864714 44.462557489431354
7.5092815783763465 57.912285808347924 44.968399552541
6.774010438007772 60.26358830736314 45.94480576879053
40.788137742787185 79.01586780253201 28.353612414951773
20.88541453315542 37.85170051005532 73.61855378446278
19.5870167321595 37.97998572701489 75.23972301289803
17.186039952838954 39.667748114989145 74.75966734324302
17.11007753905056 40.96415648230838 72.64486702232458
45.03110889521397 69.7121482048793 51.58671291952589
46.61028884819036 70.4803324721469 53.252428161705225
24.537891411011003 37.62184184396337 70.7807083794606
22.51119982422923 38.86995053789798 71.81399949661991
22.442652212994044 40.90360287379119 73.32612017304655
23.98762671405718 42.774998573064636 73.38107641049326
24.092178767052978 52.11123879287529 26.118428050447083
13.98602578021803 67.66881959981748 82.18660624566282
13.740357235680161 65.91974904503584 80.1033074963215
12.626883930081993 66.87443299150674 77.7733757468444
11.737673036957927 68.63518618594784 77.45310710935016
61.987451822868124 56.40054031268375 35.35039325406591
62.51672105325777 58.0200066574479 33.562751509215666
64.72560594700278 57.97291126486453 31.775716523313296
66.7325286594622 56.52496364500554 31.665586460323453
5.1961104678522165 27.147468607327532 73.17753698461955
4.381212845385833 26.909033995376426 75.2508304450407
44.10328264466934 55.862185046514924 53.0039225496658
43.481700713119835 54.09677677186529 51.44858925009309
43.01380142229761 53.946127432534766 48.91494052636719
43.1503667520058 55.505937625708896 47.06930227043867
23.422825744237045 43.45450186509598 61.37304676541673
23.4298542033502 42.21973241896826 59.06932939175018
25.20908466373322 41.26620463026849 57.53692572976486
27.19423744669995 43.30786695161363 56.80013832238232
47.21452279394914 47.35605592439279 20.743445512069215
46.99274574283416 48.786142245046825 23.01299665411841
44.53669990534116 49.127145810995884 24.255582831981265
42.380092675370975 48.05621795762339 24.032619695147925
26.850333184668994 92.96597421680308 34.81545919113094
24.452989066310877 93.78371751893857 35.01633846463935
23.45883998889926 95.40985213681653 36.55701780358591
24.10764604075089 95.62085636681957 38.7301528925822
0.03562197350724688 54.44622782348238 78.25196547294995
1.1647873702040266 89.94307133786765 0.6570507252600779
10.46996411180281 30.495043944173073 42.140476137323965
9.824043303648347 28.945992367247257 44.180521881365244
9.028894892202223 29.852922739147836 46.479998812083274
9.387178991101937 31.93852850983901 47.835004331185495
9.20188833025047 71.49149926789934 85.10755147594551
8.427797834635035 70.29829831098158 86.96253361069866
6.478205575208284 70.7908894680121 88.7209283953333
5.222575126517193 72.82921472220652 89.11807654106981
6.834002725186105 42.94204685597245 92.52636430374424
7.155697412419508 42.46295558786269 90.29837887984233
8.346773975915221 40.636911722530385 88.89085728652776
9.350001596937146 38.26739702146498 89.99718105665389
23.798443152727344 76.7952402943489 71.00553473128886
25.770706139668146 76.47055422253456 73.06523000387124
27.458545096138835 78.68111335255034 73.35254810022252
26.41226586433695 81.00997507280576 73.387733797592
8.74560099198967 23.762466769262847 53.031172697292156
8.267032252565789 25.358126511563665 54.12575960157483
6.530175017915647 27.644952464139987 53.19619345911516
5.004533529400365 27.578585946044356 51.20694007122866
19.082273161002114 69.53940276038507 5.80727034758884
18.997192508755273 70.78028104098044 7.77815835726721
17.591180948163313 72.70602272915876 8.61065163870463
15.732157343816633 73.87260705847638 7.689465031643218
2.1647489236918473 84.05838200730248 10.798830581064406
2.334680172030318 83.74444591844889 8.657228424095136
4.625241175753992 83.07417755329372 7.28229508925447
6.825113210306395 82.92375037715586 8.163393413741519
20.253005872117274 53.51696074304122 26.781579214446904
22.092340754602727 51.961264425363346 27.979497178902527
21.54457142726577 50.47926170101302 30.30909872773691
20.45375075572904 50.771471081206116 32.007807693699
7.643696589860449 42.2343122694679 83.45792111620787
6.969809581188654 43.83725466800782 84.89439860740613
5.650066195599174 43.71672547686981 87.31272071515376
5.195082135269102 42.03856472540997 88.58692092945792
1.4439972230464748 79.20261686502808 11.89725669416915
0.44701999432367134 77.24835072110086 10.357614279282835
7.573464803862206 85.99441171358649 17.168813961468636
7.309198950957329 86.53790516180605 19.32642971152328
5.975804995687727 88.79215773132117 20.471046581436113
4.3796659665753115 90.22026064683564 19.703403975041155
24.753352539182085 46.78377728822251 42.10337431006647
23.78672321931436 44.9315332081773 41.12882861532944
23.71121653326234 44.38280170437006 38.37911138465288
24.471342230356104 45.88815563219356 36.492408788404866
3.9118274829477513 57.61637415395616 37.59365916351501
3.4031113240345077 58.91322532830976 35.53055793439951
1.2848064160617045 59.46076827220622 34.501695668703654
43.44734004726185 71.99837562392214 50.17516664783792
44.44860838471832 73.16474391426175 48.144225732304776
43.24796072095059 74.79657470611238 46.73985357840175
41.09713165083203 74.52402011400261 45.43930963129466
21.257251447274943 38.08374107576429 69.4706474241877
19.808420694851065 39.732939824938946 70.29755685178283
18.249665668724305 41.68137878066267 68.81328678485539
17.767366417365974 41.786082463000035 66.75722305540123
1.1473645414203344 52.46475766598427 87.19662429906907
36.80074999722734 58.542636717031534 67.87044514944144
37.66814195623681 56.35348350652063 67.89886030773441
36.36207636053442 54.602560742297236 66.37367236362353
35.513089691560765 54.87538481883775 64.14772282126103
22.0049320830916 95.62979457260573 2.9681918231444024
46.08111229258377 45.66327612380755 14.22124851951194
43.911808513871456 46.66968613666548 13.44951040443121
32.41812687067729 80.33178704508236 80.51257179912415
31.572329487406698 77.92449203370319 81.41422199132393
31.126288094038784 77.61962244737634 84.19708794937505
32.89463192634011 78.61070095416649 85.87558600241546
22.89762879000545 90.58663124673676 50.207952227020954
23.386492246782563 91.6808711476457 48.0359544387701
23.030052779488866 90.29465472870142 45.42021126796889
22.22467603901719 88.38833455259696 44.7010682542105
23.545116543494238 68.71305253887064 28.62924882701386
22.206268603617726 69.15590778090944 30.278883740879806
23.137133734554777 68.61145568045129 32.68073288891863
24.19866949220431 66.8174110051143 33.74340796462394
26.758169399875158 88.06162404024222 16.081745196975863
26.379758627470565 89.43560933845276 17.664635882001658
24.702861387536924 89.53332526315918 19.512755598523995
22.15144198637723 89.77950603644537 19.554465314076467
34.78182550273119 58.192062044637744 10.715417892120165
37.27813279139636 58.54899805069364 9.768755882335467
3.3112047451266116 67.03449980086384 93.10857496051635
28.943551269576332 86.88786433825224 47.54367494055744
27.214689723152382 88.86214783632818 47.7529309921685
25.157761730901743 89.13767422298628 49.621938605617
24.52597872726562 87.4779232555279 51.40165009835202
1.2876944683437415 93.83427763002167 87.90890049251223
31.310463033182625 62.48005124300305 49.78923887692069
29.457583347770065 62.63736259251892 50.86529048938956
27.907674176475933 60.79431358969555 52.42158404147936
28.875921024365212 58.638862219642355 51.62584718842285
35.06449762484788 84.40594121669761 50.68905159175352
34.21656461619583 86.18298473751041 48.76888373993668
31.43217990986403 86.63532593166556 48.51679362308971
30.115448746236652 86.84466189434157 50.22896053780724
39.8796981450224 85.85845732879649 41.028557716206265
39.47420142216317 84.4469070468365 42.63034582074994
37.115200864419414 83.85815414556049 43.47167857547842
35.02869461144783 83.84396360499598 42.61774439262268
42.199053941564515 81.31769472946633 9.169004767862367
40.594206879555024 82.68954881209666 8.71492107402113
8.31043685569384 93.25453962610412 92.9131023469022
14.70627410379074 51.85863503355134 1.0361904203367773
13.732112849750164 53.64779874971665 2.330255396792341
38.99475547906346 74.98024627464248 62.7492841299013
38.074206057484595 75.14581171464728 65.00962641730247
36.34662043699112 76.70589910095183 65.87404900426763
35.173108954200124 78.62435806990639 65.15890703048348
5.341733082441939 87.97427478113083 3.0501088058592383
5.581120200084096 85.93327751851115 3.6911112201595224
4.76787879041099 85.80068849894536 6.0966907336119
5.34837583558668 87.07770070696533 8.10523388117855
31.265750271673625 42.401219361744175 10.32753690544207
30.553484317280994 43.474160972598725 12.195585852879331
28.739655500459 45.49779723740391 12.4779157249014
27.10872972457244 46.366448948724305 10.88528527214173
4.912630019304919 52.58795305888826 75.4621807559333
3.1409059699996007 53.225315484696665 76.99826383260948
3.0880692303921746 52.89235983409565 79.69905899879517
4.86345669727377 52.13094133241872 81.08158630011945
49.938587732519856 43.376434607394096 26.030134615176156
50.392629991816115 44.2366588345368 23.713098619876146
48.332859469482436 45.10433181737008 22.050280460461817
46.24708483267454 44.995975037219125 23.05527125997305
7.190170894993582 78.04348802611706 47.37138244957181
8.376492078520789 78.43893368873614 48.98823976040637
8.724244731186324 77.13459272462433 51.365894650414226
7.0712017986270075 75.94724062171592 52.65445509595819
1.035564079243388 86.7719078402582 48.08258614180357
0.6974518702842374 84.95462890653688 49.33092447426888
2.2181067563859838 83.57712558694081 51.053035774229386
3.585299256211851 83.70626203307174 52.403250542116176
24.597853204133468 87.13903052563441 41.374654949772385
24.590626766051678 87.4303998305195 43.94085819707873
25.730016219936203 89.12121953975073 45.48750957841875
27.464412545541173 91.07352258689089 44.93567834609528
45.398927118251656 73.70697130379607 19.96816901466392
46.37200292211132 75.33934352240317 18.036288589975207
45.35452382965987 77.01306967696965 16.594784262076214
43.19779414782559 77.61309949074516 16.035756819894104
2.0209851469253475 82.03391144245677 46.52976872709844
3.945673380736356 82.45634380256999 45.3352279015097
4.75196769939645 84.55154212241276 43.881798818760295
3.762931625820875 80.0166311241835 43.20758934232985
6.174036878546439 79.32086316090188 43.628482054596525
8.523615583025428 80.40592234600234 42.68525531406339
8.618033604164728 81.49485103486789 40.93192402968307
22.40707085776902 59.05077460989768 74.49403393377669
21.47156892984605 60.36781321328576 75.99371843379626
18.909398617786195 61.291322031816854 76.57280241493265
16.78699186741345 59.911636397760184 75.99330429077301
20.38297476173109 89.60353369670088 62.63134594263039
22.5543538548393 89.44916484009946 62.44550674237755
24.13422833674242 88.08375686694292 61.17513790920615
23.79946932999316 87.19090343817635 58.43705616047091
42.31336346643059 66.13260438607497 82.1994093165997
42.97445548108514 65.41021656345397 84.43706728064646
44.83695268600486 64.33850553764864 83.94463323303751
45.60143587408781 62.133824212794515 83.09517585342887
6.093253290696135 82.64545749575232 52.27741162875821
6.53823767950362 80.33229445649836 52.050745455895864
6.999082102731538 78.57733918175825 53.83003227378146
6.4423589318272265 78.3977232583825 56.15613716263366
45.161160158861996 79.19579429415299 43.14086340911524
43.98720921547444 78.57481654219916 45.06170076096082
45.24677529106681 77.46777762463282 47.59860019001106
47.54834131465889 77.43833164849313 48.20130492680171
28.63288425329343 88.26405797726314 51.989899572198944
26.293010940110236 88.08232808679182 53.04530097295538
25.174676315674795 90.07266339293339 54.44281813787585
26.453471909830686 91.38412520281406 56.311747857539835
3.427873065047556 89.7506872486174 4.350279008053238
3.1843133451842536 90.51165101760023 2.1905967031456783
2.270833855654991 92.83481692630757 1.3201596980006591
1.0550578422522159 94.48827247255858 2.7665399189519033
43.14081963924574 53.00545595803078 22.9531295510109
44.069742773208176 51.917171198757984 24.41876321562818
46.72267312173723 51.07924922467873 24.82781356276848
48.828239789337296 52.074042394219035 23.978813839749716
51.40152358877653 65.74871029392114 24.077559594224525
50.9162688144357 67.28803411640969 21.883007021399067
49.431840066016626 69.60011281188902 22.2655434772234
48.19344040578299 70.30288912792759 23.750227385749486
8.834309024815159 96.4791358080514 70.7456424392473
26.400204301197345 91.18784073499063 4.659665414607938
27.49746520343578 91.87280201883316 2.6001295204206643
22.73636920383131 44.02312019948254 24.03814277410042
22.344175438250705 80.95262227722097 79.76440902476634
24.209558610647605 80.51295186130255 78.50787387968097
24.903518565171055 81.4100684012207 75.72272250506452
23.99713553022497 82.15242332188433 74.3154866543295
22.245003148983137 94.96880709899966 31.904858068437104
21.871176673998615 95.0904686314509 34.297318982931394
20.035783272359026 93.86068039511552 35.747875274040815
17.638775086780015 93.86885971904807 35.249228584130634
13.405039463680525 87.07196998981797 80.25925670562475
11.87821853233217 87.74058385650724 82.24959039021657
9.815068776495824 87.82639614198035 82.58927572495435
7.48860053556288 87.49388001763927 81.07050146780865
7.582956324346952 68.80591308894952 74.410097058002
10.062172965579704 68.58611362871346 74.75593773432794
11.807905095629947 66.42764132780403 74.14944082673975
11.209374326223223 64.05721359064518 74.32835113157365
35.871272017662164 73.64867074509856 83.01239841353393
33.85403051979666 75.30636232939118 83.12985803018965
31.65724234453598 75.30798795822643 81.08220669188468
32.33585539113668 74.81491686257024 78.777567124567
23.18952154719643 94.17249075929759 42.301567637606226
23.20922119147261 92.91849347241025 44.44023400640801
22.600497888753832 94.04793889156787 46.825582744796456
24.382902916170753 96.09741264110737 47.490912531090906
14.544713095932353 85.02645164200428 81.4814031921934
16.855459154279952 86.1827762857935 80.93423136071256
18.780653033752184 85.60885126768206 79.3275420207191
19.532555417245494 83.11136711728437 78.53818605067747
28.423747056601613 41.60909708280607 13.097993369850727
30.050737730272633 40.34094483731331 12.244813121929012
30.94760960362753 37.763592389090235 13.741176743231586
30.081752851688815 37.08929411363855 15.36584137933
10.619178874840536 52.69333555837505 1.288665657584972
8.331861457051948 89.50544780536939 93.05261405071357
7.192667774941409 91.20715590376952 91.45262109719222
5.870568750518923 90.15674180084629 89.32266611122125
6.780533073540215 88.43975004792684 87.7707913574216
17.45901472606364 76.18445601032788 37.36761544204056
17.759035726650996 75.5216943667756 35.09706279989507
19.54795425513234 74.97587599936179 33.489357348914716
21.97576283233845 74.73440378271735 33.764695314932105
31.487891640687405 53.751986499786995 93.43211010827183
29.2036593886493 54.38250958226717 92.61441852634857
27.47425715797246 56.254149535043844 93.43649197080049
42.430372880793406 82.12770736647039 47.46827437721587
41.90239035009017 79.949194050203 46.67978530179752
41.60061162310522 77.6809285458662 47.75200072700395
41.9291663875299 76.99097094570152 50.38324437882202
33.35892611070119 89.73014291823421 28.95755941271963
31.216318133043874 90.43046595070909 27.922722070902907
28.65375988484781 89.36610907516089 28.36931538856079
27.729794062028617 88.67923992857759 30.603619749029956
8.710033958472884 81.8586094863461 32.84659280293017
10.14781038338388 80.3980681044862 34.54980951301287
9.374896733874513 79.52773420186881 37.01685789520662
7.429256165578822 80.17770605468762 38.63621285651382
20.038359011632952 46.56780392196612 9.677504413866563
22.189231391839552 47.488698756739424 8.904243804033593
24.655068920244478 46.191105389460645 8.944939007173787
25.07972094824621 44.45380937038504 10.106696343143705
34.80746086236281 59.63712732002964 35.36005984065437
33.68817052709568 58.5062003103877 37.178737218825475
34.06158217935593 59.23053437344348 39.85091488160823
34.04871772021287 61.64706114105662 40.68952056346609
35.11476573824968 86.30096418475142 46.22870172299662
35.81143318955588 83.89091167666982 45.91789372500247
37.86516844658213 82.71979037623606 46.8380996059871
40.145027442916735 83.62730959833603 47.923537427546805
14.726353286373701 38.93599471098448 74.81587363690531
14.516826860475447 39.732830349942915 77.15881738740637
15.6780706325474 39.26330599839607 79.36057798559249
16.401733178138134 37.11277221783865 80.28928533733941
34.17505792598126 38.723435828115484 10.590670558534596
32.964710114991014 39.32380546418737 12.77813311106322
32.35116759682943 41.78529509955931 13.535770800567429
32.56823999592103 44.738380287032484 31.010427385996262
30.423964573204646 44.87575791785916 29.68478105462919
27.88009150602587 45.67606533341796 30.333547699994924
27.204302671070273 47.386109846460194 31.507209137065562
60.89361500527654 63.53207177130791 28.1492446248936
59.53577906275131 63.521858602891065 29.769888233453212
58.15769533486586 65.13155210375673 31.040011304670212
57.96059628668883 68.06582940233744 30.7643244432485
28.183415211768594 60.36760678276147 62.07717840004295
27.479356485828106 62.52420166429632 60.87703516333065
27.9658130689196 63.33277874006289 58.09792125178177
28.478667147829846 61.541342066007644 56.492035515629745
0.6803612942676557 28.87450731454899 70.41406178578374
2.8098735778362554 27.64979004525764 71.4196947150035
3.771135646117029 25.52112012354295 71.1977866480518
2.0264812268550254 89.6691865563315 18.312129193111282
1.2828115408736744 90.87414026459228 20.597077836484452
41.40430161710299 83.4754218276346 30.090072307581206
9.523971502879688 55.72158659404406 1.2036527302179225
9.129408922502018 55.44467060484092 3.822512874876667
10.827720946721792 55.45314794006335 5.74403473251271
2.8027876152046365 84.98048530659422 54.93760838564486
0.48706581320197384 85.81383599071864 53.882464919613405
17.325393918905394 91.6708371318593 64.62130932395652
15.504859686762126 92.46904945933018 66.31682466173419
14.27905391465242 94.94319450570585 65.91024152729014
13.403684706740156 95.65597281757671 63.347772605059816
20.15309168530052 66.27387282119409 57.739590580805334
21.944748405952748 65.18163883314902 58.0063739719528
22.950029647589457 62.79977816330217 56.866213565814014
21.822644415580218 61.81278618823101 54.58325653632418
3.1918101223291506 69.5375227201641 92.57001245821715
3.775787026307502 70.84062412666911 90.71357983848495
18.99133597424339 95.56375595103422 37.483504636581564
19.968853803477185 94.55982820801326 39.425468890326584
21.05000708978679 95.31736295929284 41.56165381758528
51.36759727398046 43.86633573333145 17.30748133457157
50.70966567089435 45.430083460671085 18.52990258157817
48.541080395268025 46.371588211793224 18.10923041485263
46.207182670584885 45.081084817914736 17.624975174791192
10.153039593080768 87.28095328226367 86.38523592843138
11.856287968804358 88.0164903305765 84.82695341550195
14.128107076741458 87.50348240865672 84.37046536815961
15.752923975526008 85.32749380830143 84.51460356638904
24.853202883045505 90.95123064148736 40.95921569310986
23.954035852452414 93.33570945127012 39.91736608702887
22.298776629027394 93.56818204879448 38.13607109424056
22.34255566630267 92.11547893415775 35.894351465785505
53.63683217479679 45.327612029952796 18.762477981108763
4.214960692105473 79.26751686930015 50.54136719848135
2.9798560121952273 80.87947954684213 51.940645667457005
0.2374852605650222 81.93669392574827 51.61078998549398
23.09056922907544 44.83394259067207 65.57512801233717
20.969539875706086 43.62351489689375 66.02726998694159
18.562173024118295 43.99670012615377 65.24036554121088
17.39601478194064 45.842233355696436 63.88472875121322
36.83313330426738 81.19920009091011 42.214339857344314
38.63776813174669 81.40234579364102 43.742579783172566
39.51881713281855 79.77736491768066 45.226867717381595
39.73901614107904 77.01750690241676 45.223857849820604
11.667417773099928 96.26415552467188 70.33186214759709
11.376101554659197 94.14598918148381 71.42585027911069
13.047202057746293 93.11503484217837 73.34285843559806
14.82367539475335 94.26436962443007 74.88365374557243
20.81288299811541 93.68891824879816 67.44026323547533
21.34245662530781 92.7296530027162 65.37471159895502
23.269313151284734 92.03449500351498 64.03334415211697
25.770967783683233 91.30698512107772 65.1967834735782
68.91555592466328 52.57601708852087 30.77813869307177
7.578669821955794 80.62627188760291 26.22805161132758
7.525940752633865 80.39304084986891 28.537515796855082
8.439654258536393 78.5822836167136 30.091994155418632
9.227057508946958 76.20802098517174 29.780990310885247
11.878025900891478 77.37017371832798 33.049862350583446
9.780380311995097 78.07120392541265 33.55731152364503
8.36106581885265 77.16406727607962 35.86897112492941
8.544393634091627 75.58318073805968 37.125867217603464
29.03824709734962 77.00524859389535 71.57695173229672
31.10251409848283 76.887674312447 72.2410816465599
32.27709866483902 75.75739441738725 74.13466966339524
30.99030147356512 75.20291805496738 76.15359440843321
12.948485514786702 80.35684602186197 33.71572143128021
14.073355613427433 78.31937681414936 34.24938123800303
15.442450026815406 77.58464592145899 36.35665938738713
14.994213912791736 79.17303822349028 38.22826829007984
2.848392096621927 44.24190768884427 88.80396155152434
3.2271487596966137 44.95795430256901 91.07322526783149
4.243631019317707 43.025470470990044 92.7884833304826
4.617340701213794 40.51214384275625 91.77602628857987
22.426704801298023 46.54588809156551 28.882071711510875
21.51579527614956 49.00672074416799 27.791134205299922
21.67309430647159 49.73381830749303 25.83418529338178
16.2579018681121 54.802361276035874 42.99071007996319
13.797883416995232 53.79032196759571 43.87974882335511
11.840381321570664 54.15427853402242 42.897797428801475
10.500164299638486 56.062026434586535 41.72800333109832
23.373147029401494 58.47767835852823 59.53557008797327
23.66021839838793 60.89129845188991 58.94796852049092
22.60428738961719 63.22297997280534 60.10561494384838
21.31584045311447 63.31192291314109 62.065223622570194
21.13537708186375 44.62185753873603 38.083160985914304
19.834637338445564 46.78294472016819 38.90718105553455
18.47273852755719 48.29754336768946 37.939255667782135
18.30817836520021 49.271901032559384 35.37713875597438
8.022871401147702 81.95712301758822 22.27711045102375
9.172315499553397 83.55037742698795 20.760424778914835
9.221833387456877 83.89278442299877 18.37024881569779
7.936833654993843 82.77224837437583 16.39448670028154
8.097683878538001 50.996463004732625 47.55265910070355
7.440039237620561 53.17268501454819 48.179863360856906
5.687367113032312 54.857151411042864 47.38666286352664
4.929376493030734 55.55677197725881 45.38864226917228
48.53690070618186 78.41921062723083 14.396646787493214
46.208049487584496 77.96840391673861 13.869901724715914
43.98308697112159 79.91990240589273 14.68458939536762
44.15176962355818 82.19578921627837 15.034852661287982
9.569053547221253 86.34343951435885 20.97876800536413
7.769713374245929 85.56058493537095 22.479293506969388
6.322370286630072 86.67958160814575 24.142608840042513
5.760430093829459 88.84333928428563 24.26693486858785
1.5418032443755272 57.3059089156287 42.54328060765496
2.7840318344794728 58.20507665291699 44.24256377754521
3.1173031305084082 57.289853877288294 46.765562356405184
1.6768945158556372 56.21273109554001 48.42298571319968
36.007566137728915 56.219415799490484 37.17314821308903
38.297626584244526 55.47503778486887 35.89752211472717
38.73084364192174 55.47464902923119 33.31967960448586
37.04789467011087 56.05294428196444 31.3750483159935
37.60712035962173 83.46178891214261 7.036140787662846
5.0804230047940955 89.89108506949513 93.56668036016525
6.26702325909273 87.99592492025536 93.91333895418484
37.03709145098255 62.4337938541768 34.61063422266951
37.568855293229916 60.06700271910389 35.272170530684875
39.14152740923901 58.15694242780444 33.973423490001665
40.16672041412766 58.22931269540752 31.932058084273955
36.222280379877944 83.05405649317677 26.141284343355586
8.511466948058192 50.28001225223067 55.2117041692282
9.351627755853825 50.20991162369273 57.942666429718265
11.711201938765713 49.986057474431476 58.79769399909844
13.904680987122441 49.683837742117966 57.59905993613795
35.06610040148804 64.42512722323059 37.27314945652288
32.65221774286305 64.36271376768977 37.517532005001954
31.598270179966338 65.08606967611563 39.90923628427233
32.40955359217702 66.5236393650867 41.83237863308677
30.924085066800828 47.68375764728076 27.679751234265243
32.98619122564386 46.82179848842595 28.73364317936844
39.008075650627504 37.83981125079969 34.587446760463614
37.32515802096849 38.178920439067596 32.80940544908629
35.627913903133354 39.804400837064875 32.01771589900293
34.84536976008665 42.058032149306264 32.92446248464124
24.26594685044316 41.978014200636125 55.2867994783573
22.70528266769124 44.018473564160644 54.850037819039414
20.081057913311405 44.22672902915873 54.436750920201476
19.054312876407817 42.54825696200622 55.89363659894378
27.389934676029185 46.089130410210586 27.837542425240994
37.831161223361356 51.97881901225567 27.89546330579248
37.368618180741144 54.54414520298789 27.994317701602192
36.7156562567603 55.21962234045086 25.826193739885877
35.27482113345188 54.803583637477786 24.449302515635424
67.27373956847171 49.72185810695856 28.31605812319114
67.85719438398189 52.26695447984005 27.829473422631473
69.93076943817051 52.77769750717535 26.04968890239744
70.70751877372628 51.865478910980464 24.23859554491298
64.27658252027915 61.062993620818084 36.02627207261075
62.214420767976435 59.918567783820464 35.93913764018847
61.064926565566786 58.01685417738692 37.422777232586505
6.263790739186167 75.96049345863665 33.68941410497143
6.747289786203407 78.29206823138942 33.68122186228031
6.717590363130077 80.08037220198862 31.94977393359973
5.289892528271347 80.50842717438752 30.046360328231987
28.00345344191463 68.65257780838292 30.482024835777857
26.0268065796374 69.63677395723559 29.513515922241925
25.69280484543902 71.81209010812812 27.91573538363201
27.244875374742666 72.40813099433197 26.29418096557639
26.053922756606752 69.67595036274079 39.00719519958784
27.21713195898529 67.997508259913 40.149318219997475
29.736106385358738 67.17722341697429 39.66456652055499
30.918226663943326 67.36110021079405 37.791444462844545
4.467734629514228 28.26168306415025 77.4515875317401
24.13945235108073 67.42619879242422 47.91188172670556
23.802477978174167 67.54775439397618 50.25813696157568
24.859272311250205 69.12692856770465 52.150483844779615
26.404711183864574 70.86889277604867 52.008999754335846
41.01565299864921 48.315266696800755 55.31147607290126
41.51468295515381 49.548412158163885 57.160533306798364
39.99784463472139 50.049984970114345 59.258686319048806
37.977165269600896 48.498068335492974 59.97785105678959
9.193323337911593 58.80187813199281 22.828277770384858
10.074388140295888 59.147982490632685 20.02667251914112
12.186726430619101 59.1589355210428 19.30281911127412
14.402264875539501 59.45722347364991 20.27991328401369
13.681269041820688 37.09969054355905 81.04147837126928
13.885629170271432 37.70826280897274 83.242246016138
15.909691648086872 36.58997678787422 84.11593871759484
21.68703525284165 68.96035015681274 57.6419449880658
19.220541520386934 69.4121908927377 57.611568749325485
17.91367154229883 71.39415481058299 57.870660590546116
18.04530902007576 73.67989653809117 57.11040001360209
62.90228608687447 60.59870071248058 31.467190444012804
61.49176704451958 61.694956061478834 30.77478582622056
59.03225708180687 61.72070154112771 32.13094312726405
58.62206046815123 61.603081388461035 34.232683512214436
16.153148703206845 77.36246140326547 40.328023525600884
13.89317281940836 77.12500472646576 41.19880442282437
11.808708779313568 75.77257596308499 39.35899522182197
12.621859831118119 75.29194287318525 37.28842416106176
1.4912056456212783 66.24633470684904 34.35246403120843
70.74034528442732 53.94659201361275 22.41071545227443
30.216729514543204 62.62024823406811 47.44234279796342
29.658095219192845 63.533372279096334 45.05922666724524
31.508482286927887 64.53617914875335 43.45301028279643
33.78024493585564 64.28372936462212 43.097080205839504
20.477840444111358 86.23343758670752 81.88755809394759
21.469248381261764 84.09672840154003 80.53643195217653
23.57717336166309 83.84134514870989 79.54439779957828
25.843848281493077 84.76166526421241 80.18281414117477
30.353923763713595 62.09679819569872 38.154102544569284
31.503483529955503 62.19108083434076 40.0076642187901
29.56684319219357 62.91927806119123 42.11883986959177
28.20961090211793 61.47050628216129 43.394611214663364
17.73790076874554 92.62281560487808 42.542851509133264
20.14287060009224 93.01498922873796 42.6908914613184
22.26348004602518 91.27222955881992 42.07611216735753
22.242308367179206 88.80955678796273 41.843256925507845
1.3592220281379321 61.4804566376932 26.630421479143948
0.9853642745570015 62.60702787097626 28.970561215857433
1.2268496098007655 61.15993654738076 31.07512135252153
1.6323373762126119 58.94984694668814 31.65482134652568
29.962389600269685 42.09059395143851 27.808649772519892
24.72731424714569 48.811762103852914 35.41471292917784
22.9151285176158 48.98049410884658 37.233696486049595
20.898666333619772 50.59431819597317 36.15315042417125
21.09326583063577 52.17616322321433 34.21060772873205
26.5656173233236 65.2831861927309 61.08302286445134
25.514657344770452 64.26469392822422 58.86607053406526
25.062651788258496 65.04501519008161 56.6942172541361
23.678124804375575 66.39172995639228 56.51794559994482
9.470491933900254 32.11783828272228 66.6088582785397
7.0435482180731395 31.38491097626589 65.48141322371526
7.173998553720385 31.05409575599753 62.92848300681239
8.33316065900131 31.47055636059957 61.29501102354169
53.70638489219718 47.33026156207599 16.645481283383067
47.89563195309963 47.01075806077755 15.365878472286438
21.116371489166376 48.41613190130868 32.95739858037058
23.452372533445526 48.25173207113273 33.20440916167899
24.927037667582436 46.33836945041575 33.28702128150079
25.046102019771116 44.16735609437482 31.727838981451175
42.62634347410648 80.20805701362501 40.55715012709131
41.07879034483933 81.49916704228671 42.3267184502428
41.63199760539439 82.1870252350637 44.51674445623194
43.680175345452334 83.29930902028035 45.47869248995358
15.694459916071484 50.978877980083446 21.742924821699674
17.52181098041702 52.6209880226544 21.931597368271913
17.76988513222793 55.14756862477891 22.381509242615675
15.9651719248099 56.84613547889352 22.444091975709668
26.049747955880537 50.30504476556463 26.074966761667646
25.98020173008957 48.33593080728751 26.86958359001507
24.751681275277424 47.855499578011326 29.344319755175647
23.740889214219955 49.31819610917909 30.752215880970823
58.92048027710361 66.49598842556185 21.870799532797406
57.434548513652494 65.64518064149799 20.313252101514646
57.38575636991695 63.30433875279507 19.109472405326866
59.660363342476586 62.370472570148365 17.78461178477062
19.609415510014372 46.360140530114414 18.57671642979123
17.63700795071239 46.078523735692244 19.90598211934587
18.489317983386638 44.83432023600287 22.52279113145754
19.793914461513577 43.837150461436536 23.005804770712537
24.79857740127774 54.50407176829142 71.40296475344027
26.43460169899587 56.18831456596153 72.10459762172817
27.251541871488975 58.27210592990957 70.73002442006978
26.718879386448545 59.09796870508885 68.53507746674062
31.00136008513492 86.25792986941852 21.67738597528632
8.18658200006705 76.36818170250856 2.980974689550314
8.938649393320379 77.73661066084921 4.751466773239369
6.857890292494826 79.82914288549992 4.7428433947657185
4.922805991626898 79.75220859879954 3.6216265183871994
43.226206330404345 73.11075749619098 13.253760917788608
44.26584184437143 73.35075773716896 15.827663060261989
46.80319312076832 72.84142188512295 16.4217784860493
48.36192105903641 71.22691441586338 15.471292731937682
44.905627375976 53.08219485531635 61.43145891713144
25.310608607085264 95.5297850189138 51.07323045219273
25.365118503766176 93.60619564340419 51.37461942341933
24.259738616635822 91.73661021718014 52.798203742831674
22.584668594537067 92.1844157263381 54.76624028249122
49.03080512084452 76.97797269006823 35.794844747900186
46.43723000154899 77.19300977081836 35.02137991490068
45.36572430644368 77.29880941591307 32.86073319332848
19.898782133358438 74.5624705181315 30.870446606998044
21.14106754223101 72.61249914957986 30.250957029051488
24.128141440397044 72.51126667846408 30.14921851110928
25.358264275378854 74.21447237439634 29.032326682281408
25.018537411225296 69.64545908172778 24.126211881215063
24.380436996458123 71.57492860971936 25.206315083409702
22.304338124441912 72.37493595995132 26.528055369126143
21.09631303606106 70.52868684348472 28.29271827708626
56.85741528181285 66.15281727672438 17.560630021308555
56.78561893336876 68.8489284037773 17.388639380135064
15.138383756465435 44.96740368477268 20.074410614141506
37.01893813172536 69.9437433227313 91.10205733448292
35.23939682896113 70.75216675817157 91.6853566636422
34.53657035552744 73.62316549316797 91.58279723720163
36.13654744690007 75.23694674231695 90.4339999086335
9.401321920704193 32.59862629782467 8.296614079462957
7.47626168197192 33.3371830929628 8.065911594949695
6.163054766673131 33.81641727065188 10.545970810328878
32.258312686323976 64.7765377336966 25.37056436761817
32.37132276869851 64.27681802264993 22.67747291566355
34.80789746441531 63.58892119860155 21.756600625092805
36.87286202072812 64.55802438541778 22.266384406268006
0.18967673356027312 54.015735045611095 72.21810331847105
5.373993302638521 60.903405967398996 11.971817173381805
4.468988292625488 60.64429994960645 10.190408563953028
5.125045196222902 59.240863910491456 8.064942131362967
7.350290900548091 57.92869010120395 7.467124444961621
32.313111499620405 49.44274626274048 90.35049474939485
30.510639243599293 48.36903533610463 88.98198206239458
11.073698000927408 78.69938199161929 9.626582519530658
10.857379425324593 79.2134100728535 6.948206193333227
10.140008190077749 81.16575037400942 5.763070945388842
9.171738171397084 83.3898328583154 6.759203289376845
22.254323018699278 44.235348563715476 17.435712011819007
22.992835806938686 45.465117435769116 15.116351795196142
23.33476839103102 44.6875956821913 12.915467734692719
23.593837252810744 42.57132066443775 11.953742436168826
9.483893043956783 75.0380633706871 53.411573226634175
10.306011031421008 75.33212677892746 55.45579870943297
8.547735905486002 76.3053750736542 57.370294237399136
6.017084782102605 76.01922573101949 57.08047637930966
3.305589695909896 95.28135705228314 89.81400355919024
5.291855785880455 94.3658885743314 91.37576349477031
6.463313338962886 95.60784067304081 93.25746451724092
52.036182774302546 47.23007245290429 19.998072297765468
50.606723965945214 46.44991740204989 21.85038443878443
49.29593743236547 47.277269658762776 23.561898083139823
49.41642286905884 49.49635419057767 24.778340241785923
26.552481676343973 93.23160923482789 46.3834850418538
25.66173802125845 92.74964808601419 48.65230556391964
26.9141956675968 91.10747676828412 50.64309552892804
28.518357572770142 89.99105337738027 50.05208915820535
39.82047429866405 50.90289732575291 73.75913586009469
41.03780287513598 50.836364756888536 71.20869760811317
40.718309019588766 52.06852725625644 69.25633924268462
39.363927351037155 54.34586889194791 68.63975157648731
13.613930229170158 72.6667349015982 57.97034523572928
11.712726170552706 74.03661114018963 57.557777957913444
9.97390924496456 74.23563827271519 59.408955083528106
9.665319136069742 73.27963285489061 61.539269560738695
42.081798434279236 48.49275429411027 27.635367280601304
42.88557228220287 50.07911877355496 26.15293131017085
41.4119221343079 52.04618364115072 25.103819609880052
39.6157277174747 52.57198749502974 25.59185447232661
3.0420372256017254 53.14532697552607 84.55051008948833
3.0726277678378704 50.97907413318788 85.59326561422947
4.832093523344064 49.04267458007755 85.35192950606373
6.862933962167782 48.87916091997014 84.86938113552272
29.805515181078416 64.3613993667875 19.892032719673963
28.490316997649426 64.02812917970702 17.940326272459906
26.12094946727127 62.72462597456249 17.56781581709188
24.343594648674554 62.672773157096735 19.61496295413485
18.185793876611815 71.29164711991822 15.147566024438236
19.165716276127675 68.9336026929841 15.22050282947326
21.09384146781304 67.9438112330389 14.055641536933466
23.02747049312001 69.18200009639816 12.526121447247686
37.51080940249525 49.09306471513739 69.29923556448009
39.34088863163124 48.86991317522413 71.17145102302626
39.27983455542928 47.9516215000181 73.46403607211319
5.336606607700198 82.11361385234821 23.119718946724554
5.873982054462676 83.85857833235701 21.969201555724702
4.7241839843925035 86.35232771165487 21.675760744294095
2.2538139853298396 87.08826329148323 22.135621174741825
26.994526349674253 64.94594962436938 15.813014725600818
24.699734725474148 64.46533572287775 16.03948105714812
22.712802767716884 64.88954648826996 14.326790502676959
23.078899470473164 66.48713934408356 12.170443397061481
38.78172286091541 59.88346859379261 21.60855453878778
38.41805540838022 59.376133803519345 19.65512373319705
36.78303769192257 60.472649643094236 17.359934732622534
36.75854095152209 62.70474046319178 16.800737553455992
35.12108394859801 58.290950617952795 19.543974102948642
33.94662770365553 59.89992885489105 18.539130114900335
31.76081339938934 61.79289484019436 19.59718225926165
31.128197233573637 62.09046612527804 21.66917682520577
13.598320481712209 73.12343018857197 63.70885771935774
14.235173197500727 72.7501138345281 61.74337156300253
16.506048518180673 71.4046209615206 60.325302388340106
17.87634685120387 70.15367583173519 60.958789325560055
9.558085466417209 70.86440275275038 89.8267063703567
7.9742829992120114 69.88810304206045 90.96906501908644
7.376740597616712 69.67365223740153 93.5036400398066
12.109450305393754 68.52561572913926 72.35061593294704
10.461242981874513 68.35036674641934 70.80909879563013
10.365486558066412 69.3053899799199 68.3617173695047
12.205717402842094 70.41091630746124 66.99515487231784
33.29498636308 34.48688693504577 11.846315096807869
32.81636612356441 35.82621742348169 13.489636059481995
31.76664667815998 35.0477890534227 16.156885708222624
5.827415285859276 61.65380007151097 1.5968806231217445
7.965773758224767 95.06336721820652 75.12003875238133
9.811109739980795 94.1261684450452 73.73084627078191
9.907269342747774 92.05817193361023 72.37020487541798
8.030349684218812 91.15715368449953 70.84328970099372
19.121143368444187 67.41950729381385 10.236374653386411
21.37212216941805 68.53648034421106 10.348415000215923
23.36687205546636 68.47419702008298 8.685209452470461
23.56122598868433 67.77713720078691 6.412663359559789
13.547972456589786 78.06565336967113 8.397190445044385
13.39984911042355 76.05310951430437 9.731542811720132
15.568646651522997 74.41380998265404 10.42492114622039
17.754009781940148 74.55664135122198 10.88924553722244
9.578838104058194 76.21140641159488 8.656428193107594
11.940883061373402 75.9646766229326 7.482787404939269
13.215597514072128 73.86494620113125 6.469750355032549
12.904271070449754 71.554938241815 6.628923513657908
25.530455807499937 60.05221673746712 57.30932954077073
25.924983835139454 61.353073755023466 55.3118353134033
25.23709425743887 61.23931115661997 52.78314639065994
22.928088533214478 60.30418923132406 52.31195397946507
36.85095780549662 61.557698982791756 23.772612438861824
35.495933737817886 59.264943522114805 23.758614360647023
35.26658954231852 57.46276171696365 25.789103467973913
36.360784966263374 57.81688474162068 28.363290905019113
21.14289933572039 66.27806220907243 16.69743813548935
19.37212673681879 68.55200571508074 17.62209052110949
17.620448626357927 68.2272845556308 18.86744098205011
28.74224474324107 78.06011194088424 83.13048496412614
27.971592323691038 80.49318258206624 82.95467239819041
25.92939062260903 81.27197029210072 81.82271386162029
23.653280740215695 80.2419125889746 81.87286674482087
42.476432096987885 74.76340409530737 29.7200256827819
41.708700434569984 76.34929415672998 31.49497297202876
42.91895651699657 76.70598548378032 34.04448417945911
44.42163244092247 75.50532092360969 35.369405074324064
10.680280185015326 52.75997055636161 5.57608588426683
11.966022630877415 52.03304211254048 3.4676003334602274
13.826324963742957 50.17365556200361 3.055498544575423
15.237448246199392 49.152501566337584 4.330762961023028
21.837183282105276 47.29874797658681 20.59819304347775
23.021113295692768 46.641169386322126 18.42442413606597
24.190257591798343 48.183009326676384 16.849916983836735
24.597676258312767 50.64688112757466 16.714794041151176
21.515606616727492 88.21287251777558 65.15780113561527
21.262473298769443 89.9892199145817 66.77890952197087
19.126423333414415 91.24944921000858 67.5761680164719
16.75697281685382 90.85012529588967 67.74344470886828
2.8706421697438786 72.49214647460157 68.85511391800017
4.726259382670767 74.20881840418726 68.90535644774815
6.6392864752129 74.95675534184919 66.98305892865952
6.180407096936344 75.71051757947042 64.76929634858483
38.67204478206123 72.63056999289854 70.00132023612012
40.421695413134486 73.56386753241964 68.12417399331298
42.38258564984464 72.56035827462578 67.23968598626192
43.7701735272122 71.6293080750988 68.44286087875349
20.5120927526682 92.11817984100064 30.96401009927206
22.435689695416027 93.31837070250569 29.87926285394605
23.122083106893545 93.68556856899069 27.478775962697707
22.026574966975804 92.37471839380889 25.168809135433513
0.5294805696763395 35.40584776361 43.25609348362602
1.6339461557139037 34.35927659972009 41.59043148900639
20.187905477828092 48.2035959860415 46.534269582157485
21.250000692471946 46.285452013262066 46.9213914531556
21.040468178845135 44.30823698411716 48.61419927520055
20.799882195751557 44.62949497167659 51.197291056391165
28.22890199463618 89.1573893776461 57.61528101249446
26.40455629961215 89.88397824224592 59.258860018157534
26.259404214523418 90.14872002158901 61.6048586541
27.97764511525203 91.74040763326947 62.11476081823946
3.735766892104831 54.763682014482335 3.938779118810895
4.096529708914988 57.459350594973515 4.300174282185718
3.1138840045463314 58.93973939627331 5.93001536290285
0.5610417304239754 58.94348162318963 7.143481767508901
22.098025635865536 61.41210575321148 19.9685266838623
20.526570223653927 62.550709843613895 18.5535575597105
