81.99583965853026 76.0867349384071 56.374462773217154
80.28825672299557 75.81120340900755 58.55621885919776
78.06611545256294 75.24737843458033 58.282014671323246
77.60699395267255 70.60548848767199 33.16729054565439
76.24842514358335 70.08853256827113 35.30835953989774
75.47823637270159 67.69420554538296 36.15710625960078
70.73105746398107 1.4550532913926535 60.13191095428835
69.6769829969052 3.5560469672080592 59.16558724922658
24.071073930824866 86.72818286788434 8.009739589722326
22.30027228330514 87.78947233326423 9.21485635032159
22.824913328786838 82.57946529176586 8.78082413444428
22.942450302351972 84.54013487699865 9.731763491453826
20.67047167446925 85.64773872149215 10.884755779735116
18.55685347416196 86.087424244251 10.151152259581488
74.00135280046801 21.973344993497165 38.69188603172474
62.06797560822367 3.805434257612605 70.5507727065978
62.166205134097915 1.6064992437595351 68.82110166399137
85.16858721260797 67.12201476869967 50.72601787268807
86.54427893457172 64.97666341711214 50.57539454820344
88.10651453663147 64.20256168513059 49.08167670516949
88.88624483096568 61.61457959543476 48.93464571271063
86.94671064267747 59.43806919311348 52.3395887432246
84.77562448731055 59.42372937062077 51.84600614627793
12.035377445673042 3.634993399218013 14.776121358679962
13.645848112780577 5.450529821357699 14.787642486091782
13.180172849372866 8.05031295371524 13.539472837673646
11.322888017836824 8.766253974973495 12.343216952364736
72.19217326903836 51.35561277388255 43.38387807808197
71.197942480927 53.478825463624894 42.28915690402749
69.01136228062981 54.89381332934327 43.09288509516943
67.55417326067382 54.80471525431331 44.91797669799311
71.34733961473555 58.981892535700496 41.24963832435297
71.57985973991973 57.617462094681855 39.72843090287305
63.08792469770297 0.8280393325624222 71.45638472827382
87.01389728716772 80.85930275117684 49.86693877953435
85.09249489504003 79.67506854865769 50.35801859915698
77.32743449661767 35.78834607873318 41.53705557878293
75.92824958634547 37.13003802314845 39.4244717833903
76.6839018097141 39.240198147086616 38.435868815788595
78.38738867992106 40.68244711149908 38.37640638083533
65.17000920407628 4.213016986214383 67.32211017577754
67.38936728200498 3.834929926834711 65.5631314395367
8.363332471059568 2.1488352987379 14.88197060236501
9.257899588282134 3.4832058220995807 16.082107784339772
10.258189467774931 5.624763315101492 16.280949280464462
8.923847553454305 7.978603401544599 16.332205073139146
35.05852698645904 78.47594247149526 2.175385691279923
36.208989321086484 77.54652381495765 0.07434245156513578
31.062612167148803 82.73276766635327 1.4231122496547004
30.61250536951236 84.88998636634308 2.99862321913645
30.272422084808746 87.22299057715774 2.108105240844977
7.469684252658803 2.9099288194497945 19.175975701908225
76.23650993383505 5.3561633074518635 54.111473427145654
75.76324508556986 4.638759627277056 56.48269442778615
73.73651703659164 2.874885238755814 57.24504914081261
73.97630873873537 0.35622662864190874 56.57009316519032
17.936413059457532 89.4957284677214 11.908922852837382
19.625296468763562 88.8191873751537 10.355280316373078
20.613979294385736 90.29290007166597 8.572494353531706
80.03877475725452 75.37146998619482 32.27607719593821
80.78472655419907 76.20766507571636 30.316087445555127
83.20530925414444 76.74249779275276 29.517785077773812
85.26774107002507 76.71249842159764 30.57007397255101
85.69680159133485 79.23071199946325 52.97234971528662
83.85055006702326 77.65443641611526 53.11299692390686
84.2595993203367 75.82586986252285 54.87156244354184
85.33650445832295 75.79851763880669 57.1551636299959
66.49599845479389 3.4860705929167417 69.52221863421998
67.77882042989044 1.0558039677742266 69.80217014248409
72.3767606266618 47.7902123443123 60.3104035008614
27.581381144747393 80.84380915091663 5.41914865956955
25.863915800336024 86.15659191143256 10.840738386763336
25.96333763990789 85.3815791203327 8.943351468574722
25.79721820743255 82.51403057624559 8.704319043952639
73.12547960925738 3.467816813032442 60.321264568231314
73.28036056679618 1.2752512460065641 59.20959470883958
77.18042899261806 45.444063133851095 32.001370409876216
77.9320824395178 43.308039154072006 33.96772074406365
72.35790406118032 55.735746584464565 42.796629504463546
70.54382536808278 57.0014836416572 42.881723613440435
69.62064770575427 58.569485913446876 44.563883667304424
70.42812893349874 60.317819750453545 46.00547297069938
86.96286674614653 75.3511948051911 25.782305611248173
85.06552382687532 75.57633965000826 26.763296653156317
77.4117519702699 49.926318267120585 60.13328593814256
78.11340366924803 50.231567580849685 57.693988559606346
78.75970842023024 52.42075555856565 56.549703483752886
41.00760924397675 93.62901788642567 92.07012642871243
73.51013904490269 37.311868560521155 36.609701313462644
73.61947047519665 35.569636118657186 38.56587217045296
72.41632707299607 33.81288358573414 39.25403751470582
71.45659479300191 31.91454391516244 38.24825817552581
88.5097311960135 74.63145198943924 28.03138888415714
86.33510273218099 74.49855897672872 29.13845502814767
85.08558595741296 72.23544157833709 30.490831806652583
86.03818027133282 70.69057582475511 31.763543826959708
30.22242116015364 80.42545434198908 3.255773342680362
32.89945157370023 80.08544825005016 2.3691897826904
69.43900143774218 62.28956587659296 44.16457657356364
70.66260797578315 62.206607956976725 41.749865695129934
72.24526128230355 56.54546621356562 62.674644289116515
73.67765891526359 55.51649682702709 64.13758669252255
73.11239853075962 28.510762187408325 38.68732239576763
75.20266654114242 28.626535516963468 38.56811019566549
77.47952212506284 26.990578998425363 39.12960925760493
77.25138033064503 24.64560105539078 39.9526734571612
38.19196440453863 81.5955377666003 0.43831438204304685
38.461285919390676 79.39500247221494 0.2108100862877713
75.50644948733527 66.50571607265312 64.72547553454659
75.83953698062203 67.95095692528332 63.00498447125002
77.22433415606191 70.02910297204693 62.50461757670044
78.3575540225564 71.69041386135746 64.13259858613421
77.4405893731174 77.79395947994514 62.30340878731037
77.59634664458636 76.04913256028198 60.742079825765
78.76076003813112 73.86765219182935 60.81531432130777
80.45378970123298 72.77777642827957 61.86575129112732
82.44773413819938 47.536847452187445 51.277082322510644
82.14039305254923 47.612201954029125 53.39080993018192
80.60392196923146 48.67435240984516 55.12226002933646
78.48701876440973 50.33431574051645 55.07581592846459
77.87631069428963 73.10349755664846 56.81955885272794
79.16326832594078 72.1699078389478 58.623894373565975
78.79004661346664 70.06871201908719 60.22728991574009
76.62265287827975 68.48679086608007 60.436860764147546
81.18143446025782 51.876734941109405 58.046898625093306
81.77659947513104 51.34494245802451 55.7195872186067
6.968939213792428 60.02010442598013 1.0430435848008761
8.770363471465153 61.24431393772734 1.8998788249368452
73.92492956159236 50.01929043520474 59.50034168769718
75.77075613339818 48.46705137001423 58.86287302313011
76.70537237687131 47.67287524398185 56.74332166541203
76.15299841946714 48.1649518012486 54.120578321806796
75.39624438619238 30.850470481050866 36.45708059604601
75.52518269111005 75.31691719874436 62.21565754342057
76.03965671267846 73.03120682452956 62.11504059167904
75.05685984600701 71.0697564006674 61.16666951794528
73.82424551335954 71.01137601481518 58.85647460277164
83.97833067031848 57.30754983685307 53.363600887599084
84.16175922577408 55.534842249743036 54.02847225510797
82.84304272811094 53.0137352941972 53.60013424077844
80.65366104832994 52.68223880066776 53.28519860751402
60.75468555739172 4.399842822570756 46.66020134558207
80.49158215281918 25.60015546830043 42.02095373685545
78.80190712059374 27.72020342107811 43.06675672930395
76.74786194774512 48.855053842446196 36.11447191718384
75.31762349325795 50.97339618028785 34.99134795393165
76.22933615219357 53.33418011315517 34.544842836052894
77.89729368158712 54.625398565297374 35.8045996057586
74.99454290322022 42.40770722385048 33.91306032496159
75.96055988577417 41.54545179779139 35.49236102930652
74.60517790208465 40.699331619240795 37.862031793099135
72.52320008742679 39.51437571551373 37.96368049509506
80.08232736690177 48.88170950262972 58.83782485413095
33.491807850333544 85.51930664545486 4.192602733604528
33.41979531361315 83.87047581775688 2.185770563427476
34.809039158345094 81.53944305358621 1.7689711764056495
36.494673969992625 80.59435532436646 2.49860904045688
82.64010623101784 13.161853479914026 48.644413788144185
78.94306446064634 5.085376665854893 54.377845817820635
78.33657913176762 7.510676625505854 54.16854649985908
79.67331671979223 9.571122033722332 53.67433722506796
81.13672293779894 74.31048069392546 28.763185479060883
83.4625611393508 73.01172502424745 28.146375122067052
83.88215323534324 71.0186027450137 28.12364022524177
17.21587567924241 9.55033534057991 17.11992519680929
15.05354650854256 8.775137324458125 15.8630349844666
12.96381534218535 7.672504385796679 16.558667495350992
12.499312855884305 6.550634953957952 18.778555979191946
22.546062932355223 13.99663282873913 10.518023468836912
80.72968446051219 11.831664486339323 50.12341266708451
71.90144714028368 64.37913837489015 63.92062728233456
73.05354929063782 68.17357521527016 63.334416870521025
72.22499300323268 69.74522593102363 61.359438796369254
76.266024742962 70.26324100392547 38.49885259876507
75.04281337430973 72.02112764642595 37.98457651765906
75.5436137367662 73.95601986421913 36.551853878460484
77.50350988649376 75.42257138077147 36.21216565795035
71.72894008775647 74.2180033698502 63.485297917968815
71.40076861838813 71.42954101109946 63.035234019860034
10.060982685791522 9.706984408635005 14.51075659916971
12.275213491455087 10.27291016596465 15.694989603127214
70.9165769352703 33.6611966773023 44.201245007654485
69.16177651838949 35.27396601498687 43.27010288713475
68.15551821214584 37.057848346568775 44.06500899841646
83.30189536564605 70.34153875202664 52.06936784763513
83.36540796385461 72.1648240850569 52.640502106607116
81.64544015139836 72.83492944740303 54.220172675153584
79.2686009631505 72.13387816400167 54.50847461436179
21.498863193478346 11.359503231914461 12.35954892015552
19.09553685522439 11.54507986383853 12.363904189630096
17.55122344811992 12.397855544904083 14.307978468790951
80.10410002991637 69.92778990415626 55.61375889884989
81.5912044274913 68.87068475551969 54.05096788946528
83.57229856423955 67.32429304531631 54.300782244399834
84.27233524068023 65.72566901235406 56.16411069968299
79.81181971005897 72.87484849137849 33.313875883171924
79.67791451235354 71.64639513112535 31.324633598178465
80.78706326133866 69.82746449769922 30.377687096719722
83.24602951762806 70.10700370500712 30.669615324027333
76.389260747606 34.80457868828416 36.09057602191758
75.88319878313756 36.564142446912804 35.89599652795634
77.23770771634973 39.20913458890231 36.01688926072002
78.86639176272713 39.846913106439764 35.57601142706056
9.71196137259126 7.3578672917795656 19.0826261201579
9.426677931083075 4.737416552632762 19.04221920808617
10.047992792828325 3.1889917537858934 21.394696756397703
9.348651857184414 4.004114410291555 23.690122603065923
65.40276506928996 0.592890421794745 43.245310753912
72.17718350248121 77.47247699834574 68.4248511789117
72.53032989385585 69.76227090057793 65.54532469690695
73.17009695984375 67.18181638684646 66.14604710707648
71.52156984341975 53.270314039497435 39.63238772057506
16.55826370091084 5.5364342523548284 15.509766177629096
17.328044415230124 7.83651133998873 14.998321427153087
17.846237562003243 8.855115535097081 12.333680840420001
18.517512316277116 7.5048857636153565 10.460239650060297
3.350483486160619 39.88155773521423 74.95193782446958
3.305102465856186 42.08258100466859 74.10944017976483
1.4625625479851048 43.82567365270471 74.165480874621
39.77311427979075 68.99764551882565 78.55923930952913
40.194066050850836 69.73973195640768 76.333616170766
40.99052640960203 71.71054497176229 75.41815867374254
42.01548034449752 73.98566796823637 76.47954018146112
30.686809681094797 20.83006910519677 78.48138558001389
29.280372202071245 23.214007184215664 78.52060080383663
27.38551334376738 23.755057019605985 77.2067055302384
25.717336921475276 22.497410761396402 75.64571054016277
21.333301981191077 81.1919323797593 36.90140730996836
20.52185369758077 80.3993570179203 39.20999177168951
18.969787048225314 81.26856190406495 40.61562079577367
17.039698164740262 82.71394733343087 40.34111582180146
43.93024860213871 72.05211209946312 66.91378737328112
42.885524150858586 74.04572040219851 67.37897485787157
40.26194118661949 74.60813777635136 66.91783323951952
38.30328309134805 72.87795977440452 67.76668862166323
16.459022696018536 19.853471175211222 87.4183774060236
17.712893317381493 21.91591772284077 88.15727194176459
18.60362077105215 23.90447060809641 87.06847378728067
19.76229698144559 23.98367281076324 84.80640334283741
51.06856152187818 85.38152617780077 56.085940216922864
53.664264898331815 85.26384402698939 56.51369134238009
55.51686152605316 84.81479977949444 55.03589876759873
55.88329142282228 85.6954789684687 52.684689670569924
54.80104861048421 68.42564591176884 62.774617799017555
55.98538302256206 67.4879983845131 60.91971371677443
56.583973609397354 68.65789176619585 58.49193481090379
56.13444968352235 70.66440112699651 57.44953474729045
30.988712173734903 23.507150000020797 74.47521474941675
30.347981464108198 25.19707798389003 76.27972743841212
32.14848498813368 27.39327333400355 76.48935281160192
32.779726007239994 28.785444866704065 75.02988212609742
17.31039165796564 88.0911260988432 62.530777702534316
18.534793895711044 89.34582349630882 64.71253513755435
17.11196706032431 90.69692843495807 66.62091823408007
15.099068526581897 91.79665346176769 66.70902869197299
16.61861138599322 72.35305346198717 68.43165175825942
15.146989073393737 72.85062934971444 69.63969813621223
15.181607737880762 72.29904785804524 72.25587796393651
15.459401510425726 70.54640945087183 73.0128913534929
35.842192637211205 78.79293771673797 43.10876998921333
37.08439983279589 77.15787304414391 44.53678558046943
39.50980941071788 75.98982740433648 43.7531144925794
40.7285377256574 76.01615567366346 41.92292564009921
45.9980197209337 82.58038047533894 36.630859113842725
47.234264297450196 81.98478034465528 38.42775070264342
46.13038735040307 81.04261710780152 41.03882346882373
46.60641254571543 82.95680681272891 41.923470267249655
35.11407045419555 67.43005529575206 78.12395675743362
37.099742254984925 68.81393107989967 78.75127737953262
37.468710823366536 70.86233724736879 79.86568070414246
35.67490815179581 72.6127167017773 80.51220305979491
20.520273054851604 21.479569286034017 91.78684982568294
19.581250315344505 19.6250539443504 90.96555280450048
17.832533133157792 18.055599915501556 91.95208702225987
16.499487092116574 18.117331941381256 94.27013011476598
46.67513412178389 87.62733298023826 61.94258225750368
48.78238292654333 86.46330791591053 61.909218876399855
50.04289321468515 85.0369295367164 60.35841654105127
49.746759613022014 84.07332219068532 57.982475190189724
9.643097586665942 75.67897698460862 45.209646943632904
11.123849664382389 77.49238226662919 43.50639922900541
12.424505585033586 77.37497642945984 41.7055454482137
29.523051022130467 28.069889572470295 47.58166920146477
30.988740879440346 29.491305195163918 48.210435577117934
39.37351245798684 66.54902473622734 77.2413657998499
37.51220339349846 65.53808300434007 76.52179447332321
35.63425467181399 64.42941724326234 77.65565768644149
34.96832729595839 63.38279991769145 79.8092960265373
59.86161493258765 86.42086105525343 51.02864648230878
61.47221558287569 85.51504573390017 49.74143192078456
61.93742497737626 82.71039324042036 50.116127137408526
60.756092191644775 81.09533193908815 49.97215561133098
30.619125901737494 35.28889919564358 76.08544713222152
30.927041549912765 32.90381185669591 76.09733438564574
28.923481421676968 31.241063900309374 76.19968511088433
26.64609503843338 31.442005661532885 77.8260210187107
47.67211348917565 91.05982759346217 59.276560731369564
47.00873577273043 90.10563694074688 61.81734061345961
45.38569881164259 90.70098148041276 63.286931011848566
43.84280840020025 92.4421245070481 63.52209044884441
57.90543136789129 91.43860529450471 55.28687337726172
56.166728650084764 89.95270200706304 55.7864033210868
55.17048714840237 88.87556144118183 58.21829498174933
55.1440519009112 90.26668133214628 59.96380128319065
31.53975648111022 87.24815574591105 52.57538894973731
30.648010827003755 89.2791428922815 51.92478608924963
27.906854365861246 89.90597912422444 52.86523696112305
26.39271221732756 87.85375423245945 53.684580287225394
42.9542267455824 76.82058161309091 49.37293864302655
42.90238592403401 77.71274047939835 46.86679598506552
40.55919483027178 78.14817232867598 45.52590318092164
38.61917634424024 77.580245344051 46.46001946588182
15.560468392050621 25.944091643205383 88.47674570868057
17.18348829971567 24.6298278049415 89.64430429147932
17.118612890305442 22.8586747077063 91.37623096667998
15.347633308331812 21.308284661412834 92.10015988353034
18.54475720249193 93.28349695286211 65.71991394048626
20.027392663477094 91.48181266282435 65.49307810500544
48.177372121284655 24.42829977602466 59.24140229399347
48.533314292772125 26.382239036808734 59.08338099313085
11.156474345612807 20.630381260192376 67.81133458784437
10.12489460834047 20.0370190763293 69.80940214123589
7.953291990105638 20.9449127256074 71.38865610234035
6.885001937106085 23.12045037835595 71.4479447687351
11.595246900843518 44.67645579624225 90.61747828732027
11.51324714616631 87.78482284153218 27.06308907725992
9.89976442801058 85.92294630993392 26.490125483700293
9.90918069956297 84.79970209321121 23.923323049810296
10.79024004449977 86.16015520114432 22.30055237280571
8.294143939250562 72.97639511595001 48.99799713702661
8.3302356805906 74.79014797494695 47.56474930603069
21.904888399872064 27.978045343922673 90.39647707066004
20.639939939550576 25.60261011942547 90.05241689447276
19.43181258714246 24.10099698624672 91.255719579935
17.938546874695508 24.21227219408005 93.49050368028163
35.34505319615394 80.19039585799985 81.62973339792276
33.810652223457 81.63503052543179 81.5968525260339
33.98852866481163 84.4838940422114 81.99426144638296
35.87939571362992 85.6568946711416 82.34909999495562
49.6351864829209 79.15519278856013 64.0584642742904
49.33987796984189 80.62670835090277 62.35001131974442
49.02167052959562 83.32110881536717 62.33978756130932
49.39613860036267 84.92787280349972 64.18326999064385
36.59994834788014 6.2984745012795855 68.79650083528374
60.70156579061332 88.75929754388555 50.24585396569993
63.03420945579768 88.16353823696645 51.33816693014991
65.09282084193045 88.22941718653354 50.4698509601923
39.97844193454887 75.48975811376413 77.11870095824035
37.22870474632626 75.8104047808225 77.7256884752796
36.21599009583759 77.94732167219603 78.47486479022463
37.17464135807027 80.06013512987043 79.57166078896661
61.06867266851659 85.22813143989397 54.01639119588111
59.139701787375266 86.53368086290163 53.82597622393529
57.21352647040724 87.19826637148519 55.57233312519474
56.62869951349034 86.52800377433215 57.53020137607731
8.89656990068564 86.93862438398935 20.062739815992774
30.978948914095383 89.90620708446963 30.024059501645496
28.942753937663028 88.99271160166715 30.949616938125057
28.54413908194586 87.04033461500295 32.53031624163837
29.672310459663823 85.47393095620033 33.752494932281095
7.499437752209847 79.5262113345513 48.60299118455048
9.686408928477157 78.12373378815667 47.96406180752546
10.167060111933836 75.96658358160357 49.08558114191048
9.341445613830514 74.82943407254915 51.14013884132443
34.50123177950687 93.840092486939 53.33322376147344
10.553953714537332 15.316357566504598 73.51101717002533
9.57605013882351 82.42042469460617 29.73407448214015
7.7999475609322175 83.08461014167764 27.921944557995808
12.849350003782483 88.64942762453286 42.70940775790086
11.092571268001397 89.15267437452596 43.76467005972432
10.378521246532557 91.29768487824876 45.20220592919295
11.37793093860207 93.53912149106579 45.443399255928384
9.336476557388702 33.486604364599856 74.80254456095811
8.074931729849542 34.92107987698459 74.23654361531507
8.40887427048441 36.8242711494017 72.01703756992754
10.147364198987553 37.615657386502285 70.85327785329721
28.278111514303752 81.55446433009074 35.89138709735678
27.75808673570067 83.07005344347185 34.117222676591005
27.365560487050303 82.4636331714457 31.637167631383637
28.08253090998012 80.43693829541286 30.200284292781514
29.86463453751083 29.72662417715689 52.60309813060578
31.786860907745137 28.465397526579913 51.73727548676459
34.0474289270831 29.208627249262776 51.37879369492006
35.30238203174662 25.35120097342136 46.81557969319134
34.835330199830985 24.618080016230966 44.87493865202007
35.13468711292142 22.05175473587855 43.72406897305625
36.835055905141374 20.096021281746 44.91702517465256
5.906287334318998 42.71300521114778 73.99558518815834
6.588478722056755 40.50195979185613 72.91718947350114
6.902091270137541 38.109909081721064 73.96020126860633
7.489669408012651 37.089429944448284 76.02062486776883
2.377196770751946 37.608402643844805 73.86165233052685
4.692761022643391 36.649060424804624 74.4993047821331
5.449889397260046 35.457955161553485 76.45415990165498
3.770907711455977 33.668769738746036 78.13207415440198
12.829423478695455 40.45210077732322 69.80258083973555
0.6186524258507183 26.599076290676933 80.40138193452658
1.6016451228212836 28.1224272621493 78.69692153986446
2.5047786634176354 27.395480480000206 76.15314313132215
3.0467715637127797 24.93985076177946 75.59899059893671
50.11006495996651 88.47038523299106 63.15451094198433
51.51727496803399 89.01011345370446 60.96808075206173
53.54622567994401 87.97835121186213 60.17534356822893
54.94222931990753 85.98098476706579 60.95959077600569
21.454374942226657 16.15697323686708 58.1417242358894
20.498037270738976 16.11966499991459 60.06251016573639
21.02463054337818 18.544559682644266 61.825360901031196
22.35863367302144 20.104582943685624 61.06438942030708
9.246903040822156 22.87271721221521 47.64015374037354
7.448915778707506 21.44159061619634 47.75971583948138
7.189526298661942 18.96537417816069 49.127496592153435
8.707607268472966 17.767787464379232 50.4969089647687
18.106264316887575 19.358246295757386 58.13392558683969
18.015878282805968 17.94208705252179 59.92825184492446
16.623995485663734 17.607340204360597 61.780289326363544
14.341379195404526 18.679289810537377 62.29579515617946
10.046271278895135 11.790425277067811 49.56310090519284
9.217055756064724 13.442470273011917 48.2296292270049
9.836419820549391 16.07652347246268 48.625506339453416
11.403968992813942 17.071226448084985 49.786320075588755
24.050604710482308 32.747452630078236 59.60837955580646
23.210919517172265 34.45785362322347 57.684604343866376
7.647643978424073 40.74651003161732 67.57345758751629
1.505631660468277 29.226407272988702 52.212777526860016
2.2246087462357536 31.658007102781664 51.81705614452323
8.571944705736717 28.931278712965707 76.49994580590493
5.966201735768136 28.93926926317319 77.10017115085125
5.076935060226484 31.49945033313762 77.16138384161842
6.998703849932751 33.37627426152758 76.57035043239138
19.283658813270833 9.902093246785617 54.13892191941543
20.553999899758946 8.176239131462616 54.71685886280796
44.598924946808175 89.67641650980553 33.85628818130772
43.057627230753226 88.32593433941496 33.00739697628722
49.254840720085156 90.78599435502547 64.61561749027253
46.87176701199269 91.17248711761931 65.52090332787958
45.67034266142044 88.74440336937764 65.07421335722437
46.965808432276184 86.59198256994601 64.68305215494408
8.353718496747184 37.762449162541316 67.82568315117156
7.406409299447266 36.31124221567832 69.60258204788221
5.733137798860212 37.56566833727286 71.33170184363276
4.727363730363481 39.876916119977714 71.15007901280069
11.418231451033298 36.969311908447914 61.59487413080754
12.47132174353406 38.17326345563119 63.59097727041744
11.664852966407532 38.42366008040404 65.46739962050886
11.05101011512829 36.648449181464954 67.7586584991615
9.173376230339041 40.43687676436432 71.80171416532936
20.085242172051743 88.20894200079097 15.103651387544812
35.76214129388391 59.03236860325908 78.6467476820933
36.038866576160515 61.040681181406185 77.71714581434935
38.07591657789136 62.31541548131319 76.15697995747216
40.47724749693373 61.65059161975674 76.17176954552718
15.342518999785401 18.099999046382887 90.84748861762287
14.564941670380003 20.101478096692922 89.16380565272186
32.205050134727095 82.57066913756174 79.16932644776114
33.84315708926685 83.70583499950574 79.06730516596836
34.38248892961051 85.86968995253135 77.60421981150206
32.689599030444526 87.68247589846185 76.90920821720796
33.04194883635949 85.91829323863755 54.72611699700448
31.02135262574433 86.563076149489 55.04476373080632
28.943907641952794 85.15674105659937 56.63143775722715
29.280809173095566 84.0649237094421 58.826070615907504
4.214755107498713 25.94977998572151 50.985259298318745
2.345524832313089 24.98572879769779 50.463632719418285
0.3425410254878753 24.823339255296037 51.9138704298373
0.15226794699953272 25.493646485507263 54.42075852746129
0.33602113118703353 31.933718196993105 81.37543625878385
1.5638598056866488 31.493990521231257 79.34460556484257
3.5358394079828654 30.05716460702642 78.73898429023208
4.844078859930503 28.634004002191357 80.12215240857995
4.902249021805562 33.06481685322469 52.18941992648583
6.028698404774928 33.484057147509844 50.40220834999158
5.135410418251956 35.64310204841935 48.954300456390826
4.439243053187249 37.59604463299912 49.284956085967266
7.239506661503824 20.358821447305527 76.69732798223497
8.438545178092715 21.68767087001331 74.67167395791897
10.288673701430234 20.30098088698054 72.67475468293723
11.903342325234055 18.774233152187602 73.31774755395374
22.95890518103765 54.401538365849554 90.54931006632874
23.844764375623203 56.47068722387933 90.1870299688337
26.58866264122385 56.926709549805786 89.47202732297701
28.207993754536453 55.567573756959916 88.24461706887567
15.289225019100279 37.27202390108666 62.98541996661009
15.367110056512944 67.35205074220828 72.53931295597576
30.914878976600136 33.70257595196379 71.46994351985812
31.433654826290898 32.25723581166634 73.33881041002735
30.340212648298145 29.94803917430647 74.06709380993752
29.088899068359563 28.159643500497033 73.15050369439184
3.518381404726242 42.18925417600166 71.3291981797674
30.338358667417133 75.14955591305731 50.90636746691265
29.61764559311212 74.61626306199516 53.31570318421601
28.32541093746492 76.35653195896435 54.98927210503741
26.630533392760338 78.23791464794749 54.363356290970316
30.6703023765205 83.0566035689835 37.9774844182771
28.231025927256834 83.254241567986 37.80873416036144
26.670590174517052 84.91943503211729 36.35792127855768
27.321964323886313 87.18390299475213 35.397926551733384
23.252814726354337 24.73673923437692 57.099750197234464
22.54392065768886 22.787180975164713 58.86051746188132
21.201259428046903 20.780557612350503 58.72819820050492
20.588627864634454 19.144762231349457 56.573498452949686
33.7378381497153 71.91207047891861 49.30924298981243
32.88596262087473 71.52466856625423 51.61584054282427
30.487257205994286 72.03642549820374 52.48593959370545
30.488728297819303 70.09338931916288 52.50597955262888
38.111396330202865 73.78163807868057 50.59355437208997
36.05538486528325 72.9960528550997 50.91663374106007
35.342159899640976 69.99879050036328 51.330608340922716
36.73797303882314 68.55594217376449 52.64936655964996
35.624273596404294 75.01935144436204 45.59641958309919
37.53071445767928 75.20582753836571 47.37106754913156
39.36369033099805 73.58624637059006 47.99689906485045
40.671654050656414 72.33085658851363 46.0544201141462
51.32741308438226 61.451614218022435 65.1902350214725
54.027279834004254 61.25037449849157 65.22081244108179
39.19984653049395 6.538109186900133 49.33012021025458
37.732130674167614 4.9137784876115775 48.192592328715534
38.021882126650496 2.8343040033488034 47.07376225857112
39.83809413709531 1.3443629645891872 46.555212220527025
37.08877567506001 85.51978119687078 79.7539445790686
35.681318021179614 87.36756487128463 79.04141763601359
36.36427567145673 89.94292462360166 77.92904615680793
37.75183304482564 90.60179083037256 77.0842732566746
33.4731890759183 74.25157960691148 78.94330197359528
35.12869309436429 72.9200978812944 77.84559967278354
35.04520963564361 71.87866313034331 75.31846843561358
33.26038819893753 71.71172640562854 73.71363707838906
32.66796885751398 76.85153744918068 52.36649578497769
33.50019306050668 75.76474479251911 50.32580433112388
35.824699898265784 75.37161764824951 49.36142872046836
37.781282356603775 76.63445684228617 49.8475748431936
10.405478302380585 71.52883798016516 51.90631596756091
11.840819473186292 74.01639285700868 52.65330067788801
32.18990745976525 55.44221495730617 82.05111289255312
33.369001480074225 57.40751406419108 80.39508219469946
34.0027623193874 57.12661062100743 78.04062932936702
13.670436148765765 75.01028801358014 45.691040756489116
11.934248367074199 73.25164893078176 46.619454808862756
11.925766750675269 72.62861357089261 49.48657361642793
13.357773287494462 72.3981748265534 51.18791907912543
2.030512814356524 23.993690367480234 71.5216856867769
4.393722028886469 24.101063573118303 72.3036013058562
5.800190025127465 22.123571012502953 73.90636579098006
5.351465298465044 20.181538373693346 74.63616436351971
18.48182338265431 74.4086857247254 63.32222937471703
18.388101451879333 74.16619813248879 65.90769363122313
19.04783407140932 72.41805555555622 67.38446331806506
19.931534547814838 70.12577047391599 66.80841844000781
40.14658392124995 59.20153325389386 70.34223305319667
38.7150647071723 60.1244016251797 72.25394886845707
36.52284125705903 61.62677456307796 72.23923697521815
34.67093580816401 61.24859009675906 70.47045919067838
43.686222607003685 75.87251138615927 71.29073218979417
41.8684501224481 74.24058305203943 70.66758037731324
41.45412976963547 71.63447895235853 71.39111365738711
42.1930218795308 70.52124431371182 73.27601383763374
74.10839883525115 79.2181178038497 38.36617559910664
6.037409900933091 12.175984318763684 46.63126643998832
6.846653486783953 14.466953130586415 46.70628894792549
5.3161201808645036 16.66139803480921 47.47261040602108
3.1216807201139147 17.06159961388865 47.53872989286241
60.35188374271208 70.55814373445664 56.14399768405239
60.69969076790213 68.61895426691164 56.05502336083531
65.08068950895507 74.69442523803858 51.49036347550415
50.782177628640106 82.18591803654702 40.967077533196125
48.769845358058355 80.81132060408757 41.38316612687291
48.480165669500686 78.11761839201581 41.29500352869452
50.10203529861242 76.24591308887184 40.75080168417149
35.26246251708088 68.5016095443596 55.51511365294055
33.43791753347218 69.49625030232826 54.451436718430685
30.888688564916496 68.49002314436414 55.36897841375494
30.724431330018785 67.0846776882755 57.46674650781379
44.839457097661565 78.41218552660594 64.38441089420107
44.813705758860145 77.65820501029201 66.18404520138762
45.224906034840856 75.06966473944173 66.6203162943345
45.014757708554676 73.04750343531352 64.76422392460972
42.10164802033426 67.84531866424533 74.707976307872
39.697743345118134 67.42925295116142 74.62228637619637
38.26497005408735 64.99762739772781 73.53363067483261
39.06574435847871 63.00892260779442 73.12135004384385
22.405953333163236 6.76265350231328 51.68599576885423
23.079768231471903 7.781568315377395 53.79700303180159
24.854768883233785 9.59320931146542 54.64642949999332
27.12703369794624 10.16201269332243 53.47720965625295
31.174313423183154 86.63118341878383 83.48250538712902
32.09462897420084 86.59368538336722 81.16420193131334
33.23958716469059 88.29636091300485 79.80365871059644
34.63358260959509 90.15055281122093 79.93996835338322
54.778181580064235 63.63253990680511 61.35373593078167
54.104283961462286 65.88931287949336 62.44485399394098
53.340614083309205 65.62109314854673 64.30773219608943
47.638661174079274 71.84108610343068 62.118535393038854
48.922898863216595 70.66840460795538 63.18930753356665
48.579583920448236 69.85119887775545 65.52256848247092
46.59506408560961 69.1968520422857 66.67285923313705
42.99335121174416 93.1450615475756 67.90347247860562
43.37434184057205 91.54725499295499 69.85383819836633
6.385708618297847 18.31714949833571 70.48591016740917
8.42099173338789 17.664138028473367 70.63483672715121
10.228400202600307 16.388015386465607 69.45506995405914
9.911201709990484 14.484211651617803 67.4584367649003
62.209296810693665 72.5021664298565 52.744499264096085
62.80461297502198 73.3961408398454 50.97822419034603
64.03670528361583 72.03078025615399 48.974968819776954
63.68826160923258 69.50877790235411 48.85885101448946
2.8840057226547713 23.58023892650149 48.231862829469264
2.512348973511761 21.997259775351097 49.3165983250556
4.457765294714475 20.22925395910379 48.6150587859628
5.063148063460676 19.103744798511652 46.3835831606903
35.00505383860026 60.71306801854826 80.53256047985415
32.422009168727726 60.28809785058686 79.8016885027766
30.374871921305466 60.85787369268727 81.19538613970549
30.19946973978289 60.8460441078129 83.74136194195019
13.991665357238315 77.96474006755496 67.07207706330021
15.848949042936765 76.05677502984318 67.10564706098673
15.6595932824648 73.76487886848732 66.48037129783539
27.803140491334496 89.54454437904586 56.704733645714285
27.4571017467305 87.32945466913299 55.92356289574184
25.40450893329826 85.49025209711264 56.290291011823285
23.849976418162836 85.15379287741446 58.26863240618283
46.73873718539665 73.88926849496947 71.24685535067208
45.74809805642529 72.58972693281498 68.92346407899385
46.79035023180448 72.095170683076 66.89347135139413
49.32547541662841 72.27705833559003 66.48525118234129
29.637425136057843 79.72289078402854 58.928313022861474
27.23097156734319 78.74287122936164 58.94344724396459
26.327066368862447 76.62556657562816 59.428687162085346
27.036806680286983 74.83280860773264 60.991864393272785
39.36890679723165 77.98002959979944 71.10309727411885
40.884556122428954 76.37414097126717 69.39232421529614
43.50942470362843 77.09409827898247 68.6526363975275
44.42618396896228 79.24180247140644 68.35961305483126
15.933239046142942 15.641343312485626 67.30187365255026
16.4482844507791 16.98706928294033 65.67183910855883
18.618652295691575 17.430812356803155 64.13165230482913
20.456073229648855 15.943716430186958 63.42813505597739
63.27836737275764 85.4793444902503 47.25271478886406
65.33207536358255 84.44462896348995 47.306359825636655
65.88725626600888 81.50401121431338 47.571019853858886
64.26672981365613 79.79006492525274 47.09067837025942
21.87027326551913 82.13454913432044 41.574276169110504
22.833501986569296 83.05607794094136 39.112995477668306
24.56562413194871 84.33252578116365 38.457704067344665
26.64730346833823 85.22760905415709 40.03172321053187
24.29805555585746 25.443352740591944 86.51394536028343
22.044601389552113 25.063174937005183 86.99240704876762
20.761662563667546 23.304532652019773 88.21999112813101
21.351385252653248 21.10178537474943 88.91493562945398
44.78257808407238 80.7326434069323 66.00928086759853
46.40551729326145 82.73753791595456 65.70898880368136
46.47598035430924 84.03064806705144 63.38329742859738
46.337661355131196 83.1140826993746 61.6889393486102
47.9059708693853 76.28856687141602 44.65023340675184
47.78895183383776 75.49030594950702 42.10563643754562
47.975743973079474 72.86828823141087 41.34464130441092
34.51192368617824 88.08536484909413 54.35171170952603
33.839117048295066 88.15712775400965 51.718539664854255
33.95720160856022 90.71520728331673 50.36799247618673
34.77850917063871 92.59037037214308 51.05947808160992
50.01817701526422 71.86585613941608 60.37692858973708
51.84852478452802 70.13244430038864 60.305532029471024
52.969874939377476 69.01870023650451 57.90133325943213
51.37044844999925 67.80205872477843 56.20901417402365
12.265464240723691 82.50280421206543 46.045886324330965
13.036199897543266 80.6793911452857 44.866564899277215
12.891992545152352 77.87579575310365 45.58887270093277
12.092269766441026 76.98878611069384 47.08370949692916
44.45265907206701 85.3351674657662 18.1328050995065
43.28513275753565 78.85985278103313 44.652561231763556
45.15290028801528 77.84459464607374 43.92733816635689
47.707302086365935 79.18685917451691 43.824580311854554
47.990180908267085 81.39206312229248 43.74783674718105
3.614880445547287 35.679842281873825 71.9030195634929
4.917440803588742 34.0517514842574 73.34677336874074
7.237904944390376 32.7334497064081 72.38116356927921
8.006132550967381 33.76200406200959 70.47039547608645
16.972453865767143 14.570690917642876 60.25093032755707
16.470556130273742 14.7982838103508 62.563868018741935
14.921242889714913 13.454557025322137 64.33703628916261
13.796206899863884 11.378799176975413 64.29674859523814
67.43788851456387 78.05732767721965 44.87058556707053
67.25075176961907 76.344341937774 46.66206448222726
65.53446951478202 74.89192739647434 47.60307814721862
63.25453201098494 75.22235487629314 48.21061603743629
18.77842096965704 93.54378224825943 68.35969307892825
19.432754726815173 91.29635770544314 68.1903234809489
21.2170509267014 90.44155854869011 67.94517458601541
19.86898466446616 13.318735174037402 61.95597909371957
18.6275713617941 11.36327997864874 60.69868550687296
19.22146664204877 9.078737308162294 60.426263143302606
45.4040705827403 91.84482300556 40.86464822161216
19.644862781610453 83.93956853332033 65.6355955761114
19.538834945680527 81.87490600981702 64.34093765087478
21.725635399395085 81.54461660443229 62.8574113269541
24.081842519713927 81.0374518453213 63.486525735134045
24.317602660505468 84.36902376402172 60.97911003979086
26.107000192416212 83.88516945617683 59.72670352656661
27.936096481000167 81.6162432171277 60.02304977619432
26.967718374098457 80.07981016652056 61.40326281547266
36.30788417036817 90.26414101277557 73.50408439347275
35.46134368262084 91.40118705915809 75.69449837116909
32.76939497230628 91.69648840314953 76.32611770451842
30.921421557956975 90.14611751384975 75.67869112127454
31.983383116178974 78.12923385471906 54.455412970637745
30.312453658062655 78.0523664378507 55.74983211475644
28.21280006219145 80.04252269933664 55.68200530305882
28.886548287199513 82.67208733468026 55.474308031154685
16.3856590450772 60.204960106336 73.53687027783353
17.67024949847122 62.27917501462881 74.98483804751606
38.45360145164931 91.79760936785583 74.18653574868978
38.427318185145324 92.45623993081206 71.48329375102705
39.779350088370684 91.6228051862562 69.67457463154346
41.43117940405012 89.5330873590035 69.49341040659539
55.002160422666044 69.66191695816178 55.35117705387407
56.86744418546333 67.9173718500547 55.84186324519545
58.832940131665616 67.16893657541604 54.833039598394734
60.0350265015324 67.47762219363617 52.608110231885114
50.780164224976765 79.40977592358642 58.3726113965728
50.434413482039865 81.76939099056113 59.69590171212154
52.827623395197456 83.55277824997175 60.0407959613366
54.17993025255647 84.09312855331683 58.700135934669305
48.735109097985216 77.0297527070254 37.199521709211766
49.77951323153692 75.16942842178247 38.22151143894564
8.535378615638017 88.26621788381091 42.92219968782041
8.585130140174648 85.50250859268121 43.390995458851485
10.428352199245532 83.96275983017435 42.35394796829737
11.381473411548763 83.86912858265984 40.18308241399092
33.09575528764653 56.34177653783063 84.33654545150921
31.469316566065793 58.15619938003386 84.62482295074416
30.21730386319704 58.988061334834526 86.45859264250065
29.551423400914064 57.84037851429034 88.70408956875198
9.349945695872998 81.38549373642645 41.97079890157306
11.5462294823558 80.23937341351024 42.7601936336485
14.08126473989503 80.65223560641229 41.340605511259845
14.629690426438723 80.80454788236032 39.3430724178252
65.85029700285588 71.21000655533473 46.88090577482301
15.804830033086771 77.21091816856539 45.36801652537473
14.635219340988213 77.94779420976593 43.05066767288217
15.89124682916607 78.58681805432597 40.72531238165157
18.231950628397552 78.64410519836137 40.31295548510302
35.5392915564364 63.30800885535346 75.39653211783819
35.79453253758833 61.218154841993496 74.7719804045329
34.69334799908606 59.405496519232614 75.63553800850609
32.095484539065005 58.65917402175983 75.63815130074236
36.94133583684569 58.647722362345725 73.84282755805172
38.16472421710317 57.39293455122576 75.88695982815277
50.029292548444936 10.589593493038471 34.79913151031884
51.81208753659168 8.691550145027271 34.059698066186755
52.12872299486452 6.101108956224636 35.21826932376183
50.06506608297597 5.584698492260139 36.70536943604004
20.493932153924824 18.915199384089913 33.64437401766465
25.459664624941627 3.6808350658014177 38.0364906536015
24.796174088047515 1.951315259572505 36.278624727748294
50.45444886681377 63.99301773697212 64.85569894743001
51.327106476876374 63.43295513503213 62.98400253691344
52.019059099160124 65.47551587715637 61.145312816097054
50.58892426849421 67.828375495364 61.44837249824846
34.49177361860875 3.197077985780347 51.86372753819801
35.63016927028723 3.8578092407242695 49.993608645187976
35.13259705024345 2.6999439521910644 47.503179560069434
58.946055489818754 84.46118529261852 27.121352344647214
30.093136297034977 22.914774160080995 51.30738016447676
31.12260943418718 23.41215513150502 48.92250689765318
33.059532630185196 25.24152937138422 48.23410503441061
34.34551700956424 26.485178792304026 49.721631097716
25.281690204924637 60.445161394968444 88.81009445668386
25.59247751711552 58.46609735417017 87.21382787315044
26.443192909540347 58.36542449577361 85.03092780579799
27.59085858559387 60.02194614082956 83.29976539739215
48.312759799396 80.80953734709483 66.71101604925848
47.69186957500532 78.30228213120218 66.10526981455091
47.28381487656288 76.25864586998374 67.81987181197096
46.455409437118945 76.6212925655753 70.21254170698737
8.624450081828227 33.070494242641246 49.523716115296665
7.639244310827822 33.56744052620803 47.58724981833313
8.134290093118027 33.45789097463209 45.16298924601541
10.181413599492203 33.56122662066629 44.49849480123592
41.189035859126356 60.10678672373747 73.93699781582725
40.41241785461845 57.89083271880853 74.27516103518008
25.830881535951463 8.135589736972243 34.416874059177886
25.011483005273586 6.3138681471209335 35.12791475340949
26.353650108475126 4.197252450010108 35.257331339164374
28.52194464429388 3.9100845696430944 35.626100759833456
18.647239346315047 16.531579955083195 33.69822998572719
17.35076269221606 15.175834249235631 35.01618756348316
15.29536470264782 14.768630048209086 35.20190051583232
7.1567123259509975 78.15784664057585 46.168791038269866
9.442446436949222 78.98225018255155 45.41523094290278
9.710825730012786 81.6207369254333 45.35954339346068
8.142646066717422 83.38249227841101 45.38523184917805
32.40688036080816 79.83317557900824 41.73890180416395
29.825114373073088 79.53604229769529 41.82267455673004
27.858500181520665 80.84117818856826 41.12699606097001
27.846729506889762 83.1619691925461 40.635225075314025
7.066453734401627 16.100382363871443 52.02979746945179
5.71719407945641 16.792572025869344 50.08071720732386
3.4888135379605423 18.396747980192576 50.16297745062631
2.1609820852871486 18.662267037586673 51.90928203903421
10.90595730695977 15.817287130174646 41.617868377015725
13.166840517731229 14.590860357867783 40.58245807696878
14.995337461062805 15.366678515977542 39.2519828775182
14.828917207429024 17.081814212573203 37.431319705076774
24.029463631015464 5.622629804184976 32.960574456626794
25.213922860368903 3.545194761217078 32.62293851801715
28.777366742633948 5.024685770923015 30.033712120090545
8.728150142783372 14.4166412611429 43.37227592513299
9.15580912899755 15.498157072661172 45.51984799325911
8.814724554110727 17.952275556115428 46.20557701904197
7.453610448354445 19.72301632708496 45.392268675662294
7.458645202613386 89.49192073506113 23.876951171316097
7.393720432946404 88.18955738575512 25.874262464334443
7.36629450444214 85.72404148056398 25.416102343727914
4.635458181758936 31.452305816437754 74.52100718873761
5.799541662698219 29.565369028980683 73.82247180177151
4.880471484256487 27.28499510827487 72.25462271363885
2.2328017959008966 26.445698249499078 72.86002047636975
16.832406760244872 18.263162075083716 43.08086308529715
16.238604335248837 16.010048820154015 42.69088092430117
17.77184821785375 13.980487960420271 41.696313938482604
19.960724982748967 14.357310685419693 40.148439234652834
59.85745998767738 10.988435892762428 47.22342887713481
14.318228402911561 12.933509396698893 38.29436898257635
16.698048341674134 13.50625439757459 37.439582360529776
18.63237861018994 11.97207235689081 37.13347883221184
18.958463662292246 9.424694176487929 37.34101486495882
25.114959091537614 86.96987545347623 31.734863135637156
25.72897542585327 84.70787591768355 32.24305536903672
25.03611246076577 83.64312398007289 34.742381339079095
22.91494402885009 83.99056311559218 36.1760112528058
50.14125645976372 67.72715645734885 65.43779166635068
51.95188406845738 67.69929262224665 64.31703576914619
52.92654821366662 69.809542829998 63.941024026891235
52.63504913726818 72.23952102986551 65.70389606637278
27.477361250546213 79.71648014741734 86.76852670076224
49.7838655034264 27.545042723450084 62.54738740405772
45.12837933884217 9.245825924617913 33.875596817445775
47.11110589616945 8.84744752062978 34.88211588086346
48.08939802037456 6.734603111668314 35.58109159383398
47.30832011389537 4.693454515132212 36.739409254687374
6.017340439270624 31.71614085657912 47.26228933079523
4.548605277345798 31.320309836115822 49.19521293597005
2.1624042532952683 30.726017214788 49.34812171998625
49.21376999640927 3.2850759181924647 35.472363466038885
50.34089056675504 2.6901367642802523 33.757793190643774
41.03923378039413 56.00488207319176 76.71406260507567
26.55859164145231 32.38395768052614 53.01628207197236
53.504954511962666 14.4674948509315 54.31032440685116
54.78742784105431 12.7643650398118 53.557629710854116
54.6688086404572 10.443419461750855 52.86211530481619
52.65767751832653 8.831459137470071 52.59647405927899
22.261635941445604 80.01149850598297 59.457976895002226
24.709359497385783 80.26462876286529 59.511570394178705
26.068919944780497 82.12158125127613 57.79189165507118
25.614880187888488 82.80716824383329 55.69899862162082
5.45482176313928 85.14476446229543 28.116960380298764
4.11173981044182 84.1440839963979 26.378970126349998
3.8355232501595573 27.924560518275758 52.7178367400278
4.9436705439814475 28.531182452211915 50.647082113515445
7.156123217352488 30.203177119591754 50.184951670010626
7.815845412477884 31.737560500935874 51.816199042061825
35.55974171434455 92.80867856590017 77.96171517830712
46.94580963099332 78.21815073134013 38.94887252620161
45.87812218246452 76.18220923036405 40.4689892136424
44.06671290852162 76.4391209989374 41.88834681839965
42.2470141216017 78.11258382430546 42.25627543130871
39.06889161591079 20.285891593909767 62.687303692348685
39.12953960405954 18.310017197210545 64.46800211965615
38.65397917229623 18.34847456833965 66.85699948256963
36.72777749387116 19.58154544756058 68.31302042152858
7.953707391706721 36.03933415430508 48.906241284062325
10.393793604058414 18.081255792485916 66.74814424464229
11.91334678597846 16.508238059608317 66.99854030670161
13.89451341556199 15.809196986029397 65.45161976191709
14.125337722645025 15.908289847374185 62.78228160863953
22.691332837525685 23.3660381481314 34.19664800769315
20.279996594490168 19.73219295544405 86.98105248967276
18.782985411692792 19.066265011988317 88.4711731986753
18.3086499820353 16.624684934258653 89.6277240679497
0.7312968735896196 20.415618110988586 50.78730634652272
26.515049649198367 75.13656695753 56.672559245765854
28.973677559057432 73.87374240359773 57.041977045916624
