0.7149478824987691 53.94572687028501 71.22348634320961
0.25743134139134954 51.99393684552513 69.65285975896995
1.3921489773663809 50.87327107621349 67.91701144330841
3.6184386702601192 51.230169101390096 66.81204318768827
9.241083597024671 73.68399474966604 70.65197777403766
7.351865298025471 72.52276793471715 70.0925390912916
6.788412196304147 70.1897872908527 69.58220885922049
8.316920816887867 67.70200903664922 70.04203718145415
22.283328372993903 53.94582830004841 80.64576088405175
3.141622297723661 47.101069067925806 66.3529756889823
0.5430939136031011 46.8152137093785 66.55496189225775
72.09636063824848 36.70677109366449 40.8383085133067
18.03772012102129 82.85483910359503 90.79525879753768
18.84412575196819 80.74568574924514 90.3161274131814
20.530373038724825 79.14202226076982 91.55679592095815
13.352586281695709 25.126290476166265 6.713026246933863
15.63573255308357 26.210096830515834 7.763890717694296
17.20165654838257 25.15470489490791 9.039983733895937
18.12161447765433 22.758518800168925 9.18615868750662
1.4185880389907588 67.37839884523002 70.13433377610856
3.494321850819831 68.0040958906112 69.07886114390092
5.8958860283188805 67.1761664597537 69.42487318897048
6.773535834427776 64.99352186606289 70.4319893726878
4.126863387572543 31.80593569096065 7.651843131314291
1.085359811845404 44.031314668309 65.86661889353093
12.029098065287245 57.09878242957918 69.41536013287669
13.478354549543184 55.972643643835085 68.09800258893306
38.8109916847907 36.76240862318586 25.228970541049772
39.14593375232752 34.59284724298406 25.407002681533815
23.811375215866224 22.84041559146719 5.39978718833055
21.448025354569786 23.613654512730694 6.883346052078275
19.00998761278184 22.817994003153757 6.234589834747594
11.02563856802572 29.040521271776516 9.801241552464962
13.7020486340742 29.27935205305752 10.398961958827083
15.287951024016904 27.53407532307409 10.145321855523768
24.843035215903953 67.58966939518201 88.05973950570723
23.263448644359002 69.89274521137129 88.62039963952066
22.11608240118839 70.69777147110882 87.00575992623511
19.72321904165148 69.4919075197714 85.50855319509942
18.771346623867398 77.32016116161546 90.76863467747006
34.016319750086865 67.57425616023845 84.84199530609197
33.085388665342194 69.43048692830459 86.16294515939346
32.258657798505645 71.53923943967325 84.88092162736174
32.352910420943495 71.83252821732512 82.39120151238828
43.041221638127226 36.43284295640181 25.940301559290905
41.733417961766484 34.25934303238198 25.715322683159197
42.80989043899344 32.18420052004509 25.097693178281308
45.3983844163006 31.449712220928298 25.047825509267042
19.697748868070708 82.06856096170097 87.34251666464625
19.112082527036858 79.77654252969424 87.58268716005529
20.45225641454104 77.70251488857862 88.50976049023043
22.579954164760586 77.64304197478408 89.60261372605844
14.995375109725726 80.74611426952589 90.36200900825008
34.37424889321072 73.2511257788412 86.36602486636504
35.50299618958908 74.09465532911062 83.94076268791804
37.08097828254971 75.78882059062812 83.36474226408403
66.9663347248392 39.542897987231086 37.91116713545719
65.125693088524 34.16131228805139 36.24916448054285
12.086901322653576 82.63042990570061 86.72234526220966
15.874224660024481 68.24061822659371 84.53727120488044
16.771124106132234 70.63996874390759 84.20016950033988
16.341266352443352 73.06936810176705 85.4663733722266
14.377870287525454 73.7335882248074 86.75394570836353
16.288302178314638 75.83486689611334 85.95695175736692
16.28987089668823 77.63560910580166 87.08241642089637
13.946110663015942 78.69559315310224 88.0837846666217
11.770366218667258 77.95420579397599 87.81168791014278
68.47201626568383 37.77911254911278 36.41069425857994
67.27874976513844 35.95830590093558 36.05056619838606
14.792245664658731 81.32978742902323 87.83193154180495
16.85650620031838 80.86243381523167 86.44016413826638
69.65081149136282 38.654963614157026 41.28797723098755
69.55240358270645 36.84665780663934 39.54546041805205
67.87433478878917 35.36300012219694 38.68998267627665
38.10719889823506 31.702124558767903 22.75476000514247
39.93887554955137 32.56219425097062 23.716633014736214
41.58843957475632 34.42199886903269 22.88665253242548
6.83573449907743 75.45805075729172 71.2297904461951
33.00810650996516 78.1462685203542 84.47897382730267
35.52576486106222 70.88330533199203 86.08535976541441
37.10466054859666 70.5189784369353 84.65092202659147
38.735169241454315 68.26993700154384 84.24741162849884
25.994282737275466 25.281988920253763 5.115010051580855
23.933165460019325 25.57561696623642 5.358878873970657
22.27587030218251 27.950789265354537 4.42619837569497
2.893675278393684 73.12098404110012 66.6748326536092
5.132562781585572 72.23344492896325 66.79162816249128
7.282030833548319 73.32470527310672 67.2857944640089
18.477330595877397 31.734046438635072 11.293247686055121
17.70240312925595 31.408215300379762 8.832120883530013
36.74263101370675 67.48113871938104 81.97623722436099
35.36019084246656 69.28846181937324 83.17684371902007
35.33138372379308 72.09460583698142 82.35886514855424
36.80153522256754 73.24338419689727 80.43644332919507
40.639197586124276 72.78525678144275 83.19082614018521
38.90518117551192 74.16862240835923 82.77218346341374
17.5932257229181 68.09348238172402 63.4259556247667
18.221947645329692 65.68063684964244 63.48160768977564
17.114285255385422 63.85793966418095 65.11800758398608
15.793152907638078 63.785487750180685 66.88323631619674
4.768499653369846 70.31053409263731 63.84162389669001
6.616301593584131 70.61017551395888 65.22403491669643
19.22030626427553 64.38010793950279 84.1820560267413
23.337420926850953 72.45353752766238 84.16872811185992
22.60363461445523 70.08871231433557 84.12715508381393
24.15072737055858 68.32036411765368 85.03603923150993
26.06823783079584 68.60234090597622 85.8672451049992
8.491348847768307 12.633533253615125 1.9299201118218865
26.15350457003228 58.98691204768221 80.90591796616107
24.107853677665716 57.53677954146039 80.36627446536977
22.373505390496184 56.902087672433936 82.16681144558373
31.997235872705033 74.49639881286485 82.7212677220192
33.54733991042274 75.95764030655214 83.28519896928697
10.787734072064193 59.35500118228379 69.68744152681056
11.549881113904002 59.41239777570496 67.33750836473246
10.657448218182061 60.47236796075298 65.10050246030859
9.172646299351724 62.88857510731388 65.34662302607416
20.003269318387726 70.61361955283964 80.16633360494846
20.795184289993188 69.32876000414134 82.35679941726778
19.497322444357902 67.35219072113495 83.5773511227713
17.411610037992695 66.52482581234298 83.25902990098943
20.380692306854865 71.7728189640788 83.25465793375449
19.133932106547185 72.14003612090121 85.36538214125358
19.277255294696133 74.12077986098 86.90283130650286
19.011532568262453 76.61662555039057 86.44114240211277
17.864263492879783 85.54155081680717 90.10685205662249
5.293412379921538 73.12319996929595 71.85932321254626
4.884930622908904 72.20505461312045 69.70749940883434
3.034347106044244 70.90961714384244 68.69288921430395
0.7313976099963744 70.13159482390446 69.61081208345072
14.35875268028769 50.60998257400298 9.018371708737025
46.00138139075416 31.45189009636182 59.413366564666674
45.659379190927034 29.287188360069027 59.63693653761142
32.73014229116588 63.454169710365875 30.48760143490003
32.59541659659555 61.340465592657715 28.4991184950522
34.35891340440825 61.085203053692204 26.844928460398528
36.805064498840316 61.44314473988682 26.84498132849016
41.150342358769095 75.63055155660139 27.23447788463927
43.4187484791615 75.64626040890734 26.502608669842925
45.47996334144269 73.87170356602624 26.709809147074647
45.693485992123456 71.89396308975087 28.10961642147063
7.091449059875197 79.79615403991373 20.479726832269524
7.518796720284885 77.80388296465186 19.461931882351102
9.503030888767181 76.16868157507324 19.469801098036992
11.110219147396776 75.69220627291705 21.24448146340206
31.60015400233504 80.53936861871253 29.790431603397035
30.097656484870747 78.9420326625298 30.870366171454766
27.77608189687647 79.37102046435567 32.140183396469176
26.133947175093695 81.21331972120682 32.080435511500916
36.360144289461736 48.23042250849564 4.486511303325733
38.59531990731143 49.42809443648993 4.603960824667861
41.11128224864537 48.09210066702935 3.831416681246119
41.38354727839574 46.42962313351392 2.609949731288578
35.180021585928465 72.13238277123979 11.91229596030509
37.505845390177875 73.25517321714884 11.901972968579631
37.72730137157581 75.91648511152881 13.095650657122137
35.823122294333714 77.12598788405144 13.173935382401654
21.0148283608361 60.9699406978131 10.155981475296235
19.806564228416605 58.53910686755179 10.085590560441876
20.621322190562594 56.37255299320806 9.695846188695384
22.546589231868115 55.23873368151935 8.637492683825297
25.099745163493846 50.07587587427865 13.027784387917778
24.300362006859963 48.800047630165544 10.918423536918313
25.0251409124114 46.285340866145326 10.030671784679134
26.27081766078473 44.90509629668011 10.806124374341278
63.00104843729827 83.46528235354133 6.361524391342985
64.85963604286874 83.20636466017514 7.841754655719079
67.49398835807065 82.67412880011423 6.8038546873612855
68.16949454997551 82.21363689950681 5.082789861000288
41.028668996578006 64.75902205589988 4.061888582884318
39.76602475017262 64.10190107185 6.305890516355678
38.49422770433483 65.60507863709879 7.85473177557003
37.929186184118 68.16670522817623 7.617094080096477
40.68977048897635 58.35529272041516 6.6544167503765665
41.98904226946704 60.10743120705905 5.087147822528601
43.26995608414732 62.16513070888502 5.978852782121361
42.27885253241687 63.58288097763517 8.200809905220805
8.653789271979608 87.66727059879449 53.51749792667781
6.3698009074353905 88.66409762117857 53.08857605141186
5.067964976433552 90.3219374231328 54.08272671766264
5.814275795286881 92.24615056291677 53.84039298815069
13.12336412503504 58.94378194221389 84.30228668301628
11.712673558869607 57.391737824145814 85.14942259110273
9.04555202618683 56.73367226281081 84.63379504514822
7.300720587022548 57.6664425441517 83.64148446323973
41.46315194595023 43.65986594414847 4.981002287626075
39.52072954929245 44.876521726979504 5.45559955825897
37.54314916889403 44.64761268279511 6.943007793151165
36.68542168008188 42.87536220893306 8.416129061465972
15.437751417909132 89.97632842107028 1.959749843020927
14.944899202703505 91.48982500731964 1.1588084441297353
12.477549994251735 92.78448480885939 0.667945427478544
10.270549197144259 91.80830049609197 1.4760757171889938
69.84689974879122 69.9124520058708 25.740819359668794
68.73888421280289 71.74318126802218 24.847034769305246
69.16343235649398 74.45158910676204 26.05709458665416
70.72508439910463 74.6735279430744 26.646921092124803
55.038032221819115 91.9476034243772 22.353011280436785
54.43018957564173 91.5313525587488 24.84564406846129
82.4165405294814 67.94716517861336 25.297835010330353
42.12856831904943 81.94287862234263 30.157269041252402
40.573656524130925 83.36437484911504 31.762087989843543
40.632516502558204 85.48072473321523 32.73204388675695
42.66157826929276 87.23233815896867 33.078118716419276
62.698828228307974 83.98952313672417 24.204514783614435
61.640020338398024 85.43586726403974 25.582920715237236
61.108011618562 88.25001097473165 25.02322816147169
62.277622347676235 89.43298273207205 23.471471317164944
10.218214537224148 77.3711590918647 72.37564890060821
11.691352384011187 78.38819309232855 71.1301372747876
13.82916331812437 80.14127655821217 72.0585080283464
15.19584448085059 79.4200208745597 74.32466525867004
20.54155466351652 72.20683371032011 11.524368785744327
22.980106094007176 72.43791181886117 11.605472582060909
24.57220926857085 74.32400302405883 12.388419364428369
23.520545460190384 76.98011520478326 12.281393798929852
58.27479377060472 92.98255651699648 6.5591339021590995
60.301087515700786 90.96134417763211 6.618642885666343
60.478163111480356 89.1176464874599 5.5448700340181425
57.977393360935025 61.209824513720456 6.3522744033148975
56.139376848726165 61.16000046884564 4.799918566050044
53.765092676552285 60.22902738106286 4.858989136244003
52.60210004634709 58.78322470793326 5.952207939646721
22.888135481506016 24.320296814520912 44.05887027724186
23.699968268908183 26.63176297192 45.25186751265546
26.211858129605805 26.713571563306864 46.14097052635995
34.7821720213292 84.20934737623901 34.20692929233267
36.55609247353735 85.83296786876721 32.49690032259056
37.535623924212366 87.79682628464595 33.05208987169691
36.890284053801665 89.84534245775957 34.48029566707009
36.64117952773335 76.63188695620047 27.458688999241996
36.374548358301915 79.01661937964718 27.255807873608276
33.31056598817805 79.67030836950622 27.641892587996523
31.73161407882057 77.5100588510415 28.037572231858213
49.64392240267639 41.415459598296216 78.23960766306182
16.23296418140557 48.93722447355261 9.561722051520592
16.671796621121654 48.61162874825908 11.54371914670898
15.58223199855384 47.04015313472582 13.419353804728143
27.78098702422973 33.46319527694186 48.14675992737483
29.522761283808293 32.906780076488396 47.01464258036006
32.095625714717926 33.43184096376984 47.3660744668548
32.572742122600374 35.06440120877421 48.34433271853112
37.586536419342195 78.97760116806246 14.017812268545041
39.84256003429864 79.56378770841405 12.908935999027548
41.80361088650856 77.99193785679903 12.938446726284212
42.605343970958394 76.04955244174948 14.472647226426382
58.86248025538284 91.6428239837666 9.127861293985303
57.98453550680845 88.97237570719672 9.288507235866428
55.91645856281383 88.91961136221256 10.005618214945832
35.30307479368829 27.57342502033173 44.080594997053886
34.364184355686 29.651315255334342 44.6190205079022
34.006868817538205 31.241829332846688 46.54227753259132
35.1507183893928 31.110855635669225 48.7427326854716
11.17508898207338 50.71901281328173 56.32359641843432
10.814494150295255 49.29358826696348 54.397852464443304
10.773910515699592 46.4749489187483 54.13192701011354
12.726508632370926 45.15696656991943 54.748601595468756
17.491410221071224 28.972480677211188 45.610305844853684
17.293882815698744 26.90006480030106 46.351555447617834
12.79311672200206 53.90508256258351 30.64251321627021
12.162172441388647 51.42772288753205 30.469879587365252
11.592199955397792 49.93927995436278 28.43370159429798
12.163406715610057 50.33500319970311 25.841015931367103
14.772404250799289 66.2561398095904 16.065098244870097
15.419085320621972 65.71853870307157 14.05286804747602
17.719312974698145 65.24908778838889 12.917733069943575
19.65779138270853 64.15461515681116 13.685211954582453
65.19676786947491 90.70841365673091 6.297656056405733
63.11599672271639 92.08594320686022 6.875265525713409
21.303338955378212 69.63744930130005 10.323088333280857
19.983251317279514 68.10450858857114 12.09943062471948
17.773765498577347 67.9638664468912 12.701237938882288
15.497778409520922 68.19512958433492 11.650210041177916
40.91091863649731 82.53772054705671 13.73695964889453
41.99721044454247 83.80525574639553 11.875396093970833
43.829971114872436 82.72522599022653 9.830267971387649
44.37364105841172 80.68862205978176 9.465532982387924
33.65113873358561 49.40139617190285 8.645204517481002
31.462248868977575 48.07654505138536 8.816231781294949
29.177622461391916 48.83037698680443 9.085290149497403
28.12412993738912 51.11370736281999 10.290156792771224
33.393920152353544 18.274391006644414 39.35684183988307
33.09235538763072 19.222465715682606 37.17824929204102
51.518002744935224 33.178375844205966 43.28618295535201
53.73782669746523 33.12055765010418 42.32188417482539
55.39485660974282 31.19002079650102 41.64327380368262
54.54084394961097 28.65294896556255 41.036907589733794
51.00887608766513 24.31325581303944 36.94205727192764
52.56805693559082 26.591349144972522 38.092312363281344
53.283751505144004 26.376933284007258 40.520689349659996
52.58274313677252 25.269650043320805 42.18576617893295
36.985897501126246 89.7209680725974 14.616406210757782
36.88820403724134 92.43839869789414 14.187498115918057
22.66882972185995 61.843349297365904 56.30587263572675
10.688928348386822 43.72994074975688 16.178898911590302
10.184260484882774 45.91161720747278 15.819944062585444
11.650127084273029 48.11141732679602 15.556153441246646
14.051704152583367 48.119744213833805 15.630399029582039
21.12954203845171 57.68784102779312 13.170227837496695
21.10930241514121 60.137313016850236 12.95632167587177
19.00043540114871 61.65590953595198 12.851708679010754
16.939107646729497 61.73851260001939 14.464861733805922
40.15442389550159 91.36228942748328 11.622267332839163
42.27083810789239 90.81015284646944 10.087005596763946
18.38799614985124 60.577836764586074 7.781366415883949
17.53628210286604 60.97510360956394 10.451470638512117
16.37415469480862 63.05851821212806 11.522758272831803
15.890126223221106 65.51378625458852 10.367581609176753
25.25948432513756 29.528214293732724 25.268180021375354
26.380763119312665 27.42148773139062 24.37190543227347
29.273858272580522 27.323717486828897 23.618183658063206
30.827719729726674 28.722898172784003 23.977016249857687
19.255769386053174 90.59250293210069 71.53005719578915
21.206561592671743 89.51230358088895 69.82210579931278
20.65002692393326 87.75242225638912 67.91978971710542
18.879289170844903 85.9884046088752 68.02150793284547
10.574994848490375 63.60655801618808 55.5009442708238
46.20762059653858 58.48001276346947 8.2222744208769
45.47135633186187 60.30221180003189 6.295653874340246
46.429506693675954 62.33237479468385 5.626653561364556
48.94432618004892 63.32515838709975 6.290942043466661
1.432132171163081 61.99759297166517 34.96826084523701
3.398484602250544 62.62499868584528 33.2576994492519
3.2559402804108455 64.05016670048768 31.43445811392792
17.442989325836358 84.32394182820332 15.740228089919754
15.495480551059309 82.62353958406821 15.824949533106276
15.38113830270067 80.33239275254181 17.090563206882724
17.04492988126313 78.89521413107803 17.97667316877818
53.89701446854994 90.75530943357148 10.52347574569118
53.15539546261405 89.05322372571176 10.337797315423407
50.699096770112 88.03154320736802 10.475860532197492
48.982387033016025 88.79781530975897 11.968831713313243
57.59565244645778 71.91760332461344 27.316211835591123
58.02021069109466 74.0601937609732 26.30009771640447
60.02607313533357 74.89926798372709 24.91938804980076
62.559753644866596 74.50653567147491 25.49672388655381
61.93817354823048 82.88701142085739 49.56697568519307
61.19725686320974 85.13950901405677 48.53183487845433
62.16032201235367 86.9671058943683 48.11104341598251
35.07295213943414 92.18355579234876 11.893948337900428
37.09505571149656 91.90046930451663 10.963271762955491
38.320932951482156 89.968968150666 9.699592879399924
37.65730197840882 87.7735039407087 8.811652252010633
46.25879934414703 58.10582923172293 26.717712048901234
48.14870597642386 57.46163211419022 25.65118676090344
49.444509938111636 55.14030004194604 25.071772075057115
48.82804145135021 52.93653475247916 25.263453794148464
34.28269102529745 62.622907546756444 68.24487941365577
35.6928894956273 60.61834771824549 67.19759425514275
37.892910203296196 60.5244025469782 65.90020120050568
42.94928570988681 83.68511456733955 6.815545831494681
41.61348552024029 83.89870292275766 8.753204678462517
41.105433269502875 86.23383133512296 10.051780760578874
40.54380475433742 88.41855410847721 9.139020654187485
41.66107690736578 53.4283720260087 66.08205997942281
39.61113591780201 52.50249049355989 65.87753172185847
38.74207820171362 50.050258239092656 66.89160241403562
39.74263176385826 48.019839866525466 66.48082611976668
25.365869603813454 37.09504686813607 51.520777655902855
25.08696575714042 37.98164154916737 49.156408890793095
23.531230520938653 39.76601390038188 48.12845954253057
21.852187688911823 41.252464381190435 49.2372394115669
26.426581719819062 49.978031602429546 5.371267362182689
26.331773524437327 48.56938965675128 7.204585030886532
27.141950306502874 45.77793440006908 7.456666047086998
24.445749523638874 72.91729028265334 9.411257385040274
26.425903384270452 71.6022630959495 9.838425938629765
26.32473958639199 68.68630054071781 10.252467720365882
23.456960557406934 68.0510458468607 10.187663028654683
6.524670064523917 43.94066773336746 50.83011242439495
5.372398201357148 43.43184529656071 53.047346725729426
4.933881775615694 40.68341249258408 53.86123805750286
4.941349763107285 38.936340145644344 52.69401763261617
25.823525172847457 72.30086867259787 13.243755245962534
27.418031359835688 71.3024015286122 12.278790687501502
29.997411474103675 71.63928620073875 11.91631226114065
31.50397991012177 72.96209648743339 12.711907809623439
21.076886959206252 92.02513536662946 41.69073052639209
23.105917988759973 90.33301085553212 41.605966811093104
23.754818812461654 88.57907293134292 43.07458013023352
23.683495130962147 89.83840028362647 19.046925415119357
20.939366075193607 89.94121184532577 19.210422136775836
19.792405051576864 91.44966673389432 20.994572628155105
20.889158182641193 92.7885039233573 21.921351020880415
51.731318273511334 80.96674905832398 8.69660009418794
50.75348983826232 82.78844094834113 8.72744242870133
50.91453377488603 85.11334397370587 10.035349655732013
52.655262964763146 85.8538362437093 10.403864888307123
5.110156688264943 76.31004680668566 20.597747240954718
6.179423976608196 74.83130323923614 19.66211410004759
4.627953936976774 73.24982401011759 18.438724012562417
2.316862238084636 72.15963815493522 19.212939426883455
13.087937880237936 59.81680848911035 35.19870691626426
13.576543766653927 60.64485106832741 33.35437795097385
14.89395459342554 62.545300387208826 32.48540535673953
16.723243340620794 63.83772343842092 33.53339303366252
38.344144602343434 79.16494177780118 33.71344231066372
37.33457165784104 80.97698089800096 32.79174438355771
37.86090949721431 83.38778794846179 33.09050917675316
38.90986347544759 84.73347612463928 34.827272644259985
48.883947830527305 60.139349208604884 43.46420812475859
47.11905365202257 60.86380378462975 44.93611423798267
46.75302320455114 63.228423932081505 45.98166562418448
46.79230149375322 65.59486240110611 44.941627190191035
16.48817979597948 90.38164016378173 15.371975969579719
17.348956274263134 91.52237758539172 17.231607877628477
19.918095794940218 91.63185455114497 17.498768365423302
21.59959446225306 91.10138588551906 15.744826655771185
39.87789292241915 61.23272499109309 1.3792957312790644
41.54987268468694 60.596282300012646 2.4995832809230163
43.88489641110088 61.587432584458895 3.0041296127063664
44.97903973978324 63.721586272030976 2.679183220780327
25.02499251710969 9.21950862806834 21.89376216957242
23.87487024909727 10.981812632543477 21.21236064312504
22.73924799171957 13.188822792750651 22.682275403310932
23.54589837911762 13.992122578224976 25.022657705194053
7.120967495767321 86.24781005612077 49.897650653644085
61.662500504287635 31.14944349939204 38.88860530795383
59.766327946866056 30.372855561912186 38.74969306098374
57.14008688106777 31.673827349524167 39.06874576221032
56.82396957243544 34.0641875683973 40.08773870579796
9.767230496842439 32.79004852772064 48.62078516206859
7.873944224266515 33.518520629309386 48.289810145468024
6.2238628173617006 33.73666151137117 50.20395796586646
6.938702152298848 33.79794844634377 52.738956176235405
35.057124685086805 35.56204252553682 46.982398096222504
32.98524167909919 35.62595641739293 45.721520889468245
32.3773490910732 33.99686639986635 43.48486579918824
33.55857373925262 31.943081326515493 42.90325503389459
58.5123753143496 67.80376183306609 24.572949330002224
57.505437994828426 70.32425112638361 25.222578966157432
55.21888045208041 70.89144419863561 25.024368635825834
52.98689466661815 69.60023755194142 24.90490975583197
19.930784415874403 33.07914144596545 28.53500091933313
18.665778380184623 34.10525943752757 27.341037601196305
16.180357331191903 34.313530816259416 27.09222940489555
14.230078633929928 33.00419449155602 27.480614035839075
24.43438735070643 51.88433874588176 82.84016093320217
22.66332579815167 53.54689723507854 83.29380518782833
20.283972468535975 53.51466726055659 84.26039111850028
72.08283131202646 50.37716453155933 35.71169801382438
71.19604023199798 48.2515293812556 36.98452606036749
70.76337860658829 45.879681367394035 35.922829231552235
70.37621629527153 45.1954325799772 33.45750094805249
15.786680667803667 49.28590411938174 74.19655973846398
16.175058762056736 51.55477411387053 73.29009295809304
55.74521061247863 50.315296032348286 20.201782179512016
57.595744761526646 51.05127296970331 21.347234147800435
58.03315272882669 53.47453148535153 22.637699877901937
56.72773500829365 55.14107307108039 23.12093307851814
34.559679445994426 56.80193001741536 44.9413807949509
37.102815645358504 56.75241386750038 44.98770803825741
38.76750220110253 58.44191552394921 44.083243921961966
38.518257981077795 60.323922439574275 42.46622061766183
32.35809716363088 55.70695811133546 69.32638660887635
30.76054829817743 58.06055273769114 70.2439626843296
31.15971408296156 60.15965348346044 69.22314995647328
31.895932998397146 61.00637538547485 67.12154008974224
36.63349980867251 50.453977624864464 65.24859899651715
34.819918886465466 49.30439563830642 66.49317659020336
32.650678644924085 47.78864739266623 65.62630896573526
32.17852801721812 46.93320291545277 63.507891066629305
18.616381240357892 44.74964732671502 46.5666762623428
20.931562385274077 45.38016123505502 46.135784406034105
23.010346645827827 43.32113023515838 46.21200784380102
22.79826571024318 41.0512049813484 45.65232094709606
45.91126280930688 56.359167767673526 41.35193287034807
45.381152945651934 57.35857307020247 43.62303592301073
42.96134174746501 57.64607911006997 44.57831100932891
40.7747099599487 56.45752661840339 44.416119101222655
27.008333365889587 22.221649086185415 21.43181717596081
27.38484082578391 23.749601342216845 23.510844101849973
29.354868089138606 24.78898105417618 24.575941524212546
31.725691088942146 23.723078515194747 24.524707347492104
1.3534078953918525 75.60909797847589 22.329942865423103
72.95562385397888 55.69196395763177 42.87728830637847
71.41863811300149 57.07391930840007 43.72084399540198
68.94314387735552 57.79223457771438 42.85466873194658
67.55290990173337 56.976479433834825 41.15137403270644
8.154077855269376 11.237730913632076 6.340624902050361
6.966520872159182 13.579167109640585 7.24481083198089
4.433426357648775 14.147037455424673 6.779848581808737
2.557265882645004 12.552700293430647 5.2249809417798865
28.484198195678623 48.86851471620492 27.357586977406722
29.367461878843752 46.62723734669691 27.380993407528447
28.579823552841606 44.411762199936206 28.369683401797243
42.78798212860578 49.87181955297832 21.669078237256137
44.888086266048866 48.88381360720735 22.78708814665773
46.2478563046379 51.013221550380926 23.67760166987247
45.38226201615072 53.55181107333331 23.50947007908193
31.163435175680174 26.930378628573095 20.552884336088756
32.63220528422723 25.479749684375044 22.2748461222375
34.257181656651696 23.6162936314346 21.907186080958482
35.32629426449098 22.95949277696792 19.91649505756355
30.908513985272087 77.046911475011 33.23398638382599
32.340600590070295 78.05204653603447 31.8213815953789
34.12133566342252 80.01076046247033 31.966244393838732
34.604778254529386 81.63049392654364 33.69946787296735
46.56591413605076 72.08942973661803 47.614751757254076
45.63310667699482 70.26590053029763 47.294794639870304
44.78825926592543 69.17394713811248 45.185073517758376
45.499247607387275 70.41048496878973 42.667243505103635
28.896956671883014 77.72403168937187 28.037106627475577
28.273460224028543 76.83083535794715 30.31980222277252
28.103645154078404 74.2524109587467 31.028093053059454
28.77661331556392 72.0790554687035 29.803671484383976
20.351316511695135 60.60486585432403 29.76686408605036
18.39568288956221 61.862971229715555 30.728640426873884
16.05505916715986 62.02246751823539 30.095860974892677
14.661651616206797 59.98617324201142 29.355006267424876
1.5268849570501029 68.0541161239006 19.549793002864952
0.15654571055451122 69.50711430439422 18.326021043503744
37.00323175686942 19.370104462074192 41.43037913355851
39.139904612926664 18.948661344016458 42.38923029649738
12.24999960406029 61.71782033454224 53.43995164901243
14.132277133748246 62.75335175709625 54.78593008920184
8.47365773875584 31.288240027422287 13.232004174724786
9.552438124719385 29.98279274076555 11.812234281635
14.088856939532823 58.392657069352275 31.941309109721583
12.446179765489633 56.50955530363256 31.998698528364425
11.846515651768152 54.700080259406526 33.5229236101729
13.50992663274303 53.64009423579985 35.39375654350326
12.778923655096547 47.54566495444288 28.22768062396102
8.700727920026896 57.23529580593352 87.4204218183575
10.667573504461114 58.22413771250767 87.45170029668398
46.91378235709618 40.607616360218195 46.0668404146912
46.15588525795708 42.60686772589185 44.99260071081284
46.75381506755339 45.220723380336835 45.28240322902717
48.38735609503475 46.35278418698212 46.5383777021436
63.2011718243838 59.288581777033066 46.872198791915714
61.83971302985698 57.704044258142915 45.8812295649231
59.40057894985821 58.29400527777384 44.1855153741232
58.37249459068562 59.92283704802242 43.63530213910791
28.428988535163203 59.751798633890715 49.58397066258885
26.419918833768413 59.652503193524275 51.55732023171576
24.456426703688265 60.839404742315125 51.64641464288205
23.513946093677855 62.97906569670597 50.63067201123939
13.136926403360834 84.42703365745538 40.66279076713455
13.896200297602213 82.83984639539254 38.90804852059966
12.225638294125027 82.41005567666485 36.43700828062788
10.117285637898481 83.16185543465839 36.82785686008988
68.62504029273936 78.8268229535191 6.36518773174326
70.89982498395041 78.86310958408126 7.365861064584077
71.67440402700691 78.15472200769923 9.386662082587245
70.85846351274648 76.89188066128001 11.274833930239199
58.50044994931151 87.37248076644856 28.900340860507168
59.008354329341515 88.90702929663823 26.854204691288803
57.48926779722982 89.62191388138007 25.47349764349918
58.612134142444475 89.04454153485251 23.8039599643348
48.312213403922144 38.11930159592696 43.63402554398728
50.48869301395936 36.68902239008553 43.2425326542214
52.023279220140175 35.681693600790084 45.03806947557016
52.17757243856761 36.87444405940074 46.85034995145409
12.104231479388378 50.73192319949453 33.8307770528905
14.37157637150714 52.03058506758658 33.67675025664565
1.6345067908518536 26.37956636637724 30.921301557123044
3.226837118817495 24.87657713019901 31.844548202763026
38.79340960263291 79.9484347657138 26.649421830790374
40.063842383752274 79.16144577414438 28.736456739877422
42.47905416011959 78.9555485710684 28.838543869938718
44.34188912328494 78.25904446978569 27.216525447805445
26.05142313656074 61.71274042205321 25.298584656504797
27.188933257386246 61.75581190364148 27.687873875864014
29.32961985628885 63.04580481322466 28.263490839198127
31.54377593963409 63.41650371155514 26.946085030653215
75.71463875883893 28.304085810381984 53.01347163701157
74.10442034782875 30.25369673877303 53.83531269726995
74.55523357078415 32.47261615566924 53.42894291142409
8.066033597126788 67.78507956104139 39.42759197843751
6.288090594750872 67.8996533857656 37.23104581390086
6.249270938753094 69.16320380710405 35.42897339931261
7.746139056337098 71.03548329469629 34.56067556182654
34.818305048566735 49.72586150740976 28.03753682355651
35.89877607749387 51.49828636894274 28.728441508209116
36.52069825773191 53.927430074596614 27.08952419594449
36.108867186194935 54.23228019331179 24.839443428967133
51.39205473389221 76.4891082309689 26.875249615142554
49.420057002554756 75.28271063521879 26.550239454638096
47.04804259607611 75.71583973273245 28.17732147846334
46.36210992903477 78.1235605006225 29.13431282879023
0.13781785157669815 65.88680826275095 40.30231968606681
0.4664262090730623 65.75042363239464 37.74841271766244
2.276919179829274 64.53964939104728 36.349285536987374
4.0537582547458575 63.22059827739984 36.80468435234447
48.46250737144244 65.52023154002269 27.94279441651511
47.8559387215598 64.50249049909138 26.218386001982353
48.453832181817106 62.01970975984177 25.60446386955193
48.87396973358834 59.96770567156662 27.048334975850317
50.49463329352434 63.95622216603721 24.671612420062317
50.10540337598243 66.1475794674148 25.721161229624865
51.68522686750418 67.81791248664713 27.288968747484734
53.97863324562462 66.80978139866988 27.1217967641407
14.341854776470223 83.0877380927727 49.131380009618134
41.64167452017304 80.82850049915245 33.74019917394189
41.09767147587579 78.92694310715996 31.975551968253463
42.68714728878241 77.17699648799798 31.060762605624433
44.87586139367392 77.031233916727 31.228633750927674
47.63113720662239 35.58644609391212 24.482616563190213
34.459212299039294 60.24537211123605 46.25712471964386
32.90107138417986 58.688263149828614 46.234502040282266
31.610698616232476 57.466321352955056 48.1861616410207
30.74869657869035 58.295595373859086 50.194683212948895
19.717323918951468 61.83082376621408 50.34964333084399
36.51276067848974 26.92264841668577 21.780892438791305
20.512451320424884 65.886738701202 52.42864771371609
22.12420666070384 67.12462919685454 50.77746344196207
49.685175223607104 36.43336161365602 26.7097538307508
51.110520518839714 37.47027984753855 25.0241061313221
52.74924160222844 39.43036612927148 25.353323478997844
52.026798732275175 41.56457538406146 26.59920060725667
18.743778308945913 61.6526381026105 33.392935138019055
20.237052643747447 63.7590133586712 33.13423473809839
22.436326419911016 63.898811863033025 32.076091525998386
24.586343034392197 62.53668658743706 32.61240322657956
26.96011279917697 63.31001507023004 53.32467466155221
24.66888072152793 64.46558302489927 53.01468184113353
24.06676120474113 66.52626834785364 52.76108264916845
25.56598875125554 68.93789828085244 52.38382468721534
3.914929888623994 73.09818248111456 40.4694898717807
3.297203265447821 71.7735437028012 38.76859432892344
4.5389549231572435 69.76496562142425 38.46710185873926
4.961728441085229 67.82209036891328 39.62927143694154
49.88887894612922 50.34791378997811 44.62945130142663
49.43719074550437 52.72520778096879 43.89267014121022
49.374821835079295 53.744183046799066 41.42460118912472
50.85272974467227 53.15299181221352 39.44085703092212
49.901243664661415 57.360212861810766 44.065167892674616
48.40028484016996 55.73894960993732 43.18987878603728
46.872835369289206 54.06082877889484 44.65692360271465
45.80848780941496 54.110759205713286 46.84006614124484
41.261967183999225 59.22127465627336 25.46327991478835
43.036262586032606 58.47332361608336 25.5534537716679
44.2393052796589 56.31072370245142 24.061754292344077
43.812590475877066 55.26585117186156 21.99951838957241
25.632412778003836 24.0371723716736 17.601681966352388
25.86351879131352 24.120736862486876 20.10824823187968
26.94833252203533 25.931282602565233 21.647129653435087
28.62532198740348 27.277420521336538 21.187617727344765
24.293816810821166 66.91979942113436 35.24509537750173
23.61414278472781 66.07714421584163 33.21253871085762
25.489154119660537 65.90908846005526 30.951983569799268
27.84522681428812 65.1548744168883 31.141669210183366
45.26350053960951 83.89666258156255 48.82315066688651
43.92993419754857 82.80102051176846 50.60550081749809
43.054911629606714 83.69749772519829 53.05522170712722
43.286057666295285 85.64498408945167 54.18042652888885
16.34171669058202 79.81481527592341 41.4957184206012
16.378833543013023 80.29975759710634 39.0377325170862
17.81193706293141 79.83106326849106 37.081582169103704
20.097597148948303 79.07939233636337 36.99316953043275
14.271511624608749 76.6382382707171 69.91338547619317
14.505458219308926 78.7627979263513 68.72127419312403
15.938611779437725 79.6565059442955 66.91609655216402
34.29371022236949 52.267182336463065 30.92378116547302
34.38642797046211 54.064377307044616 29.222418499705448
34.674077160458076 56.76115440366625 29.580898473359955
33.73789665378888 57.976407898856095 31.330197819955956
27.747226779907685 49.92845921201394 30.407920472923834
29.74348018370845 50.29117961597576 30.32861971318554
31.686540542770594 51.36971966864276 31.427085011090874
31.845609049316423 51.759706062609496 34.00236223957472
32.40327804231883 49.8017638493544 26.517164626920255
32.40367119565348 50.825078596661925 28.79983332402752
31.612984219474402 53.452925992488716 29.567630264552424
30.96967070656727 55.03671040781458 28.452747774762774
35.462456980221944 54.834752233844796 46.7993717937496
33.20728930898859 55.13398013895113 48.040397424677344
26.242286295758397 20.986035696420686 25.022301714341463
23.640926292357435 22.20611033181191 25.234349417027744
23.42215408320343 24.834814636828145 25.88817290443925
25.058729533868185 26.293850236675585 27.377566055813126
35.057858139608335 79.54657983509661 11.853446937962874
37.69860744267869 79.57263964657373 11.150310228105129
39.1206183484633 81.44770072224344 10.383065928367603
38.99815388644274 83.70697407360379 10.115949726739967
33.41559634571838 49.696125206294546 33.03133257556193
33.818411070355445 48.99972213815523 31.050250528547878
36.13860546678559 48.01552530052139 29.799290025593315
38.17629207409088 49.499201586236225 30.6442582849241
5.673193180550144 27.23564636580019 28.70711949498849
4.871966538752582 24.98739770640516 28.731695378025563
2.1134634561748564 24.034602526144553 28.16845618749445
0.5471934633780818 25.401215062900718 27.581267120232916
46.290537088322736 57.9625329258071 39.52025707509465
48.26996437851735 58.572193502611114 41.09954979918608
50.89648088813807 57.651758910114566 40.993217199079474
51.4881263729867 56.10721977650563 39.79459544956201
1.0022808288817604 55.009602464401425 15.537956235247602
1.6053006757967034 52.697396619234766 16.200648960699915
1.1437856574559788 52.40856482378401 18.739094369428592
1.0189470826023619 54.49162988201778 20.36353040072117
11.524191673123141 62.22196908855287 32.4835642289921
9.729311702678926 60.492097704679814 33.75802923246295
8.982469874425039 58.20889086596205 32.8389206118001
9.98556658211207 57.0863256227186 31.336969469678134
51.00743426475427 57.75458398350203 3.075739271040329
48.83156535574926 58.86151273141305 3.8367093663402665
46.85575947967686 57.845910082276134 5.2300834566382
46.43880696540342 56.03287830749529 6.368222617142326
73.75811547416572 73.54866669461765 9.848635105476037
34.64039289450826 75.44476518611485 29.57748555168673
32.233033708542976 75.96091724539613 30.41346755258196
30.65790312505813 74.50428396628682 32.09204209225186
31.081470009007774 72.38145179720262 32.8057016820586
29.52896930966483 61.319345657380495 72.26611609130994
31.399240016792422 62.30661542349341 71.05873948309024
34.006658303494966 61.6618169847009 71.1907098392706
35.162663597083785 60.181416156470796 72.14590765004803
26.951415365727453 58.37671170567314 48.02940102768069
28.696294496172243 57.072525088202646 48.44331977617416
44.46758264400044 87.95435124955237 7.736272654421236
44.524600275152345 89.20038587331352 9.659400633020335
46.94271307974314 90.54843581091153 10.503112834359936
49.13216897314266 91.10401222231425 8.995507673640212
22.289017185037068 9.11303068957378 20.454857094180547
19.75552030640618 9.692940621238957 20.689429649002456
19.653630471530636 12.540817233025733 20.54506577254323
21.551866434816386 14.099290806660497 19.635617067297286
26.851693760381444 78.86031129263253 57.387192141118305
26.802747524193215 77.2133520698042 56.290174601458936
23.979735668803876 75.76885676033683 55.825214024854986
22.25377484736761 76.03806478147364 57.28047736837463
8.50395341329974 26.45554226591312 29.292133781534517
7.0185071875962874 24.59604816010513 30.234925603339384
6.138418543929943 24.094560349372337 32.576393080051425
7.249404324335543 24.510293138512097 34.802138894906
43.14051679420457 65.02040669249118 23.96983256618364
45.54206928799288 65.75605330087853 24.086295432944404
46.30877544643598 67.59106047586249 26.16615871206644
45.36000224946756 69.42516119224199 26.80096542274495
23.75150533214746 57.01406136771647 46.49622956235426
24.2194661211167 58.524001801932066 48.55653911836386
22.348772070463568 59.40126332117556 50.44400234195004
37.492367765482754 21.585221574755256 20.48144819875307
36.65581040531351 24.237016420213923 23.3737038317223
37.87111581775272 25.789313941328587 23.74748430140565
40.67062794850951 26.02456231890371 24.376021812157298
42.34882883037024 24.46488436301419 23.971949362612563
47.78441370298158 27.37416696436373 56.74064608808166
48.50053101158059 29.380943773576448 55.569522119646834
41.44268366073833 57.573218360112364 70.16801170405982
43.14636308305551 57.099269381451606 68.61833063606043
43.40677373930758 54.23631762483583 68.22665506209266
42.08123526116272 52.57681744630432 69.7531223015454
7.351700336754985 30.81994513967251 10.556828379560436
54.11873024549525 51.096515101263144 45.82472892012268
51.565589594830556 50.9487209098807 46.72842974088904
68.61606442716737 67.02697609146543 22.715368537185775
68.57581145539993 69.23663144299125 22.97510599662832
66.47307164657859 70.90378644363511 23.2793880352106
64.21102154987817 70.73078096472406 23.36953182020347
40.0173290327887 87.76658558762941 35.13138808377517
39.98504979170024 89.859520315141 34.06986246961401
42.36195154598528 91.58916119255214 33.79127302505017
44.349626187556424 91.6975296221819 35.30506050569107
40.26687120683552 92.8452507648806 57.63104539159408
50.50905411581086 53.47957581467208 68.89242911557383
48.76651028834462 54.51548334186415 70.10429689467261
46.72316201082042 55.83773633311589 69.3722156178264
45.47910544937879 56.04246371173238 67.33778323573269
64.28556638481665 66.34647382405561 44.92911235937546
66.55920015548986 67.2299533952138 44.64763806143921
67.45711831862754 69.1081252590831 42.519620503176306
65.59391042670727 70.94417984002033 41.69815481251934
10.050672674505082 52.12251417807523 35.69738244480039
11.445404886878732 53.14752364207797 37.199251207577795
49.974272210884095 61.04830306200504 22.8226434881216
50.0256613776801 58.74309197314418 24.07300385268535
52.01288306851048 57.32635297724249 24.815983872499896
54.375809896988535 57.03402055227591 23.607685055474235
25.73693439485715 42.63929860741347 27.286027405402603
28.286635291026233 42.71095409225292 25.921226450295723
28.39831878524106 43.31641092344083 23.455099776821264
53.75279201136553 56.117165101338486 65.3272390060889
51.9162005812577 55.87290681399235 67.01124571641625
49.7491788399587 57.81069364444418 67.52560509647778
49.04831427557205 59.5860922224295 66.3514835626158
36.52245822845209 59.453264976157676 29.89617517515406
37.8675678301117 58.95713850207705 27.854703696851598
39.356269243962494 56.91501085983401 27.134236345470143
40.862509170949856 55.64557495038296 28.462203387409026
32.704938098130796 41.502640848981486 8.883404023432186
31.90772735435217 43.29799582139232 7.416274739631721
30.024720957958856 45.15683607872223 7.673204271234606
28.997091591419075 46.147997064245736 9.492596805715937
20.325511952898175 63.49008991621701 28.390081582457785
22.29257383863769 62.752169426762926 29.676852807160778
24.641966123943035 63.542750019100545 29.669171331167018
26.017403211411228 64.56088835907906 27.97881444377507
47.1849075605137 38.2063177526201 39.92073824224113
49.353167029737996 37.348914297899235 40.64690184167242
50.3198180222601 34.82190954648223 41.09430613861816
49.342302187171306 32.99636811277763 41.178924374842104
34.99985758151046 80.54321867613984 29.57217798309934
37.33537243529909 80.45410071381853 30.11133527138348
39.521324324374824 82.02209789894869 29.44984220114092
39.569572145806866 84.23948334259957 29.137107819785037
12.576669783714022 68.76840536082604 18.898731931016584
10.425805554048258 68.4184938977468 18.618965389855283
8.81694423062527 66.32887656987717 18.525693631656953
10.746749872404237 63.998513045608036 17.92883463717348
27.150354579395938 52.072576883338215 51.91678700699566
26.120676789425435 51.5612551366365 49.59812610676478
26.43784403473545 49.90734075199449 47.97174524684914
27.34022163885506 47.2776722838254 48.09170088771606
53.583053497719035 67.89023117772564 2.9728069266528694
55.174434013964955 69.57553274375744 4.4215444956690355
57.92013548417314 69.28092337310228 3.1950635004538945
58.1910124574928 67.53924399357595 1.0915201737839175
14.085813750572456 74.8802343704327 66.19104120027728
11.982157791777858 73.81777549638848 66.00321031501956
51.8251529806632 33.91746741187969 39.09779194200092
54.03439515451913 34.17555684117779 39.282365792595975
55.461806204073625 36.79643534352146 39.949283491052874
54.62151201365272 39.013105539512196 39.83968810989025
45.76548929912847 38.55658580660351 23.249214264938203
44.813340616081554 36.5688197686051 24.770189238176968
5.718809442385662 92.1850482355747 4.080022305959157
32.24044339422137 37.78797072892292 49.740614334345096
33.04734523640636 37.8805428380371 47.33060024430784
35.22412120415908 38.420945469631505 46.14091683919233
37.06304330017794 40.03349681016717 46.92986378687389
9.205410385335854 80.73407743768395 15.393978924098993
7.8511463132276 80.60371187624945 17.492882910686866
5.432344834327133 79.98925354316435 18.01979690066461
3.8503721010205236 78.51066480906853 16.672717233608928
1.2842277188676063 85.35843602233277 1.2758748619444482
0.6453456138857705 87.5221138697984 2.040021462763078
1.7213951343738765 89.8112769308242 2.790045776971676
4.289651468885076 90.23462285995268 2.878898678738987
67.1811402607992 28.006583513465582 58.565518721220435
69.06749231359059 26.635045661092008 58.376002891196116
69.50369011671958 24.67024802607342 56.28258346076699
67.25428410501448 23.29955446429408 55.4458575989062
24.851256109100145 10.142399492946675 18.80487130834436
31.991273924353564 30.63078588539847 40.88699693928146
32.32183117317421 28.547552841042588 41.909796180296944
34.62678106224164 26.82498580301315 41.70811033722535
36.72679142097957 27.302928538772854 40.630093047803605
60.71589572622761 91.61801559369148 43.9110761491093
61.001477437860515 89.17835855027651 44.32981143223925
63.22527112300418 88.23666600478833 45.83979540940238
34.57059823848856 52.65902194132045 65.5102851137099
36.822315410619844 53.84245497934088 66.34589291618695
37.13056627655589 56.19517874054514 66.88630349507082
35.37002835712909 57.74101839121819 67.20215872341119
68.99978992393726 80.42660289147325 23.526388183851147
67.88447062197586 78.76341753807802 24.940333719047253
68.94399049288191 77.44998451018782 27.027860166079577
71.73901789899078 77.17808602930245 27.552613577251456
35.90784660078586 78.0732967707108 32.728904878457016
36.386533776312085 78.02228085134556 30.518626586385274
38.59560800154767 77.04157937966328 28.9876834524749
40.437734374916154 76.0588127575755 29.852844039981974
19.287029725527756 92.10938934043119 65.87311407308339
21.12323813034671 90.52250709115364 67.07426841852651
37.823791139997304 19.71200880739146 37.714901906044155
36.39954785943283 18.345488373669205 38.84879070686116
56.643371947014465 54.83154144940133 26.267581890924344
54.645993586688775 53.76085960922647 26.099740717446966
52.315538688764 54.3549186567899 26.279808764061
51.19160410253636 56.12528044876687 27.09712940384713
80.7967203045961 69.63000846906195 26.514402004338724
78.7079898227565 68.80562842923425 25.510671105862947
77.1251317543153 67.00189462242507 26.047103604715247
76.6663483282185 65.55021601764878 27.6532544198728
21.347334533182757 69.14322306129762 14.806686133400635
22.70193635665781 70.1200373536113 13.345177394889982
25.131330633724986 69.90866931376331 12.489431495651184
27.12315093844117 68.83840819737031 13.498641282093613
14.149606050368652 52.77091535475252 68.8767273874415
51.03820624558858 81.19799699579829 49.15341521021591
49.713722982188344 79.57063892520986 48.80529382285214
47.28325396034444 79.13389197171782 47.71946982488177
45.31220703757079 80.82079302458907 47.63966162264148
40.153519295943696 85.99262951695357 52.19454909347708
38.39461561623895 87.67800428947434 53.182884739488806
