82.1161328792917 45.07878947477637 39.4067910233955
75.34428436045783 43.56466639846358 41.688937668178035
73.62121367784628 44.19506834669034 42.694489971477836
72.833964073961 42.901895537755586 44.51174350269381
71.16622964937434 40.610316802120316 46.85608413114789
73.61737296663702 40.86370384872799 48.21090740566531
74.47180116636991 40.03604007940986 49.843329204840416
61.31484580855114 50.62423638278863 31.160961318387926
64.92715075319985 57.35299958377889 20.676880571107237
63.823305004437636 56.70004971828342 22.318328057449722
10.110828713084784 47.33677209103179 40.6105017539362
81.9183010827724 64.5944569311565 4.577486415497061
66.0540508662697 55.13974972269242 22.910708637247026
60.293819073535374 56.69301484005148 21.642913396567973
61.525471962051384 54.988108237737364 22.77526413902988
77.02143746915358 42.24392883102343 43.41671305794016
70.04896861658037 42.26545739487663 44.40253664287696
68.34786887380339 41.68591226917198 46.66757665467305
66.04413507011196 41.92440739662387 46.75410536635907
78.10731000158454 63.12053268510274 7.5675118536666774
68.1485823412285 57.690972351871395 19.930633518343008
83.07931952073042 42.33113794567135 42.9658669559931
64.35665434342737 60.10265826061969 15.51371057225723
68.6649012872534 58.376497481266235 16.950025742612166
27.291559728135294 32.648787415611125 64.04023147992933
67.74737493805242 45.954925314684345 39.78630701461698
69.2091497959097 37.19348473791479 54.66275082014629
70.58682873948821 37.36566951058544 52.52243938545611
14.274136175447437 44.30506013325711 45.3025901017474
37.599216553174365 3.166122926414224 29.93299421086372
35.56570545285197 1.1207791318372324 29.488916382761822
80.27815949747888 62.18215316434793 52.55444826135453
78.56277700267366 63.50590874778483 54.198593923197336
78.14375402471823 65.73554341927134 54.5699594057078
78.41866492272423 67.90803723246863 53.02512719897552
60.523327584928886 24.332146420683102 13.773628181315072
60.54072918274861 26.564791910903658 13.839567604549405
62.76921908361463 28.156127240422894 13.538693375367
64.7284264633691 27.907507566635797 12.394248439359634
78.74776171205748 14.772817823583813 9.351167940848429
80.63330545434867 16.42495504592172 9.116228654233971
80.60611772007685 18.793563796539566 8.357977580335062
78.79713654751166 20.335610044754613 7.535947570246977
82.21789784156022 38.71306754716183 1.0414218001744657
77.21434333489304 41.93598116576266 1.332308224958265
63.288965678462084 18.856624868615032 0.024309205083134926
64.37765365307533 14.744557705756014 0.05982909670073974
63.52379545580402 14.705365297839096 2.3406107558007063
65.82445052865218 65.58343639760984 44.30370567683547
66.47995886571954 65.39712237953677 42.20281129739353
67.93277938466979 63.068877739995486 41.011034614819465
68.41572032095391 60.98978430437108 41.66793831094504
72.0254464479545 55.2554417936212 65.80146938492429
73.92246867811463 55.4164836011608 63.66315878472544
73.4824649316486 55.49058346875474 61.3371042857342
65.66725858490722 1.2354120445573844 5.370327075029149
65.5289079802115 3.8810312020729123 5.224151880821177
79.25147024284608 13.452915790469287 15.37827230899954
76.55949049168461 14.05402760346309 15.149670613106492
74.66414039142515 13.961342672585427 16.70814221785601
74.69097773547061 13.525885487301968 19.301354703335118
37.988489911117256 1.2131060763085886 2.1363996479241267
57.12758831866032 68.17051466522628 43.224795049700305
60.67584282456493 60.83288219392188 41.96736971987893
60.49705460741194 61.94821112493288 44.258239113148356
59.57999604457842 60.786569999619275 46.652966040644785
78.16709292578288 70.4981513069368 54.24075049203551
76.7502644543995 72.06120873181995 53.618931794849864
74.15773907841998 72.62527777665656 54.661705790973414
73.33446357074895 71.20829438773947 56.298671763911635
78.63787534698 74.34729561511546 25.52515831630727
81.06386786765734 75.0272937850642 24.806448505152847
83.0519965219656 73.80042714646271 25.07337670270198
83.98336249942363 72.263273739039 23.709084152862204
83.0315169510381 27.151539132086214 10.363475871279528
82.91721639159925 24.916756829610094 10.436891782333774
80.25663662942256 16.2626262056484 14.158544903283772
80.60828379512286 15.542628807904897 12.237225453160486
82.03756993678077 13.259202296100112 11.392043731002069
83.57558290672699 11.826068054719503 12.4544039214263
77.60788004578431 66.85658946999767 59.45745074892466
77.01117760767087 67.83729814068197 57.44372071892806
74.53286712116147 68.44859872820585 56.51353493758976
72.39147715001877 68.85517135383056 57.62832138391826
48.79562613053758 85.40559342948023 39.309442281097446
35.44859815840272 5.686954264955553 32.06652394869284
35.076453884733496 2.952909361588673 32.01462307687271
33.09594627899571 1.6241789025372328 33.64513697388285
32.15139749274845 2.398009171018269 35.714355072880416
84.29218931114512 67.04258513823848 26.992512850059192
62.75061361122764 89.17298530636928 33.63293859360826
61.63218514070306 87.05311955089375 33.13134885825679
59.6375658700116 86.08405775081258 34.15179738496657
58.87385298301095 85.73324106547965 36.55342924575297
79.65065600898703 83.10718706155455 21.667395168346843
78.63639866836334 81.93012320223285 23.107915918457657
76.93475668148906 82.48606848496023 24.67162130726221
75.01887647758694 83.68653109718342 24.485960338446006
67.70179194921468 76.03512190769071 54.57051760338428
68.03035495193942 74.58987589869213 52.913308565544106
24.093952155928253 57.777517558585274 56.37776280445495
23.01361912887343 55.473924393761614 56.0127658998483
21.71465861179456 54.11826165027249 57.69286347517871
19.41137919931267 54.84334700015161 58.896725666977225
31.40057110739105 61.761194992110156 49.871059729992105
30.827639261350534 61.657037808112584 47.492906808261594
30.05815337434207 63.53050354049887 45.752939444436606
28.98383364689204 65.51062341092528 46.03312329391291
82.80075132796968 77.92036329825596 27.215979831232765
80.53312884454736 79.05105609887518 27.343056114577085
79.80276280369681 81.14903926504965 25.824670229361033
80.90831458645246 82.97098139061323 24.571785545657793
55.435484629892414 39.904049629124955 7.383459274625509
57.558476479443286 40.827904353128154 8.03687408682344
59.81104373731241 41.376730292996456 6.698290514798304
59.77718097474499 42.27902576530687 4.277995107779479
76.03532991148458 68.26950775785797 51.23825410798693
76.95446150614661 70.68102735825829 51.437154832623065
75.2973818572495 73.08332474437795 51.42979101668001
73.17152396676933 73.17169185789697 51.00585185734933
64.54539205500525 12.289817835758255 3.4683922167685615
66.0638905181233 11.303557746772947 1.6224801332778123
66.82872666081695 8.662497038265832 1.2685150326764028
67.45438029589509 7.039294300956281 2.9943956519126314
79.85976105163826 65.58156574131831 34.39994477915493
77.81864543476539 63.96059816458219 34.56680885203161
75.73289352492694 64.41147367059868 35.87788534176027
74.5040953376395 65.53709115925614 37.08514944304236
25.217608102311846 2.663984113952461 6.5971675901079685
27.30004856039577 2.3652484401663263 5.46099520896691
28.454566948382645 4.206449081017374 3.506563704356083
27.74684345137079 5.835529571943715 2.376244073531009
72.28353576256858 87.74568757322596 23.79830248486832
74.10224441583365 86.15015208694568 24.731575053412296
74.23073974107523 84.79123704328568 26.81622435201427
72.59217551137345 84.00519863329878 28.486458054888054
68.5746011599006 65.79650638873645 14.088373567658527
67.03326670966663 66.27501179918173 15.763446193480256
64.73737219393733 65.32112654101996 16.675261518642458
63.71025526721072 63.36892297010805 16.540778519063522
40.12902694878325 58.943097068319 39.24358001021978
39.56374367013739 59.04303657711949 41.53698433034342
41.03116068199926 58.48828684804035 43.657035417249844
54.33086788896908 4.721387215948155 9.145098887795877
38.1967296500318 52.264905014141576 69.21328658577855
68.80952657250683 5.263056319787564 0.19470808908273982
75.52746146467855 58.53774589716046 34.13236589339966
77.4256818950795 59.337156364679345 34.83760249340886
79.836244649701 58.29617856819526 35.18066698706028
80.72463069095669 56.31643784784818 34.68619214833784
37.074584883451436 49.15612489719191 77.81529995902979
49.14716245442363 22.52058914888822 0.3039428383238719
32.59236249269989 25.313212433080412 46.33836465519755
33.65268411135659 23.293969790106566 45.9614920946457
34.98934118345982 21.63453569014617 47.66630051189117
35.24926832727382 21.514066846733037 49.67328825766893
52.77970450121197 17.705098965940913 0.9001836288983841
53.67255846747195 15.42487214392791 1.0326670834920628
52.561429164219895 13.25736837274012 1.997576657530619
50.76402933425685 13.058433565107606 4.037168288360408
77.06186629490664 34.63985557481432 10.444819874031458
76.1756908290869 34.27203223585249 8.426815382518729
76.30436918541535 35.293211923543026 6.018178721663647
77.94684198467466 36.54268304311802 5.074688249654897
68.87354464120848 35.33049736801808 8.332696390685078
66.8966378149488 33.66923617195685 8.768260154749521
65.03952119493137 34.25616019796647 10.952069945213564
64.47159057276072 36.253235772649646 11.943869718875986
71.37102161369327 28.270337647431113 39.56320300212477
70.79504614674403 28.799375260726972 37.56805405154871
71.93749148656374 30.71195205977066 35.71018315458104
74.4237830616637 31.49140383122607 35.84582689300754
79.20537068443895 83.97611122697397 26.613992322061794
77.21969914586614 84.58288766562782 26.525136608914977
75.94203112446141 87.27892562209695 26.39020712604377
77.15664589203499 89.3471713512183 26.403147715677438
24.336253411293658 48.8411609512762 61.27315668835049
25.03496643825966 50.20594409826274 59.587157177672374
23.7501402681772 52.967599142613956 58.930394557509565
21.941560554083964 53.40794087868743 60.26302802539925
73.17319849673953 12.539346457988566 21.414167160488525
70.83837078332424 12.588739619946804 21.447480570522426
68.83144973494126 13.977123401542473 22.357388758823898
68.66377869539951 15.77415196789334 23.948097899194497
80.06032386811648 91.05915394426107 20.46898294594946
78.16552960712139 91.61330093181901 20.7286812776568
28.88149157630765 7.275098043571206 58.048741861824176
28.04211273327004 9.38450290627395 57.223588491187236
34.01251500278487 3.3898146746875932 51.00984772930304
34.60595164548386 1.6472478013795393 52.805046405554215
72.84360420104994 34.70135064771678 54.671318736881354
77.67636061412298 32.686805068149866 57.3515333300755
39.11377289586774 63.999110664857014 67.09158747216637
37.60168210708291 65.83161072078029 65.56017357680949
35.17115594558961 66.24591394271725 66.23486325800319
34.09380970401406 66.74485670854995 68.81218254235365
35.85396623727378 54.56231178718286 94.94241771678816
34.97997448112627 56.90411724287855 90.95511028664286
30.699248087605625 25.42425876622975 44.26804263500425
30.679500850051635 27.136284989687386 43.26732988852673
28.576756169625934 29.07755738334577 42.86489096630588
26.49781912532535 29.350393672204095 44.20204563047247
59.3875161301264 48.79117911635029 26.848095790500295
61.4475668719035 49.990604894783964 26.749148154935575
63.98041041994819 49.17610722911627 25.881807427277934
64.58892851632923 47.43891945170958 24.54366154775318
62.632736048877895 67.63171725747702 46.45478666409118
62.12900470193233 67.99583957418241 44.11479001661844
63.70993124028864 68.54303770272818 42.10923247796023
66.31412629295916 68.21282193987645 41.942890530659184
61.72621018613902 52.58855633994871 25.456184257072223
63.96529258939127 52.153497164198534 25.597648316979754
36.86710670228623 50.41004146443792 74.96573759615421
35.87846563499087 52.48881763110309 75.08954904977118
35.71893069530917 42.547309072766986 79.90128157521747
35.45164914841704 44.599797473587316 78.62523131348927
34.85375304258542 47.15711617091824 79.44373436394419
32.96380443151925 47.28240528465778 81.01794010047907
61.79638983066883 68.96611383828142 39.01780100168113
59.95012821382966 70.35583383797876 39.773264769768524
59.974582126823286 71.58482915077361 42.44835903616259
61.44430551676916 70.77121756767595 43.478598187558326
81.28147093296192 57.55437151322108 32.23935423544756
83.38776768156963 57.07824103867794 33.66610238080299
68.21019890164241 40.667531461524845 25.023024770990055
66.429975597247 42.16181584473373 24.40418501156195
65.93520298793783 44.85951447291573 24.750835376392484
67.1518302111911 46.33091368017534 25.850275659056212
65.01877466027541 61.806061437979146 20.267957788896375
65.42297042947322 59.73909928297287 19.511129926265646
84.1713857554309 26.018982613818412 56.40825453260942
35.785958123027044 22.67029726771096 42.74559206753148
33.6797699019594 24.173192112597917 43.444792026967335
33.56865867003292 26.942945465127845 43.196736210126495
34.60713936314984 28.36969648999633 41.28834931006472
57.59915205710119 17.344687809915257 20.674748444820597
56.78008796575096 19.73859706612348 20.024062396849224
55.22628376203195 20.880944465736597 18.783351871239635
41.45225872907597 54.32389829409288 23.749414136340754
61.71364907981058 61.755651868086176 21.509881193972582
62.87714516685795 63.33194229502075 19.694193041843963
61.91533838086273 65.00811124078837 18.183574032615855
59.94054643182513 65.76880391834186 17.92741198612969
74.34551824690736 32.19856470083336 10.01650216269566
72.47439915398984 31.723598069355504 9.346645906396239
70.03218648822207 32.732665937624645 9.840777385943026
69.38580636144604 33.75593156185072 12.346321776296978
80.57182646040002 21.754423531095043 31.90929283625509
80.65966091166626 23.61679531525116 30.329223261752237
78.28347385617941 25.145656942752414 29.48031632131132
76.62286929603931 24.537673413771206 30.89968903081239
79.60987196762116 32.999312498211935 1.033271569492403
79.01712699302573 32.6579522842106 3.716553858487507
79.03771190686984 30.845871111326186 5.209165862933691
36.644131968875755 17.934202693280824 41.32464086407999
38.72561952872131 18.100327173512934 42.58660632597378
79.99548212917266 29.442769543638192 59.221347721929654
81.2155133430803 27.998018725788945 57.42909388969664
82.638440198945 28.454372010250804 55.57343371898613
83.7734894984936 30.89711191391075 54.892058593240954
60.691370345973965 30.943355551994465 13.111066510933421
61.95383940844766 32.19228065064747 11.565001056386041
62.16555115558321 34.78611167276314 11.155794966781647
60.78990280666666 36.51023639060644 11.387930063528358
59.15255412522407 49.608683344988656 29.25250958650883
57.695343996925196 48.4866794690894 30.388894901199034
55.25695771239443 48.69523401547991 30.74323922445579
80.29810964717754 42.62109061581466 45.79479581370724
78.05520042744338 43.30834171262508 45.58416466924826
76.12188131749524 42.44791684649193 46.9444539812037
75.4163341260853 42.93383593420661 49.22676229823548
67.60143617357868 57.71822360355172 40.697080305581416
65.96986215672757 59.36444573782372 42.06732520331935
63.15842063697595 59.55936713983345 41.705206060332294
61.61574433742751 58.00143010945692 41.268821043607076
34.747087939859796 39.2071490319293 54.173773540128686
35.33686540573835 37.43454778641347 55.72616771343907
47.06235768411661 38.902020248470954 13.432023256152062
28.025977458212914 50.6214836121035 60.12673827214258
26.83778197153895 47.98647082072184 59.566092896425694
27.74534674865015 46.33322468627017 58.13992093596003
30.160313989246898 45.92706130241724 57.51093371803623
29.193755988301586 30.7877958374938 67.94142738384218
34.70815009054939 32.44614498947003 63.29075809661736
32.93670868949345 32.39207898930759 64.15971269023142
56.349287116020115 69.9730865808204 21.990098954394874
58.786891150031856 70.44823741632565 21.78493026867273
65.83989943497035 38.4016221387602 31.50438117732247
65.59523642270379 40.28284337746507 29.979374996097665
67.1782116161441 40.13980077164515 27.266078990952337
67.9534276803464 37.949463475812514 27.133929989031895
66.8988996103813 23.340058624104678 42.63589404949225
63.06019272035728 39.22519146116779 28.54086322263313
64.04939478464775 40.60343561885582 27.3536821331322
63.64093278827199 42.894000072203696 26.180073659090638
61.21581863475327 44.06970042695522 26.580106891421522
11.474794313048033 28.13331110340301 32.14944776945188
9.96465647568845 30.106839723566832 31.208683177147414
75.0956598354161 52.400380738392364 65.48806416470342
76.71636739223169 51.89724929321958 66.4967698136078
79.29405679135824 50.94204737836531 65.89818182141622
79.74937899632597 49.38951654831183 63.85170156550383
68.34968556411917 13.94753442492161 19.603000427610514
68.90484410131671 11.43916063171967 19.2176676928026
71.42090350523922 10.542242484820537 17.85693286933512
72.89900878007128 11.787269382210248 16.673340058444968
57.81464514814854 24.601569787027568 13.002530762811178
56.260780149585855 24.035356591633285 14.752867416872196
56.166342152219 21.922140666656187 16.2361035737255
57.61378188723643 20.47319724526238 16.893354812118876
70.37590464916781 44.807376375689735 0.3740771292079565
60.92143316111275 23.332225008509237 16.6204935158069
59.84434486681421 21.697317077743953 18.116648031506774
60.735338498889035 20.756748310811833 20.347125770810624
62.773343631022065 20.163902421967883 20.914712965387164
64.71270377600759 16.217584414011725 16.145119057937126
64.5874148299421 15.61388019363344 18.875814897979975
65.07634757364612 13.362140990097739 20.069763244574702
66.18042050061088 11.520581134095593 19.494008826499325
65.24205101690879 11.469943377483867 22.319311589568223
64.99918033497272 12.656126598797456 24.31332790894104
63.21294410882584 12.936448055926117 26.17621446886619
60.776043808305374 11.971267156998168 26.065336310312375
66.78089347222662 16.497943076878478 20.140967817737558
66.06760565791468 14.923267940414162 21.839490608754033
64.49216056044072 15.561074977060295 23.999666503604953
63.87273924845661 17.78360410615468 24.744740082264247
51.21399429449129 80.43504280619881 39.70611587539803
52.28354005261793 80.36926512617606 37.465731115815984
76.52142018076337 33.624466216230665 1.7076740525234135
78.07411727196782 35.25132872763411 2.1588225875301883
77.69175468487389 38.13449965011117 2.4941905501037716
75.84507127922872 39.62469986519068 1.585701341739754
39.27793840453466 55.64830435669511 43.901906177907954
37.804429422233724 53.88532903163488 45.49248767063174
59.06592370578286 88.00389513898884 31.662133976316646
57.86974563235911 88.35608995034782 33.47353462394995
12.012949990062477 45.49870319428123 42.14539097192858
62.16084209935845 46.15520033982559 28.685788336359842
63.84537625824507 47.30523908304701 28.304879330372575
63.11393069775984 49.78389708186659 29.491131690459444
67.88540817781207 47.59026357204137 23.590337276081268
66.66462382726299 49.42224851995479 24.472844869888704
65.92960359859107 51.61841114284499 23.398164092793245
66.0492747475573 52.47390138478612 21.39046908387969
70.7047601653823 47.8138207792926 24.455822365384
70.40147044559875 49.21047393500199 22.3542892937233
70.83438603205208 51.61507226464237 21.634331194364744
71.82963710527505 53.39719235613838 22.8465260550847
63.74324987533858 34.58617377742958 32.15834730939144
66.03466420866631 35.24185848906781 30.89377702898088
66.15681297904965 36.101902950654605 28.22474499773281
64.64582640522025 37.32940608692958 27.565357826156983
58.69167002963029 13.992307161109487 21.806393026334618
61.111034039355495 14.876878099577505 22.763422517813996
62.34678402951527 16.794509793946816 21.839791512683274
62.618401763191294 17.866725363913147 19.462776367456037
49.53703511137722 43.565664600318506 14.453611646849636
47.96741901699608 41.7556556917247 14.423741396528357
65.52670360710405 68.55403427377213 16.420443897071365
63.54828761109432 67.66692415939488 17.065586196781965
52.23040995953689 82.19971173603626 41.19416950829612
51.50434080994152 84.0207046823137 40.05391351042718
52.978271356013934 86.15223286797173 39.15074245397081
55.43039544854959 86.03868007283025 38.356676771292456
64.42679076415098 27.937554631381577 9.716061433865155
65.64666259567181 30.245106030610028 10.022412292926088
67.80197863706272 31.023576323892105 9.48220750095567
69.87493677164625 30.020674480411916 8.945929602372415
83.60533918342807 35.342021298776395 22.482922094449663
82.55443237332567 33.401744579750265 22.694369518723533
69.69055973606275 54.48085364343017 21.7236649873748
68.55972931835962 52.526769004988715 23.03881591377019
67.59536459043062 52.62195899268805 25.463282236264682
54.328933157295616 25.30306166417944 20.451559782149918
54.931116679635466 23.379693394429772 20.31923957592279
57.39221092898075 22.848702943767584 18.709418515949245
59.05056592842915 24.545737598274265 18.095822327444843
53.244200208378814 26.607890718293202 17.70621513122311
54.1677048248055 24.07557614169585 17.556293756614153
53.61739802921882 22.25865957005314 15.834749915436424
73.40154121511797 70.27966253235198 14.83264593719722
71.67459243990623 68.77145957505896 13.582646436462772
71.50694685201852 66.23480656742083 14.123439787154645
70.76100387145931 65.09211679095758 16.363353542558183
66.69309296909294 1.0628473454525904 2.0320275534817998
65.91280117021996 3.519656947522844 2.693330210040213
65.02758825539036 5.4282764364110845 1.7227061460436763
66.83031293715314 31.264545943413278 35.00598231883602
67.37969696719031 29.0255789742257 35.654871221593666
68.11824239117225 27.967223234984743 37.75647523795144
68.5275202881433 28.750561940454322 40.10352292724369
57.93449582466012 34.45215519797158 8.924839382251474
58.74838599913519 36.9485877614824 9.921613560081383
57.83243797517092 38.91576531167377 9.614839027001953
55.19835372995716 39.544428603499334 10.147338894910572
67.33657362519722 65.74802882410812 62.580531716178115
67.19868817440567 63.378996492025905 63.672015794834856
76.2131207124348 11.786729697341269 13.858813183659633
78.06611515141148 12.835311057714252 12.976372972577037
79.50923975123523 12.636851560790781 11.05889978133108
79.69820079949679 10.889107843670997 9.340905533156453
64.7754010640658 54.379599792441724 22.59300703851655
62.8135737888679 52.81421190797972 23.010519443295266
74.52574417974176 75.3996689740652 53.736879498047955
76.94273328820752 74.83593858147965 53.92209828267353
60.39875342887564 64.01904392817664 22.94272342145651
60.241233317838734 65.89028135475711 21.876015911046363
59.37055178002995 68.17040387196676 22.779159018089995
59.11247821100228 69.10349963760258 24.970957300775552
82.26302121789699 51.46255628502368 15.578454525252317
80.30208075873443 52.54589928556382 15.780319429079219
71.94320690122989 5.438568711252698 25.999353118242862
71.97846888000258 6.893397409877597 24.056330938832517
71.36330135334376 9.571819349949756 23.6267893195806
69.74817165879985 10.095147911155994 24.636151567873995
58.041160302983315 46.85173076971405 33.203769942939594
59.66241254829472 45.68187741382254 34.10918195819692
63.65506927283433 86.79366397368939 28.957494762298534
61.83324437546355 88.56354603512408 29.813715942499933
65.71188901381468 49.51372091536226 28.98016706540568
66.56548116325163 48.146594697495644 27.776842558340515
68.84471906642894 48.801685086269934 26.21993057856015
70.04636689205621 51.02921715666203 26.33451351855592
51.882119865803666 58.95057615677528 31.030296513071367
35.24815538937392 47.43558173593122 76.77155211069827
32.7906204774309 47.08632262369361 76.4352089965655
68.37331465448412 9.70568314577511 27.954169440903158
67.5209551684893 10.027431638072452 25.82751505541961
67.47194322647262 12.493852858181649 24.981412312855607
66.8302736869344 14.59418285050061 26.111193067699965
69.25415062611656 14.753924271329906 43.579727322586415
70.16440366553367 12.493113688410816 44.64529350541247
71.73496006049588 10.736017973910354 43.763399348612346
72.47559403900341 10.132897163155494 41.56039151822599
43.42872378596903 52.26522018314997 23.09676128088953
44.2749504682607 51.62095061499401 21.308069339082017
56.40198557556908 27.026410697684128 12.6547022745471
55.601257049427815 26.67030304493066 15.028482763123145
57.71131922139021 26.80157232863499 17.327684905582878
59.583248212404236 26.652724941709042 16.399916909001895
31.05428156004717 21.597261590614814 48.794566861045766
31.87233381016229 19.54551339686077 49.986218342945016
30.42270971337342 17.627826016107072 51.140849576593304
28.153841000520853 17.635400754269824 51.90802413144493
74.06863443038861 8.120867825010873 22.788638696398547
73.57665561373095 9.86085921307105 21.43608245123538
74.5151132349712 10.870790618896043 19.28001860287453
76.42748814844359 10.162535681334568 17.832410747961585
30.370263316548485 43.23506532037593 61.17451419029178
28.421488628565502 44.323706697492 60.00567042000997
26.408888543183593 45.48969363947432 60.57735376704373
25.398359298150815 46.54429850818791 62.44719305771916
37.5820383179688 5.570362132047777 23.78577156057749
56.72665410539502 85.9035998769514 32.837279921252644
56.6491455386137 85.92475034390768 35.11084829380705
55.917222186143995 83.91606944698215 36.87070288206572
54.08823735678434 82.08220809827569 36.35360710482406
71.06980399822743 72.98260987195846 55.421549277736126
70.49298279012334 75.03774795617365 54.01737718065068
84.2517667882254 78.43758753012455 23.8374051699805
77.50033819441487 61.44605698215532 33.460363841709125
79.3549009788539 60.62413221536604 33.488871409747425
81.34442416629437 60.29574191936652 31.702283857406034
81.49777659102813 61.69138961191655 29.514091598334318
53.064347969545885 67.85135522022729 22.780771681099523
51.957678058071984 66.61716947257987 24.843115156554337
49.775846165638875 65.88577414929145 25.18926101331866
35.68033534482687 50.971148963523774 68.5396898920731
36.84788090771457 50.01054756600301 69.78848942611413
36.27833300615953 48.59035641379331 72.03253803838236
34.66349041495 48.795747757538635 73.24237841560834
78.08350834020207 20.36926478061688 13.118716784176979
79.26269647390939 18.095099609588235 12.584519599622416
77.93369983361663 15.507411282541756 11.883007399979737
76.15432190786342 15.021710554179165 12.525177461184887
73.0139536776404 59.20224116961542 36.6877884339925
71.04220561004004 60.89234176282036 37.06330782216551
70.93548075352213 63.34373172450099 36.536614689960295
71.682612924932 64.5988160647487 34.728332660110794
35.054921233045434 19.32030718629953 71.45583223707457
33.194015739726176 17.529016187628994 71.68321163398433
31.553697542070008 1.4524866536838237 3.719122967766497
34.03673058638019 2.685556785392409 3.5840287631705987
35.8594649297543 1.935128423432434 3.46419696142488
27.909173948103597 74.49153822964676 61.99981052082354
30.30047989789693 73.95695633962085 62.63866632232027
31.655097617170686 71.59062297260697 62.84100374672561
31.13138908012974 69.67075895234785 62.88690166874523
82.46558909037134 19.199712868307397 28.734007421403952
83.98959208274987 17.8813008132378 29.794549890959907
84.2029745473878 17.186222257133448 32.541894424825415
82.45044767692379 17.010924821761076 33.967739280903636
32.61560911945471 70.08915040854876 65.64029263926054
34.67455500727898 68.74775684336156 65.78793361362669
36.12958898533497 45.22009766636512 68.3180652708379
37.56644418943562 47.551697957979876 69.00453104600281
72.37975802406916 60.42807400722476 63.926535694649324
71.22969123414622 58.57266682418736 65.33363525166052
62.047212413451454 64.84157010572399 46.437243178685016
63.35927197032957 64.16429001432199 44.39906779448596
64.79506373851794 61.89043881785116 43.843374283648444
64.39506238420631 59.566924020841114 44.60413386728769
80.9468376305747 89.41820814346217 18.584087142566748
22.4465524595088 46.58916409042358 61.39676453978189
22.28278784462588 48.00327501768013 59.724544502882345
23.8389105734764 48.33713316615636 57.72697796197427
25.33140648269581 46.74163943418309 56.79610781933634
34.60343780674719 36.48948444584268 61.766480064004035
35.13064843714473 38.67553459595463 60.38564556134794
34.028170076473124 41.0261144505051 60.709939630611714
32.75605257951625 41.968960089742076 62.459813346638896
65.70351825127453 83.57217442805445 33.76588567435079
63.932529801893835 85.35294883160984 33.44368861346961
64.14984054354278 87.44891652204893 31.95093320538229
66.02661416050186 87.11713542773671 30.721664818786824
79.18978594578451 47.0565116890607 72.02155712898978
79.76605946631388 44.64966558046747 71.52232707545467
81.75764979565548 43.0889409417251 72.39796698866813
74.3744891479724 83.53034531057357 30.5954984421636
74.8283625676148 81.14751163138823 29.368487515217176
76.9108753087377 80.18062265530968 28.557199718078344
79.53607449061768 81.04778983074287 28.681809753769038
67.06058437128675 13.920155303074187 0.6959923563333275
50.280700341173215 87.67898716854701 37.31248587193835
52.32547451181724 86.69929686147482 36.66876471448864
54.81656490608813 87.553556311126 36.27441738211531
21.080279082013046 49.29641765555515 62.230992185152594
73.30480445911385 78.83334950735016 30.77785512898261
71.6869214255778 80.16843953240654 29.902876273620016
70.57146056775278 82.52510699902848 30.540566650351245
69.58275926192913 82.94543458826425 32.774074813697716
17.714019166978012 1.8244265051277821 10.068176604613306
17.622043535611052 4.148721486787694 9.379544996308088
80.01090112923853 64.51755806330866 31.831119094655474
82.3495616506116 64.10931179492798 30.978636327653124
84.00956793435712 66.43920033194642 30.088958488685257
83.09743956158707 68.51426633081944 28.85816727533472
38.88644456265685 59.62937799828909 62.61941404786431
79.51574404240313 46.52387496652636 46.24750352255396
80.92274649992078 45.21592949802615 44.94711890549953
83.23859518397758 45.563137867432104 43.96743996338061
34.28268704498098 64.24498708152551 43.59620907058758
35.95180952629651 64.03099549646048 42.163761940665225
38.083250235878715 62.234479197310215 42.16256549137014
37.96516126121507 60.192939662770044 43.98744218245359
62.00733729035325 19.415908474471 23.33352785153861
60.56092566165052 17.98635161002951 23.67499804424535
57.80910422087567 18.2665666370216 23.395476850141407
56.668226750748765 20.265593012776293 22.578266772259617
18.11630568653262 33.441613516237105 48.77564326836032
18.624401753800743 32.25122894978172 46.50659758211485
23.457642838176614 29.272547074385912 42.147434269512196
25.01143787991109 27.50130700200388 42.37611387379713
27.306898457134775 27.494361902557966 40.71732611783441
27.641599624756772 28.511754492532933 38.71797110460461
11.79383169421941 68.28706063244198 52.00489987560213
13.96743757833992 64.89896549164514 47.83876997510595
73.66759977887801 33.31499149776215 31.324282949088
73.0906095299146 31.849217365663673 32.843924713180606
70.0974296340907 31.85219319029373 33.749160360399365
69.0764408052484 33.56197781567617 32.834176698685724
74.92962834533633 11.320790470259913 42.403671895677824
74.8318329999502 9.864342670438848 43.771029619990664
76.78522550172357 8.108021253233764 43.561081675244196
78.72917383140049 8.32648903256728 42.28677297518835
20.04955296779669 59.59614240064357 49.59906934341444
21.878867809451997 58.87670292710706 48.47837852779752
23.17516142238825 60.8608569783884 47.43344700608046
22.088871119084605 63.42330257297689 47.342744764253496
9.796176715540831 5.867535045254127 14.341341940514333
12.209040402333981 5.844083652595241 13.356310315599675
14.026128408992223 4.570662159287706 13.437315053993025
14.761701590927748 2.959070958031532 15.731789085616635
16.620439133265027 66.98026136270472 49.985087013967174
16.674218035202568 65.32872003863065 48.37609315809636
18.01977410979618 62.795425479740565 48.40741692874212
19.545721400695 62.06467078444691 50.3432043979359
26.52774042093526 56.28455566285419 56.24175612684817
25.722183982985136 55.081454695269024 57.858511632624975
27.00206533463941 52.51848957726935 58.102621735090686
28.9818801081921 51.89639032775651 57.47224229842063
80.30461813934153 49.3342562221753 14.443218007758686
79.90489930291388 48.68754004154628 16.70503916567406
77.95256291161894 49.40667652731347 18.218017670888702
75.5125552729099 49.10351750600754 17.983819444484045
78.86300212226513 72.10144702476316 49.58300818163529
79.13362240986191 73.70241358775895 51.2676605028623
78.12111428605529 76.30191650487691 51.69319970098521
76.70311044981656 77.45490230588032 50.52080574385935
81.56764961765641 76.20189877455067 29.445564697274012
79.79429737195683 76.04578823092899 27.42363449382534
77.36848568876734 76.10945255160166 27.295212381442106
75.75530963636342 77.20616706824552 28.823363202785522
11.989545905312374 8.12105537589806 14.68220528478857
13.714545811007795 9.883511869058447 15.032778137796017
58.92715066947561 27.271302924954128 10.875088846488312
60.54478853044762 28.706483220773883 11.534763308501018
62.642419521905886 29.7633610316655 10.244511976260528
62.85450255799345 30.561423974143555 8.079416517358327
77.94000684577249 88.4444249535545 20.692159886293712
76.38957676724662 87.67446162971282 21.897776809469978
74.16555741311377 86.24333594267874 21.781446800589194
82.97481953608145 14.618465516705761 37.158882920941714
82.12706418368037 16.181330880267396 39.30199605775483
69.78854049287894 3.969524372983201 26.817949259923445
70.62198072038727 2.449704039161873 24.67196445923037
71.3341219355181 0.22539002371878974 24.51205723323009
69.3945031992062 40.50470481898009 51.74558085162415
69.38407606471013 41.557897985893135 49.770756328896546
67.50226898709772 43.90508166551526 49.07277450350788
65.98542988356844 44.76460036608497 50.18604388489169
69.80347707147045 72.05999429795962 15.904201266960511
69.26201546609323 69.75006177887666 16.36804389746805
67.51226651478326 68.67985840367423 18.2600636077106
66.45248416026487 69.69897223778959 20.210049240167454
18.080251795480134 52.80855966650401 60.005405673517416
20.25764780108822 51.1972019241329 59.948503051193754
20.811477206630407 49.5063487336725 58.08136069488963
71.61319911578961 14.072137707331025 46.389211779280714
36.50398371554955 36.93446857581805 55.08101270826756
32.70903284158058 37.425907647879484 57.2458602623107
31.253314844260895 39.28939723795018 57.085153516884816
29.455474213879352 40.093304475379014 55.26004822094737
68.45548308866404 20.918104235540024 40.769735854594224
66.50512111845309 20.55734660488417 42.584230762364086
64.12259244348785 65.37159745305917 20.738920452352485
65.56040095588054 64.37636818117159 19.099882649077397
67.7765375965471 64.93077396783676 18.155832310879546
69.29723726328203 66.78286295506538 18.940016049004992
73.00049745878886 44.42169762193251 0.4674618576271421
66.77986719270217 68.81178466941714 39.03748632613288
68.16372391250991 66.9122661383412 39.2953508243357
70.34713884687258 66.08984740830802 37.862671907311
71.79387292916098 66.99858443848439 36.254658410289956
71.70446344451945 20.60866037553784 40.236345525263786
70.45547758062852 22.70940776831329 40.57556736544386
71.45304229099314 25.28675517533793 39.96747340494123
73.14416806319853 25.717575178948877 37.986251040562955
83.58196332005666 60.962699586971226 32.79545490513654
81.78644814572459 62.84274796880577 33.60402981037659
81.58904209724595 63.64934498925533 35.72246282371802
76.04802293927959 45.20973057172994 44.12464219268036
78.47833105769375 44.91781851370652 43.38665480429875
79.95609149218518 45.84780126943479 41.63415388260504
79.49852389722474 46.58656611636836 39.40545891532374
73.80959438259224 33.98104356339353 4.936304233599553
72.65905721368432 32.06292960686904 6.001912396268789
70.17593196220385 31.735933825911438 6.557122591849277
67.96429690926148 32.620882963768494 5.828545927221648
60.82131775762924 41.462533472341306 9.42488927254444
60.51641536125396 39.49275579164694 9.605742330871022
62.875967464200855 38.103141744051285 10.861489936255278
64.83158706059452 39.4766597469508 11.717862893538072
60.66761976524219 42.05789419422843 35.14488489911918
61.99310366046712 42.62754622545735 33.13204007548318
62.87358896212118 40.88322748749376 31.12022711490459
63.01168632136449 38.47631756899281 31.299426808356344
74.42646281571099 58.25920694472131 67.25548441314442
73.9664128418703 57.71376192096417 65.15148565450627
75.06590723449052 58.009359007376645 62.86713805217738
76.92526380470127 59.10570879645148 62.05053607461609
76.24430807047253 29.359876482958192 60.31309948605552
73.7024224733561 29.218900223632954 58.791281536962565
65.11498036916821 26.014267526482612 42.00467403665653
67.24285649667479 26.196785449040995 41.612203917963456
68.85490744901855 25.571787429482978 39.5779553874583
67.97643303294747 25.310771392557854 37.31271997743126
58.41320144221533 41.8841763676314 33.802727603065996
57.633440756899915 43.824264573060475 33.74575976206019
21.571283740559277 25.446714847748993 21.45394151523298
23.62607994976427 24.107377662129508 21.234999460827098
24.123315489958852 21.76772385608126 20.204158578406012
22.998350176692504 20.01676169513719 19.407205479232207
34.53264056783603 12.43856902336268 49.66993859677844
33.51314299404059 11.033022067866145 52.17536310482212
31.22857191699929 9.884547740924539 52.07024857358482
29.553966713752164 11.172408344251751 50.291762210954445
62.63557287998176 15.733888401189157 26.18731045206267
60.33187942417397 15.876091353818577 25.32345224634266
77.72838236080189 1.4242527444393935 45.88248031703211
17.680120937368283 6.391121388718629 11.422946266115177
19.6824332758776 6.163653590798214 11.44804184045222
32.32891113005937 29.324214653580928 43.35790071655076
30.81115813550378 30.33558459098003 42.053812178511784
31.277221418996568 32.81306362296276 40.58791676269047
33.41639564424319 33.0346637215376 40.300904095983086
16.724590533340145 15.932546172388552 32.2525775740856
19.406213473200168 15.228168208761966 31.960222207249423
20.277049884544663 13.006174412864388 31.328367659708036
19.376523865304346 11.067287832175344 30.087647004043184
77.65475675889003 46.47247356945053 69.64688790642342
78.50763631486325 48.59049442813409 68.66624598272071
77.56033011937268 50.945817938424945 69.03329261312976
75.4131246466326 51.88186423509119 70.26794709421506
18.74361445419435 27.301894876654142 22.5550836849409
20.262227955281535 29.549354547528775 23.615257315908988
25.46945995682228 30.40132491262961 18.839442572334033
26.589290023451742 28.64312660014998 17.764046118092864
31.78472267467008 3.505902869387241 30.38753530612798
30.997146941532932 1.6109897256184973 31.575660125614753
39.45018013180537 54.32571991936767 41.549324382792264
38.73715362530723 56.74380070555578 40.31946895467209
67.61672414509046 78.72408860234032 28.835025094999914
67.2694462682032 80.23662740257424 30.774869700592202
66.81727963131203 82.65202562061278 31.279902225023196
65.69658350753193 84.38697638645318 29.885453970797144
33.14404207304811 19.308432911592 25.111200237916616
31.165862598158565 19.646730210682282 23.847784292335433
28.7872463707836 18.79714953368183 24.101869789929104
27.711045830011983 17.489604503954215 26.380174014508285
81.52269991353714 50.55978511984955 20.190728769354465
82.1489319091091 49.931443021608544 18.024793321810023
84.108889975048 49.39209694902435 16.723982834047465
79.8587397211558 49.641623557596354 71.50438381740877
80.76470972014809 48.39157474928155 70.1623691309424
81.49496956189077 49.052118784537356 67.79523429284974
81.89815824583822 51.57083973002014 66.85400174066312
67.90725077387609 35.72125125452746 22.863125565784802
67.04617259378523 36.721837731521376 25.053873863029946
65.18290140606504 38.903030550941295 25.37674642615229
64.59100052517026 40.45592800060646 23.6831292220239
35.079119361266784 62.17834292445449 39.699480284591985
36.598409209708116 60.609541296028475 40.20143693736336
38.97603609501983 61.46053682825081 39.47192031115367
39.90183886007402 61.82351721638316 37.18117501137238
83.81957561018842 46.9087654707395 41.39099680247494
81.9410403459109 47.6467744191385 41.982209340185854
31.89714278536879 51.03904231392614 81.0051941673848
32.59191398319481 49.770426327205435 79.15038299489072
34.216817626843046 50.398961675043715 77.4787721594883
36.19822364252889 51.9306114342995 77.6744829756003
74.4413174899154 63.618019163111924 39.31268923465192
72.03024407945142 62.94647503252214 39.16064812206999
69.93749391206973 64.24569003920539 40.01982895287005
69.65413405010418 66.13916889788487 41.67667962180802
33.55824265575501 16.986565318961656 45.09850092074786
32.74974993277127 17.818160107764605 47.40730116557893
31.587999230295267 16.386081249233246 49.357643041013084
30.633275536345234 14.267552159887058 49.32494428841256
39.56377680087257 43.85532446587523 34.16108572152777
37.40425569087331 45.510540675252905 34.05972483328427
36.459113110349186 47.13711739911383 35.49454549197753
33.86238839375499 46.87393731089175 38.823672654160866
59.53379017838294 65.3576229381006 45.73585251780631
60.58883252544112 64.85445068322623 43.549839338435916
84.1490843018754 36.8632199764032 24.692427350186446
82.19384767915358 36.30422748853492 25.497100240623258
84.09071579425309 46.52526669669517 20.52857552295864
28.356174728100434 2.3961154251460752 36.90085628046396
27.39661313938215 0.7654426022552195 37.85806250844406
81.21403202497193 57.2334374061541 54.90580696422288
80.02458501605257 58.71824209098994 56.24710379503541
78.12335077357766 60.57956341398072 55.99518184405662
76.90314159801859 61.319365405103824 54.32406613994509
56.87009385753656 72.19601150863559 45.70987009597046
58.06333463890117 70.4035202718379 44.20920186222584
59.52240898195313 68.3417163293562 45.1622201640563
59.7351741431672 67.78290304200267 47.331794976523945
31.420340424992002 46.28723308341571 78.82290180018461
75.50477749320937 32.60670480555825 27.70551636934817
76.0242374926058 30.35439926908504 28.604281277454024
76.2362594853172 29.538296484955584 31.305311990616822
75.62354401035655 30.732124442336765 32.88279596495024
29.837065633762574 8.474129155896811 4.897414255702486
29.835605251927085 6.670779519111856 3.8288601619644256
31.480437922534566 4.314563795320521 4.275797124653156
32.51411647080395 3.833360314467182 6.666318742619009
16.19145819833263 39.554247736276835 43.77043563300179
14.847192459957489 40.929764887738 44.763432027251135
14.428959031201085 43.39566738571252 44.85807455017455
14.473332470604229 44.95021514920908 42.98193939993001
84.28172839930505 63.55369419786193 28.80685463150645
70.36169470587954 59.6319793232975 68.63233331016433
72.15163925102698 59.35108189567509 67.95349844982891
75.72855348113218 9.05328801738667 14.499515715488986
74.67095324140975 9.75995414590129 15.86517125167227
73.30505256548702 8.809716077295409 17.8136676327286
72.41375506496021 6.421809410517768 17.954027569203173
82.04876774948082 62.0758998680767 54.84668679952597
83.09910473385516 64.28217167061885 56.364673620286005
72.30808262373174 11.628324109865586 47.507219558595146
73.58194302311512 9.769353542488798 46.22677398520299
75.6265139846171 8.634117129869797 46.76165620759357
83.87655293205924 66.05421986431213 52.575618648551774
75.03055104651985 61.88227575727137 56.483387401748935
75.44470028540476 64.42604696875541 56.914393017635504
75.82235441947829 66.34702817337259 55.243819322862095
74.48521418203433 66.7545849722188 52.97721555818162
77.04365283924315 64.28935109790238 59.38840437528347
78.2409814049421 63.89042736061041 57.361420492002416
80.16395846657224 62.25345909820606 56.6564727910071
81.42014278069114 60.616334185654566 57.79708521679134
70.28737929012964 1.6459531179107447 1.2261075559534853
69.28021142326922 0.20883886240921817 2.8650859983260526
80.89126333135418 85.63947501477082 22.980785462967198
78.72817364651975 86.71508561046116 23.14050390368324
78.28844577252386 89.31339919687258 23.48155895404934
79.61742124036466 91.273563759327 23.160315835159928
76.44367528531009 58.16209219160019 56.6325712385044
77.58683744725329 58.407152600858424 58.821656384792405
77.75979586482062 56.84327460535977 60.96235756154619
76.28024838975212 54.5412635310412 61.5371121995252
58.35121799647761 82.55029341397216 36.435466292368076
59.77023135743815 81.90933915672748 34.01297460420325
62.2534448965742 81.84886483654178 33.65951665753615
64.28441901428025 81.90787897015817 35.198918207131385
35.956317844147435 16.258091200902417 18.913591324544278
38.52984055304647 16.476211144514842 18.31044061577902
39.56425552370475 17.81604449274197 16.59636626013331
39.01383977431119 18.790245613145192 14.667405947087827
36.360922550887835 15.062373385758763 21.428138210636714
35.185707214212755 16.834971112647175 22.56508776222449
33.767328112266746 16.90662310369793 24.574628111847478
31.766885487439644 15.536522628488722 24.975292243519597
32.23337798514053 8.152420318159878 0.8391513081439367
32.623053364292076 5.971688836843513 1.8263418798456081
30.80672139632686 3.9007268954600627 1.3683963102808439
28.713449808639933 4.142364626776477 0.6240140074721131
21.78321111046936 0.6747723693085899 38.47033244315196
24.06594979538721 2.09952371881975 38.21679414857438
24.536840149032514 3.8525002169009657 36.10644842930162
23.00026576988572 4.909657829903524 34.77048324921061
75.88674511348862 52.309716081172574 15.167283763626598
76.04306049140506 53.80179742355117 17.52503946996476
75.74488713088819 56.18255493716637 17.767954544881736
63.98720041025626 45.66426557834406 2.4509826344773757
60.27040941281842 45.93156242669933 5.5570060783334485
60.876147581459634 43.72036376747493 7.080444343199131
83.46070870802396 42.73682635395172 66.07550522273569
82.21020188773443 43.68593997957448 64.62121521825806
81.15612970634133 43.302109916132046 62.4423490629221
38.782946901346016 67.64072216144302 63.942168151051185
40.609613451566815 66.47022372421142 62.656840740240106
63.02540519566489 82.56722097391803 30.421387754691846
62.79793882334429 84.63568846759283 30.73373180949441
61.18271194995691 84.50261892566935 32.46204279140412
58.450651917258185 83.52372997841756 32.4835770588203
81.45641265939484 59.1989821513336 37.310598224051404
83.70753934763178 58.36994043557682 36.35811080015147
83.49925285991448 53.71423612600979 37.36142694136022
51.752806514348606 10.735829981177055 8.62198733138092
51.792400078136716 11.877845584404259 6.729108670889321
53.465488826828484 12.766325596844434 5.195237897134526
56.112618113934 12.876262857467825 5.283065587209413
22.72589835108701 66.97210527670815 45.083521245958046
24.757329214499418 66.15495126422292 46.0642258227341
26.590817904543314 64.82765983054999 45.23976665517996
27.36017370524557 64.05661946293439 43.04518870292854
23.16030290669462 67.89801375189222 73.86645067457395
35.298290310503575 35.70713675921188 58.963977379898665
32.52314704212777 35.725452607922705 59.45096039848098
82.91660265952203 45.55421445598683 62.55432837613856
83.34795775419374 46.17305822148545 64.83037512981052
84.29725888608822 50.705079134111564 64.38818407431796
60.0616137022628 79.16275615615001 30.478106595178343
61.97508778965964 80.43389143864961 31.364498379511804
64.33960642518683 79.53075249195 30.958738871250606
65.38455281864408 77.51995639472989 30.267566233193545
29.75118308374311 26.857735534986023 39.15786304004071
31.215146064431213 25.747442539587855 40.809876757920065
30.35457496942664 23.47886445536606 42.306543236548286
28.9794830122281 21.569206936275318 41.635445464487304
33.587841210334965 14.765873696939787 69.46911851143707
35.220401916673275 14.111442691786955 70.3516698111133
37.574951255331065 7.3199088621869155 26.146516664271754
36.76347878253173 5.342904967184302 26.70959796786313
34.91189374861348 4.629732453534105 28.301765082770373
33.89581915757002 5.735910060836974 30.081742458044495
63.17298661461429 11.096049212211732 0.8078685553311478
63.950963253002875 8.501660786073112 0.5350681698818276
26.021839530311862 67.57889422833398 41.27984751594598
30.135427067331577 68.01122761661807 38.74839530194473
25.382482365736323 1.9981462037514082 40.58211506575332
23.038001297509904 31.83740787714667 22.587025559960587
25.667610597843563 31.53482091933968 22.042519971167305
81.86249956833109 76.08600199443403 22.04816435807333
81.7207140880568 78.12921212075993 22.904373668916147
