25.58695993540294 83.48005203138474 6.2718833030295285
27.56942446761622 83.50580995436145 7.482801502276692
29.66556488455544 81.94686865541388 7.644302922221973
12.235151660105998 59.65170922179012 11.741328829102539
10.203154139710266 58.98333351247924 10.554805889647279
24.718039759484096 72.06735880806566 10.28266077367167
23.21319246121629 73.60633441723523 10.139047053631781
21.721994275822052 74.08986821949337 8.321326497803998
21.70329436148412 74.10495217211144 5.886928974038813
16.597212584620348 96.68639247814356 27.20145342356339
25.733043750062205 83.32880325306246 32.39676685416622
24.26170643170582 85.25596717684485 31.390735156565917
22.140334338404475 86.12897621638541 32.18235419744957
20.61242563235956 86.26170388943375 33.845326677630375
85.10762505505792 16.176434006885398 26.794288051647083
84.55476659986638 16.914469243952883 29.298175171989406
86.21595653264941 18.40402367848358 30.575248780459003
45.88214326899955 79.99695380252736 27.989336762498024
45.90943753993126 81.2982369266669 25.84944127016971
45.915592258397396 83.7037344879551 25.208427933667682
46.065351424622044 85.84507466729877 26.746914418266265
28.615716814431607 43.257314495118464 1.5341335785341905
26.71000875602537 43.01013342753257 3.0838992824626335
24.529443543675583 44.12594758187677 2.9624764150441174
48.12450698185142 70.32643133628505 9.634194467960485
48.14922722992867 70.94031753374405 7.473604197477944
47.950726433108116 73.33288829909219 6.198930228370968
47.19502126570442 75.44561401722623 6.67168831441943
29.923411451685805 83.82150885001667 29.61654286223799
29.271197862790025 86.08624361165853 28.680653063468394
27.296105079816947 87.72566637156058 29.37995992564754
25.72005858124926 87.35333836290302 31.280312468000943
29.66362373769807 71.20647114461806 23.30270550655044
29.914286868744554 70.43988257351907 25.37197556382947
30.167453901603015 67.5861672370661 26.213771061975272
28.41924417638703 65.81121568419931 25.064421950649763
72.03635947746974 70.8639018890451 74.6407686393762
74.04094419430658 69.07542320520253 75.11842055517373
74.08127060462962 68.13100427410541 77.41647548137075
73.81905679856044 68.97524614417736 79.7792041002636
58.14572890257895 79.73798106038979 4.760036536593636
56.40438852409275 80.99302805399705 5.762982452358876
32.633524701298356 5.045026153330687 33.93688772742047
33.22752452584302 6.313322510345756 32.084069888195145
64.04278422579047 73.6261677490634 2.7347433710053366
64.00247719777191 75.739162943025 3.706431381649233
62.83800280781915 76.67964246241608 5.784501529970561
61.03791558004994 75.4030180328543 7.2334305963899155
11.082451590481643 13.841269136393214 38.4848689943353
12.829795154961282 12.274787789087682 37.67233279146911
12.573821062762894 10.511743713362184 36.17377633172794
32.35498055216898 87.41332310614571 5.710450112236863
25.77893647231102 42.60177636019721 18.695360915315
24.286610119337325 41.30708545481377 19.432191072751902
22.34121192292919 39.67108180242373 18.07743349549346
22.586729243022248 38.72036635547094 15.962044723959112
40.31645592256871 86.37453368120195 9.698751312280818
18.735588302180968 10.735405881316813 37.94820730633038
21.190174155039273 11.229067999222957 36.99025930776733
23.354163299819213 9.93061811422954 37.05788010359868
37.33357074533974 54.99865793857413 2.8009084187438793
35.21910937494583 55.708401516398816 3.367545836764656
34.83835459515841 57.44432012511122 5.512266138888071
36.083453343221834 59.11634767789397 6.545886600464639
79.30566710486131 4.566268671067188 49.104578707473294
78.9079443307429 6.68753033701832 48.00993574334482
78.75886347746146 9.09203552014418 49.01830694468261
78.72157967338303 10.052952952646347 51.159487593209654
86.06010501844054 30.956267238302264 12.111879619643963
12.998414148666182 95.33754713972364 35.29251286024851
26.606216679658864 50.23283155440166 20.97781708701341
26.058012176731616 47.85670839146332 21.727401238983585
25.150020892278214 45.705104391462314 20.876006732123187
24.4104715433977 45.07879444690847 18.844872147320604
5.638665802514972 28.82314101986454 65.2474838685682
3.806955989545782 29.34585998443776 64.85256882349962
1.3449430908569429 28.75048592046529 64.40508292063869
0.042447042623491464 26.634819606122196 64.66360875224059
31.755424079025737 80.67241993336043 10.953053428833103
33.40432309020744 82.4449761582142 10.345904062502093
34.73486085657279 82.6892357892562 8.299244848074553
35.754459501131485 80.9870351341168 6.584722166864315
82.96212067105948 1.5949990376732415 58.26288769682812
85.10259137185747 2.001319070215618 59.31474955316112
67.26359035482788 64.79682597672048 4.94363936747684
66.05186407041816 65.38168760412739 3.036619625845716
64.4422091929184 67.30449404665765 2.354131510758228
65.44840659238353 69.92196695385574 2.7205517393796033
85.96035930804388 60.71516557389948 73.32219645571807
86.01731937736692 58.45889063532719 73.43642920460101
44.69525280657546 64.87030638772679 24.774062131689792
45.46407479902342 62.6415640825774 25.424509782036896
46.86438300919733 60.86522888338114 24.222391904132714
48.304139189438025 61.08970845106398 22.047520159969157
7.032559165877668 30.643252674467558 18.389098777233045
6.136333703278324 29.07593863449287 19.951717381310228
4.666201396139347 26.858660132485664 19.814874183481923
4.787502347194831 25.094997698465825 18.02206692536452
36.190861054085204 7.640058520080647 33.404806316040236
38.56157959738178 7.980917096320497 33.57822129335792
40.01283897206319 10.413966266945279 33.98509996629546
39.88814373432152 12.24790087974605 32.760180510655815
16.30831490438008 11.274724497506849 39.02282250836204
14.811884068742383 10.124963858753713 37.55998220808608
35.12909727127019 86.393107688927 8.526899732163958
34.35944116748924 85.27085051362802 10.464094387571205
60.74850977836826 84.23831630919588 27.736980853399995
58.48509957740253 84.65207759616337 26.783872136793367
56.64857367932144 82.67868602531314 26.755940978982714
57.11700536582707 80.22802542844836 28.22963941527507
8.412493538818469 81.98695969311453 32.44875577402772
8.327427994267312 80.2587662551186 31.23280256351678
7.814974089125762 77.51766062083333 32.065149336624614
7.418579240050497 76.72367171563312 34.19803069984261
71.56376410138319 15.327523786099409 90.00236989065053
70.50375894451822 17.81541457148004 89.67216963317033
71.29059113318634 19.818777860506934 90.5640219853346
73.34344756579335 20.584059713186036 92.01110874513238
23.308186913277503 86.30761272842784 26.90170604643166
25.38691835951772 85.26759734698274 28.008130362499365
27.445540802208487 84.86253954158114 27.25715944359607
28.22399048083491 84.05346963456651 25.36200627936279
34.70540917820438 90.84742097802258 26.45911682094221
37.021213776049706 91.78054904250965 27.002379843820204
39.501201289223545 90.47312222843097 26.004507423873104
39.385693404508196 88.63390237427988 24.966621334070865
10.581567133696312 35.542229938899794 80.5272467729305
9.525105313817681 37.39666955849192 81.53046635963369
9.017843111998454 39.76865392174793 81.13424312292742
9.851252739880588 41.38859030403374 79.23599472706817
53.29613703507695 71.98487983885973 81.15094408181697
50.19828085737297 20.03105731853157 39.933215480273304
50.45504325344511 21.28397915700586 37.69471985029346
52.49173848055089 22.334172254415016 36.49531163276455
54.93282438413583 22.107473098700478 36.80064323872912
43.35650881296301 84.09459843870087 23.49443780379968
42.885066628494826 84.25683812955089 25.733075442974574
42.81670397983504 86.7930949903025 26.98124490501825
41.8846813397262 88.82859638775578 26.18527426017713
77.15915282633989 48.744557993505104 93.93474793013526
76.12714705213394 46.60211401206934 93.05806673271367
73.79033557333796 46.085732319762876 91.76892084363647
71.76942974114507 47.688867709801904 91.90413423112619
22.25143260901468 81.46578324076005 7.012172456321589
22.9906473693749 83.70106245807816 7.691367595026958
22.04126130579292 86.2485897858057 7.186517914287489
19.624169033613878 86.5877066676617 6.669742896094912
62.542975471982764 16.13735621476092 53.76288137900968
60.32057349442077 16.20355613526119 53.57231925536491
58.718667668876364 14.1883521741574 52.36282254604558
59.494802317845625 11.788357608664958 51.62520355632294
11.592134822796945 68.11994666580213 8.750231303410823
13.777732804343003 69.54330842451584 9.623455911052735
14.734105760394264 71.27562199263664 8.273558674185105
46.190510263919805 79.08278346346708 0.8681011006284621
47.8604039084457 80.23374943342459 1.9933415208019394
47.054546935050425 82.69857461617141 2.9094966836381833
22.85238176914083 6.042276317734611 31.855803917346908
58.2927928450915 16.971982953307297 35.966531217996625
55.93105097041272 17.81218283207249 36.75663923266323
53.98617054181459 18.191018126953917 35.25698979960791
53.04302179326429 17.09142919772996 33.38625496761981
84.93799710984118 39.44297176626169 4.441685907404324
26.37994423866598 31.634768715360448 20.647651144388345
26.118809990311807 29.313635707878376 19.902300953842023
27.817803322274543 27.53940344151085 19.554718174374912
30.249661561726846 27.226093101299767 20.153898651394016
85.49496602945004 44.12330329272939 11.269735411020218
62.41696828356081 65.31884647522153 1.149842691052417
60.472380570177535 65.12518177224096 0.597789943942546
31.107361612734618 83.61903887261965 49.250471624841
32.985557931486696 82.38986874732736 47.903703535669194
33.455551300049926 79.83937489595442 47.869510169917525
32.483607136082284 77.9203798336412 48.41756317119087
41.65564043265945 67.42809070425282 9.371293520061892
41.658049266590766 65.90668799934353 7.304357887056819
39.97976053422653 65.71594639327024 5.5754129730331075
37.3217826630573 66.70817365412697 5.3937223640320076
79.28874355115515 50.28839336738109 93.01403713496572
77.84005504660475 51.61861808452219 93.449585598644
77.55048636097739 54.143159267811996 93.42512501123255
30.73459436038363 62.676568610596625 9.044037328294383
32.36860349412013 62.46335626659575 7.092693709466616
35.018739928987195 63.4927096417318 6.7427255181266235
36.54697634201969 64.2970900799298 7.88914230446653
58.01556921457983 65.73828682110279 36.7485561028604
57.70818953442657 67.71092308709225 37.44312511704588
55.72299158058872 68.55297347904425 38.65373871382284
53.2608656984776 67.90559584548726 38.062625864548195
44.922868760082494 81.58313783764666 22.615015777358213
43.65983365870328 81.52742692530136 24.54985060662262
41.30871328910215 80.50545448709516 25.179890592637875
39.38748743061679 80.21523956415467 23.92118869736285
3.408507340476635 45.950571057810556 27.887597126000905
5.9340040931002545 45.5669468005946 27.99922655479719
9.759706833879305 87.26721368070676 46.92601497008811
8.894167070328994 85.80548703200388 48.767891024027875
9.869378204182544 83.48360573478635 49.78126242530461
10.814535076331442 81.69798584815793 48.527833128949275
0.43830144652014774 30.955025956257774 61.34026144663631
2.792183033036829 29.828923047578453 62.08054222137643
5.01565946014534 30.885712474250543 61.78330739330091
5.966999740550255 32.896421379679815 61.146228536330995
52.83127479630095 44.91235509955663 40.44302566222704
54.603346293895235 44.036859541092035 39.393274385995554
55.54352109032097 41.630726898682994 38.73082511958919
54.26495418322817 39.71850095314691 38.535577887733886
56.71362449923106 45.45537207825346 1.3428419281402335
65.2170283541209 58.128336839099305 42.0435405917846
67.19879413725751 58.990759959229344 40.72734449418208
68.72630520594215 57.86575773221704 38.885373193715
69.11706980621388 55.33674222172072 38.3211280786374
58.761257512762135 5.34481526722498 52.42278641683426
56.93379212603598 7.4232615981084615 52.92251310844702
57.11117776501279 9.60782099335529 53.30464646672465
58.814067477854586 10.92269206788428 54.54018321680779
73.05013828189449 3.3041607121998973 11.08607547750022
83.03385308113498 64.13247723003663 16.16615927938263
84.88113137418155 65.79185944528066 16.76785805203381
84.89724645326342 67.62396809045741 18.227487315886066
83.39578217750213 68.47584633884757 19.647112891007204
58.76781240982836 22.97293650782116 31.526559256702406
61.11402527570192 23.82278560004388 32.00990006355997
61.575042422581554 26.060490716281333 33.16241089119755
60.790223088500994 28.272614026002508 33.024106684144435
36.48615859313308 14.43756150325302 17.647271919628537
34.265303675640936 14.294494143419351 16.520128971028754
32.60332769912212 12.201844551417171 16.258212031029263
32.642095496766125 10.276312593738977 16.584224424043114
43.3392205182438 13.131520107812499 41.43798784563538
43.61003587431049 14.787330077617785 39.47135756077972
45.137914193818204 14.574151004186632 37.5572673484173
47.02646351400844 12.947481739127591 36.94660244444743
80.45267225009228 73.0691742874317 61.280501691004375
78.85670379143423 71.62879371123776 60.00705187392629
79.93277366449831 69.25339526397522 59.37025167579085
82.28473805724998 68.50502904697086 60.18661236734084
28.05858279919762 80.29619787081623 11.379388638318868
27.573026182585558 79.6687479884546 9.647961773915183
26.158947479932085 77.64198432596274 8.836450313216618
24.87117447836782 75.6439097560279 10.275570952425097
1.9524087688250091 7.0529970174572405 1.2181205276465321
1.7901750087726567 4.2922144431031155 1.1581495461355937
0.04190664415745625 2.734985119969559 2.105274676311589
78.81401218357746 70.19974383003638 73.52708296266154
79.14459354505549 68.85188298344487 75.81338882928438
77.5890460958491 66.88626760389133 76.72366410299078
75.3015052090878 66.05676275452895 75.72336008093085
76.45794508197774 42.155526834231935 54.26099485965764
78.25697413145528 41.73248978408544 53.72951376029729
78.98815231560775 39.15027466920959 52.709861744304185
77.97105608902119 37.27964892394936 52.672461389860736
83.3110399684228 61.03708770834443 13.635996571449603
85.15281481406718 60.132797984201126 14.741602255539474
35.77214407067121 27.617377602905567 34.02450301829059
33.555858285697475 26.36456023574646 34.56671663246459
31.310696535646876 26.666663413631035 33.73590078451093
30.46191532590256 28.665769674550848 32.563636991404614
59.625210430135105 83.39226508816625 64.98634384240637
59.62843637710276 86.00037911727973 65.28668995008883
57.391755312221946 87.30508203879408 64.28751630532736
54.79951003754961 86.33661661327747 64.57582602392267
26.525219994041464 6.267343083941727 35.49230626415759
24.114988320217414 6.655464281860479 35.154359061223765
22.868509655824955 8.252000562546602 33.57714603238801
23.466778219408205 10.378068018833405 32.86515947320816
28.25427601199075 69.92012577137832 47.85074146861723
26.782568853452343 70.37098451279472 46.07833327699687
24.31866611084289 69.61469948352658 45.938536211276734
22.512574963426857 69.85929436102349 47.494740214658755
17.087008766965184 87.00948580446818 29.50116595537129
18.891406392698233 86.81405700060553 30.487242445668144
20.86700466177923 85.30353833322872 29.195330129589983
20.958504810512018 84.52708941784763 26.93321155834856
70.67162897750089 15.401304802803672 34.2082415625126
68.86149465707913 14.101052475086691 34.547301469843624
66.51735758415606 14.82125499480506 35.65388167547273
65.96189625667627 16.636667667873137 36.140586540972485
7.5930217313062585 46.57896188799398 82.34035217666204
9.347133362704632 48.16335426732651 82.14903244366027
9.353860041593235 50.32000695027027 82.93199376641095
8.222479171185826 52.35941115089054 81.95216861517548
22.306297368088032 66.93890412222615 42.82588948953712
24.662793312128528 67.52528159543273 43.66207071864298
26.275193886983548 69.35523952751436 42.70491187845097
26.08101275819185 70.65626974418575 40.374002219284264
68.91856178108718 19.356921745260124 87.91654661751899
67.12660896994608 17.846365172810685 88.64972678176208
64.94833070696258 18.124613571308135 89.80949196518468
63.98577144298735 20.55490322492231 90.67426007060851
83.10034576256857 16.30408779225871 88.19998631327697
60.99968129272642 19.745352447059265 35.93339789384211
61.52307857353641 17.856879593548477 34.23914110134475
62.65444947766532 15.821377670715643 34.25691233403277
63.92715672313586 14.588019180228073 35.92509439312727
31.355207652894826 88.0090643964328 25.54830013592767
30.944748665918738 87.77802777448231 27.8723954443708
29.44523143956197 89.2794635047206 29.592799235329267
29.632869557203236 91.90764716908949 29.35304146022688
60.15897849180703 76.71308501364803 21.55578505136965
60.4768884589208 78.58269001571192 23.295274862882632
58.82942430491008 80.02353564944478 24.989793307812736
56.5726822230318 80.14654932093171 25.1492751762341
52.351570752639404 70.23890878533243 64.95907301471503
53.31368499398084 69.78647688825303 62.86083031397638
55.5801261789933 70.76521630302716 61.60439983159706
56.80894843934595 72.48291633294458 61.73036830361754
9.480299353820353 38.113418884174465 61.55694094163195
9.889859725558582 35.964561701190156 62.46442893580353
9.838180658606126 33.39689287063693 61.54637944783897
8.506955296582474 32.643926018193056 59.76198000169809
54.82127894855374 32.555106089316354 76.10535579092618
53.334112601843415 31.028257660606684 75.302961060509
53.718022378174666 28.280153335250848 74.84761319413894
55.94446775899297 27.74224384037335 74.8847623020125
85.40600934477611 44.16759290747899 70.19264573260001
84.33607866833806 42.10894756836012 70.38204643721035
83.19506298446514 40.51650158575113 68.64468667823672
65.08450890415432 89.00052021276257 67.51599516621646
63.164132553773015 89.70193489537479 66.77760148878501
60.57745926101515 89.03348562596449 67.26693555756972
59.54496609651115 86.94152283275766 67.91473992155926
54.97552310810618 18.451371443109906 88.38608357970699
55.733524585149986 18.859177512477554 90.67560761742
56.19421427219289 21.194980296251906 92.00266677736506
56.41248526178396 23.64187721018381 90.98678167559227
8.053693336060663 85.5133366326702 55.66125322106764
8.019401571188464 85.03187793095127 53.338509021424464
7.301636846874302 82.96337588374803 52.115375664991824
6.113048415648496 80.65529301523493 53.28293832649465
21.888824556703888 11.148889148345582 0.6764324165569882
10.39927813625787 46.284288567985406 84.12335662236637
11.721529290484751 48.41064088410059 83.48624685160331
24.592444008903332 83.50543245863855 71.6613044887377
23.20843827880253 84.53196574727272 69.66622983772496
20.89124847720869 84.65698730590614 69.39888331916356
18.822268038603454 85.04436660389527 71.00318645341507
11.643210712893017 48.87260049906904 1.4067367475423687
13.696598485654029 47.54039755794828 2.2564343272745115
15.065113577307239 45.79549362834937 0.9232020999677838
69.7970901996134 79.83220287335247 64.13505123264092
68.73747229450974 81.44136177255426 62.913687402306266
67.46917075114324 83.65942497890423 63.26143358603736
67.1644226789407 84.83420267733818 65.12290940936882
49.74093794938143 27.515799954148857 94.30853572137116
51.14663179361406 29.39524338512152 94.53622570620628
6.186844855177655 73.16489359101176 64.65484147509932
6.609210147860843 72.38845497726585 66.92702634111426
4.899175033074672 71.44586360568894 68.68974746700356
2.2991196468158286 71.29384511886401 68.55350228219356
32.761672177806346 36.164890419564045 77.78487166523584
31.231792412914647 34.88453799844508 79.36608103844392
31.2103870196697 32.17603763327209 79.58875707520244
31.572815151784354 30.55292322473188 77.84311931255155
52.777803848171224 50.03953074489246 61.26465817957289
51.3602797722307 48.42862351903018 60.280480125868415
49.00572478013836 47.64801649278989 60.805979061983194
47.15438160603581 48.18886520974285 61.853038462038356
25.21387633246564 95.59220884868289 49.54930121591901
24.729022262615437 94.23195758536454 51.5543109068133
22.808493872494946 94.46259618496144 53.3299771044396
52.83099015700593 30.630598224173898 91.29751251058714
53.70187229259191 29.38730440375146 93.17836701675814
55.8942512841543 28.08402180550554 93.68220230538512
58.13126443279366 28.062818435672376 92.79915795865283
42.26087879435699 49.28141691456662 4.647960456992451
41.1241606864077 49.00517483036248 2.488696224495318
40.9000803507029 46.71997448441449 0.9379746027817918
41.729065621371205 44.646311090900596 1.2154856540610637
47.7101208006147 4.480223963791204 16.481593423290224
45.94474741196973 3.137786630773815 14.90045391657539
43.30866360696412 3.7773846598304845 14.601204917300908
41.821572885965494 5.071889407963269 15.71573917637339
29.488503230147955 80.87406442391588 68.85021013917077
27.50661646838981 80.31173072600194 67.61905103898404
25.042866430802952 81.70784979682414 67.11839501020489
24.594011904947376 84.0553935422147 67.64164551535112
50.210286758057165 26.04724597641115 0.48953741776869597
79.79588330713558 11.198988664707407 26.863166075159963
81.0560237242549 12.844830628735806 27.08022036239092
83.60815566647665 13.279167776575003 26.958375840726116
85.40849436565512 11.45017291483306 26.337161354562205
29.224463540406873 95.10778828787457 48.460243048274144
28.56303016652621 94.68168734874106 46.08377764457979
15.877711772744316 41.96272389364163 62.602648633952285
17.63616350360884 42.153343085482845 64.33311031532693
19.83177707368136 43.8203962815751 64.38587889860882
20.179194528301352 45.924766383909656 63.86670841057359
21.8274471740986 53.09618359162541 66.11624202701319
21.906766026281474 50.386073447770784 65.29175107340795
20.194134078467236 48.889302403010205 65.36264765219512
17.570498725315197 48.96192518096587 65.56324017246803
3.304085805594995 85.44716040795814 67.85673999071149
79.24356284278173 77.4266295064711 39.4985509254397
81.5572364691516 78.34680467122821 39.86824364431437
83.48966102285533 78.45401722551892 38.14376107038577
83.89999135844491 76.92900627910652 36.18436408757069
6.390241870484332 62.80693127440622 64.20329643525079
8.53088323286755 63.37603680236857 65.17664980818165
9.794701255400716 65.55517171988113 65.11558619740278
9.853289548378408 67.23695028610915 62.95817646701274
59.92349062042448 40.76423593468721 93.38840679724507
59.952142177636226 38.2067498195186 93.55952482272623
58.051548409867664 36.64661206232061 94.5686702403132
55.624804065326614 36.469754301710346 93.62449353249785
80.49707105865603 93.86794703887304 63.779832242176575
80.06934077887111 95.97929388560259 62.73295660933613
58.541836467239115 20.191662065592258 93.26248245268125
57.21063737409802 21.15112074144303 94.78482955453231
83.46827770456363 45.48321179342253 71.80836255036552
81.69669864984319 43.85061620937432 70.53504697231055
79.85989216845763 42.06978492104964 72.06818396639949
79.62682855353945 41.74842976834821 74.49186889324312
16.347547852275625 88.74056610407665 51.665460919976624
16.62868738432934 89.92751757276518 49.917953899659885
18.194237537805652 89.85755850329745 47.6675226417811
20.541342407690685 89.45669481289299 47.806998967397845
21.76848871297548 74.62673621874407 65.5576442479907
23.29848537852826 73.2426236057027 64.10054528213989
22.85455200337413 71.88678711247775 62.03597993177195
21.01254782900907 70.73024867662185 61.322752806827054
68.66378279403024 16.76765850540038 9.455052422349407
70.45509536347602 17.76241105246072 9.063236943736834
71.11101428452825 20.656298049673648 8.690819392237442
69.18254278616917 22.434826966775177 8.22368890849886
63.225025378328574 35.75304820594707 69.03956851114438
64.7256029695139 33.84274048748028 70.01561342979787
63.920243543773054 31.42416834920319 70.41212536424362
61.70054369219683 30.30992653490603 69.82202171814492
39.59495806717357 50.33534977770461 0.06345078257632918
38.146631376724905 50.00861481421336 1.934769984856528
36.177345132815944 50.93928603028824 2.908740252339452
35.825261848185804 52.79705266808904 2.864226664188926
72.85335090816876 13.65942140073455 34.83733407072942
72.68479707429866 13.045361895105302 32.19996811179699
73.56466590302081 14.6396484878967 30.344971668216072
75.68048725569655 16.226881926052403 30.152627600790886
49.14712002418897 64.45940914590486 8.173919726597578
48.905834048622815 66.5376875468132 6.8344215313129455
49.54838746812743 68.76818692555145 7.105955122463272
50.72600251859853 70.09999838897137 9.449004849188315
70.69564693882947 34.246532928580194 52.70423239622628
72.32568424739789 35.741195843953804 51.74542971581306
73.89350755293103 37.33395681211518 53.04672006288959
73.72494854016455 38.50754226582882 54.99012193326969
84.5374252210269 38.807626580943044 7.471786949693157
57.583071374302385 49.103303694644715 61.423512786071846
56.306837545391915 48.013793837992445 59.527580294918046
54.59374804921297 46.22436575251278 59.602347259645896
52.422842215775674 46.134434028186405 61.30120294135422
19.213966536748543 28.57988088547524 81.19366683257952
17.173609177421266 29.304910998582326 82.09973582498898
14.854365312342104 27.59984873347192 82.21047571995577
20.921513853069836 40.93129015044417 66.76908608754238
20.45076294531514 40.931928909553015 64.3189199401246
20.250048632523306 39.339041135708335 62.55104421082194
20.990483316783635 36.95114212857532 62.41016833036059
6.08365469162379 67.43388153133047 66.74503316748294
8.780270843309166 67.59021851580185 66.87469022298251
10.54585934067827 67.89220481809903 68.68865390328888
10.431979349173778 68.33007732349985 70.74038868323723
80.89331925012434 23.752090874614822 29.570345123763584
81.6700828731299 21.31934442727858 29.376180901726567
80.57304539489269 18.874190778127925 30.314262842732713
78.27526041295248 18.350773267904707 30.913293997948934
85.92455513534729 4.442867236567035 45.85572574090756
35.22433216308901 48.77737818131491 5.1212120050424765
35.92964719359339 47.53988587073453 3.512754711857274
34.58083909040318 46.27126083045344 1.5594300072791478
32.13208420928025 45.972154563619725 1.4670306796185708
66.1121049290251 91.35043035193434 66.21482516945343
63.9936600302654 91.34059424544054 64.53646447079883
62.34599877227638 92.99890049566706 63.92458623542146
61.89647983458347 95.40840564315741 64.95113734542724
32.606289957578085 2.397582313692199 11.539221244907385
31.84238655806925 2.590360025082534 14.16255094991463
29.702552097781457 2.400109698774193 15.343912608828315
27.304675264065832 2.0455032333533585 14.700660963594562
17.99395180675418 12.696821920367496 14.05252011324178
16.106803274865587 11.191419012801477 13.635136931306826
14.168037917237577 10.62877375217086 15.302980803746502
13.246555046535581 11.621262160544118 17.31236965341352
82.39752842261261 18.46884014402304 89.95160234028921
81.00785356203437 20.586230452182498 90.6354513129616
82.58095403369946 22.75073867419305 91.84657743866235
16.48459439833683 64.39293248196924 61.84672323045132
16.682222070538735 66.41133324658442 63.12216627851428
19.25608942936334 67.17228983127474 64.50825281851911
21.244896487473362 66.49418344362948 64.16203689982835
9.961788283910533 34.91521632716313 66.04614130929534
9.255497000635756 36.893115387156406 65.07156607690008
9.819030010328069 39.150146466909256 65.27470282101733
10.691966392610318 40.641298483792504 67.35309630863023
30.945604810705806 83.55826514419299 23.6829296210361
31.96005663869045 85.38348031760164 24.77841803344158
32.92863767313815 85.88042425191153 27.325022412308982
32.454736692904724 84.62694747305144 29.05864714935125
81.1611116362027 69.25648275115955 78.91995637397079
81.18030041695327 71.66817723999684 78.63905769539953
82.94219254207157 73.40950079981467 77.67120013565756
85.329332953964 73.06955187644745 77.14105611915645
17.5277573025351 82.22914652309568 67.88963601747417
19.991073329654512 82.29373766949912 68.16873948153997
21.837978445510053 80.63742312316609 68.5113668904743
22.098762334801908 78.3873262177808 68.23031037285583
7.35344629758372 46.36652250355214 8.086268225645274
8.51998590853988 45.352487822836096 6.520849703108735
8.122558665181327 42.62164584208852 5.50180862124141
49.83543128292161 75.87744031932935 48.45411872703803
50.16755014209324 78.14000211284345 47.39331603110066
52.3501602736598 79.54394003241553 47.20532251865144
54.60517895275338 78.91366620640015 47.830755425513324
65.46523684299379 51.920730384940974 17.43319090542353
65.17110019406744 49.60325363366276 17.55716373765044
65.26814336559757 47.71029479658669 15.544327007579815
65.57765667504391 48.1151633079195 13.05670028214431
59.617843646307605 37.68891897608303 34.214885034148686
60.65101768321644 39.46906747687466 35.78508011518952
62.88713413323458 40.49129917065393 35.30922625372025
64.12763162688954 39.48912250361862 33.27445842877599
17.945961428015845 73.21975040597431 47.493752856071296
16.222653778548736 72.37021315997309 46.25939034601263
13.600348482756827 72.96445111055822 45.9353658743926
12.214001282399838 74.57951101707566 47.06953635245285
77.47549311423738 16.06767451712386 51.51854971413517
77.17927239974269 14.851164534919528 49.28107295493069
78.2874138096112 13.036242652483411 47.8942450374739
80.31440329502752 11.551038991590952 48.588410030508996
84.8860502622062 36.34949535198476 12.727836301025043
84.9608897620206 34.65201627290908 10.709135883632623
83.23093361549869 33.11737920078897 9.931580945281512
81.1336132210813 32.29342613427161 10.884724061474484
3.331237981531563 77.26759956411271 49.49502687490132
5.106033547484401 75.67439787680775 49.347060372957536
7.13994347977226 75.2298885253037 50.89808967394571
44.39934057709869 93.1172980176559 66.50980861992436
42.75653966840887 94.43413268902067 67.26735435496387
42.657643683934836 96.42253163169656 68.79342132452697
19.372160729828295 41.84026370182282 60.706371389444165
20.885912793824613 42.47167039404147 62.3094228684514
23.605888391103907 42.549050851806875 62.63717676484534
25.107560952303746 41.549810196578846 61.52753291533825
37.141226252639804 73.79458184633606 46.6921687221189
35.07563091597106 74.63722142518633 47.79687725391335
34.469543403087705 76.26509088714755 48.9994979884434
35.78424212212996 78.6601818692624 49.72135591669525
19.129503522778236 25.186105985817317 57.66134258076977
19.98106094451517 23.190928394454684 58.52978461730298
22.062478799487685 21.91294001393064 58.26131704014571
23.82869962561443 22.961234962148446 57.86933915025494
85.56883276304757 55.434370695632204 74.92559161917248
83.57908245328125 56.68491752479399 74.64865352116773
82.19036189163762 58.18105238399162 76.44439587665389
26.341701047223264 47.830664647259354 79.59097885841165
26.044212444330412 47.215589806198366 81.70977186821612
23.47895657717333 47.26793316527533 82.8642633394909
21.61496839340925 47.42969458106555 81.61234674016036
29.257363355576626 70.07701365002578 65.22744002359694
28.075614256810002 67.86544279840604 64.43562579931178
28.413449506523712 65.5040088127309 65.32957066774493
30.291085791453984 64.17042431166934 66.55276412291481
57.51503405763025 53.86292138766196 55.68634201136195
59.525952059376166 53.83364019020447 57.11565769523583
62.243242245311386 53.939884058375505 56.07682058774379
63.117236689887356 54.307956603814205 54.20424754644411
6.807503523025861 84.64729736145618 47.79266593465742
6.607716881441808 82.69220121432183 49.09951374039746
4.94553407239361 81.58397156323986 50.42752695158907
22.453645523476112 58.141077512247776 27.83534746071682
20.263073547280218 57.768970942060314 27.794047355065896
19.073541616600096 55.74508856185547 26.131388017983877
20.84085583251061 54.221934677374875 24.710543184454533
24.948070848382713 58.52234299292706 7.329260388275672
27.3481304646451 58.1936344375054 7.128566863690027
28.862828581985664 56.5710259101925 6.311304904836146
29.157929627913415 54.0614655251669 7.422275785904329
25.831220339263215 77.36331572446667 68.70715082332079
24.630940677609104 79.52972075374178 68.8580905001988
23.537747727568835 80.87000766160388 70.64260375430962
22.720871098143427 80.22989840090167 72.73418259870752
78.09994214989045 45.51483287900974 94.4662054015259
79.34790125848355 44.47352256919658 93.04223106798712
81.69316264651587 44.73621929925203 92.00249634822858
32.31586167816781 81.77299830989756 68.3119384305024
34.77192266487438 81.0151948475547 67.49182862951737
36.23531598531195 82.5593932386163 65.70678574755779
36.319404463155344 84.80494752975459 65.46545900721692
21.064032701370973 69.17384347731547 42.34170525124892
19.29722207785303 69.07001708811683 44.25270067476104
16.751677230009655 69.13007262836794 44.197711198358476
15.908636098752604 71.24021178355505 43.938810208221774
2.6906373527924927 33.800383697673425 85.69884423148044
4.80020099293294 34.12174061769795 85.12296427775304
7.0033861444917385 33.839631197425064 85.9399407443424
8.038152733796469 34.22156728695823 88.15282632277672
14.528518471217073 96.57962193243219 49.387822542025035
70.1950150896393 83.76966679256948 59.04718877487901
68.76879567977832 85.19854268997997 60.91482241620525
66.59350308155413 85.70192542656183 61.28170135524292
64.3949278237638 85.30847043615196 60.02682816261565
12.85363018566097 61.93972846024465 45.36886900384736
13.145129039056025 63.65387842707192 46.4572076022029
14.409014560310004 65.80404160342798 45.96216402919704
16.31484995154898 66.35902313534427 44.31656978110196
6.506327501854438 38.69938431379284 86.42982768368587
5.1299789630064625 37.26591803128767 85.37828770406684
2.4866109225512307 37.00040912737694 85.14615608263703
0.9593463791325789 37.95435180253019 86.19858658507333
64.14346874138015 15.00951246256038 87.02665157276657
62.30682416700265 15.320488851126576 86.58873497146223
48.70694943053904 61.58159909385635 83.34331360435026
46.278069097928 60.873545528876726 83.05594035000799
44.11084692796231 62.40878792008434 82.88354310103509
44.04084750027256 64.94114660642508 82.16076518064604
50.3539484406404 89.56254215425264 44.604612049903366
51.94468740344846 91.29917725527352 45.085702455159165
50.863905945431156 93.89404233111608 45.33645957528511
49.2568118834437 94.89726768848648 44.376800659147605
39.897962904258065 54.29250599228749 4.184963544585482
40.707116845704434 54.046607674860354 1.8739139077888267
41.43616842028701 51.69505923106645 1.6830494978481176
43.728454148203376 50.55173349282131 2.0384169526484968
11.981795567635578 43.77873896852839 43.33992407721972
14.272115351359597 44.24858314461418 44.47374115327559
15.612526398309392 46.115283316503096 44.82057852534618
14.482355406556369 48.105189082398795 45.298043455258785
45.553569137955485 43.90840568036698 81.75028389789928
45.65808669534996 42.978282002087 79.99025769593459
46.48128792712621 40.28808558006474 79.6180760126524
46.847752340708524 38.52309410327717 80.78014688206916
37.778251492407705 60.807569456830905 9.834942998219509
38.82641833432199 62.99109625025928 8.88782124741347
41.201537582837844 63.4545836641548 7.719777432866441
43.022905554325945 62.01010803768466 7.6960985996230615
60.18378522876745 90.76935241450586 43.950121836422284
58.0580912255251 91.361835504225 43.43633383170387
56.283122461707855 91.80733135795067 45.0529397644879
55.23218321195267 90.73316173491673 47.28035905828253
68.9490073212403 56.09522772606408 30.101089192584872
71.12738262049372 56.55499204816055 31.12970549030391
72.10921631636339 55.92618817306206 33.71361220646242
70.83421003374492 54.53181828795131 35.621445800927994
6.738992742833278 12.256219718973338 16.677843929676257
8.85949402631941 12.95250768580207 17.510000711426695
11.096168595218202 13.293479521106692 16.683530703766056
12.065489320003815 13.62713649315678 14.566173320527492
55.88289937756872 76.00197213474867 40.636513715896854
54.1839599168199 76.54342040445864 42.69038749817948
54.32595268086446 78.23289449163028 44.450077156007815
55.87136883997015 80.35650115303889 44.893555310876124
54.21537332552211 79.53688082501644 22.596033176979375
54.5401229852 81.27386361075355 24.12721011882582
54.91396723211487 83.96286935658459 23.796381544498864
54.51990049250768 85.41896962215432 22.144184620298194
16.29262840198401 70.75569623770414 48.7855110963775
16.326986367484054 69.2269856160422 47.13335431793408
16.221232435848606 66.60892937944705 47.640281886870824
16.912188526782504 65.20433264293528 49.06682643639272
37.61183729979553 78.1280064185706 27.82304724612653
37.76010268851114 76.58389111697386 26.189577982492185
35.65220952774705 75.61907469994503 24.603238903250322
33.33886535766288 75.84694452536282 24.985995549095342
30.296861247505227 40.05355179114886 58.396009844521664
30.036586876644026 40.30199744247158 61.027908684528484
28.645652121128965 41.83872068719768 62.46083153185924
26.759536259333437 43.71799326516167 61.56307499926852
15.16287305654843 94.19453113707668 47.774445322332745
15.782763322806296 92.70722996588317 49.353127353450546
17.943659177831247 92.68954241355398 51.12533025558309
20.084979801841232 93.43953698020655 50.84719236003895
17.82036030706547 33.339384274578705 80.0453406341195
15.182934111760767 33.35927816470704 79.57752855579348
13.234392879960817 34.572725283717794 80.68320428931568
13.12116885194933 36.72517674440253 81.93283143786402
56.0078634883397 95.47171610226991 71.35904642411478
56.91370918469937 94.4380928564488 69.24068957332209
55.66175277596252 93.4197073885786 67.31412753050827
53.62476907928494 92.40920233095571 67.42342180261309
6.489058598795443 75.77374567985744 45.76131395767799
7.5419253918711995 75.68882061776492 48.096105553147694
8.932860548721793 73.49513836423316 49.19990500944396
10.101244280716495 72.03174010185847 48.13898742682164
8.07841649006857 36.87584022510227 87.5108317082048
9.000766200071537 37.525274491068586 84.69164062205583
10.966510776756365 36.120191933753986 83.9907027843375
12.974269934071472 35.06410371395338 85.04795047331662
15.464226939853319 94.33529079023607 52.284262893392224
15.463111284341299 92.27462052163567 52.310263649745956
13.229985097379956 93.48755987316684 50.625648228654185
11.023745570069805 93.47399490328895 51.354901992105745
13.774095381563086 76.9120882748621 11.004040166231468
14.069878886458579 74.6324686315538 11.406346398792309
15.880182911980175 73.25503583485899 9.712525610975744
18.24505616161203 74.19993957391387 9.662014745048678
85.90021997463353 62.87902220417501 11.2618475545651
51.83284777955949 0.9324814280167824 10.974791746682286
52.274214972366664 2.9546291819323356 12.297417187321726
51.10739025151186 3.990917086977266 14.234926912505347
66.99280834249979 92.43621560567671 46.36072098075279
43.5403826137524 16.13686727909616 75.14772575806913
62.992230847695105 93.85294417041685 45.21616424127711
61.32054993499999 92.38491834736855 45.909494551586995
62.011010639489506 62.34507706434957 1.390792476427284
64.02019577926895 62.984810976731815 0.8295066266136616
66.35041195135221 62.89766481650348 2.1441699502511
66.96427600742574 62.297588308855474 4.406735570000047
62.313649038630615 39.72666955517192 39.539058115982854
62.25451844612586 38.35556498283032 37.7006773540671
64.24452534296607 37.15974460458765 36.271665055473
66.55360005327488 36.61180126462359 36.73699335968414
45.081094272729786 33.927158286644065 36.16120506947394
43.16306922755382 33.13162289703077 36.63351642215619
41.7723613568189 31.257184075889406 35.48728828914328
42.586530653589605 28.969810508074875 34.417526297189774
22.439874381301887 92.19755471379587 55.498973471415844
21.279216150354866 92.05473956318627 53.179940306393924
19.169369067218383 90.58200538494152 52.55527420202735
17.156273443724498 90.18782792023629 53.74912439141142
44.19818107931263 17.95406069051229 17.341162338248456
46.438163204755305 19.63014039975937 17.553779780336548
48.81668038887249 19.058658404230723 17.795319472181944
49.93149837236441 16.50121669168958 17.03082741163223
0.2203248406563892 12.049516674659486 19.828227540811085
34.82583717993236 73.5388463188195 27.429102785384913
33.56291267705932 72.35113030345194 25.704931186092125
32.68596558499879 69.59060520425675 26.03834613162325
32.73079956885373 68.36405501240952 27.847627901064996
44.97432928626729 81.97076711800821 48.215052332312005
43.443434986891 80.4163869912056 49.52687284313989
40.88971828224281 79.69996154904406 48.475967786526915
39.59700899608534 81.13840984115052 46.553714548420714
86.03573020570917 69.60220411730658 58.608294185494934
83.79126236482526 70.51096870071552 59.07082515101922
83.11923650569219 72.92596602897542 60.21074829709789
84.68797813304202 74.16881483657552 60.691710533071415
48.978190462374855 64.46778848595936 5.066713240404879
48.45780448523234 62.786969227366285 3.273200840019923
48.71348750098931 59.93271104112884 3.597044296803095
49.78947843949203 58.738971821170416 5.315580490804759
62.3800483339507 84.26688301738955 66.39092364833134
64.06317033372345 85.07916386647483 65.19428701365028
65.02741609122984 84.30837995727089 62.948900256105254
65.06354137470035 82.24795261390886 61.75594037036789
14.977332212441068 87.36765214480222 65.57540179774344
16.584108689876796 85.94239025735442 66.49815759840119
18.00289962741209 83.89156933819054 65.64054050482518
18.63486140022934 83.37142364598051 63.42757127043195
41.84374502876115 1.2937603843292607 12.240100475937378
44.15556185137029 1.42975515556147 13.291135007814034
25.72699573831251 18.79832320770789 0.28904308296079034
21.547757980497277 22.45625293216818 1.968041352273046
46.91448043899861 18.48456296430022 77.01804022148347
46.3055240508159 17.820324520448704 74.70082547217983
47.79910943651188 16.03651888048736 73.1304137149027
49.30178295888544 14.573637635437576 73.56172213650426
81.16617966779128 58.0577892601484 17.64201865624246
82.74137277003173 58.11267390897661 16.066208733109697
84.9904776290922 56.31743951541714 15.931200406447118
85.01438883365233 54.80132643013715 18.053451384295126
82.19330395233246 16.112762725359314 92.27877900480249
80.47435474564215 16.93083028475146 90.62449756970855
80.49608873603272 15.293342088735375 88.74218089367871
81.57728803724929 12.618736948155265 89.31450273284244
52.629426832602 37.01566537595046 77.96008100579098
53.268686004614366 35.05315624197651 77.80606565306647
52.18980724836752 33.58502330593017 76.24845658142368
51.81890049374846 34.09464228385733 73.4696925197223
86.23432914872204 34.54262214719172 92.17730076634246
84.72315495478233 9.488606237109996 83.06124168291905
85.62460058876495 10.718228976173704 85.06909638872895
84.39581300520015 12.386160902227678 86.6318784977447
85.5113263461116 24.13232869811661 88.22958067275022
85.1649234341588 25.466580679584574 90.64883798108355
86.1777843543765 31.562962987499574 93.09655381306831
83.73536431980388 12.91548907291353 92.0313363442468
84.35005105939403 14.854903904803317 92.4279217966926
83.61198684451243 14.105410511763992 88.68933185340715
85.75279014629065 13.198852618582183 90.06702832772154
84.13598098074246 10.054558590065236 88.27023460654402
84.4772313693679 17.432199702721302 91.28150838489589
10.649166360433462 96.74057735021196 8.768269824225131
14.96595284293893 95.64569027016042 10.555165529501094
17.04252583871131 96.60949862914359 7.569658262862804
16.73740895547026 93.99071518874733 6.6240038139511155
58.93108376981916 83.7995565833281 7.04082168639427
57.70571367816908 86.01898647795647 6.446295838654747
55.5859692131729 85.45194491066285 5.5849461414054815
79.40955223087414 89.95573225243837 27.179616266524675
80.17674537548125 91.82879788963338 25.781576047510534
80.35940420892274 94.25242067852909 25.86633706729697
80.60077261271934 95.79188594639953 27.54684437639828
67.47040025403875 96.79600251072888 4.876912902053003
41.03446569091684 95.9055495665088 5.650320578196475
40.74885951173838 93.91616468055255 4.672421422271163
59.85603236592823 83.36617839353369 4.528610900187079
60.84003193735971 82.12685217950263 5.764234549193009
63.376298555327764 80.92121626503102 5.869064658817955
64.95289815080609 80.73189349690855 4.218884706711503
66.9862815120947 79.38432864471872 3.337526217227808
68.07544955306868 80.75559420587432 2.1364061601221094
65.78816916122652 96.62959979148098 43.527902382546976
79.22780743263925 96.31802472379674 21.73985082214073
80.76406603981155 96.09024582731118 23.454476333648625
83.4993556779831 96.66713577629244 23.572797522165715
73.64431685461345 84.9911366356495 20.588050295387195
74.98256445355511 86.59206575246525 22.64295420503002
75.01483385120437 89.13037523183449 22.52555346795838
73.62922795276779 90.73419651909211 21.624267508358734
60.59913160300092 89.17588560113731 22.93393372811574
59.690561050905046 91.68887932797905 22.400642799097096
39.17557226835851 89.07827978490153 4.861993451156189
38.49033728110247 87.0353007948489 5.845579574068562
70.55795217014209 81.04655672386203 2.666139256896501
71.2290774267788 78.7954184348962 1.7836645306672811
73.43900426240577 78.03104651917802 0.628857699774856
75.68257429933804 79.26057966274806 0.631330093762959
45.17761276521547 90.07274298575449 5.3995495132027305
44.411282724940015 92.83535750506591 6.129345356081917
45.39930017654312 94.29751396450753 8.223562929230729
47.425043214930085 94.02553889192038 9.249939126238846
83.57166595491789 75.97149478687557 0.6865596898415003
60.26618836281056 96.62735471823967 24.05095823075417
61.38314658759742 94.86365342792692 26.151127219735617
62.34258236043075 92.7802986917665 26.029765102751664
62.68840537389517 91.0928124006328 24.48192773667942
38.515219756504436 96.6838466284038 31.524525718824194
65.82374081486485 81.1383258766344 6.935419901097743
67.99145020796976 81.79492326176903 6.482600701415292
80.08808306707988 95.67827978008214 3.335161632969824
73.2834736493271 94.34594276993148 7.9466102209807294
70.6585075175015 93.63871506868595 7.569281295703072
68.61401192352923 95.39152170913957 8.191355850154132
37.687791033399066 91.13926299447787 7.671480277542417
39.68121767270135 91.23742766416179 6.396626248758232
42.23670790440097 92.08534510643094 7.5304865736213795
42.79023115838033 93.62399838345279 9.13365598938407
76.58817557388193 90.57703526451141 20.796510110123826
78.13602989779221 90.79014216984334 22.85539723138949
77.80640871819452 92.63297955621128 24.75353873359338
77.15525839836796 94.96356238884091 24.634226200404672
75.33907916130691 90.42555061828408 25.674862203174147
77.22684397932835 89.40119597992658 25.712294774877726
78.14269916067451 87.07910822749335 26.26156474890513
76.9663626503385 84.93198226572854 25.826039743240887
61.72575626211808 96.07599020242597 44.392279695320234
63.04668208330325 96.53716647133407 42.05747370995613
64.87776346350226 94.7971911122554 41.06249917383579
65.99412179626935 93.91989291375099 42.63297674189852
68.07762299154697 92.2700896582481 42.71134527789807
69.22972995200276 91.43893020127624 40.933885814691465
44.459421050750386 96.58821860604895 8.375606565259096
42.38479192338556 96.2666173796532 9.346208221460207
70.6566208664652 95.32693508696163 40.166291785081064
70.70614543433369 96.39202073377172 42.62234219743851
70.04903121325718 83.90272962432262 2.7188382399046307
68.43485299265858 82.76160035668036 3.72940231892487
66.08749963828977 83.00606251532712 4.414542487610735
64.10411893478368 84.55631522086682 3.149330942843435
57.54683142354422 95.031927970501 27.54199961059048
58.98224591694624 93.37375919744137 26.47418677029445
58.434009221448825 91.7626733836232 24.621724485211782
56.341569557162806 91.1290902964224 23.43197951332779
79.85601028672872 89.41245493507743 19.889058882014837
78.35957714860223 88.3466518211729 21.483617906148975
77.31058618676705 86.13622569507751 21.808271049822196
76.64341192932716 84.55020416516126 20.406994978800007
63.08586034938756 96.73859380242384 10.692994167962288
65.03017870343054 96.59791133928164 9.270080052049664
40.022995552099616 96.4123161249492 8.15982005647811
38.88732693374256 95.85099313641135 29.131274973115865
17.473227515449082 94.98618835420177 9.714687663738204
82.75120699760723 96.28679267968268 61.9161861940949
59.141914271226476 86.91389252970411 9.271396123101164
61.01616594592474 87.3540675961536 7.095941498313637
63.46460368194343 88.157270770803 7.811064122811515
63.72875561816727 89.94845021415418 9.659715179135304
58.239826043041376 96.06655125500758 29.75218074517376
63.08413349681193 96.20669807051006 28.17153133592334
78.84061021393374 82.86612854129966 20.820045006360605
