76.99486351179972 22.239492104152678 27.582328911174937
77.18577218629328 19.451501577525725 27.745036708507318
77.33111516482853 17.723939488494636 26.289049744952802
77.05223205312763 17.830375000329614 23.568193594250076
74.38251323806307 34.15882611686792 11.474956748903171
70.42670176237985 48.331327392836 71.34602186340287
69.25146896367997 46.76412094727649 70.13491799148166
69.22720281457278 43.943448660572855 69.89423673286635
84.25207428953257 25.725554870613113 29.587066929546594
69.56712308165592 64.88691340073696 55.570654520772536
67.24768663336913 64.0001273190586 55.37280103557628
19.401676846431236 3.091479272028673 56.06489963071949
20.644350745160413 2.633286737291514 53.8506852834596
78.38800104679277 54.01650872745355 67.5168113890694
52.1893907833896 28.868564723756 17.994751567559945
52.345668861176975 27.126072653952185 16.328524748130956
53.249612519960884 25.88729090630363 13.756892065668872
54.98926192466761 26.880103356558934 15.65408602726007
57.80582748661424 26.391113021334032 15.552485568654578
59.00969072370205 25.14465862316872 13.78510114038844
38.42450322387148 20.05284648739793 83.66408087360993
68.59696547365704 67.12493130140078 60.71550665438479
65.28013715431972 65.71499848662188 58.149744901505706
65.85323624958987 63.214261305266355 57.613377304574726
71.59073013320405 63.250099069370634 56.61627229984681
72.6974020132169 64.79939529521263 54.736004262327896
73.66478475886167 67.24265289473664 55.581421268122114
75.27251184595727 67.73168170364133 57.087908087387014
79.07627484823412 48.6416779100511 69.97327475427471
80.6604422557341 52.57382903310322 68.42287422931179
81.1216146018329 51.93108517621175 66.07218091293448
79.56703760016508 35.66084729941777 20.207496428231643
78.13664186239215 37.20087040722113 21.457853572216504
78.97220841410594 37.84378150893864 23.54255657530173
78.18729609692485 37.103796780300584 25.752031142541487
62.61436911080333 30.731166923671623 9.905784792796297
64.78511207836742 32.30394049156604 10.724370358926203
66.14632551642269 33.65065295443296 9.235922867547227
49.427932600947834 21.32196247414894 0.8781784645970009
81.56077026528519 37.53459673216827 20.871647327987287
59.89750505801098 30.084970878464695 23.463392693934725
59.78171931796351 29.48199513646522 21.24057589157075
60.107031561512535 31.116771203638415 18.91307644043369
61.192510071636114 33.04615610615501 18.607712335938576
52.65166340120898 24.111090521602392 15.841154680824992
75.0472597574873 16.357533313841515 10.498300893156358
74.03966570431751 14.322155921575492 10.674645069506612
71.84120521241434 13.398415827656098 12.080372402486116
70.16645810906147 14.461869056576791 13.242968189074533
62.87118345198872 26.638938363331462 12.067200863103313
63.25244868853423 28.906986824661104 11.92192515368534
65.40117302880715 30.274773381585227 12.061691213642934
67.98744956957616 29.408882925930378 12.552494160108827
46.639294254583675 23.387727277226098 80.2271714339711
46.411240586601835 23.424693836333773 82.58113057483317
72.43244291888307 32.53766230685687 12.932921268886998
71.23334461911479 33.66566737142315 11.224433524612307
68.93542836488925 33.059790329891754 9.88589254642635
67.87991062429687 31.055228189589794 9.676972741697792
26.72883909976691 14.396999833945465 87.31723411925132
62.79864288237923 32.189715284373925 12.386403988860014
63.39802936016491 32.51411494767052 14.809529001222016
63.96398413168331 34.22151995654504 16.119802956827808
65.10530464059468 36.054747102943466 14.379339375354842
85.71126473069741 25.494229300250918 38.15692464439358
83.93308292284647 27.011762826336884 37.276887762657
79.08649941568399 15.839982912662888 26.083425283371685
77.20302007820804 14.309170248700338 25.6941045099421
76.10034072007778 13.87843301770274 23.167907230736667
77.01971186002697 13.508424504186815 21.207882048343627
38.864930536030926 24.013343473978583 82.490725194863
40.362955607179636 23.056563566887007 84.41485878264864
42.50269785898576 24.181897671782146 85.64419178391165
44.181327281245416 25.873918684374356 84.4403136688009
66.93602912441631 44.304302468944435 65.51228653804144
65.3316724023175 43.07971837018585 67.06068610936207
69.65688577388028 45.42858706801289 64.24363921283064
71.37516721350357 46.27139988587215 64.9283589908232
54.35868442567086 24.98222698279068 18.24928025122722
55.52313634820321 26.23807804180914 20.086035942666072
58.235622146237844 27.030372313539626 19.80477212584022
59.28921230183335 26.60172804643167 18.07639836876167
73.11613507707908 44.64882600479041 66.00738472189427
72.844394900081 45.676346719399604 68.44177133218933
74.35958097100402 47.62091714575426 69.24410665354715
76.63422450542126 47.96710559358443 68.9594729519484
82.30106471757756 21.40164501431065 3.5587878839582365
84.06075855506775 20.11726221422497 2.9942554352685544
66.14406432297766 8.879731497997943 1.579155862394049
24.124305338249908 29.019212791082 80.7935237924522
26.558737585055727 28.810298018715088 82.25606795553153
63.184844727902316 11.14548257418625 3.852541059670294
62.47740565313769 8.375991752357963 3.977536656899886
61.72158156965178 7.200930586953498 6.31680517331818
60.15318233962785 8.100171477515914 7.97555306886255
80.50507511896967 17.727935898073106 10.511190286320595
78.05839627700514 16.963240722460604 10.640092331150923
76.75798639744025 15.304253963675322 12.461972948432544
77.5933123607286 14.207445617349437 14.319473453858409
72.90991419740341 58.914465288089424 43.0180881938691
74.37012115556382 60.815129393597594 42.210547437104346
74.89006763572417 63.15659924006211 43.72827189113005
74.91302472055851 63.316883850933735 46.25194899323811
78.79012173928956 17.875561117865136 58.811799970262435
78.98739286837433 15.91323541420927 57.35825707659119
79.22174572063918 15.874977182534218 54.75817915298019
78.59717823926444 16.962519781460493 52.95086658831338
81.96916942949684 67.57932981729883 45.21141384564457
84.98025052372697 17.56989437608473 67.91505136717967
85.25028711585227 17.356275758678716 65.12622017804048
68.95358566421136 11.26141196933676 43.67251023112744
69.96058398596084 10.882476475135032 45.87379513790049
84.90793372972352 66.96934154427913 44.75869392118506
85.82376573112369 69.49777883310402 44.39440465401967
82.51025298071347 13.973190415428762 70.2683886615714
83.21595829347166 16.46056565070909 69.61678496175274
81.95308998430875 17.980723502033648 67.68991636929643
80.43020646799391 17.695102772872374 66.14575421058964
85.84705232389507 22.807762550618246 71.63518007710447
42.772436770537645 12.82160536979167 76.24105247230571
44.73497624762851 13.443144021221213 75.5116382042355
45.31433549892792 14.394085479167224 72.89835424582517
43.83475873386682 14.46947966471368 71.16543250473543
67.81863037538231 55.05463765308769 36.130570920935526
67.42651185395184 56.3030192606006 38.28722860005952
66.60983636150736 55.696166523062644 40.593086748693786
67.34124991949311 53.32544315653979 41.585998500510655
73.80289730186306 58.12688156864662 34.54828739356005
27.910929242747827 6.335609836118493 81.2255387091113
27.494633526561966 3.8552798296149318 80.50051391919317
26.423215965217093 3.8625439155961567 76.06768740574609
80.43108922171304 43.831713356976174 29.262323555834175
84.29346890444616 45.92044163121692 30.704093439804993
83.53144242507436 47.84881919138703 31.80764229399868
85.67261244214882 3.9477671841224993 77.01722309106843
85.67416990070711 5.976514885635703 82.56365797443712
52.082256381400356 19.727509973752223 78.59477349660897
53.092899261910794 18.54586726615587 77.20441014014484
53.484367681917384 18.594763647638196 74.41460887021438
53.397821405589326 20.738989592198045 72.97242818739478
60.98527559528605 56.06806924370564 44.733376963566755
60.4390966084293 55.197838414156664 46.76390093107862
58.45923309883845 56.40806428596322 48.42044881510729
41.45792837185632 10.43112113104512 67.94666950274824
85.81654488884718 49.612494023915005 36.823490244873334
33.16745407608786 9.210944247785761 78.75752355396318
31.65114138033594 7.376704798069233 78.20053395401747
30.76452799467037 6.773003701687679 75.63569012674634
31.95296573717982 7.169616763909966 73.56253022624294
34.37323704585754 9.445007121811367 86.43625539676086
35.95301569000572 8.496547039625685 84.33465196117491
37.90066733691927 9.944517095352458 83.36911888575818
33.32519170983611 4.989066011962488 78.04826558437834
30.90619772686317 4.615665852777195 77.98758783411093
29.555870522467256 2.256846096382364 78.16573542125012
29.757905664432265 1.619512498720669 76.00083207825702
69.78548106491854 56.68754650977279 39.737428998402514
70.79281732984907 58.55877372267405 38.43064489364432
72.69328413625055 59.9295840177608 38.65128758793547
75.01777546357587 59.354564838800684 39.32892032885508
30.987452356443164 10.562467249059974 86.1879672985915
32.23484102248298 9.947455125135262 87.95241365621102
72.58379521339222 13.79303311028032 52.16416554600912
73.82929593474829 13.498139767359557 54.27252872240909
76.35629170309343 13.451464543352607 54.87288208889552
78.33908653061607 13.61503976317576 53.187795805543
55.74587618554143 55.29572768182429 56.314314736283144
57.70585836683881 56.7954228324298 56.81570552469954
59.995805812913524 56.51958908717873 55.891650965165816
61.59577901126792 54.477845246246304 55.481154166256
77.4932979469465 13.492881254764102 30.7127488583574
82.85991774854054 20.123115260777716 55.09979748653949
81.7545294284346 18.69165836700416 53.34333763990678
82.36719096675978 18.519784826511433 50.53672278579629
84.17766862664212 19.555092311311043 49.288131357058575
81.17677711237131 14.030540918238641 36.397179007958215
79.2783230033663 13.212265954630972 34.69129805017779
79.80688095228523 12.705277900675886 32.171569331481656
81.64141181921654 12.975389525016789 30.9538590142759
30.281421958706282 2.644515005856236 85.53316612696466
31.809378035532497 3.7519222711138656 83.95476957881733
30.89966983668691 2.9140989508016246 81.34028001714748
29.249881218145546 1.2282843122758205 81.02105505154192
83.13967717286675 19.698588364878695 43.18658585920154
83.23632248881837 17.283513980617613 44.33666866077525
82.24811404776506 16.924087549725083 46.62619091770204
81.28485960995955 17.70927749464761 48.12532144411642
81.90054789362289 0.5013448412083802 72.54763229905605
24.522104444040174 0.6578156495226503 64.79497598071933
85.01449280678584 17.450338214881366 47.01357633405997
40.91438130707802 8.033354460956105 74.77413277073113
38.80418431535587 9.00736086751448 75.741786494427
36.53281104331578 8.04769068208561 76.51466498130921
36.29104773343416 5.759413972360999 77.42361438340919
83.81494012597035 15.818389619346009 63.547218346339754
83.16225284743672 15.91358412607994 61.41768807665427
84.78132986049437 16.256923723681542 59.16876946808593
42.27067863358969 10.828334378825407 74.49641771392524
43.82739897869588 11.478475815031484 72.44382346156446
44.12704618644253 10.134982316083395 70.18463982252636
84.46286268199037 16.58428941261961 54.02672632747464
84.35025763840072 17.896356757834475 56.29927768326981
55.71439225396275 0.7463363479005983 89.83320985939226
56.55231670227473 2.5112311173591824 88.5925353615343
57.66132468008467 2.521738976618749 86.22013274874932
46.180287466222914 15.599677942959785 75.73899544150476
47.76524495138768 13.670449021874235 76.50405222604635
48.29989900088725 13.07344116815294 79.08701918760367
48.99214937378075 14.6698671105164 80.78292169905194
85.22038288834328 19.45942645710471 41.40501356387451
11.690854816360808 42.88549681291708 71.91305229747418
83.33382844023262 64.06128322924287 43.759466032862754
81.39618900493858 65.23627162593219 44.534452772793905
79.97482287975751 65.01786667716371 46.50218995420507
80.3536998125319 64.26980702459707 48.50913958299945
85.63833461469792 19.53504267578848 45.310637097615036
84.17900615331683 20.919390799943553 46.70812461261498
78.552211131815 66.54134696322386 48.51747970623065
29.017772059689275 8.765495426467437 86.50460579241533
30.076434860305742 7.27860095666883 84.83048481901642
29.46424268969063 5.144128007360451 83.82854281514602
24.322421835264286 2.2428799263947985 69.23628013257384
27.4695599544292 2.617039835250447 74.13666186147255
52.935697244820744 17.822611526656065 81.02912234656478
51.008314729499254 17.05994541632913 79.75975318158211
36.89631659647974 8.510470691114824 81.18445203780885
35.19467787273504 7.3344614887618444 80.0313063276102
33.708924013584664 5.328041064274336 80.55505984697493
33.87096515802216 3.44787286302097 82.00396043121413
30.986163525163846 6.654481659854106 90.29594937600254
30.95443973446969 7.424211155989026 87.94087210837051
32.43778317994262 6.942970245832843 86.08498289043982
33.91938112731507 5.119112620766291 85.39784384764158
84.14521575829511 64.30193999945361 48.258602300403815
58.00694053948995 56.324352561575104 51.84276226903443
60.16579924267213 56.93191243212903 52.99965520452603
60.85452746691991 58.92632061858578 54.307975925121404
56.821555400733516 51.7758963083445 48.26101625723744
55.63191517086828 54.09370226308697 48.32277437647988
54.80252642208864 55.49288978057506 49.954171570371756
52.295534362667624 50.37187282222264 42.326262791323714
19.544005148104944 28.935603602825 63.90043058564634
20.258418252055378 31.22325892358366 63.66181134195526
19.16843701030687 33.415601744945086 62.816866832778246
84.78613117638137 63.29792920101081 37.76181631845565
84.828372613257 66.59456367800715 41.27203642225404
82.53099122333015 66.39362920946358 42.130743240734624
42.487469042301896 12.770985597099388 79.3047962476613
42.060954768011044 10.348928739026835 78.95095002748366
39.96778269023822 9.07590908955293 78.39371601162354
37.27213096873286 9.62223174081548 78.81711265626724
30.167586196264367 7.433763490336111 80.21174017991636
32.173256367437155 6.849316898280429 81.89855747589608
33.42822088395839 8.181505029382881 83.54568189045274
32.95111075765364 10.38884001952313 84.4388416216374
62.67640563639125 57.03040324670765 54.37778899334758
70.5105585946434 60.07595541126801 42.4414816246244
68.71153770159525 58.54266965820428 41.70933638778636
62.669529622371925 53.426211528850686 45.62290648057376
63.49341289899606 55.94027217643771 45.447961997090424
64.62975830274546 56.99279341472572 43.848963471260674
66.80974251172405 56.922477614039494 42.93738014025871
76.08737766061994 20.783174533508475 76.0835459331536
71.18971919642662 10.685797224203224 50.393955714082395
73.66033526845924 10.347856828160587 50.84052832072569
56.23390456597279 22.461848523688722 71.84750009867942
55.541571505807646 21.625478493248483 74.37478844565757
54.81519589917568 22.514487908251418 76.22033652909283
82.44615626898668 17.666394534281736 74.28487674815597
83.40590922006231 17.8999025119168 72.0240095194085
84.9270282651629 19.638284227354237 72.27224879016158
73.90833392636459 10.519692617821837 31.568702788419877
73.62371481317747 9.38247471032025 33.973564092543654
71.93540945871432 8.24578924993371 34.936122368432194
72.34329652780212 12.249392505732729 36.582762455568385
74.55975443958351 11.163775062475677 35.8757940063258
76.57937484926508 12.051886472888455 35.34521608090618
76.80386275426771 14.445783515867538 33.846029538349654
69.82221872932212 13.52910947755989 52.01761590316345
78.43431183169321 12.453959404602005 27.3242232973244
76.4143603782068 11.759444934557843 28.961981234926608
75.9925219072703 9.38893372559611 30.275821817759088
85.39790071680862 16.63063873305646 32.583024133879725
83.04355419596446 1.357168836867651 46.17775919219004
18.00944619692124 25.420803674033472 65.00038133242849
67.61850303752028 7.598123905650337 82.32595278782287
65.55246596752235 7.0405514473195465 82.34350801854718
85.26552972502711 2.4273757616852043 82.69448641912484
57.51079483596082 17.041279705783428 72.99214135296303
55.580134973873264 16.54097302449022 74.55549683819056
53.649858587438835 14.70753981296762 74.25737527125948
53.43435265460146 12.615399832534086 73.17424875751266
46.807202769086324 16.38771122192312 73.3692444814668
48.51048118114253 17.353118230140108 74.4090630606746
51.11970613789479 17.074688222810934 74.20640217730963
52.53125310618187 16.352864680047904 72.51757416982927
68.8334446890613 29.127948001306756 72.11900120415491
46.41763371491911 8.72386337647826 72.17536802856826
46.270595830294745 11.27144863938276 72.97190591345431
47.74726446998063 12.973340964554538 72.92933818845106
50.46414173450444 12.725726629961189 72.49654902296055
51.60841865267559 10.965468249643806 74.83715992160597
50.320311896877215 12.58544511997955 75.37095070167608
51.33827048464776 14.648539132057502 75.40061635495616
52.69236637910995 15.873757801713834 77.41166129117916
17.70331550953433 27.654382305588722 70.79447666059941
18.16998830510466 25.664548145260024 69.69680707869962
17.164533473666893 24.633773817726347 67.71454230271529
15.22764899341458 25.396144080090963 66.1494618075751
17.640388154197332 33.106931360942625 75.12162355124151
19.92208213363182 33.316408459698614 74.25168477282735
21.222986768545223 34.333392886871486 76.15735255168526
58.07901178110255 21.27043906902031 74.5414671340247
57.95917099045174 20.55013931694357 72.64027282306037
79.0346325919395 64.49510380708773 43.83713360299275
77.56353838203331 62.56709051355507 43.69885460100277
77.00714916678763 60.87416372789963 41.590896333937344
77.37449793143328 61.95234273997135 39.02469389266115
21.847337864791108 29.871760553607967 65.20061395001358
22.75037796621984 31.606493415613258 66.23669038102983
21.914741033726443 32.725851242776955 68.68691847801186
20.422132004362638 31.89028535439384 70.27240024074503
22.431199849478187 35.99236681364435 69.53344816129524
20.48233583271159 34.82309233412347 70.86093949564761
22.22431905143218 33.16912379563909 72.6213036586311
71.96432830600774 56.93437533178176 36.382295447170264
70.2948258976811 7.394999856305693 44.878319482058664
69.6833768136527 8.579061190975795 42.74041700505585
75.33107953689415 9.682077379905028 41.96670738917902
73.38518890501973 9.480575950948483 42.76538285751297
72.28961520483313 9.223692326278966 45.370019506224686
73.25847860737305 10.129129510772946 47.51064696708234
68.61871698175855 13.16872344439589 49.79322862679245
70.17299221068001 11.893471441094352 48.35806137910075
71.88812841643181 12.40521962770414 46.62663263836181
72.74861974891483 14.494687731430322 45.53740933695784
61.26420102042343 0.9987175254461166 87.03813149196739
62.17501552255375 3.4012001981173787 88.46103667721368
69.12653710282068 9.566792747421914 39.46820936253686
85.24448295909869 20.826328679553303 59.27614322266379
83.7980785638776 18.94626025446793 59.706855394379396
81.33749792150907 18.693631108426693 58.50013432898577
80.95394111114615 19.810367623771338 56.79930270676132
83.65524200479997 14.283151504154533 55.324497897311915
82.98165150179975 15.843535235686057 57.2131339007464
81.01020617526075 15.162677884131318 59.13727643940347
79.65681000724209 13.047103989021311 59.56368860098023
81.63867615266872 19.143111336171337 70.24347035215442
83.26855648628946 21.17503371044281 70.3129553697282
83.57154178338472 22.030886389732874 72.90918754104932
82.15417126570657 21.71748458311393 74.55186410207054
65.29917825296951 7.42445387356937 85.08273450907836
64.46515927153716 5.23821888486957 85.45208080988151
65.37930893302577 3.0450316721514676 86.64524534607244
62.3269749661233 4.140747508443993 82.24457549292012
61.65716812466681 2.661243993409086 84.423793331463
59.50300046406592 1.2669763690094453 84.8251206625797
77.39440877007631 16.435529204706185 60.62654670749055
80.2095276837862 16.895614343425258 61.351211058885106
80.93435088274546 16.750152329233398 63.496804537532284
81.31729559246189 14.304354419772533 64.60598728247696
57.832488267203225 18.522982447374325 75.2899072950165
56.5456215480963 20.06458259647965 76.79296993380066
55.07319701174388 19.2346064045746 78.72577423123714
55.49525842669129 17.30847776524963 80.24551894831905
83.38838717154704 20.77314506333588 67.20063105895494
84.4902522215234 19.988692167558035 65.62380713181338
83.6497663978446 19.10065577619334 62.9833575012411
81.65277580614473 19.52321874853199 61.94548183094177
21.771874319553884 30.084147062928746 72.44210471979706
19.803056988108334 30.826333706992205 72.70131243389996
17.553325242171862 30.327909699997473 74.45630336767877
17.38382260765988 28.785833890038145 76.2588540383771
61.66916705912738 8.684589213068188 84.73281046900246
61.61524263926153 5.958627875666976 85.01674782802459
60.589977575708 4.517083780915273 86.54425308675714
58.57479571076355 4.533137857779951 88.00796418234646
80.95381459625631 12.528975981977464 53.57620324617495
81.80186450164122 14.671791891114276 53.16037473000325
82.64413649138031 15.997499130017498 51.19289876509989
83.02484301860923 15.799088297267776 49.142872919572596
71.17890040373389 6.315035508202995 37.03833094058192
71.5210099196981 7.491780099091434 39.595941199480784
73.52290524493273 9.301166746022739 39.93373881383894
74.62611807979442 10.042881705364733 38.34407232272441
78.54486374062317 18.792753284060197 76.79220031006503
79.59146754476373 18.714966078737643 74.91114256701083
83.58063798595794 16.304815017784506 29.385867518576283
81.59475855652471 14.555419136610318 28.700878973665375
77.15698097888166 14.070356113877107 59.50492305715248
76.43561438021752 14.923950845121544 57.379313328035565
74.02492886743725 15.430973474719478 56.454731203422604
71.96684220391317 14.35090560851272 57.137383647362704
62.24891812876684 25.287087797679305 70.87612514569165
83.21370605999263 19.457568909749508 76.25316299759244
61.10362174705521 52.03693154041023 47.11514912667428
59.070734217508516 52.773418243804066 47.20007793558813
57.210195254142036 53.216051646353655 45.21819596025199
56.96873271087121 52.14860761552833 42.9181356136029
45.579420165672076 11.86994483919873 78.65398721218627
45.978998676668446 11.282455153863545 76.16089484786689
44.278390991816345 9.155780491462899 75.22482640142042
42.61194347989348 9.070387845866176 76.72464350176593
53.849473883129086 52.972150395125155 46.73312439295431
84.22274249179446 68.97884705567368 46.90273486066942
83.07282013510985 67.54502912713512 47.894215491447014
20.34432081166453 30.940124923489677 77.68636270844101
85.78110316314701 50.24711491440068 47.92240791726601
83.86885246501794 49.61193463429532 46.79183498806116
47.2807125174392 13.578874074824027 70.04222599632548
22.93089772578609 35.28991337666399 63.27179492226186
23.14893775338119 34.44766740309416 65.67181883557956
20.738015641120572 34.61118388889133 67.43152739240517
19.058672058382495 36.40285695429966 66.47253668843324
77.8677760042032 1.8394312729564346 63.410411354040725
53.12391178586767 19.130441617259333 71.03561399189721
55.5534237030037 18.196873931362315 71.46135060887934
56.230812418902225 22.128567851544457 78.30283867895487
77.16770448878026 43.020156213079375 31.6480793929022
77.38358880858664 8.414931107286263 35.703141975050286
76.60475826391668 9.485187942032807 33.24749637269149
78.31463209563127 10.41341406737648 31.668694276454005
80.80587411781265 10.188280020287769 31.305340442652543
85.42122800505891 52.737341171103076 41.44872500395596
64.34364314401041 2.247593365645273 84.3703410274228
65.01828769962944 4.065346007722812 83.07341191181457
73.59020749571891 12.351431124054267 39.12575134005204
71.62451207025038 11.059337337479667 40.56953132613249
71.61636275811517 11.414858331180431 43.13287645149566
70.54194460998204 13.803837640061479 43.958984579673185
61.672690599112734 56.5544467997296 49.08628958657397
60.422559145159425 54.01180767695905 49.46565816410466
83.75206726171284 50.99088363444612 30.051110830322596
85.11089260336209 50.03887357643704 31.543670999594795
79.76464803799048 40.46785506118996 29.69214661562276
55.58044621658416 31.053442461688938 23.033011766723124
85.2118961719573 48.97899661543231 50.405716525823316
83.65869323089366 49.17398326007214 52.45757620821617
84.14654104409365 27.237417206628088 46.83093166626743
85.20886300742282 28.8852915015501 41.755311698697156
72.3520830498309 46.49184514230271 52.142251198734584
74.36459035480152 45.151150586456914 53.355685180064334
75.27193016860112 45.12884696587479 55.44673602753034
74.87724552925165 45.861799650811854 57.56872424300353
80.96883381194675 47.227736108914506 45.78543389148789
80.39484719463033 46.019956028612995 47.9988613310466
81.19951548756767 46.94852716818782 50.30304059142775
81.45313429325567 49.33961771564913 51.118181206232734
68.64133145625122 36.9281488387284 48.10971237604413
69.18733877360532 37.38307085360211 45.72042334710897
68.19966054192442 35.94866172955655 43.488760775960834
66.07321881496864 35.361378791790514 43.73533032617067
78.13564971409981 47.81295235050902 57.191561164830475
78.82777176012348 49.080036864624006 59.654120813483466
61.68472201877956 39.94310592457371 56.621533772903426
69.28503351630383 20.751421672954894 51.81541790307302
67.79732023877311 18.278355752432574 46.6575665997078
75.72397798902145 40.93249113167477 27.79692640891442
74.87013744143731 42.29412147101085 29.718324210469543
82.83203264541234 24.84693296788152 38.53654869670995
68.07513052597514 39.7910366192428 44.30557091085416
67.14703895865082 38.672510382572256 42.747128540396794
66.84784875584624 38.89718056331256 40.032084992199756
67.55954662965094 40.46367014433421 38.57573348533057
74.54155834964389 23.626756084622155 49.3474027479249
73.02524565389197 21.792516634905645 48.79041314797919
72.13863226822639 21.188815538524075 46.225569320708054
73.32707001073582 21.585428600746376 44.152409420204656
70.89938776826932 38.71192417598506 54.57418182485112
68.61001511315047 38.5198843915168 55.19843875898509
66.62462058008163 37.58223719197239 53.897028133524636
66.59566902346576 37.708098258743334 51.798953196753516
70.52623122897165 40.90260435141558 36.93811822889221
69.64933304493086 39.08917729203317 37.548439765429315
71.00787327293726 38.240128258451094 35.54770199217828
73.03915321115898 37.19801995285845 35.33994320977283
73.67451054024885 36.92264889549919 29.873667444422512
72.19857127869578 42.91724733786292 51.35515691885067
70.61602783269018 41.38364209669016 52.309449100053214
68.74693417136325 41.75281734007389 54.09234207257542
67.32015649575538 43.69586600372694 54.65153675058432
72.36155662999919 24.978279085896382 56.777846492553216
69.4050903773516 25.916154172061557 62.99499833451669
65.46729790066875 13.421168445726947 36.57662996387369
65.89620871759618 15.073627486359051 35.384855174681036
75.49222222967549 31.663864963297392 66.40187888077755
70.80575701829535 27.613789027198457 64.95430348581986
80.1782885889119 23.423172704350876 46.331665688388725
77.9069153168718 22.46350251892202 47.104544175270924
83.6447829071457 25.244146215661818 45.08629690788696
85.2015032522519 25.894287651867884 43.03370265552617
85.50115045999854 24.550794152919806 40.77451901648808
60.41307740978114 36.666714852430786 29.394535393271813
61.467154324441545 36.03863327104748 31.417415668012854
63.918552761291195 36.761209302365074 32.26197036663469
65.36527635321369 38.56518935793336 31.922281647651754
77.01156468331283 31.184148394400154 63.43928398048229
64.99139290447464 40.756787006717566 56.80889828656683
66.43668494159235 40.80103420651533 55.02979163795364
65.97905392958587 40.24617843545851 52.74348859017411
63.82410234894242 40.13177441417499 51.129145804736794
60.570576432818456 34.63372842817254 41.3523052539813
62.931408394188104 35.36571225726027 39.96427597539292
64.39106764862956 37.43339428035181 40.78241612510831
64.24968894717315 38.873734165700306 42.877837221388084
72.48863475051672 38.26156252593499 57.85664447228144
72.14060856493745 40.12406304437684 56.50328566622254
70.2892798190013 41.98097485104268 56.30850514286065
68.12941325264025 42.049746907079204 56.85393080549007
68.19935048676082 35.6899875636265 35.945111284013
68.19407510343021 36.89281765353175 38.35950821484507
67.02183671099056 35.849649213371755 40.5299417708375
65.6828841085988 34.30454593805544 40.92485041513108
70.39187633324526 23.18130726330384 57.094484986377054
62.676488273116036 36.05437176649615 54.53024217383649
63.636769830122645 37.630988612499344 52.84261508965159
64.32786352266864 37.49182228520114 50.350385783053476
77.72059207422436 38.46667174959823 29.636020935150253
76.15775774925243 38.946752937148844 31.764659308532302
75.51376615347017 37.43401340766906 33.64859229832588
58.93263127464335 33.40950198788071 39.776725113738564
59.18669862833897 33.61094332207683 37.4156808932978
58.19646264708893 31.480284567937943 35.45768523567444
65.69652610882031 16.658691763231207 39.82615932653555
65.06332654143444 15.679652821881007 42.37215216853534
66.82003707671447 15.684553426859507 44.12508506925794
68.84366422798523 17.03285167208684 44.726541055434254
59.30582245386818 36.04686481738224 39.60839115852129
61.0838072762186 35.46320149030591 38.22007006183747
61.92050627920569 36.01404129599984 35.79982752053219
60.48254534116418 36.94742161479834 33.867870865413884
56.98435520515837 33.43161555482787 29.948551835716685
58.97390976316907 34.39042025632792 30.612748700392498
59.52789029938938 34.40934006775505 33.2556409625027
57.81036356118068 34.23062636814866 35.2006305479888
64.79621123569076 34.188012542525854 31.923721441719056
62.38792773778522 33.43895461253827 32.08971336566316
61.10477308903243 32.14104177772925 34.190816613253034
61.64004186994745 33.206077131856716 36.196894170447436
58.28488723713565 50.78030839484132 50.06480498469685
72.75130329982436 40.740831365838176 50.41035604159669
70.64449661585645 39.33322776824093 49.62748735812989
69.48524327322096 39.56955009347645 47.36996740919367
70.32193759870282 40.432916825780396 45.239461431984104
81.35339170945271 43.60612068522402 48.48094102969643
80.69655927557292 43.900461579898405 51.14291619746162
78.4828587619356 44.13210558440226 52.03079030265822
76.40055922897886 44.31252761919776 50.896343848897786
67.97578270119847 41.21695589017524 50.50648936256115
67.50308993902931 39.133078875312734 49.65534526080884
66.01832635046463 38.00155119822561 47.97525684035933
65.51900248807871 39.370476416744566 45.4410400485817
54.398768352758296 28.22730379554022 24.114905673162944
55.570266089304766 29.25162969109913 26.02840660594851
83.8615733158579 27.186797433935784 49.894675441623015
78.64623524228887 24.038043577651873 49.40699185022897
80.43035246407992 44.045541576274694 60.74845319436173
78.72819153996494 45.12995520764528 61.15284188766722
76.5198697926066 45.2064161771833 59.968732690881076
75.21985100508145 43.43743617922525 58.791418627363846
71.54169046982037 21.8495753271725 50.80161937387808
74.32521503120967 24.80465185635952 55.02872081559911
84.71700127080894 47.06184147829772 46.71353907687235
56.58892385714599 28.433733377810153 30.75050327195703
56.99179869150982 28.899181765182693 33.147593193103575
59.445183711398634 29.905758208219897 33.70216347137145
61.69123626561874 29.136220991895822 33.03674647249526
72.70539554346618 40.50882422330374 29.20621986672191
73.30598779544148 39.332719759943586 31.28047082647751
72.75620372612171 40.34441279187375 33.93973689327879
70.70593162494777 41.805910406026584 34.48110559989552
67.7000547336044 12.866968444791043 38.56720758849109
66.0986711376334 13.794491725284624 39.769999297502046
73.37139317832948 35.75108856623647 32.528041188879726
71.80072496493163 37.517472210395916 32.77453810594942
69.21027075794238 37.71696528024393 32.176284339443484
67.42570507876668 35.75319409826379 32.585106862327805
70.58087271003147 35.654766520241125 39.870631796280904
70.64486206624075 38.108479021396406 40.96991743105076
71.53897507756925 38.696634570283585 43.332747570883065
72.03990037502304 37.47418524109011 45.30273264111074
63.530152247326214 37.83298310204341 37.34153844743113
65.20021307320458 37.004916624292974 35.52459503072409
67.18047120028479 37.92203836564841 34.43201222973745
68.51129129031779 39.885021904656895 35.08124501910458
58.2124749622361 29.80790701704826 26.406156735312496
57.71625392085541 29.87230776620432 28.885047778286953
59.37601362976335 31.10454233169001 30.793272880160238
61.63895853107468 31.095998512956896 31.033016554511796
81.3195948795804 48.428062051247714 58.89938755888957
81.85284939065592 47.66072377256968 57.070487635896825
84.21288566578464 48.435924059096386 55.48676029898682
65.69218749873782 39.41921416819637 59.2079544774943
64.04895430442899 38.418827975753736 60.674054975875215
23.362701030062784 10.698673259541867 73.83870748019348
74.73956319894751 40.961199701479856 57.12559940318
76.19452403196757 42.533573482492706 56.054562716239076
75.75611145978218 43.035130084245715 53.38694362301173
74.96575600333338 41.60841334282472 51.78392830416084
61.41140747845712 35.10141010136276 27.167792121060955
59.61651874341396 33.82619104726146 27.703007884773424
57.8136600947568 32.34417218603511 26.23253163831574
57.83829221740383 32.09966448014242 24.13267919902057
53.4069397276746 31.12774911641858 26.161615843827004
55.379581169432754 31.047904020684364 28.20109546817257
55.13867697770285 31.498311866005128 30.602785520554562
84.00566165317218 44.666956151662326 48.50763515900672
83.97090249049438 46.37001087407389 49.95003418337288
83.74284882251256 46.40697743318154 52.30399332423496
83.81749248260743 44.689394855937124 54.25180140669914
64.06044733567762 37.379283430793265 57.0400968686531
66.19453743138033 36.12892489950172 56.78075228270308
80.08544725495561 42.086831729965375 53.686046816599614
78.95038466005224 43.69319856806481 54.695354510660486
79.44870252605787 45.12611253485854 56.96295767286125
81.40262981102263 45.29936648726753 58.366893431515855
76.19653877194162 46.99562707082637 52.2135879442648
77.69456384309034 46.03884716373479 54.13772153205042
79.83430609489646 47.16418126862994 55.36705453331344
81.51293551715611 48.856202281222146 54.16317641820267
79.65168956656709 42.386810249040984 31.67433619043507
75.55247241063762 41.31647195302491 32.81046986590516
75.753937673159 39.95844818193294 34.72268789733286
61.4559135741606 52.001496387929784 50.51638654185398
63.89034582096642 51.79258161556288 51.97893070493333
59.64954641117787 24.390020758083857 70.47583205467583
58.16793971051419 25.132159937759884 68.28348206942213
59.35474120799448 24.99894968441783 65.80879028977635
61.518216256815556 23.757750601113223 65.1898872850302
39.405898927744296 35.431199379599875 68.2831614154471
37.748821953029875 35.9517823771174 66.44679283588741
38.14996370994986 37.83958312299971 64.84552427315782
40.391670239648086 38.37978964531253 63.3161667527013
56.24028199558564 25.977996067188048 51.858321846465095
58.480921260782196 26.364805889227313 51.00411602251879
59.54609311376012 26.31294835715682 48.72091452961202
58.24664177963487 25.923842819457803 46.536469519667634
58.8189587194477 23.634430700983252 51.92838074597651
60.486631705910895 24.81401147029153 53.10940557178824
63.25849680893629 24.96919483009623 52.3093985691867
63.177378768430145 24.507299626557398 49.68480647493743
57.73344525147141 18.346446049741377 44.974189003662985
55.52717456664873 19.087427273454235 44.67740539053923
53.229010458875415 17.841757000895306 44.08832756421435
52.77447568149901 15.318230727934088 44.263431160665505
48.933514986439285 43.98398884782356 44.55328283562103
48.89217795387528 44.51487453581993 47.18113630293308
50.99105735008422 45.72242785673819 48.07671557500146
52.435363514904886 47.486919864796945 47.26537256599019
61.69101775527054 25.454989374429964 46.353586436689625
60.763727658071865 23.776533786830672 48.26676480273245
59.096617181352755 21.6536709898089 47.309972292613615
58.39958971766652 21.441321987387514 45.14601848288111
44.96023248662474 29.915727495776878 31.21886996918403
43.031690965390624 29.85143337261915 31.636920770821717
48.973374663455964 42.05887337826256 50.55610974369711
49.943913015346624 42.48008602955776 48.08080817898654
52.29989227722359 43.07905050828707 47.69132067003047
53.57360496345611 43.449114399425866 49.2847324691856
50.66053763905477 21.64593831526862 68.47206466232674
51.85534229359636 22.691835962512005 70.15845697598205
50.83627667065104 21.843863252852188 72.67211625805446
48.85309977588633 20.28693620058297 72.6088648046335
48.19833152033724 45.50680920401089 62.789123697793094
49.94070628096432 44.38207428801519 61.529635240060905
51.65388772728681 44.393236476691406 62.99538578387999
52.47912443310592 43.024210953039265 65.18505840291547
58.98254802840197 26.815012490787876 58.16546681235022
60.08903797744675 26.816330113127695 60.66372551502567
59.662591782928374 25.559886082055513 62.51680379821141
60.00411182160151 22.837956365062762 62.67196593388783
36.783794460310425 34.58175582075259 64.38386990950815
37.70225459601749 34.613486657780115 61.936614321326935
36.90257241047223 33.314431760700884 59.979494995866695
34.981941512367534 31.957796801788955 59.42759630448954
38.744633250702435 30.340977894471745 40.233194403743546
52.20984264113323 39.483604868247 32.63433882602723
50.871644190620536 37.48326624557563 31.455210058379556
61.07013149676687 28.431855176055965 49.149180716972374
58.08615761528357 46.32384784012664 60.54898688165327
56.73611303938767 46.09053310310156 62.58076078571585
56.237421549771284 25.098616946129056 74.92550731512904
54.4981747375078 25.048848816307128 73.14149030340822
54.509426093901986 24.262404926173105 70.86351603705651
55.924087798986456 24.03280232640611 69.42684610742499
67.26281022715607 28.997786728531825 63.25729360341072
47.16622779350899 34.438163080950176 18.028803803268218
62.35170523066389 29.663915925945087 61.04483337746712
64.35589405522116 30.198425014116893 61.965698046820755
47.29456458595853 42.31631510480943 42.668421515429564
48.44329103140658 41.3365011681037 40.91957787045208
49.32148186264071 42.08612487535183 38.6370229909111
49.74891397485053 44.43072189632946 37.470208906120845
51.274951039863815 13.280202861313967 29.603373308564027
49.944010964994376 14.744684151784412 30.7029652944851
50.09897468754656 15.586498921401127 33.30689656416111
51.3401597115705 14.890382266682984 35.03737371317749
32.74199258166526 12.285755259209724 71.02726653634791
33.56321692693733 13.73893467753282 69.17332622287073
36.0098076987224 14.220164353643035 68.44991229290557
38.405261709269055 13.662821021692254 69.5838617379654
76.69006356036927 9.48883507512635 82.22791061753593
74.335537162565 8.930268194582156 82.58171800279328
72.55890652544147 7.538941699810709 81.52287666498239
72.72229731408096 5.800725353862884 79.50444041033512
42.145221982298224 13.452394939427995 52.60361417160559
40.3156431701681 13.068650548997628 54.23147487119655
38.435769637024556 11.721635866888697 53.12326078808563
38.45363597934187 10.26564442254009 51.11701085168629
47.60037902020507 22.047758625762093 50.028859181658426
49.45145918956611 20.8182018190739 48.963594476203916
51.633121145699675 21.296519603838753 48.4569228739128
53.134929725974985 23.53601622505222 47.99194984252059
41.146277422820305 31.529368412225956 33.81929826936211
38.634429036198036 28.7272964821276 38.21995424854737
52.336233285147856 43.13906925279282 36.647197721231336
52.56454918238549 42.08966343409872 38.92560563461011
54.30821892833549 41.01081069812926 40.130363981780256
30.771412550251007 13.764091221815859 69.99516561359785
29.119167543494868 13.490908181957213 71.7868337506873
27.072384741274718 11.56931213785927 72.12312570416125
50.36619157260232 37.289499596462825 34.26623394775062
50.2821206803279 39.28526443002872 35.45282231651254
51.36176155458276 40.11292671123125 37.7046267402885
52.20918532547978 39.172890266295525 39.57025886968783
34.30070997739739 16.84217415542596 71.10195321042512
33.46026562609463 14.623775071600452 72.19610378659311
33.197971314017266 13.633685997039866 74.23723834250808
46.29843111643201 21.924967013718472 73.58286134141169
48.646128094907894 22.184261304270017 74.61194213995718
49.49995152010029 21.830350017536922 77.27969467234794
47.859415714183314 22.00992453556935 79.37899976246463
71.84044762980561 9.829917391171666 80.40161343917559
73.48102428539602 11.667136428063886 79.31911706757366
73.36960701223558 13.681905591541133 79.20492671823138
55.5272626529718 28.504157996906212 73.48445248412877
53.29617658445294 27.25160718329744 74.02762236156399
41.6797328704996 17.214426410546075 48.56746617010334
42.1609029874581 14.765185704166116 49.41475717328032
40.842649659897205 12.899854069088258 49.580899069801156
37.939184885773344 12.636978768688948 49.36756316149263
36.10562461205584 11.927138154404542 66.70573040517276
37.15821236131506 13.658085282515152 65.5116044221781
37.79661654435522 13.885533280871572 63.251429491322924
37.36165601025897 12.195844952853038 61.20352246857895
67.56337751674535 28.797180072230805 66.07428162051659
75.01932711416875 12.440862851092293 74.86621330039779
74.35125037038402 10.98449642598239 76.77885240978637
76.28550514381875 9.776426147762582 78.51751211658012
78.63077002805042 10.96052880586656 77.62772768156087
43.40481345114654 32.43552225878017 29.844447090063095
43.93076775645098 34.7487401144486 30.713728566156572
71.03585813373216 7.075245973186105 77.79633522119389
72.6024808491944 9.016130350932139 77.21486936113722
47.82138225817126 38.364930112167144 40.71333114341098
48.95086218743717 39.593885207769496 38.86692007154034
47.81156362685872 40.60741621862923 36.63660987985117
45.573802376902556 39.837644988975036 35.41175901302268
25.815002915152416 13.837708434110619 72.4433482088438
45.68491712194284 37.25486570801752 34.386343708033955
47.65012657574167 38.138115880563596 34.08817592327864
48.88797479638573 38.94889750076337 31.66866661197802
47.90855710715629 38.64561508661729 29.208787289163137
70.22360725373314 3.063786377303034 78.01645277485213
68.91939048621256 5.2878028599395694 81.76329870055949
70.37716382781167 4.867395948451303 83.56112170448857
44.72832600186031 15.543843999065924 70.60181748548773
46.365171887578065 17.07758703703701 71.19942912521003
46.15573153138199 19.21636686354006 72.72679768255719
44.35374523789683 20.05872441882387 73.38018008301358
42.39687575018236 16.836527068185973 57.936058119006496
40.57119180253462 18.324791200983476 59.034851392805486
40.59813709191967 19.742134693048673 60.90290736814671
42.86167790537412 20.01394299509096 62.68606890299319
62.644021885654695 26.611702209660976 64.9925342556413
61.858601943920625 27.124093287905676 63.218518700270074
62.86275572735019 27.21887756364872 60.36444366626224
64.54919444569013 26.60111302285752 59.54974055516532
45.282701759327864 12.095338599302401 35.929736551081014
44.308778627961324 11.001463767707307 34.01849270880882
42.461445864592136 12.032799409240836 32.230338314525376
42.2818858911234 14.019909304261649 31.465025162137657
30.66430358983018 13.065294777163203 73.72701056884203
28.628677528147087 13.734834186806868 74.37637029760464
44.83961013002802 14.840852963796374 26.178158194799344
47.868988976427474 45.16871652418242 49.41219925582744
50.06144726834533 45.283874155866116 50.51336445764701
51.10648655363386 46.941350393622805 52.569655066787206
49.936514633932156 48.33767698723939 53.90938014907602
36.09832050744949 36.96588592190875 62.84728396827807
36.53273467334089 36.91312385702448 60.786918520242416
38.634175253471454 38.43807631315901 60.29530887995912
39.32695779759913 40.342868352789 61.93071033750017
50.074058894868394 26.183095774581698 75.36024240542268
50.80631125903546 24.982099488954606 73.39109604700342
49.28733829993822 24.38567793183377 71.3957793329575
47.19826294763359 23.65910556711219 71.70906616307148
47.99715940353562 13.782182817324877 45.70255819192828
47.47242925293913 15.096686808225359 43.698533258057296
47.098507435715256 14.046554263954185 41.141119914920885
47.70979732134543 11.826384932652493 40.18633455576162
60.589655369013116 31.408160052171592 62.38857414716405
61.51580798603389 29.910720062011485 63.86221755887091
60.391154076842625 27.834023968219256 65.54363399380202
58.13904138122252 27.519652488714083 66.23876463917657
40.78102531290423 19.28838465915803 67.05461286125905
39.12775047002831 17.691973636298943 66.83150435012773
38.56574559597904 16.87688514060781 64.48740362665737
38.7659663183775 18.184415912573215 62.38223744287455
47.78814550483935 46.31792349077022 55.469767098009264
49.65010678626581 47.156273619862574 56.13289969175766
50.794194375407244 47.69881242946527 58.72655598398962
49.74584347503043 47.09784979303676 60.76735358457076
50.38707122777796 37.49050589939333 41.47075252194774
50.54061035251371 40.38419356491306 42.52451624074773
50.04281353250809 40.891428969123716 44.58309952393533
49.63488949543122 39.34618139915265 46.85380829647704
52.76597365711442 14.160102213994314 26.43447703357507
52.465314848209964 14.078473565222305 23.737934671474882
54.601116134705435 14.748179182378788 22.367538423914652
56.09267389695849 15.727369120478484 23.723768307999002
53.61536700030309 43.95319470934454 53.091273223495634
54.851033259654876 45.47379210050974 51.44565420112191
35.776832571605475 31.054818666664914 57.086503168764565
36.61464887579743 31.439137458031144 55.09995697373983
39.1400305105196 31.186766866842092 53.844020171985356
40.74044313988109 30.097354384574917 54.21857401142758
31.5324040927319 32.76159960490116 52.50787142580398
33.79689867134471 33.73692373315377 52.01012725673462
34.918080459149714 34.09840553812224 49.71252753229409
34.619704971976184 33.18806695951182 47.45987782603316
32.35384574468502 30.53006018876447 54.129143453032064
34.13448298330999 31.187443491695106 53.24458667921528
36.35563185729029 29.74055304936917 52.10628829919968
35.32790102331674 28.113863338108377 51.039061732118746
47.59757805196224 31.59904039751242 14.79266340860323
52.800997257973265 48.7074900164329 60.07721378632313
54.05930295383206 46.7820600628327 61.44757500795553
53.40563642948751 46.23098268265429 64.0251408934504
46.456379199001724 34.68341681359009 35.50752534977147
46.36946006328996 34.317537961648725 33.404974060268195
44.52125982925239 32.65209781842933 32.92159572277901
43.91645273167821 30.52117396666237 34.02144150370637
60.74387741279702 24.86546953782789 56.970056574145644
61.70278758542591 26.515891024778234 57.61801810841335
63.92968531537219 28.056835591649687 56.18868526944586
37.00041564819739 36.20338048177812 48.844471421042726
37.344067372835475 34.096976497336456 47.88586428028507
37.5324572582337 33.10138943562977 45.33223942390132
37.015976302660235 34.338331437029474 43.31850304563081
56.004699384431035 43.37967554995363 62.630746962170406
53.89413755495073 44.21096736820464 61.30302826732343
53.87705636114099 44.57361234390612 58.59354014592071
55.20153433708419 43.85890865029905 56.96707472054695
54.7247789787142 42.34030722200167 45.59869958203273
52.45663744188343 42.09599817485962 45.33817409974442
50.88739589026 43.07583257147081 43.008291169140975
51.7017739043955 43.39011465422184 40.97707379024363
44.51807876362778 10.65321776080568 30.170957065264002
45.693287098148026 12.971441363127116 30.17078505658757
47.66037495265824 13.930876340064364 31.78577166860532
48.10590957593917 13.352565546749602 33.74637833944721
48.37454594963869 35.92916194514848 29.094713308478042
47.170786431681 34.71833041374597 30.538582146336744
46.20875423258083 32.09025638041605 30.44776340414872
46.32291493301087 30.69305582803778 28.494321202907685
46.89496163529139 44.343188480108175 60.412921884676734
46.62386204763999 42.55034273330585 58.44927911593133
46.22618347706631 40.23021387901695 58.53181899748508
44.93137237893295 38.80117529677857 60.03394072025223
37.14639953553693 29.42506723402734 42.27901861496807
36.16256609911354 31.37033814370342 43.145757790868544
34.25873294564596 29.571127092411597 47.074140590331446
56.73205464816641 23.067852777702594 53.70816711821651
58.65135157837392 24.621758783103534 55.183524294160065
58.27507042241146 27.017710646490293 55.5312257896082
56.726391517790475 27.824382207763794 53.997169251698175
