51.40260326082478 41.98973327202944 51.52492736933621
49.11497813445805 41.171769693749674 52.19069626791915
37.21793303665545 0.32309559564812196 66.89675719917085
39.45060959047562 1.085515905599392 66.33700023023987
41.14654899903156 0.07855310012391115 64.5396991373165
52.00201237299781 20.07868656263287 60.29204372794919
50.466971868179805 21.37530961439293 61.81387910725125
49.11966714688739 23.63538787661176 61.12985655398219
48.52551498128599 24.55906291275458 59.25812962340585
62.929036172700606 0.6993166567006152 79.47929026746523
82.03674415702909 5.922461042915093 84.51111404733157
80.79658955573466 8.072062867637058 84.1603078374356
81.17127115252735 9.34043970521177 81.75687357986095
82.52247013917145 8.84313260872099 80.59301455471956
56.26933948608062 43.848681162995085 50.36670641657219
55.567221385780485 46.273150173417065 50.2529148234093
38.88328157840273 2.3514564234976323 77.66465727425732
37.405775460540276 2.3476361309814737 76.01083678349667
36.97934219667815 3.2559978120898885 73.84213680236864
37.875863568118056 5.371476268958362 72.7397858840542
67.7273086727918 15.952848708613592 46.34736855509369
68.35970443900906 13.917063034387212 45.179684880242746
70.17578212493254 13.139329172852687 43.64162444760164
72.61980105650063 13.736734785396502 43.59078973538531
45.775522426435764 10.921211339275168 39.9158502216601
43.95166964769478 11.598183561692986 40.76106976028634
41.431590436070145 12.221348327776454 39.718557628526554
40.8594254014486 13.412229666142158 38.032904516578434
50.80029933216778 46.29311955882776 59.479356693981615
48.934029881879724 45.13535159158444 60.759745524046956
46.6990883302049 46.35048241679458 61.76882615198674
46.52794743004875 48.60174302035497 62.999712885868284
80.85037719679546 28.377299717280877 50.68355044146502
62.46335008236177 14.887513646512211 47.62984429725223
64.34057529497962 13.151882648752938 48.133914190244376
64.93808949152073 11.08369429079017 46.88568493716408
65.12481803151557 10.793502252046387 44.175193944398785
72.37502251977432 18.23328435181196 24.36158757205567
68.95681885439869 23.763213138864675 75.64709432775624
67.1982711158396 25.39978333884977 76.01594089044781
66.15832982541485 24.682413143906466 78.64542443358951
66.74022734961503 22.771209983198368 79.79190040924149
77.22948508893607 9.581141054529148 29.665382789590655
71.82802858092697 17.06535588962272 72.57498856403858
74.49321201069995 17.325917453188634 72.79891317888926
76.0568198073605 17.216615698471465 70.59711381834711
75.35122889157088 17.281334496907935 68.55262996303563
40.02924528657274 1.3867421802954898 69.97161695481431
38.161044372552496 2.123248782222105 71.37761538587411
35.80314966626149 0.898903176765014 71.59288354201092
35.94645286158727 4.70208510420678 65.34481511391768
36.789877281995324 3.172612642639213 67.504026885542
36.748685796280974 4.2272917737493785 69.86359860662265
35.34457200085344 6.119025753507065 70.87242817093859
75.83730557099193 12.791974677660374 45.74422934438006
74.36586173357522 11.4827404601419 43.817960366926016
72.8737274661588 9.431423623035982 43.870771617166476
71.79890536975263 8.123852594094314 45.72445833231605
72.21327319447816 7.1994941063717315 42.58680465362008
73.11058815229082 7.486473082777532 40.4527238731362
74.31112966489458 5.910430437183434 38.801734792202055
74.12188039250435 3.53553549435256 38.33813279209981
76.40919038912537 12.564886999515858 74.16168963407218
78.97097873611443 13.241036269616215 74.71557901513764
81.20528195165755 11.688853868949801 74.23934647016316
81.68104963203366 9.505034219323253 74.41135360813216
43.446774612840414 3.4849516497327535 64.2521271003568
42.57584086277814 2.4716227640638486 62.061864726616776
41.087970679618294 15.177150593846891 91.68204048720769
59.78040651347372 50.571106011849494 66.35621331530336
37.00804876198379 5.040249676438441 53.693906781381436
35.968569773170124 7.146663390157235 55.13161101417267
34.80707239213664 6.885447248469326 57.474373646884096
34.75307923615344 4.78250152935826 58.09516290873769
35.84753275647436 0.36003771328829237 62.11165730567096
37.02709310498481 2.4755889198275858 62.67039702512223
36.15477293633252 5.231422730886205 62.32097645640528
34.901709499219784 5.8623672737924215 60.51890810489472
84.15073318431963 22.9524754656904 33.37416611943631
76.06923657214568 4.265897979261968 91.39422758653234
34.40076871848207 26.349384648085735 78.08921267221042
35.64776699005423 28.746630939808494 78.92091091444078
37.414184527246306 28.591268721043626 80.78631259887304
37.70111770361053 27.495174142868933 82.78360304679246
63.48579193458776 25.796695147699545 80.67311606176646
39.160695881200716 12.558369943352648 42.76188361964166
40.227960170500225 14.088505309561102 41.21711119572838
39.0055033543634 15.62716315549519 39.386643036450764
37.09084597673855 15.86103115986782 38.46833067084521
72.41335893177255 22.706554234267116 24.67565957651888
70.82247643387242 24.419711675695424 25.323389889609352
69.27569909226374 24.413310453486897 27.695118633343814
68.81797866431553 22.920820896101915 29.11210153846097
70.31989044069404 23.325607966315943 78.20715538548016
69.17158158828073 24.55167548436778 80.10564822508321
54.0579582584931 21.56209172864085 66.1223749896593
54.46021945192525 22.16602228524907 63.874361984887685
55.259238597885634 21.04416122585933 62.062994676325005
57.1360076498247 19.049733995192916 61.87976472871929
36.90624171181671 6.712458449580507 51.03365801207459
38.70515080586194 8.527902384711519 51.302638040336284
41.0857698663925 8.637865671860336 50.663395412365695
42.205204417901996 7.191305020340637 48.79789413619422
69.56116274938455 9.675410598048263 41.34646637552167
70.49588501590299 10.470649066938876 43.450357035150574
69.48098284963325 10.176837275492394 45.93792748643925
67.48340418560514 10.137765371570602 46.93148683060268
49.011383842117624 5.717279916400144 42.48248870464234
46.51433653825236 6.799736496912814 42.65833186048042
44.60331723218009 5.894167722598748 44.00884689342203
44.90592585498939 4.356010560467251 46.22863438373609
76.32914841040295 2.377680640952909 35.747812736958544
75.46877995861189 4.538138780741542 35.88116802667471
73.68350979876038 5.957822214156005 34.3862421783945
72.24260156535229 5.321673198720819 32.66607339561887
76.91238901466416 29.243594267320276 37.63655061300992
81.41983648797799 28.139061495701817 36.8236712339366
41.65066017802326 26.517265381795028 39.8484821363369
42.612799636378504 28.59998658637418 39.525072821723015
42.796157176212596 30.76840702089784 40.95645695395739
43.82389189745993 30.728019476385274 42.81228947380764
81.58262019562609 2.797757796990944 43.566319406644546
80.6281886785015 3.302160776647788 41.2151361644989
78.3723569877632 4.557717561291685 40.56173171923659
76.39204409862293 5.303653742380896 42.023978243044226
71.13061066028135 10.79455289292834 48.784143067568685
69.42933092906516 12.500401158390474 47.3639051888822
67.85441327854366 13.805143576266548 48.208713426529876
67.31128284277862 14.914470463760708 50.544185609773116
77.22506529696453 8.0565099131397 41.366065312627185
74.9961902844917 8.80099372317471 42.044417644897905
74.34464014865895 10.619908511696877 40.38306082771305
75.48327430414012 12.111138940316312 38.693494855998374
83.89141813961608 9.8357431429403 76.35499697261322
82.65289472247997 10.1173953722274 78.0417082900098
80.98862812107903 11.854034862851174 78.48962277898254
80.99954213868318 14.524005066029893 77.02507053046176
29.684670213335494 32.72014098898046 74.12453774653339
61.8462039139343 28.8675782540352 73.0334614177527
63.02244416917674 29.584458522344438 75.20316018529151
65.54325346366475 28.98551576828221 75.92633895853477
67.35589474993539 27.91670057016977 74.81069724566997
66.79665720752821 15.070286347745965 41.44385764241532
65.56538092223543 14.777226307329435 43.764523920064825
64.8786725106071 16.697861220400885 45.495240983521555
64.19517834443651 18.655595155513026 45.29653324264199
44.86270158455755 31.98761048003225 28.810467945909068
45.83371105636974 32.098387060485585 31.222418061408295
44.725016014132144 30.556539227545322 33.357703918478414
43.679328168493264 28.337984840311446 33.232830313119415
27.723596714525538 30.372496000407065 69.44757570396035
45.98034491047642 42.517443080054235 54.31924840304515
47.801257357799216 44.13388471925068 54.01962154055489
50.164650048520635 44.60571237280154 54.87437902314959
51.6372079816476 43.31167629190488 55.969798931014346
61.74201440697419 23.98724557858623 31.690853013787684
62.82001518749919 22.65591937078575 33.11269888187024
61.725320075504236 21.93611360562289 35.67174343439097
59.441327424387026 22.634104807362075 36.30445298035207
33.99877703193729 27.235849860209317 75.5275950612567
36.37091073043113 26.737705210941684 76.2331995883963
38.4687588111699 26.132097886088825 74.82331420690001
38.735651947721536 25.283943047894358 72.34631968612739
47.158116282633564 16.227389808659105 85.85698166459419
47.93302279252874 15.098334580916433 83.84713900669729
46.81811132683862 15.171859130743071 81.29807201069627
45.467405569428536 17.16499477654047 80.177373769935
44.72291930794956 44.335620189052776 55.866173015120665
45.68569032920299 44.771450625615486 58.03418410461624
44.963336497230614 47.144315237376105 59.172801209386385
43.00179691985447 24.303541272993964 40.29924877325217
44.01534552275966 25.39080060162609 42.37449372434031
79.66546754758812 3.5266693919940044 36.330746548944376
77.53432658398687 4.014939452200961 37.73488626115709
76.94619196330248 6.238396062358797 38.76871360568184
77.86886937324215 8.511577590122819 38.84878733036634
78.75117577785316 0.17113622457569663 43.99898256908075
81.06766269503058 0.03485363130173362 43.19291414280717
58.91736967448821 21.53858187650845 38.90176885469433
61.178662612850935 22.571952850271217 39.61305734643966
63.33213298331797 21.713007784169918 39.921299544410786
63.91333798248519 18.906359230020467 40.110781360931256
42.49884988679362 16.549839750263757 34.78164528977453
56.543935799403194 11.130953724964257 9.299898906117555
58.15357508426568 9.593365253989942 9.934282944001446
58.99203746605283 7.2493931118689785 8.66192395390672
58.091290724859185 7.4907415228583965 6.125869882738075
33.24983485865862 2.2775602667375088 22.300577451212806
35.59652534433532 1.8881442242042579 22.57033589942121
37.34707146994437 0.2306935425685714 21.096425178892275
45.8163060840892 13.069802576607254 26.961280073921184
46.25686991289007 15.297063930175291 27.72036833616577
45.2354391064619 16.679145572831754 29.508290383589088
43.50154945932169 16.32886817748549 31.352735116760066
34.97253069940928 2.5710390202052906 12.201250056482094
50.03443020735964 15.825998904445614 27.15441252524577
48.6752671280961 14.639826821093536 28.779295224922297
47.97316524410562 15.445592693618321 31.082612145685616
79.58744450270751 18.250140666194167 4.232803190803995
81.0702031100109 46.51029511773976 62.15025952646256
33.71316452473014 3.6678183682321857 17.310556930986706
33.89442253352716 0.9241154205325042 16.567934543246363
34.20887407451483 0.7988174971603808 14.054757008379324
59.611404903162274 40.74709831667338 67.2852648044661
59.807305908224194 38.48444771617698 67.63072808421464
83.47906172929041 45.7216180811909 57.780806002377076
83.02372149079127 44.315040503367605 55.903511089774206
64.10687779992803 34.52135402165363 69.20097739183811
62.16156287969121 35.84493038778211 68.50955925354737
61.64734841416053 38.30837013143099 69.43933767312122
63.1708684335322 39.977625828404676 70.46150882125825
64.0381692790872 34.27675760936391 72.03368588544349
63.26043530628674 33.954284237134814 75.0332105518554
60.585070829238305 35.100281070880165 75.59588863425641
61.13027648188805 35.527256969756735 73.22580007650183
60.05175177810597 37.05740616940828 71.32587858092825
58.39303092194202 38.715278739393696 71.37136550288182
59.0919414742428 5.359729387874329 10.527993297125779
60.98576174014042 5.6184656309109995 11.993850513157117
63.343553387083944 4.628640405033409 11.80754930485827
63.89408111062192 2.2951884725692744 10.97918206004404
60.54012742203963 40.38916061755244 73.35340311471037
60.43955409763177 40.53090125997071 71.14872474809438
61.80341088950059 37.866030292483146 66.20709959881805
61.14163558216163 40.31292342725812 65.13118841024112
65.61910894442867 37.01530868441524 63.16810737762573
63.89197597581324 37.263999304327655 61.04624949604897
63.76558897227087 38.84579947453275 59.108069880031685
37.14026920494803 2.9428561090391376 14.151217222363558
36.85356859303457 1.4916383060759986 16.207716749438006
38.47622889438859 1.593612503948461 18.22654646081388
40.21102010445591 2.4265001663676204 18.74606317512813
46.19850753593542 8.00370556240784 36.64161955583493
46.606963733460894 8.264555038468524 34.24407000345858
47.496261040720675 6.7045123702347595 32.3328419338961
76.48328468836775 33.72777729448701 47.163017571998914
75.93208089714129 32.7057800865392 49.438349767580014
74.47460807706548 33.91006069920403 51.31653453220965
73.43416044966084 36.20440232143141 51.57334437672258
63.50818393954444 43.091783603708244 68.53355204403282
63.55394098618568 40.828820973075096 68.02752179254573
64.41503586076153 39.46626757082141 65.8577514713333
65.16487043746434 40.33276937149633 63.67487358192207
51.05258835267907 5.747783529103776 34.00352513061595
52.622408096662156 3.947895357279997 33.743656950679345
79.94929313551476 13.386404336601005 22.254958014031796
77.73289557736858 14.925040167916903 21.952176734327722
75.36082058121036 14.494162138673301 22.54735833481992
74.533431180803 12.47838941173444 23.224415223271233
45.154729644648135 9.746261580790183 32.822810816427676
45.71329618349727 11.2351816357583 31.412636051608523
48.309478845609405 10.728990344597921 30.372612026548975
49.40317210608072 8.322476353098716 30.005043000809458
60.21546279896729 11.870843550043302 9.869923109003938
57.956461509582155 12.10554124785792 11.442845591429172
30.40232093420818 1.0289955140864164 31.64041238824364
30.126099530849075 3.6928261016334147 31.347338483404044
53.10349624177887 4.404710081237854 29.77730020830597
52.07043195130475 5.863400906993899 30.441248418084307
49.71333049883072 5.596974405549351 31.915620375827448
48.662586234022434 3.352697932374255 32.36539672967026
65.54461645902867 4.576371662155027 18.954764348458085
64.60885197098371 2.3850976828821886 19.294766524441485
18.578775670590172 7.551034917375714 40.342048105148386
19.241799291812946 9.679819340034971 38.50296571637647
79.49144214077702 30.339566049313817 47.383571586487314
79.11489461603578 32.08528964826611 45.629688071277066
80.3244319303549 32.472324032850494 43.2542651547064
81.41835625013358 30.628141830285223 41.84384713609071
72.4689944995586 15.79283293144666 19.795300535569805
74.03080910086038 17.017936037965782 21.834824425368865
68.82028039108347 21.247364524343798 20.757768540593926
70.57146550889146 20.424705550331794 21.56759699273934
73.03277053620106 19.58681138479756 20.676551593026037
74.09527511234273 19.760773506795694 18.642889826101865
73.96693794589291 31.15961181814139 50.562151878217385
73.45107795119873 31.24339696301706 52.63251920860974
71.74570201800711 32.526407056756454 54.20848573389219
69.58112979120602 33.422912585360564 53.92865553978031
56.281019347258734 1.0403881062715221 29.797358359230994
54.61093543442831 2.5181338088619127 31.036358269055228
52.281257028111185 1.8727514765824331 32.09174384367324
51.89602819531316 8.587780008688256 34.53547038505135
49.76357372526833 9.629162987299136 34.54432412465855
49.14644222351238 11.392384355094899 32.908551425714265
50.6457956063267 13.384659694645046 31.663715656255217
42.65392996445194 13.778216875230491 34.06998881875088
44.63218923623407 12.690974905426556 33.75248814688887
46.17140867514829 11.346084191309577 35.72199262248303
59.38420824426107 3.080700536390568 25.950826701483084
58.76619163617151 3.067492755322464 28.44692208990235
56.8204361011787 4.0957179416104745 29.898259351123023
55.25790360295741 6.072677070108142 29.165016846976982
63.89953915231317 6.964360972559929 11.023188234450572
61.6971734998465 7.774025656239326 10.372825315746905
60.84735908454392 9.54986104231871 8.512614427009186
61.684395685611705 9.190759579952303 6.721778681857445
36.40115114647659 5.676715702123078 15.433031748816862
25.093166251385316 1.4852663425301067 34.66481711303503
27.53254420117444 2.1958933113887564 34.33335892163434
29.819064952470846 0.8171729398203481 34.12703959351194
29.671808279083653 0.0023138717166944537 28.026228621955788
30.46277032927301 2.4438290407231347 26.52626245938231
31.138388724562493 2.1532595794584 24.112137374646704
62.90929448127172 1.79033970990747 17.257660951200325
64.0288012735019 2.7623916005079705 15.214160586822953
63.91885211551919 5.053171653563988 14.309521522117084
61.623050571875304 6.666209504175802 14.377212362320346
72.63972269848914 35.78632317442722 55.264941028885204
73.66812633441745 34.55848693156859 53.79875234242583
76.03915741486098 33.77035146621162 53.34745490203805
78.4488933671969 34.84606085985488 54.08802243496971
24.677848340714238 8.397619877541864 36.256631499972165
22.95511756449442 8.33341089808941 34.89659112249536
66.14665412295346 4.518764625379243 15.83492309491239
66.8830658331198 2.233486583512021 15.746567753837887
67.32769117136009 1.078516284625046 13.06402562533353
66.9787879488317 2.5919864706379654 10.852274990548368
60.274186547897315 34.673269044176905 70.11420620536592
22.963086245777994 3.8992459835343696 38.844568270232784
24.936265704979636 4.644919357394249 37.483500403638175
25.327206060142885 5.462158463679118 35.25625651879456
24.207015724850827 5.2967504649752595 33.19089435770387
28.36082316776655 5.754264974838652 30.72402121210158
26.83607000149835 6.8119246328376315 32.11512817426115
26.960691238673174 9.258116960406797 33.29571387836267
56.783701650144565 1.4754164842275712 32.68514665525929
55.567014990871066 2.3596396456067046 34.67152250546755
64.91693816482393 0.6294386116722434 22.410822508991018
62.88731085653119 0.26461758563061444 26.98938600733177
61.75030109532185 2.367066763227341 26.931610133161865
78.70683489902626 32.24274801411604 53.85392423175149
76.52279987726655 31.444970765929096 54.85526701535922
81.35095665762667 18.647449580568345 6.014264548453773
79.68057844583022 17.915018802138594 7.398187163175617
79.41967307861582 17.31399743206549 9.843719112738626
81.20657788195717 17.29837862738644 11.647256884329689
51.26088251509038 13.278842384386008 28.00812239217575
50.322921930153335 11.814410314094856 29.31877751556007
51.69932280985084 9.668690406073656 29.730991220055813
52.63131871359978 8.099010035471602 28.6504944241129
58.895467455704335 14.757138577863994 14.283003831432332
84.2647068540802 11.30746585366921 11.531408227587002
82.62392125565364 13.656818333264319 10.939817235005439
83.75260845636053 15.56123480148271 10.156573479892263
59.36861865739231 7.538259063956276 1.5869527896361981
61.48120603645073 7.889275244099643 2.7763990929477176
62.4057162264528 6.927178623490202 5.087590903267324
61.18265904698085 6.168388946789219 6.9516466773433665
65.5858496489705 36.023051251285935 52.490907293094615
68.82365516133369 0.36991000350646114 9.919692220412227
81.70363679280483 0.1609547283574966 30.214036273369082
82.49794341974052 12.400132439995472 21.509291603456322
80.31049537487702 12.187233890233397 19.62485297371898
80.456639916691 13.306189536079444 17.262579866012363
82.25532479193552 14.32538579291344 16.09842906349032
68.8131572167187 18.72411095740061 22.8394225688756
79.28068611560376 15.271745125480173 4.671242680487664
79.98838935262268 15.430647000482635 6.947038250848454
78.70483573603137 14.273361640663897 9.173354924093417
76.94784506031958 13.106256703175635 9.050315033032758
55.871427614232054 12.649151368608768 13.946949938361415
58.18156964661492 7.664269394938864 12.050107923850291
59.62107176914223 9.448156200894488 12.295157570304918
59.49664811620567 11.369204419866957 13.65080325001691
58.77461084117421 12.035482597708306 15.977354004104148
68.58139068552714 0.11595643814059287 15.061150710578408
70.12303548758018 0.6757409497391428 13.263459995936246
77.03079419391017 18.57403278423012 10.269513102034667
76.23964628302836 16.762663272821147 12.071316989897525
78.03246907198583 16.182810595083428 14.260023889623417
79.87160555391975 17.183765104084976 14.29380192002872
75.84528590196334 30.851635627274646 46.7083058990712
76.52051104620315 30.780480367519136 44.21817396401441
75.54439978395915 33.01744341343455 42.60202508121141
73.30031652317737 34.07632947383476 42.774095167974146
62.845953237940996 1.0184868306982833 13.276919908692014
71.95009446563903 32.5145594838821 57.690949891955704
70.97118805743868 34.348114215095556 56.995720875618744
68.50904017121961 35.47016072030576 57.26369243782131
76.52207185903808 29.908015576613963 51.511400457502376
63.92528835485206 8.524709782052524 13.076649039695969
62.20316472343526 10.078043236002596 12.126534038431673
61.956702944367215 12.642668351744 12.518810148152934
63.213502991333534 14.137126945420782 13.995742909020024
76.98580205962789 29.546127744355505 67.50200829223857
78.77439577182216 29.691462664539785 61.70507596908454
56.71467653271972 41.14961575066395 71.59467941034747
82.66796344657101 33.05998739970429 40.89422672959537
81.19522325821934 32.06937021660281 39.02085031936172
81.93143832928138 31.408590506361552 36.65783831287673
84.60740402546342 31.382115216176523 35.603371630831134
77.43082961177838 31.772708146172935 36.56040269856482
79.62606834140321 31.434897416951156 35.57203393807539
70.97913396784266 36.557016605240015 53.072437283599385
68.44410489486073 36.201694490239305 53.395107940806696
66.98092990528275 37.10022406464237 55.478028800344624
76.61888886142464 29.94220190818633 41.795417273931946
78.92859542801621 29.726785159880464 41.33780879467282
79.52979160786806 29.50281966905991 58.656043233887566
45.452937535956366 0.2998072036466108 2.936896815026587
24.0457842133743 7.696167211037066 31.812980362989816
25.172581415464965 5.864423406954368 30.16966901674567
78.4394006956881 11.16457132780434 16.858056056218675
77.27474144319778 13.536876280049333 16.788541404275087
75.41863063523648 14.407075736076324 18.249342128741368
74.44364138787518 14.00072302423757 20.1756895801065
74.51744546176826 34.04682820692574 57.993116783837955
75.9563218367906 32.12058886249697 57.44744737012745
76.47141513309789 29.97246489755877 58.697005788788516
64.23023671399244 36.42983913940985 54.9662062906382
84.49536891586621 44.6422388768618 60.233463049624326
84.65059599820574 43.550816088872274 62.02705547276493
60.45069787704469 10.13333168523669 3.903317592840637
59.023392801344826 9.967308670991 6.176079519815749
84.65072172053891 12.215714013130214 5.088933206206881
83.24911123354885 12.889254024899959 6.73126271303999
83.02388425229519 15.566504810402616 6.4693072545137085
81.91134965857484 16.33240734336337 4.667863249045279
83.88098915021624 8.468913804720996 9.004207680535467
83.45628706314696 10.77328443459675 8.436452103799255
81.20411861954186 12.15712035125737 9.031261187472024
78.91649349317512 11.339156772977601 9.697030086054966
82.9607532985403 3.1496301099011417 28.70715945279403
83.60013668979917 3.4372796269478587 26.98827730870805
57.42147839271948 4.447094051626822 32.919345728665036
54.962358977891036 4.603094463826413 33.12355244173371
53.26694528789093 6.546370677238632 32.85120392818786
53.319372046946924 8.714070504632847 32.08945352198432
80.60181469088486 16.46050663805568 16.985690512117415
78.73554524059679 15.302738670812357 18.266079342182753
76.50060368892198 16.517869496022502 19.27515997012256
76.32946278876584 18.769130099582902 20.506046704004095
79.88860977123659 33.13486838080098 48.72681674705731
79.28727091776848 32.72168361898126 50.73235977638592
79.22605462621986 30.393968060922074 51.55489284375328
19.48137530080374 7.416544813987936 36.38249684031565
20.40459197327473 6.5113815638512245 38.685153684490295
19.951466673938576 4.257291161706978 39.6566950205646
23.021069063356205 8.36199247022441 39.09698632980327
24.93939511013968 7.663816811271652 38.89482153986623
78.06972765969964 33.95534820575699 43.26790428974995
77.94632865879822 32.84352707782405 41.338438857587214
78.42429336981263 33.22565485156643 38.72892051230533
68.83107543898501 1.7712135169885226 23.73097093263029
66.95877581234116 0.445405058738943 24.77691944004687
66.19130170976146 0.36773309262627346 27.098464778919773
67.18631388894632 0.3932734409340957 29.374552129634527
31.045119243019002 3.2534194597837582 34.08768912384691
29.13156511251139 4.412326863300626 33.61360207291142
27.731505803518917 6.143315615484693 34.77344194863674
27.534129171238302 6.68704615569452 37.34668374869711
74.99686650644364 30.770951848452512 39.625544778123185
74.96349848769628 33.048331599992906 39.999530579875085
83.85759643864412 28.229710134973402 35.60371540314126
41.44788148166205 0.9117616885098457 20.380794349184416
40.86884223583726 1.683385519800193 22.671284573082232
36.19991185082228 5.657587649021458 18.440799591881927
36.80227202754528 3.4680152305106944 19.243475583178125
38.74880983484619 2.4991612800630367 21.09567654488074
39.8480025080145 4.121995053205818 22.95391171556798
24.846948746836492 2.7148282006315947 32.23972353032154
26.83820138757956 1.486264005403236 31.489454099964405
28.38583774150087 2.3835119285752855 29.352918646227483
28.151949188399307 3.5563074807333512 27.65712329916239
79.79910972512263 29.671359118042353 37.63277224189947
81.21334028572387 29.08681791450771 34.87445281428989
73.625407256177 0.8954065556131893 0.31862329194344635
35.08466019283043 5.1340582909371015 22.058189064083923
32.88364061341702 5.121375248159883 22.006508110560823
30.7773638556853 5.56237919382304 23.69299621442568
31.07575125898072 5.575794921354566 26.37125637803729
59.48618557205256 2.8875280682083826 31.630871564669192
59.95550285532435 0.6517745538534303 30.817462089325936
64.39966502403266 0.48680431463423157 29.772070651603933
46.003569322643095 16.153263010629193 32.96906459123008
47.534640316225975 14.021066817362122 33.38751770557439
48.649859849131495 12.994937336966533 34.827818025479466
59.85691693928761 0.32385312311568054 28.116347955054433
57.52511207324261 0.5398830796349882 26.953909522096165
75.7818602691935 12.684830159282178 11.825582221180964
77.6027727165163 14.301271798478615 11.525955358690684
79.96616540723771 14.773099452029475 12.380712841285417
81.43872334036467 13.479063371132812 13.476132749150159
74.52443466666664 14.50300726828069 13.372506833256471
75.48720568792007 14.938837704843406 15.540517922752045
74.7648518559477 17.311702316604034 16.679135027522218
72.1237263428473 17.712882260092044 17.486696729182285
45.85011020417505 11.481665351717353 16.229331067899246
64.35638846908732 21.08528196083246 20.337655255423577
64.90632730233266 23.144447720537215 18.9236571581924
45.40141906756427 14.091523759542227 17.6190673475508
44.486075387691955 12.687884429059784 18.387826443608937
66.98988614085916 21.429288634480486 18.23670847610612
68.51892978415809 22.067575956986826 9.975510067592868
66.45945228450164 21.68544793562863 8.909550567315978
64.10457040721779 22.98692696230591 8.71839291607798
63.157534585619224 25.008294807901432 10.199947644625604
50.662253285875174 31.61044587693357 21.525646363758504
66.49434545300335 25.643891685133607 6.534413699219508
64.35253292480759 25.349732080822115 6.771791904051548
62.74583672944844 25.290196598863485 4.446469320023125
63.39664851943193 25.82207174383946 2.2574174166186407
50.00350871897881 27.17494535928271 24.457005215724347
84.22268503931122 26.261762615004415 13.369942586870541
84.57167061156659 26.84368290552106 11.26925410504147
53.23093342197736 8.456670160550896 4.495283872923948
64.10230883345446 18.25926711798176 15.193394504405457
62.8128230530909 17.343875893823785 13.481636103165888
62.22164932775833 25.607857367692166 17.158118594106536
61.694103563535506 23.95266563908736 15.361746673359587
60.37894422652273 24.332217811017255 13.330306330554972
60.68681547518093 26.20459031024566 11.456099768297664
43.99068851964597 10.498065102135348 10.652034329116432
45.96371494560198 9.842726815790652 9.892574079456603
47.6580663734897 11.142374303876318 8.355274366566443
47.08988736309794 12.491331969471549 6.44408244581002
67.28671743928287 18.76244548553309 2.36781138900351
69.61316585593208 18.457740707344552 3.189877330000662
70.63306547554262 16.299100738822933 4.26988355909498
59.178415237116596 23.729141360962096 10.233737765604506
60.600446609331485 23.554631673495535 7.896657335305121
61.44975910571974 25.129385874144845 6.703394342699638
61.42642491239813 27.83205755304389 6.531075618278928
70.25268515818374 19.10837969240371 6.163915416189867
68.39571218343178 20.123147431498992 7.147486975385865
67.09968281664025 22.38741867887435 6.281893201234194
67.89891503508011 24.134539111463525 4.774270861666737
49.49548293938684 10.876440997929553 0.4098299751167815
68.5467430230408 20.725947619166813 0.8544995611596085
67.84638526556186 22.919729010301428 2.080253339876231
65.10974555396032 23.547541206787205 2.3181989876746374
63.07738351637747 22.830731014017275 1.281472936016916
59.97691733461526 23.481158511241095 23.923216130382126
61.28103353750221 24.514690817093662 22.018964330674674
71.79972856879868 15.124670258588193 0.696110555872273
75.84312760128648 17.138318402775493 1.8540581038081205
73.69151124687829 16.2668854198109 2.7645381846298736
47.50169603072398 8.681642472874127 1.0496313391689898
48.70689810334374 8.249856800395678 2.79330686082335
51.046515714236705 6.749047736570662 3.2813909252575475
61.70171206571761 19.778037154026492 15.891384615704316
62.88212788035789 21.437555742930073 17.020214979724003
62.109168141381836 23.131444221086827 18.84661268777076
59.957359297295355 23.26941457137712 20.358822807928213
82.14779338784975 30.29588796968201 8.668684155249101
83.52889658935479 28.757797573679152 9.30042536973558
42.16254202256882 16.047442515444505 1.7562958514499145
44.40120868547728 15.31294328096468 0.7562865997556328
43.97626125131612 15.090880269454189 4.069115863013974
43.94484292422607 17.817580390598255 3.4581147703748987
42.89759393342792 19.672127559615333 4.727651827112405
44.015773816601126 13.909576346028228 11.402532833083688
44.04942378974736 12.128206245680389 13.142761907027285
43.15196927237032 11.637914767997211 15.42291999335326
48.19390688169175 7.667299401513697 5.3974283605909505
46.080598433198354 8.22734424481045 7.098311854947511
64.74814652085188 17.499596612465744 11.592886803418326
65.29980660118638 17.755890045040985 9.450959900765437
67.165427409009 17.5516926100347 7.808538159576284
69.84748606958247 17.26296303117451 8.276714901294238
51.506050053949615 9.332735074623393 7.865345791940931
49.47190248964737 9.573242200984982 6.701899828419314
48.70611121690362 10.405360474386226 4.501305587122505
49.74031804461592 11.97558018720467 2.888181719633967
59.86085930693053 19.42612286820814 22.333782104105264
62.08982128620415 19.66141823434669 20.959445737547163
65.64036547289544 17.671752152447972 5.523445650470718
66.18555236594202 19.463498974333717 4.696888731015197
64.54453055387121 21.882776841729658 4.4048449548408035
62.36215976005027 22.411829362258132 5.137794215947677
45.987434528587094 9.641319041435338 4.8666002363767085
45.92035344959457 12.26281026869199 3.8805762245320814
45.75753045977328 12.86609385692759 1.256103126606855
59.82173875527544 21.15305353073817 25.28455707291685
44.83719386998346 8.44240169510295 12.386326859095597
44.62911062231785 9.401758322708705 14.15523229375045
47.59396795893621 10.346824652310287 12.203330830937823
49.222628228334216 10.161430294680127 10.461335642130116
49.69464952681951 29.838600376736878 22.99914241944088
60.68090795462739 25.192530446865362 2.3837517693707206
48.490036944200845 13.97769242173657 4.619573913146237
47.998566966430545 14.956016614168272 2.260626245133101
47.14482778486333 17.334862391253555 1.4633295479488753
46.38443738068252 19.086894519050336 2.696533618473304
49.285640193154286 12.944785053930456 11.487511359600612
46.77871886992827 13.15202293416539 12.058725513274162
45.833755624117764 13.60820185898488 14.276755648025865
45.50881530470853 15.597975103845705 15.40411462494305
58.44154497344364 21.451488642779122 21.41386418008976
57.43899908892287 23.42243146913375 22.176804324043562
55.73686004041006 24.087943704592377 23.735337052136753
54.28317364313646 22.97853166010539 25.271564867272133
62.4889623850381 20.58193548582407 8.325385374566066
63.663937009136916 20.11403846168199 10.76283654757487
62.618056147162775 20.556967132822933 12.984213187070209
60.92071640883542 21.455059848974155 13.890284709403835
66.09059975127676 18.704867569532063 13.707282025103503
65.99775291495394 20.32956550405712 12.260463000303893
64.59136703567742 22.649385924299402 13.280228743061
64.22184621629819 23.331947058782454 15.688753911030316
82.94793502109415 33.936407338662164 3.698885932009697
80.77222625604593 31.467522411739424 10.679812525672713
83.07085413284484 32.90170135536962 8.528234017155988
81.80831441283142 32.81849060765397 6.346743669900523
79.13124327255298 34.230840360121285 6.028667880656036
78.61653564339241 36.180558014350076 7.111252622419624
80.24633700713206 33.652008186215305 3.5129040043253914
80.72813872993434 48.33077372712825 32.279718611817735
70.58826196264056 35.66104160135436 15.45652398431125
71.17888565444399 33.47203429724228 15.586297864098979
80.8200151328947 44.52874956398614 55.289625764752294
79.98625860162375 46.49472755573404 56.869268993021166
80.19575301152163 48.91331042421894 56.32353445126767
66.18393105869414 44.74186350411005 67.47675363412797
61.03906520116844 34.2236797693166 42.67182940453741
63.52508728474214 35.20676430542965 42.413178279961336
64.57320752649767 36.105557063550094 40.072371226730624
63.863437931392035 36.055668641903466 37.92018058894777
74.35965689880504 35.95670527451064 18.475943605202833
73.79298318670811 34.75664514537262 16.77015562888899
74.93597174614607 34.368987874566535 14.34765474293228
76.77839749583534 35.30564427067417 13.111588888325956
71.74970893820539 35.994837333650764 27.24093838762922
73.49679957581374 35.08557479818038 28.244094175596338
73.84800165553517 34.89351896442075 31.1307749066625
71.99361237389736 35.89183299407541 32.963330249530394
71.34619587410285 39.4318027592851 36.42921701609915
71.18294946681675 37.45107137159054 35.14795846316331
70.55679141988927 35.56701924229713 36.33925707220808
71.37479942638613 34.47318127040671 38.085369976678436
76.40541965127585 49.85619145611746 57.32830513557919
74.63141526147244 50.239658080926006 58.57805046250297
73.8947076980787 49.821678711741676 61.147097290992036
77.66696439416364 48.9577546959175 51.42688724650972
78.83883569005944 47.15655170843036 52.86916530482211
79.59686725969688 44.70868813051734 51.86029953972094
80.20148429141327 44.1018215166646 49.94193763298543
71.19110029245186 41.808833933086426 35.39398958908946
68.78843466534632 41.573628080670055 36.4331360965186
66.79395133556415 41.02356421879573 35.4388903333042
65.96985984057696 40.5102851075354 33.15245031296211
76.48925033376018 34.18495700772134 36.46544570547298
74.39773008193936 34.97072903014819 34.739319944425766
73.66390495060215 33.03692484125369 32.80630008781661
75.11695996906664 31.394558134488832 31.815743839206487
77.41126052169723 33.234071336301 17.5260427026864
76.58084813348648 31.741559242610084 19.457937518617147
77.2914233878121 31.21626270718081 21.802652280683628
79.29768339041557 31.00085870025032 22.97516428747925
82.52402816093705 47.045537866677265 25.867723198201496
72.97224182988911 54.210978945479525 56.06265172269174
73.69042730874479 51.94862507074949 56.859465072491474
71.8993556929805 49.86393519535149 57.37467726382431
69.84346941873713 49.97727166502201 58.76028889973505
75.8489447092106 45.876282166772604 58.784919613612665
77.01553267268783 47.079295402560554 56.9628530127748
77.52848438735273 45.77897825343279 54.48579212017731
77.49241296493157 43.821426979955795 53.66027872615025
65.09405835491965 33.405165149836556 43.936319859041134
65.35396634295655 34.63487967755708 46.10247109523758
63.73587825490821 35.178605219576525 47.94958292907466
61.480396453427566 33.86716817915984 48.59157759042276
70.915605027393 37.77747433175488 17.156785701845077
71.58756693411758 35.934695382853334 18.33544135964468
60.69537338015586 22.523030922833904 27.169986034554228
59.83241264374757 21.980921311384776 25.723267855320525
64.73747596243146 38.731055096828726 42.47407534310748
63.10478111660715 37.51866230417064 43.78340894632665
62.73723815901486 37.40639212238041 46.45931861777777
63.12168844989437 38.898497732336445 48.12896462639353
77.37133686099041 26.645438963682103 17.13754023892516
76.89251228790096 28.753355194702348 16.257191415214184
79.32418737266802 30.231805869098782 16.366985138836974
78.04998679420142 32.08765504110858 15.159680433608342
78.1712038476708 32.84225531904419 12.875887796502646
80.03162544887493 33.34389671906173 11.350913823961942
72.04983981902056 31.458904219539964 30.65654676391108
73.21238518978576 32.38262884150261 28.491545807346768
74.35387036551757 30.801962903236372 26.614393660061406
74.93630675281689 28.71259907098548 26.655093538573237
68.62687779613452 33.91510106898988 39.155832144689526
67.11751729499609 35.445898751937804 39.68501477669135
66.70461451443595 36.81784759648341 42.480017468254154
66.9547101440559 35.95908134415882 44.25706020238617
76.33583980975585 33.70570868428664 30.52690724199968
76.1877386327311 32.04791460824109 29.117544774527946
76.81378279050587 31.685870915851346 26.400671697676113
77.22342250875903 33.42140535492403 24.838661558132127
75.89010242102435 36.213706806594494 10.721262976081684
62.475466723010314 43.62016907187484 38.38432143979439
62.64344955955548 41.371074082338424 39.50026469571995
62.297985083681844 40.66097334517106 41.941745095327605
62.659297140190056 41.823736824717834 44.06513749157014
60.47278849945147 41.667545865382166 34.00883690713378
62.53633889703828 41.728430543327406 35.5601429189624
64.56171886761479 42.94076892730347 35.649599913523645
78.20647883169359 27.11906051249559 22.51490405803469
77.41696913809005 28.987530823269136 23.944520602077834
75.21547469086227 30.26260651482312 24.09634269877182
73.20625175163177 30.219675457555663 22.07458666998422
60.22068564371232 36.39695812183763 55.887895690866564
59.56677930785376 36.959982338457316 53.39421449850598
57.0995197765146 37.67657165016535 52.56494281919793
71.89817544653822 33.36505182396256 19.939737241225398
73.96657362512283 32.9996915672232 18.787566762373263
75.07680477334941 30.959564246708876 16.97201329437797
73.90127728375504 29.873902882641488 15.425385243794816
84.19160829133683 49.433599445362944 33.63489811427973
84.2005000664088 47.683261296400744 31.362440656892453
70.41520388615996 33.48056947649371 32.58726668829412
71.49236289326433 33.318650914946936 34.4328552598546
71.53922202447418 32.16603719705269 36.51631069672904
69.32242793569809 31.150153906079627 38.00807039089821
56.81298153803534 41.051382799615034 45.45438155381216
59.540501054932946 40.160227576279595 45.27206625076163
60.7113203309501 39.05119692818939 43.70272819242014
59.78471018442769 37.24222679966677 41.92612553611817
69.83711548958004 53.15948282710693 49.54800716738245
75.29520666785228 53.58654958318424 53.09608520673775
74.87106034874488 52.079026916316444 54.57168888490193
76.47683015381861 50.06829930100021 54.71240345823001
78.72204283767772 49.77805440497443 54.287095895053135
56.73879843703051 41.174156676780854 53.872161439204724
48.10394049038762 26.193119006185736 33.49403375733594
59.08202856591642 23.325315951286505 30.74182595949064
57.16575470621843 21.656572922404038 26.86468553524065
55.650161702560744 23.533953260725017 25.81138284224279
71.81118404965184 33.76879925993229 25.894343662877276
73.09054268863241 32.041111094106185 24.63549910073552
75.18436268063947 32.89551429798013 22.60185569724743
74.73355802322959 35.04116706353917 21.036296181101033
65.06067744743378 38.62341165656746 34.91400520339734
67.04014272784069 38.20316219828394 35.49805162363132
67.84101127092312 36.48556507927935 37.0297337722303
67.50031230197922 33.705459625298175 36.82295672411176
48.602106068931775 23.901412807394976 38.07734837828945
48.57939552927255 24.579840846254267 35.76962156402426
50.25370309539226 24.539263767812283 33.94982005522277
81.99453193328323 44.64025982651054 47.41529113986769
82.92212151864895 42.973818410590496 48.493207388981496
84.37904980743588 43.475071331662726 28.339060969489733
59.00896899396176 42.90707154696997 46.949323485120495
57.448107106652024 42.53691419519686 48.85794656370288
70.59695175314276 46.92608760162926 64.6001208438339
67.87002689504298 48.13069308118758 64.77788561764517
66.17414462735114 46.9638026803217 65.50653562649407
55.486832222342805 39.4041398386018 48.82608569662896
57.7556313941625 40.10708921875753 47.73631422032543
59.89822857502168 38.84670794859942 47.59185949705841
60.55660101647459 36.46405750463964 48.62347987840093
77.93318410938414 55.428580005257295 46.60844869463625
73.89884083851203 44.77919321742466 60.56961835618895
73.60273302778039 46.43944794518103 62.62839783487973
71.23120033485925 50.727542691651074 53.80239714517452
73.30216351831065 49.6825393008518 54.865750860105344
75.23119180859631 48.11800801817502 53.22040671572786
75.03024323865442 48.68005445434087 50.930440500759694
64.9895187792515 50.475883684620115 62.546755340523674
67.00381079203787 49.15946070145357 62.113211376898825
69.50428405500719 49.83373601938079 61.68748165037426
70.46414105133334 52.07634132495142 61.14778570062907
73.20848223377962 46.77523920821751 57.664848941449875
72.83919430768759 47.298348127567806 60.11852051848834
70.82036918889433 47.28910233311111 61.55062978777817
68.34593597791404 46.61255602929936 61.088120936970164
62.20987723543374 38.96086372264931 35.43502792663578
62.819619780430635 38.56973200958816 37.68338094444394
60.92880408223809 38.70258490303113 39.94764472884363
58.85451398851034 39.22609221696577 40.100582856498896
62.85177228309119 38.02004910273007 50.76626099984869
61.73431038376889 36.63940048864588 51.32757956157338
72.7925718178769 35.66613237438237 13.83687147932448
73.26353865084246 54.48602533405102 48.99050222705639
72.27957916000678 52.91745850322467 50.6798179970556
72.65717934345818 52.78764610679875 52.97841880061203
61.441331237468944 41.36486136542473 48.25203691760289
61.01768123251581 39.882788980402644 49.964519007611
59.055705164427266 40.62596369678132 51.92797642559588
58.12068068523814 42.926876211476184 51.99967883608336
82.68571759192986 45.15541839824009 30.61084069902483
82.74800900038734 46.86827269533245 28.646996218722077
61.207706188143234 48.80312573944082 67.78962785444564
74.2364693243933 53.28968403953528 46.391523566240984
73.2988467782388 51.55439317617917 47.79944788246423
74.58726914112167 51.219763649076 50.19005101146718
77.21325490206492 51.549989783955766 50.674149423659784
65.20364062410002 42.061613062331986 38.041940140091626
65.1224914338519 40.06340825287556 39.76737471866788
67.65282970781242 38.5803294612835 40.21349960823178
69.26541545295369 38.6053577111943 38.506070966869224
52.985943801618056 52.31136130535514 80.97251896173805
55.51106178880153 51.63468899327073 80.47763897818984
56.90742792768174 52.01568615883985 78.614547777009
56.907594978932444 54.24277688402599 76.85004149474354
38.68224596752444 53.635152690112776 80.19468855163663
37.707907797410584 52.996472128697604 78.25581588356329
35.43524657531344 51.66108133283081 78.60688326644292
36.32530110485905 49.78621027922034 79.24295977400104
36.28184069408401 48.035178182007016 81.21059381174729
35.482836515943454 48.3135523041091 83.4896858246515
59.882950262560065 49.95240294941723 74.4855962679226
34.83703331782687 45.84704222610705 82.78693683136379
35.855169150862814 44.6367578345338 84.64486051678952
38.5582823358511 44.31787889276749 84.89776110420561
40.09191762630771 43.633156949991594 83.47187467213531
40.7382920582056 51.73695386439619 80.55754753490793
39.08493835136556 50.94379118139136 79.12207104928757
39.06125224015729 49.692488345029105 77.04426709843338
52.75513075770273 56.05933500734508 89.52040724385515
51.80391358885448 56.32649381592212 87.45579815345975
49.148562160117145 56.90754436607372 86.66299052624512
47.89763174888363 58.40589218987417 87.74612745830515
45.74336796487033 63.49392534677391 90.20645687251722
46.82778019934284 61.18678334923429 89.33187552621628
49.05977157400614 60.88495384128048 88.71114723383936
36.4713407059028 42.57021712365512 86.79629930851408
34.15257343222199 42.56071470545569 85.63135565338837
48.20022533419124 60.1748779191355 81.4745424052715
48.81847124105348 59.26693553856462 83.71879037667539
51.02188199716722 57.877072367014755 84.63034295320058
53.16995935124262 58.19717935123134 84.04848310423213
32.89819193184586 45.557704359288714 84.94524386050897
32.062485623136624 47.94296794868262 85.43318712115324
32.49126916847953 49.732201554381426 83.31013719913611
32.30230032764596 49.61105159487528 81.12624521763172
59.49323842026288 57.97819155434418 74.59788390895002
57.94700430395701 55.83081481183279 74.80586974763119
58.92143841983007 53.15713322642791 74.27709488258965
61.04129355799977 52.356123235912584 75.18487211972047
54.53098972644312 49.95084206470665 88.03703595110409
54.71648800620236 52.590112759659206 87.00514323291446
54.690186785762805 54.650468865613064 88.37766845029884
69.25708104256024 70.38757691213635 85.51550739623728
34.95394259998177 48.27818455651492 86.01163709293384
36.653836485592045 46.69256767739026 86.0501001115186
37.08853357916179 44.782862756144105 88.272820818851
35.463446011256444 44.76541623377777 89.73309046244762
69.70968864980534 63.75018442190291 95.64486828663955
62.67794313000223 70.47683581421073 91.99488335052811
49.39047787748428 61.82370900760673 84.05431243769993
50.2670793185611 61.42826097810564 86.44393543813403
51.24563139530874 62.70049775267242 88.06715495343366
62.45234604582388 73.1817479037631 96.04344967632032
60.31771089657656 60.4936770478344 75.03316582408804
66.99937936604313 67.64196281507954 84.3351452008019
41.90562204296385 44.096577944010455 85.73934304171239
54.74232400813113 57.83209055659221 89.13429665573732
52.884753237067876 58.610571330521275 87.87220513814928
52.70068784803832 60.41296706254588 85.81458477342818
54.10497616866753 61.987081465925506 84.92017523407131
59.65182217960028 52.196505695620274 77.63355209325174
59.47561114551115 50.00462329491362 77.65378342361254
59.15826985415513 48.23364068643304 79.69394363955341
58.84058577571615 49.11363835419091 82.2947279076855
56.581771740888364 51.56227830618593 75.35706531245684
56.93246219886538 49.75016429367771 77.01979604868451
52.36360717647026 52.31566473548148 85.8774455483668
52.07782728634084 54.72515944571525 84.93330054147594
50.548269321570494 55.66125331817032 83.4622451997188
48.30069022291873 54.82573143644045 82.44201334197771
45.500251894525874 60.28928977636288 86.95454281101053
46.26354415436826 59.97204005343649 84.82501132499874
46.64910098147659 57.4193343470194 83.68944250103496
47.11054521180796 55.51062941890761 85.2756757322469
55.473648031821284 56.71253176758014 86.23601704176683
54.5892841393133 55.73795609484333 83.84121450703861
54.96214083700389 53.5061903671733 82.95637754069752
56.77737588040832 52.024975070083066 82.85968324143546
59.67025194545491 71.34199722953764 95.32924933703414
51.347818460122795 50.244522409663794 82.37838441703671
53.3109262748696 50.40508825344225 84.2939282910611
55.763049656713896 49.64231366354368 83.57328465428154
56.09129456496156 49.16586361996969 81.6202213972126
66.17757823406762 28.464070089078938 86.91235847509788
66.25393017283105 27.67994063302544 84.64153943417631
