75.89776189963216 46.99562352788272 57.13910209591
73.78998207890564 46.05332672729364 57.59234081120403
72.51589360075104 46.12484161625506 23.65355463760727
73.5150373576815 48.35670623499329 22.820904838432625
72.52946296180379 50.172658396568806 21.77193918963642
70.43802282763575 51.04393545434125 21.292432023879677
80.03024054714946 18.712191198200507 61.748073168996434
82.19889449826464 18.41146268044823 60.968195170111045
84.07454218861392 16.71051811187431 61.57384703052921
84.34312590648649 16.04453476600726 63.32107056765179
65.75601804507072 31.875020290173264 67.47157092872132
64.67689271407997 33.86148581989219 67.26779983841912
62.60275781421612 35.10615710985026 68.98046963006345
61.50189167124953 33.99599745315329 70.69123611501162
83.70033747650923 16.9320883759323 65.86721198067652
67.43518222868083 77.56846048997146 40.9114319672397
66.36377796468182 78.77851278738864 39.55999060357475
66.2262181478764 78.13986463111875 36.835750321368906
66.86857899870026 75.7152381897534 35.972235231483964
80.99491074982423 70.93725101394959 39.69595052865318
9.609748815050644 19.15627663694634 9.008882622707407
79.06856297933939 70.09005054767033 68.6484808893589
79.37555664635681 70.3285579122537 66.47661364905339
78.0105366920454 71.59410615706317 64.59912422038106
75.77008365581516 72.59814412928039 64.7138648443179
77.63887307474694 20.717480855529494 4.225288262509365
76.41641688495474 18.945672291186717 5.851237943275294
77.43647054680733 17.30165548386484 7.266065335733539
80.00185603522903 17.093372328178248 8.210277157352966
1.0042592480049026 30.48483505443017 47.63045200224682
3.360427290806478 25.284213658235895 67.69102195137265
1.3267191619807581 26.76195292884207 67.52475142432104
0.3254609256864177 27.086933124788324 65.0303029657122
1.4912221087558304 27.259519343592157 62.744357866734475
41.687027132867954 76.3889198318687 58.56657656158533
43.1183795422736 77.05758509017681 56.90298826270579
43.54308455741032 76.78720279254921 54.41288947658418
42.513979424293524 75.40761337051094 52.51772799264765
15.84180401636989 61.779631109657025 51.369155136558355
16.96170390225882 60.90631103542577 49.8155633113329
19.034750325423467 59.95662366823152 50.95769233327164
19.089647040178487 58.4214320606858 53.03440194434056
83.69216053713292 65.92414341605888 30.440951254688915
81.72191257291203 66.28487251809553 31.511742034863364
69.29776087698104 53.62967981056052 65.45040758026462
70.46144040781779 53.403819437014604 63.34789842854388
69.71791377777267 53.01180026690292 61.00861764555389
67.60848338307228 52.24421858663144 59.9677225824119
9.943694873658698 19.40884840229085 64.08026410499994
9.671415275347782 21.896213403911332 64.44828447623247
7.698556190948835 23.566447004554583 64.1886202700075
5.543857698596402 23.24182855389121 62.75849827463515
2.831449658407832 29.349412773131544 44.29267508788762
1.0988816573328493 30.511930209229675 45.22744593377993
83.36500139676576 38.406642866670644 13.763173318727716
84.97247950547461 38.59329224467923 15.926539306907516
84.49584198124117 39.20140834681063 18.31699708202661
82.47672223752512 40.22268109084383 19.615698958997665
83.56582069893722 40.76211766319381 40.586551237891705
52.54459579194788 68.05847633852322 52.62621754711565
52.99125053518882 66.74156644313528 50.801210111233026
54.76127550854342 64.42605413964652 50.569469420178976
56.04545501510716 63.59068255858649 52.56662703352831
71.90119497553657 28.28769182554732 47.21436738040802
73.57688991407197 26.552965551764377 46.64926047134974
73.66528924712752 24.17377878822586 46.41277035066624
71.62046490111119 22.779604543709134 45.199542431691874
77.57518256567013 45.193035437903454 29.31500416153199
80.20926628364248 44.81583039111821 30.348626089236642
80.7476176943135 43.56635678654139 32.42958949049358
79.3949579591725 42.569724991246204 34.185144157822805
72.04732698727796 76.84774425715976 37.68674316599632
69.69736774149283 76.74612209732058 36.418919447138016
68.49682110230084 78.72980806517651 35.0288684146877
69.34165986243632 81.0697541727572 34.419047774791935
53.128821871431306 67.80735976117002 40.95767958883027
54.083846061469586 67.78868776748456 43.12498695639308
55.5817205995635 65.4334713853985 43.41804483300424
69.70385122732303 77.23911435930508 47.19136629579425
70.84490058780202 77.15390987935947 45.475358774185786
70.35838843521395 78.56431108798262 42.916680122606046
68.23094032289605 79.71906067892888 42.43008748615956
40.33307006826457 80.83953190151297 48.984419100795684
37.99206899827773 80.70545992081256 48.34987851964256
54.959845509009995 14.513077917319897 1.118920904493
60.44681908508279 62.716637480475065 74.2265085651656
60.36304744248477 64.81492724951512 73.3706810345056
60.85855785413329 65.73350341042985 70.693260068402
61.23698708900738 64.53983255445235 68.65170575626162
76.38637953468987 23.512110843413854 76.84559465217846
77.32956996154716 25.559254303547053 78.2534298743349
78.2586532313497 27.64161301658942 77.61148136836621
76.89459047303389 29.199686385514944 75.71573687073428
12.128376035817722 20.499007204103393 62.459686854726826
13.141653967642736 18.306424570135082 62.45412196779805
12.484617188317209 16.24933865259684 60.607482859653786
11.812636100812904 16.466207902716672 58.4061704889066
3.5094227383630763 23.31940819213191 43.19479438301116
4.029688195168124 25.663746311234796 42.75878517496353
2.4915021598717435 27.629811289855315 42.12222447250581
0.09843155396431497 27.844320853757004 42.41097796971972
76.30585689915743 26.985587782674884 21.404070263979907
73.96331629278542 27.933701452658667 22.047944814167558
72.73324326191701 30.07492529459716 20.80852668466104
73.6140053747598 30.57726460722037 18.702132814982704
65.10652515494947 78.92310125725197 42.702564605018146
65.50710428638213 81.53890268886472 41.721701592074616
65.41344458053744 83.54953186393244 42.931220485474626
63.49550054623435 84.42883593317111 44.72678212040406
81.41947617663996 71.79604442381806 24.111800341066566
3.4096187350038694 44.999664124351455 84.27973105938686
5.905507902893383 45.73774230867328 84.94480208624736
7.218557826850375 45.5790715344469 87.07185010165503
6.963011609181735 43.67583183989222 88.91673235625458
9.675848120916932 15.77115449489854 9.570506886277531
47.25117584188606 68.88320476752335 47.736288878428375
47.398370000265416 70.97675430861385 48.80704474675359
46.9184308730333 73.4028517254805 48.29127830453429
45.53825983860105 74.27154220775098 46.25664422820527
65.36987880696086 78.91118729012031 34.540699128324505
65.47189907776578 80.80656820862193 32.87341447202539
35.471591617337154 50.59725955064322 51.54533804873729
35.47662133870929 48.63026443665227 50.363213608819564
36.87598145529924 47.27295319108096 49.16816167840372
42.086338940521806 54.28054220963577 50.14658164109332
62.799496253453405 59.04249245239547 84.32666743052948
63.19759519283555 61.73394382431072 84.80631553356534
61.64058445492916 63.46980132726889 83.86472205704034
60.949219240752015 62.72934456054104 81.91085670834279
50.78163661814883 7.5156062436357995 18.912542528301774
53.59311837870321 16.83264576990973 19.79976511320782
48.28055230739456 11.143654036384143 16.875959781933226
46.07547404682506 10.668687940283352 17.309355955960534
60.21053533374089 69.25366168496568 75.84155678917402
59.289072746527104 68.79667690002431 73.69013409941297
57.086780127611945 70.14892705172406 72.35226166461685
74.09914979342528 3.311080163885244 26.285269942751377
36.85002922623291 0.4298999562909385 65.44697287277067
38.896218370044664 0.2414211216558151 67.51149267623585
41.49365015662665 0.4506017400434185 66.9032619737311
38.020439828488605 3.0550423407322898 70.98190411791255
39.42643738311645 0.8457723259684842 71.45553046919792
41.2025202149141 0.52668300640268 72.95921144895381
42.89130936866145 2.559955628923446 73.91743983300245
19.142401119087012 39.18581572165728 46.193740596177165
19.03860832080513 38.92762914745469 48.6313648305823
20.70665621751568 37.77397797685554 50.24570136181095
22.955546713697657 37.092775128436664 50.121174134226465
33.885475562613195 79.16331853835229 43.80025138170391
36.06550869419938 80.76261806746176 44.72359608695813
38.05730642164061 79.9435951243281 45.88512138096073
38.459350921026164 77.6954014073162 46.92586461748271
5.133778572083253 6.514565749201483 77.58629189323274
57.16332923098473 43.86460568031602 41.76495227308937
56.735489834720575 42.510238173163174 43.74071671115414
57.11404541475013 42.87229389937255 46.21921117587298
58.138094376518445 44.92959950783231 47.523894035773054
20.87564732210757 56.32328902877872 79.15070161422578
22.70339287217659 56.65164347327283 77.36050747744524
21.968092752564424 58.24603527453369 75.03805918523054
19.973479322040575 58.48579639398556 74.03509789490828
71.8356864106283 54.92881172006807 65.77402759073128
73.56205617672789 54.02313815302673 66.9620859014516
75.03727633706717 52.34705436487892 65.40974800749692
75.46015978829777 52.095918454424904 63.03711382355732
34.137475583439105 48.19220183818303 65.27751040131214
36.29537160384407 48.82651620517463 66.40377040578701
38.264701483128334 47.25090789264904 67.18272900455767
38.29764401541149 44.8915808911303 67.63093062857268
6.785495014280828 1.4144533232320682 83.87201786289562
70.884375538546 54.57094662881065 56.459797889622905
72.77251627228748 54.121826444343746 57.33196425994857
73.56963062231138 54.24600837481269 59.90956587779531
72.31136948366674 54.91584941932755 61.85363037143262
61.33278324099762 64.09995018773103 62.12947549438487
60.2112560995056 66.1192435751644 63.87768831844322
59.2441496989603 65.67941592221992 66.05977991134041
58.839831388542045 63.67960769196386 67.53108428526492
40.836105284165605 81.03415031973539 44.8602249377699
39.21834958394316 80.27320095181987 43.29202930675071
39.166664197881026 79.68065665317872 41.093534764354146
40.85447356824195 78.82164256675604 39.30587021899377
22.782779265150406 62.841028095211165 57.44025544606622
21.349384094427364 61.01434987626099 58.57428272391876
21.90223424381877 59.043481312640914 60.3256553229268
24.17070302727013 58.268709097825756 60.841350680443874
76.50311882313733 33.78809691665422 77.25826478931155
75.67741153965132 31.780758802600833 75.85134695590527
74.41768870943991 32.263205038956535 73.21498163475967
73.70538380929933 34.57778365222117 72.885511430156
65.5227707136831 61.31467761309074 51.043790820404425
63.79647316126893 60.93427989927393 53.12811225107817
61.780963369468616 62.83790267327711 53.780500962340504
61.40367539867233 64.7354593669631 52.8547454213328
78.84792003364457 46.41767226875397 61.214569696663524
80.85444285801337 45.586898018056644 60.189042045552036
83.30427505337173 46.0160276026472 60.57666863409208
84.34731707212173 46.379016042565006 62.96148784798852
56.47654118352717 38.83062651378271 55.747000303215884
57.6407206724982 38.73841498361054 53.60939900820474
57.0260066973955 37.45581562241145 51.599498683228084
54.534453450088364 36.883500299790036 50.70398076520284
30.69873776613855 4.951026245180647 50.518023724912446
31.93249407545964 3.9353123992863743 51.68968847494724
34.48347833143029 3.6917717674865447 50.61176027080548
35.67480045606027 4.446458124320593 49.37393883829031
0.27545148903221345 53.20140170416746 65.22802059646375
60.23314717825156 63.95494171780935 50.42628873406851
58.21019855967543 63.754662720501045 50.88712263596861
56.7157935849294 63.14116192868714 48.738189450594106
56.42544940723407 64.4518240447694 46.51235268594457
18.709310668869968 17.392587622076345 66.93871341978426
17.300509591736752 15.873548346145746 67.98256414410788
16.161270246652787 16.009140156897647 70.45903962616207
17.026511404583438 16.99221218380593 72.43970139987213
66.83636759714793 78.73242876647663 57.80498394693458
66.8546685151338 79.13364529198942 60.28788100938427
67.78524773636524 77.44827824831383 62.15270777024472
68.9840308619106 75.62846507189836 61.381671972806224
52.369289963855664 63.102654275279015 43.62327567185241
53.2981047075348 64.93106594177786 44.88290062697643
53.82703285110199 64.90265631799505 47.425272340418985
52.36799519958571 64.0891557388419 49.5211234011065
66.65425129734041 81.753197117274 57.90198934094811
82.96087206344824 14.774651034560387 11.636837253498006
80.89333883458099 14.99759028127611 10.639741488615698
61.37783871666025 82.80145422905476 55.45323396688924
62.899157134517985 33.90535743275648 73.16933846173265
65.05123640739177 32.7815000784199 72.54723707150376
66.98319327311805 31.587134266922888 74.20504115482986
67.083568332388 31.844056949331772 76.35221169050382
45.05117596522077 14.397323743112134 29.111144814095677
44.84974123924983 13.175659303410843 31.497636150009605
46.060583182347784 13.574354851524982 33.56717663566214
46.94396680743129 15.764897960507216 34.52803612911814
60.32905002247751 82.86736074763182 37.3229852864646
60.136504558833835 84.21323358774062 39.222938896761214
58.727214487209906 86.62822098234527 39.43700520359962
57.31818679255377 87.74549037960587 37.72483880679056
84.24271002840496 48.101364095020784 58.276229647536496
81.76318746296793 48.43279859115868 58.618318181023845
75.15506848494225 96.27227304544444 42.651841319817684
26.28034167419929 49.46993594577818 60.738037625212876
27.94666384556624 51.34599550454642 59.773944925881416
29.25513077829775 51.28156436329377 57.46998916261848
30.2497266754824 49.052120519827774 56.43479023719253
1.5824704727789043 30.95638448914358 56.62740393924993
36.7524191399406 47.86266000008378 79.7895913898808
37.89862196181876 48.19317241865615 77.44790150276039
37.185196412349896 47.56111531734825 75.31268596313382
35.5486198502609 45.84307790204912 74.32710050984726
75.44057684264659 49.17011674506011 44.3821218066642
77.42784012562991 49.575579617269945 43.17281957552267
78.7860004841383 48.00854725837468 41.35976375951104
78.54164492259142 46.021963366079014 40.54738000666024
32.83728824804893 48.692656242083565 48.56548728166833
34.16479614942433 47.12166472041958 47.183458112286466
57.97025390845136 64.93193911846328 74.23605645659607
56.74427854936723 66.86981923637907 73.19389374960039
56.143695955730024 66.901672858486 70.5736865475781
56.81363946048906 65.24722069055002 68.75006849479041
5.909985435025092 47.94548365802557 44.396203836318016
4.218554726227251 46.20555374996527 45.95477169306984
8.854459674509751 44.30544662724189 47.00809274749538
20.833123125089013 34.02067098701514 54.29084030039266
84.08399836997228 67.47803473484383 42.78188299565922
81.91202158170125 67.86386713302034 43.429890277526354
37.84341612910703 20.415081071206338 57.401834769802655
37.01990624947352 21.82761902883644 55.11844066801221
34.230838314093056 22.11755315431892 54.85776817799005
33.388937454596366 22.30661615012947 56.5549590903304
3.8060740536172 45.56248807347739 68.20301956180785
3.4050850567184696 47.66079401336179 66.6877598898338
2.4877261167312867 47.70086461425758 64.10056903081657
2.141092161971187 45.87234469022035 62.5010501557804
11.759069317878433 12.860418484908323 60.303800363539885
13.91037969182925 12.62613428747692 58.84778577283194
14.11956285526865 13.284231458820344 56.340217210645704
12.440503544521265 13.713934363543126 54.51084046593424
54.63631405504395 39.84777606803102 43.728887660696486
55.93937189540369 39.19068835170648 41.61355285464958
54.99265095947525 40.697442272277506 39.60517734997838
52.94546583048809 42.5202351589384 40.49998935442614
1.522334425997684 49.42169036964705 41.16605899043339
28.60289975778177 24.609765499272463 50.328153998337456
28.926955945340655 27.17435215443814 50.736240731104786
27.99257885944022 28.76879448668295 52.593264127840264
25.5188296829637 28.632143899968444 53.46638186637202
27.64773662745316 55.416768453164956 57.584967812818775
26.295903243609143 56.41339887790474 59.39240798399893
25.07305145923645 54.88516198690027 61.23533763181804
25.653401523052285 52.7906502706077 61.22494787086755
26.182984125914466 57.32346607887546 66.61958701089915
26.51652407907744 56.91591439226828 63.96999387608455
27.38512282868646 54.80846705602095 62.92277123551726
27.88397241803909 52.44355984424451 64.1040072920905
16.1009131378712 39.12889971445319 29.72278228146548
16.670541706280076 36.68499435796741 29.684025737068712
18.440638181788216 35.71513501185298 31.266990574241106
20.156980839425028 36.455524173522754 32.77323040217279
12.465946421286985 14.350967587626503 48.022408582143214
14.124992576469404 15.26600535114706 49.54972006603268
15.71612623274882 14.289609771657041 51.62881548329967
15.01181787638717 12.474911383401649 53.19141988787934
39.93954373116984 24.409511946564287 54.67187071117725
39.70248057225236 24.991917244426176 57.10000532567439
40.26154782124319 23.96481350256162 59.3100556641709
41.92510819761032 22.084132743768176 59.745516901699595
32.97217967428226 53.985603110739135 59.29849358983169
33.15775858603179 51.523123751368466 59.83036687860934
35.200280295835725 50.03466261266087 60.323502361647265
36.768113543270005 50.399452308806694 61.62537000739976
40.77351052509492 21.2431746149804 62.15832892260735
39.83987057033976 20.213228743269447 63.609402259981586
40.05820951645829 19.96997693848837 66.37243828436264
40.85363743366423 22.37407862142766 67.37761431803402
24.684941615442153 55.49433689206136 68.71441591602317
23.335115278798465 56.765425654698596 70.35273265973146
22.80401189294999 56.66557650659383 72.59848737395534
24.10936635596587 55.662753265800774 74.61401011101019
18.14866148621538 13.998922996835997 79.15198296557676
18.993497997019073 12.70557682941577 77.4425262101962
19.724771497482212 13.262113367317394 74.76450975584525
18.70471556722035 14.815707759606997 73.37936347510254
37.89721042207914 44.73539265307403 47.31181031564969
36.61387301473912 46.14593409622206 45.17605181699213
2.842015363012655 48.685713566164495 82.16829508481854
4.228053211039775 47.713084434193775 83.55684287422984
48.905152663096835 15.406502257111995 41.58178904169853
49.931558212889165 14.202424635871667 43.594111836681705
49.53797578659851 14.615979099930989 46.29967779308842
48.33216475812242 16.599376647107142 47.58132150111705
17.47829920110049 11.212586632254489 2.50028916411345
18.865291414675124 11.903602755739506 4.342745808497584
8.675472913921377 70.2249132832757 40.818398392976114
66.12553529949429 83.91968579549082 39.34539009266504
66.77099932522738 82.15889624583323 38.41751265603151
68.71720131831674 80.34482693291781 38.82132717074896
70.73250089001982 80.50449424506998 40.484831259379106
31.62114088891765 4.603581429512218 13.850689503596676
29.674701984943482 4.978842015021943 13.929605135720292
28.278488669758147 5.181583555061575 11.639877903715465
29.548826611140324 5.22284812893686 9.443741770777779
21.17748917313492 5.6118622832393505 24.19725322918395
22.413907927318224 5.929460378166378 22.14118432909082
21.72995462452369 6.698185217011333 19.886211729092874
19.613452349165545 7.318302040324827 18.837152552569886
18.740783172974474 42.66247923308061 42.77040904842392
37.19820240060284 25.792313678115125 15.429745431296277
34.99600976491485 25.930291403969438 15.574865572157847
33.41743626141486 27.84247072351056 15.504775033598625
33.34183474033855 30.24796202944478 14.908203102173655
38.21962627942877 20.683483060294535 38.64103675190694
39.05544327663734 19.161127733196366 37.16646053049639
40.70610977958951 17.18986253375055 38.741110481269686
40.26218294927393 16.863799325001768 40.89452372703875
18.49552392701866 35.46760125060799 51.90583005341144
17.711335185065323 36.728270501177136 49.819068923839424
28.804949110688188 45.527317561626525 20.050023053287635
30.943962420687367 45.55811775295968 21.338638811876134
31.361120695722438 47.0252293988894 23.385320595010352
29.90462400433254 48.025475571011576 25.117700573222418
84.26999705969645 63.705565339921286 69.17419930999438
83.72651873105312 66.28039310687444 68.67406631452941
81.81389645697317 67.66435028375845 68.99858410233513
80.31685871100358 68.00995193975 70.73071720143008
16.82165941003085 12.263137956267602 6.053904827706491
14.46599893209781 11.868174687813351 5.397409362232231
13.229574114818787 18.570818327035077 78.23946145792597
11.733197869461915 20.617190943924697 78.10250527736824
9.77393887035642 21.32385401388171 76.41595273662635
32.16024694436759 44.18167500051084 49.2502239529442
13.380153186470004 39.342059684964 65.7565270237967
15.230371169379406 39.67798078376443 65.44359436399454
16.112381078774938 39.874830197635625 62.7823915224695
15.164638792977657 39.07733970345842 60.8668493444136
17.263788844744578 62.890915715785844 41.407959219236496
16.961703645250115 60.807225090338086 42.6570044393382
18.54562966611611 59.739981779800566 44.745944237109235
20.298570337518395 60.499450085414665 45.865134277790375
21.90169037001631 61.20603633945588 66.97901449846202
23.310373279233996 59.007835043276 67.03999630266505
25.25977008369766 58.322064840051084 69.01526462360297
24.835375014579462 59.42929235860094 70.96827747474717
26.665262535611355 2.826598629821959 24.67722121394838
25.340387032849087 4.4532112096278675 23.014642830192912
24.002430014598513 3.883463062877805 20.997058777336804
24.208709303781674 2.0057231819867356 19.516568067546178
48.3943970977927 19.697299431801152 79.63485727954014
50.080757136375425 18.854185287869072 81.11715298728156
52.17758874679089 17.725853875088863 80.87984993643761
53.757125480618846 17.857605585975758 79.07432202147928
44.06057387734335 41.64713498526834 51.12264684267556
44.97168117676313 39.3111340986269 50.29736332730084
56.145744170321166 1.4408789315255515 93.89606631769868
0.9573001618820676 29.183987298286098 89.2871955675595
2.9088333128358106 27.616841369546204 89.0397973596248
3.17010765549991 25.093379334262565 89.21654827932409
1.1692932655485178 23.33626116080609 89.73958482656134
27.88934718761467 59.40375610434286 59.0048750624641
25.70188660196668 58.89261198247892 57.64428813314238
25.21206394708439 58.782599076402974 55.54259807317172
26.397692037214902 58.741574169940485 53.168804911727435
49.54802757812045 41.33760912892822 27.313626178190813
52.22307890425654 41.82615571835094 26.826514490020983
53.718449835020856 40.62262364827912 25.324856107312062
53.763841107036 38.91676646439921 23.852663863519798
11.751650313214496 57.99592230610057 40.07174726269033
13.732110636708885 59.27194590507919 38.932756051146384
15.024956668051637 61.4215227138989 39.54903281979858
14.758596091646947 63.158366512874466 41.218172234078
41.61618730796675 46.67769018000173 91.30793874402573
41.03003930844765 46.80815642789628 89.00634568530761
45.17344945554227 55.22033363895679 89.04615650576027
46.94271314324361 56.24962102468973 88.90762240753136
5.185753106743357 52.22787744923884 79.9462468107289
57.89219690772949 10.805602495764907 23.713344491055018
58.64695759369339 11.92436558318903 21.976449967107158
57.15825858962117 12.907468014852503 19.870535343952337
54.77009875276327 12.587287071774512 19.240209140021822
22.297319787151604 40.5115298036239 92.53480111448661
23.87879842438667 38.50388164733355 93.39503958056858
13.427107404495107 36.65364573678114 35.258744168803744
13.20470504639125 38.9628994664302 34.975964928069054
12.336421236707094 40.895216993919156 36.44818174060573
12.655028071613046 40.74797435808815 38.45373865534936
12.179937981901036 65.01038161695473 38.26083718967986
46.79553292569514 51.69177442454906 64.30201573119541
49.59632321372433 50.810527099817556 64.82714177213846
50.33372415966685 48.62518101335956 64.43904881510565
49.45458228197513 46.61649829200882 63.08313402008252
61.77228333587937 41.32130608164064 58.701209095392166
59.24877564700214 41.31409141646471 57.49181149954574
59.13935577682931 40.66134027222138 54.965933212543305
60.86459568183682 40.6244782637596 53.1542827955184
74.21157533414728 31.680675781119817 78.1158170547403
76.04860053022838 29.598103607909866 78.37331403089988
78.14788050699589 29.514345409300393 79.77562893842625
78.96546080576591 30.771419797782492 81.71423192665044
54.76692023310626 12.307483449111025 66.13023319968775
55.16769364476028 10.152638718203171 67.330365252594
59.94135710092989 16.40731942917135 70.391457574347
61.99589768262415 17.57603785176919 71.31567835799643
5.530438023960516 44.68596815095053 58.86799940255663
4.608170905044593 45.73017084155104 61.326295102853855
5.547626094044228 44.80281860811967 63.69273469446799
6.850583663147567 43.08307597707718 64.30258528046521
68.07406953082811 80.75392816884491 32.20853388638745
84.05100027769593 66.45780710288108 64.20031524307615
49.85296873899818 53.18733455938354 84.97848118756747
47.93402416597788 53.04419338612204 84.27246078040491
46.24721887185273 54.1658536178576 85.64936940522624
45.745223008081894 56.481990864448406 86.34326758084494
43.816611456785644 20.082767813476618 79.59580578939809
42.22041223925873 21.586789975209314 81.03199617637428
18.04750575297734 61.580859175832074 59.756095819052646
19.09558258763494 59.38947775669712 60.89123993943553
18.980152054924112 58.84777853513698 63.67650337544592
19.451554526514663 60.01505363105677 65.28857854668794
29.65746066150191 37.039021262722905 93.69742912310036
24.80256878827522 1.654080857413147 12.068495431139878
27.270737253746702 2.7374277529509663 11.502815757136075
29.7699205008499 1.2684697223091768 11.745672542179072
11.434014410606864 67.51335120792828 58.371069121873795
64.36476666799608 57.34079369708291 17.602378415376833
64.15576341243347 57.80880093948893 20.282126353652
64.9308042287962 59.36725842301394 21.55753311380065
42.00015382433047 43.53545453843991 45.86640581593415
40.29136947014156 45.525121969165745 46.69138886951366
38.56833186150988 47.488262447116966 42.998927249721866
12.100989434144902 17.384065892957377 11.047682825307767
9.842218399475815 16.90753284727354 12.061736816499241
7.990053301488134 18.787548482212745 12.908879586395699
8.698820394616884 21.098891612411073 14.021766903695797
47.73014527664351 20.506939579231798 86.65155643684604
50.2432261905584 19.824769449175843 86.6999426865132
71.64608338259404 8.412809787654664 74.95912378180743
72.81169512298739 7.025522147998357 73.9730912876643
75.24767937635976 5.929889006060058 74.52495552773456
41.315664309094785 44.12702194429832 49.059702659544875
41.45393677170946 42.15105934354377 48.070114308497274
12.2735430849286 21.731748407216703 68.738314629786
9.803036923617242 22.317028663594492 67.50220631998405
9.724014826128455 24.273827949350277 65.9168528322372
13.835343760851224 38.31180853498493 53.219092653120285
13.755447364625311 40.56082699361931 53.48621393735642
12.480333771795928 42.427798614417995 51.76383006749832
11.254683023045464 41.84748098346298 49.7397537022308
56.777469914221555 7.941502577122213 83.87642517949747
56.19815831284295 9.867071843175724 82.44524304229935
56.39585280480525 10.07986290297821 79.78286182198156
56.7899997206032 9.038636309095109 78.03947903934487
2.510857604157319 47.96792881158602 59.77117683744919
1.975738303969895 49.941781806135566 60.797467497601566
32.53501857190549 2.124017842283205 53.82122609675159
33.25723717006944 2.786396213396808 55.686700869008554
33.41365188774457 1.8272744579285054 58.196746687999145
51.99227703361975 40.4602049794353 67.37601564724017
52.069017152546024 42.95843882619747 66.51828300437359
51.25245360798827 44.0345961762211 64.93574021889371
49.9835702769672 43.3038518274438 62.37197969697244
59.04543122449598 59.7751036533332 47.371045462721874
59.09900130635077 61.50265980816559 45.76025640399106
56.925666304386674 62.697051754353986 44.36257411833788
36.9583007863334 49.73822580888254 32.07594229705614
37.61108752877307 48.055785496189145 30.178783964907858
36.99301795392716 48.639294487391325 27.56921224736879
35.91444221988597 50.1580193790916 26.66706791927346
30.95431464488265 26.673520144897832 71.00536251759699
34.73044971334018 24.725803633589333 72.93061656753491
35.33781558902898 23.828286750804075 70.73703492144898
28.334035235507653 31.555269415923227 50.0959598484556
26.783628417379255 31.16014772658026 51.855204378444775
26.52970658676648 32.70439724734361 54.319587211916314
27.419526861709688 35.02240587680099 54.8302965577164
58.96059798861234 39.386681628204045 49.89852433342316
57.056548649176996 40.486082198821656 50.833923995794464
56.699179280965666 42.84326409615833 51.581123424044755
57.628233466246925 44.863746610328754 50.777302447108475
34.39785562074211 0.15477394372571787 35.81830779625495
32.99514224050333 1.8247521634650707 35.32891710710628
31.62903089723362 3.4572778054266378 36.483158506360176
20.22937601115432 31.025513167925258 31.547053079036953
22.352362951270305 30.422332484957366 30.84825893237018
23.89619080881311 28.921789724669612 31.40244284678443
24.946678103070553 28.080515620060247 33.56180245486796
1.3590794167203315 52.91700267320208 61.296525410075226
3.0904408075402294 53.389596364575056 60.028280747176595
11.767483239477285 70.05338982492998 54.64196492673884
30.51068540387958 2.691067912567738 9.472214623912235
32.42688371732578 3.2517564535647523 11.265529296677261
34.462660004153825 4.145876612500136 11.127326104390745
67.81308177222147 82.8300736429874 60.068214011643576
68.95640903279605 80.9675745701874 60.85491602447328
70.42819145848534 79.39846316998134 58.95221326024844
71.20093181575241 80.36543617112802 56.661313938863294
23.839379292192582 29.917574657779145 51.28511695213868
24.13217511952314 32.125867328294426 51.70839120604008
22.810385995443266 34.48086455960644 51.14705962190733
20.625894843054898 34.644727258799 50.145392806804885
20.55564226474489 32.16566151678335 58.56800970779958
20.852135934421963 36.481068488903475 52.72500790394093
23.215055613544774 36.006700829483215 53.49277180559163
61.91562231623622 60.61707509183016 80.42627838800276
63.44964024837684 59.15924999871098 81.61388951328092
65.15692563910946 57.91639489802388 80.08164153764315
65.24129373792626 57.5417935480933 77.84571938776389
26.69409916148905 6.71073128342496 13.21868015250612
24.056644246354217 7.095230751731944 12.684931794409023
22.81775792815248 7.565651101596319 11.142883289975968
23.21318963750291 8.710708336596014 8.922559811601406
38.32925665154794 77.04390118658398 54.33139607598982
39.36554772233961 78.3463133374681 52.500989260993904
38.728449364782726 78.46600172868708 49.891996107843326
36.54166597870241 78.2129328497534 48.91016584850761
25.98516186648581 39.99112524156713 93.279393734919
64.45118785363323 30.703246761361324 37.38837312024166
63.68727095877233 33.0731852180164 36.878764557007905
62.20474098379095 34.70972843459354 38.043102340727295
60.53843844293139 34.2063645373315 39.841846365902406
80.54409671456733 26.743319420205292 17.8281466366444
79.16072718807919 25.341398697512567 15.696864184699141
80.05695842509401 24.08330772888135 13.8748667874863
82.50713968316406 22.685264690449532 13.66109575316164
52.02228216484245 45.304096428709656 27.581959646282332
49.76941875995157 45.85129606754294 27.359593449192996
48.669928022005024 47.37312071110813 28.38160371980847
48.0656143874747 49.576215826767275 27.408940194452793
20.26364011500074 57.81903423479244 46.62600466062589
20.418223269538476 58.565660224204066 48.970196708444824
22.60860571618724 59.79964585574614 50.0707365149099
25.101192913670133 58.8159323076654 49.565232056744804
16.060857781916052 37.58302990055759 54.84227086814927
16.030358851491073 39.8380061421921 55.29368996010144
14.812015772447408 41.27483840729159 56.99488884354412
13.149344206268713 40.860872146292955 59.17296560637745
25.262972777302043 61.162116318442806 51.48930574675905
24.416176162269263 60.74423911921537 53.39328471910054
22.461150063929736 61.90584275965174 55.101042777612165
20.901487514281452 63.52342082919267 54.46399791736785
15.041309165757646 23.736891010414734 81.5107987189344
13.405906957564595 21.750522615304625 81.54280796153758
11.280954847197942 21.08273975309475 83.0430254020242
10.252754680483122 22.395334525984048 84.87372125975314
55.34107359773072 65.49345181380727 58.069187282649466
56.25823573690292 66.15210953466725 60.230536864383346
58.23162599294435 64.70543753276802 61.71266001447304
58.87155518794985 62.93890285279101 60.49629594361267
34.02894580164311 3.1460264880946873 90.14045355198974
31.908704049894705 3.61457695899134 88.37434825396214
30.004018951634446 1.843095239213154 88.68252545544742
20.249207940411438 55.88652886353352 38.025466032684776
22.497013957475385 54.77227138149643 39.103048955451754
7.926162459031075 0.18400314153180847 31.03024644711653
4.327895813566668 0.43204012789051793 35.506629624110886
63.59597738860988 61.5193061416576 23.16553136316539
65.63849864060039 60.31752319965573 24.11112656866938
65.23880325331059 59.57168757466939 26.79787467972229
63.29520483878715 60.88307839517627 28.379586315343523
38.454606567997786 22.42106511603249 79.17003790108953
59.46265536777063 82.4029383695848 53.82560184556191
58.759696613671046 83.80213212162782 52.719530679125114
59.87014259480894 84.71444749506034 50.44737516924488
61.47311593736647 83.74629188351193 49.034714753220385
36.407863591872214 0.4773873963266273 58.500675736241284
37.244323286256325 0.7525987368766225 56.13059945368033
39.40506407281193 0.11435474586771574 55.13562515793243
73.44495741697048 50.101272548210055 83.90762934325713
72.83629713633113 50.997723938760885 82.26090733555779
73.62016721707674 50.52614993618963 79.7844387988698
75.02384057692598 48.243356830223235 79.39729398436347
82.63460343009957 45.09450426799193 20.928068166878557
84.4923197042287 43.47566862826926 20.764492261083944
67.56607081028913 27.30832759465634 14.868238438021336
69.6586151780943 27.52424067970197 14.541967098792256
71.72559414313409 26.604035817550297 16.15524320660232
71.50077290209191 25.64171664313183 18.234614132542763
80.34204009784102 13.721934457688441 13.130985768468268
63.81992745096592 81.10000568604259 60.68495525193017
64.56601518492523 78.88099733654714 61.99007257352168
63.10712037698194 77.68120768368044 63.845417091360204
83.72591587554102 41.436248518634045 6.795070036739916
83.89849649668295 39.07912126225455 7.106324696689308
84.1739494242604 6.366215956016894 89.56210669870855
51.218555455461434 45.37012301776524 87.66779375923278
52.85475501813073 45.1289793407723 85.56126216998848
54.215145120273014 43.180819613756135 84.97308079470578
64.7643419854515 54.790889800217016 19.690126659142617
67.09707722212761 54.40109945471043 19.3966401499168
68.92773292724826 53.376124009581886 20.856273732665606
69.13713255778144 52.74370290412655 23.103141059539325
68.3676963459627 3.5568057893133673 69.16060320606822
69.84122311901767 3.2807898319776436 67.70969850046409
71.36974616827814 1.069182958621701 66.75235866653475
68.83700260934295 8.871959832147141 52.700574082404486
67.40469837965222 8.884184191950407 50.79786677230403
65.49219919897776 10.501330497885917 50.505115693646985
64.83309861267823 12.534350352707683 51.974727973294165
84.01251129876404 72.64770830325698 78.64988499655809
81.98129497858761 71.8859223607296 77.00552035740381
80.79166474076457 73.16374339434257 75.19386131855191
72.8817833047398 2.9022652879480706 55.30630735461938
71.76393447850698 2.6840860145374417 52.803174349826875
71.49384266105122 4.794983105936874 51.09496291571429
71.18284895068062 7.296144429738063 51.6883716533633
69.39788838730098 7.194247656566499 62.97561686525786
71.65670759221979 5.974481423673889 64.00315940591518
73.58383579441856 4.879869786830725 62.92652192044704
73.7931551265881 4.061258397378384 60.55070742826093
69.52963609769633 1.6274905968345572 51.44845649260262
69.95350242452967 3.3591692153009847 49.452119009515734
68.36196720350286 4.7275095718836 48.177200089276596
65.9287534691592 5.025134054176082 48.28644187996263
63.366598409103084 33.50703718661154 14.47359873028313
65.32804532381296 32.11572091945249 13.90788366091366
66.36493911651195 29.885383534075498 15.346733218222532
66.0788395981181 28.994466989080262 17.34060404851505
64.73052661448241 63.01288133426889 79.73822187523369
63.076806614108705 62.00224568776574 78.3839144308701
62.75896489069689 62.093172933929075 75.78222674406933
63.93642468881056 63.72678727516688 74.04658726528659
67.80165274158504 5.807063587178301 64.68929786656945
69.70831783978826 4.492182723430573 64.85673995335688
70.29404622022722 2.326205498736222 64.2656547727802
68.91571781854529 1.257958546267177 62.25520088749398
70.46200912340655 51.502274628162944 80.62842013281856
71.67903733915092 53.60480150112641 81.14931424448481
70.91923784292528 56.27524634085707 80.71885447609246
68.85386311225626 57.2059118474565 80.37627991857484
62.84449222170313 33.321460886625516 65.37603554766353
61.39334708817942 34.55004386881821 66.2471068525078
59.726622137160405 36.00622489125424 64.32288301348159
59.528149909501344 35.264769216221545 62.06685431993267
23.72228864677351 56.42139200043268 80.6975048934449
23.446662541572817 54.14458808028183 79.76230225388343
78.12225800312613 24.34845680302653 92.62879890380704
58.16746608195397 14.517558574216405 12.848872211685363
57.80733132206127 13.121051357707463 11.003223191534229
59.68936237065033 12.42176318887866 9.325055422288894
61.545425887881706 13.688489242206836 8.418469379371764
30.126715312306423 8.52481567120517 67.37268516067783
27.94886511895735 8.180413862735257 67.38282867886456
25.817573142630287 9.360734391197314 68.86993846774219
26.05448383052053 11.315703935127683 70.63939391688461
21.29002738938807 11.572336440657564 5.447153889557664
19.737138877083574 11.41971161125839 7.071900756646227
19.65822889358349 10.800014432824705 9.589372799294216
21.46081905554364 10.21644119435314 11.009851563257175
72.8577896497937 77.3006214103802 55.11346219485127
72.2424320765737 77.78979309117422 57.130253962262636
73.93952230286827 76.95670726767345 59.085824718184845
76.57714784997299 76.39164340073414 58.373792707560725
82.95589574815644 70.32454171312703 42.46216084333257
81.39767798353043 70.65606858463133 44.771392588284975
82.24633908364132 70.52231330851806 46.81780239053698
66.05557931864043 59.197899131680614 29.313550770220136
64.69674276048387 57.6659227443463 30.335790167761647
62.84624745840534 58.11553218237355 32.633833702661406
63.03467704083474 59.714377325331625 34.239125828434325
73.25128719545255 56.84101182990399 51.85165377866904
71.80606058705924 55.834229568641334 53.78546474834255
72.41535407330869 53.30570221369401 54.789606963530346
60.21835748122739 38.33924738510447 19.342409396547794
58.983805801997306 39.6970588971737 20.47581049579773
57.74541599574317 39.43932701148761 23.0576675895693
58.2853519846645 37.86086382655021 24.790733318797486
84.9416665890392 19.697773774433234 60.098334146876894
82.92515943305055 21.165883655362713 60.33013334521265
64.2119143795128 32.780073170550715 62.93382432547871
65.83948193562361 32.75859432989203 64.49224085968291
67.98252712250749 31.77455275631161 64.9138651602498
69.15648472585 29.889059230179313 63.49849746020049
56.30865787835011 87.18515659631365 44.23258043837286
58.34732184026679 86.75357027273743 45.70733500962846
58.65134429286776 85.56729520538617 48.153031326343246
57.30110640064497 84.8918063648596 49.838682215891296
72.92770761594899 69.78930292888285 61.73924589161325
74.72993184780029 70.01837809318329 62.35359390649888
76.29411872336188 68.76806008918471 64.05109421265507
76.01134472258559 66.49513140996106 65.09267754932098
64.60970521743782 12.091771805670325 34.54064033186111
65.11593951854262 10.39353505007376 36.4984621184443
67.20156414377878 8.38652208274706 36.19680854702326
67.6104371835018 8.218235610212206 34.00369923003272
64.47027065694344 34.38330489652551 3.9434452860601805
83.81925020454376 69.20946074446442 84.99428691841496
84.05466082693975 66.47836453069726 85.37892507015235
51.84468549834704 42.13061321317525 20.301618026428326
53.64666181591292 41.37959763883961 22.07988569920611
56.14754752353222 40.31213663380197 21.13606035784347
56.54329427861429 39.8709097804651 19.380206501820325
32.275027816045224 47.457889273726884 57.931430986938146
31.82977909682567 48.93063211369965 60.01666721342869
33.61173566801517 48.56191316545835 62.16989036565263
35.13065233000624 47.133186018527105 62.82339187828512
80.96430921706573 17.826527404680352 57.745547874256054
83.26464234838335 17.58261167978462 58.651446512998206
84.992492231379 15.822326616254703 58.441611222021926
77.96347566861624 74.35306999873164 75.03478586767925
76.35189640579942 73.81850441777522 57.373556673037484
76.15317483403763 73.56086019414371 59.82900002353852
77.04213137390839 71.40267696449074 61.471456066857826
79.03659069399424 69.87391009717054 61.06923611524513
76.0267034349383 70.74879875087895 77.56355700837783
76.97541144068198 71.95301827038612 79.04411390195243
79.78732490536294 72.21122712291572 79.94402055325402
81.33952010951761 70.76198889808425 79.24943900575788
75.33472863315482 2.4210144631260997 61.74800487082157
76.8652302266273 0.751875415197675 61.33777993747711
77.37360210379823 0.7141269399374406 58.871615840446864
77.69768767466839 2.958576706280212 57.30230667297035
58.0806002434754 35.871122257612214 69.14491261330662
60.78833851582914 55.918178060127524 31.75669256966336
61.30052222258846 57.34261540385667 29.93484299631695
63.11542525859349 57.01402777786558 27.970598876757283
63.73616038260337 55.390614199078925 26.762386354944343
83.16785640988094 21.768859276507328 77.37922870333236
80.89356509165741 23.007127217232053 76.6016322731307
63.11667173760509 34.91084637453338 61.68506007733112
61.39884375744007 36.88179013764699 61.28541110908347
61.29516307426947 38.603757966793346 59.232453739290165
62.642320525690536 37.982124867810434 56.98551409274952
83.52179937076606 18.01809062410692 39.68599409934456
67.8995061886183 29.237888273499006 49.77396187204886
70.37893975778562 28.66669849183987 50.88562535615528
71.02277105689495 29.773042884510268 53.06304470337877
70.41348462567771 31.862754277691295 54.38046541610046
54.961817347507136 71.6454827068662 67.06275046778109
54.75489199931904 71.35885227604186 69.56424218240312
72.28798110524664 4.440878097870831 24.24775832899794
71.15727351460257 6.213290988157635 24.422636572605395
67.3605745333994 51.969526184229416 13.418054983980685
42.30339180219643 45.65540594469862 85.97781912367219
47.58220130606708 52.57376240130921 88.83711083713631
48.47814964063231 51.74162236104402 90.84811387670663
47.671174204036 50.76323931142088 92.91807572992646
55.04037341128854 39.12182853622602 48.866656886252805
55.02275310563181 41.78749005779394 48.606685616781476
54.318861568629586 43.29523096092612 46.81911697685858
54.1260874195855 42.78533472454877 44.74909616818478
84.68708950520424 70.0029903563074 76.23836179543818
82.45761433198666 69.68289146946255 75.43991708959267
82.37317564554836 68.98321228652159 73.08960964343545
84.70138309869733 67.569006369777 71.80656000701124
84.76398732657137 38.915637509213525 36.53858254900888
85.02225327775787 36.48744657788672 36.59204454183117
39.6931084903973 73.05295965603345 33.474461063200174
83.4347192861909 24.421339961187577 79.71742713439394
83.31599499146908 21.938831358071784 79.99985830416453
84.7618695283411 20.297659196349027 80.34225049157298
65.03947256105752 59.5275587579937 91.83625684470057
61.036825060720176 62.91345721434568 25.5314160316739
60.18392853286542 61.61492513202816 23.965869781420462
57.97497474405199 62.13514769668406 22.110549787691518
62.479234700321484 14.568067136786599 88.7965370250518
62.40892646076411 14.958502295051971 86.35019702022912
67.07344561696242 59.67808546072295 80.37304673388033
65.87463366392531 60.985940355897036 80.91278128987582
65.33426742634856 61.68411257804427 83.36668206646276
66.7266016888676 61.635567411693934 85.51477101950735
59.19972143445486 56.84938474342458 50.50252305812648
61.63773359303848 58.22036571661271 50.55616968025962
63.9602605614398 57.4964937218416 50.2089521418207
80.3470265050429 45.3674854502828 56.57969611562345
82.86033306446285 45.88544220400476 56.71145131899548
84.4349450182628 44.65580335310365 58.24692102911524
84.31475072749386 42.209667668289995 59.11836494540508
75.72522442835783 0.8885474026143809 56.47816325299296
73.97628526962843 2.482381963445491 57.84542083988933
72.33769694104888 2.028713783228826 59.32700989424048
71.49055698679047 25.83429690239458 56.17105821159244
73.32011321077559 27.0655003112297 57.3515602712719
74.89402027506495 26.143836857019558 59.268976159342245
75.30317845528647 23.934216956640444 60.26738875919699
69.40211026903246 56.10101279724909 43.203158986776664
71.72102074833677 56.127578374444674 42.69957627268639
46.20038635229104 68.11735564044827 56.02793646091158
48.729030346400805 68.91418717636704 55.8641239844568
50.71563842634484 67.38803839495695 54.79480162687458
50.785019176647964 65.3492716660109 53.66774082517429
27.85336447057786 8.71661524322733 52.03351300297054
25.667848533132524 7.376674544937248 51.928659637486966
23.26344375421392 8.299312776584408 52.74716725827246
22.359861992542964 10.37505108260372 52.6642902456368
38.0082192370043 22.99142834982945 46.612213883520305
36.55932353311901 22.378898441699377 44.70558747417918
37.05420752884256 21.30579480668448 42.19509501536616
38.94518315299199 21.884127750968826 40.79439737458334
79.09074661656821 51.96011920818183 53.052919927961774
77.55267765029312 51.67206244137283 51.480690002872194
77.23221607051919 53.063576079676096 49.25043455656168
77.98311308430976 54.81804481541374 48.03192190644608
83.10353812010077 65.99230289589322 88.54545937223597
49.94363017231963 43.92138775303193 16.25149616279308
51.72279573213015 43.30825456994839 17.749217416436693
53.83677732841623 44.45626420547814 18.362710780519556
54.91928907486902 46.76423551399031 17.844660110381074
78.4847996641592 18.593173237429312 59.3796132757948
77.52958011851906 20.582335934198646 60.09448606920605
77.35011387757041 22.822391524974854 58.48234658677259
76.07283620728263 23.02455482231673 56.485522851967566
5.694117944737543 28.109649815545275 77.13504919556412
3.5917035911217545 27.623299619694404 76.84051056329282
1.3249023878836474 29.21891865019358 76.68123990339478
0.8957588617914718 31.172181490699913 76.71687291827338
76.1791787047077 29.73967862112509 56.01542887805859
74.83931688877647 27.98804305732702 55.28982117831158
76.15216256281388 25.928263883346087 55.92156186303103
77.68170505776301 24.52368449893014 55.00948327743001
63.20340131051132 36.483447673880825 65.55208526509638
64.4159856444244 36.29893237001623 63.37712643552378
66.54617884839114 35.0297220958369 63.240108446980955
68.63173707072039 35.04391919227342 64.45493724259134
84.43148468871632 44.02138451692809 38.215975892939696
84.51138971626548 46.5731042636665 37.88719685254818
84.30245527160827 11.074514594733355 92.41699676951858
84.10221265900029 8.836271660605469 90.49659871073754
84.37228687157436 43.736567787720375 13.672430426046239
83.82665411071596 42.173283334538844 18.03767900314456
82.26224986285614 43.178453610348605 19.057949585709387
62.733935135317374 43.469980460517256 68.61979628117909
61.994345148844864 41.01163458310946 68.30178469103846
63.50688615736789 38.870035623515015 67.2416358881025
67.82927661069064 27.658192589018718 25.404357952973445
67.1048008618206 28.338057760473202 27.560792375843462
68.51709519576839 27.348420301667932 29.520111138526072
70.06281543760063 25.278392430093728 29.651893712148784
68.1050531817876 57.3864926303945 22.831332001602064
66.31314282687467 56.01898604841784 24.63996957604836
66.48654665936058 55.70053936758925 27.01283255950421
67.35027994485837 56.59950916207389 28.898766083700725
63.98390177375029 35.193927999074376 12.687336913735418
62.860036375258375 34.5309720727832 10.682027245384194
63.73028359438005 32.888713940374615 8.894615306373458
64.85404130845751 31.351903258408385 9.475885694037611
6.141300045155571 5.2633632526541225 88.8757552089009
68.30675660545423 54.38319552003547 44.809132369009596
69.02936367735356 51.85670866205643 43.832726380886356
70.42406855029672 50.25746535569712 44.828045637837654
