4.210026281197996 76.78096698032991 61.7715687969968
27.703223474843135 84.9407261839822 64.78867879056992
27.333747627190526 84.90738613962912 62.51356354468867
25.630939056674883 85.79287365553373 61.11275281469334
23.21952197300825 87.3462626282922 61.65340567392342
36.94016456049341 97.73388103326968 8.79055622095513
77.3803513203821 61.523390210034385 17.313041403359605
26.127580168368606 85.32840500400019 8.189907669073175
23.86765511498525 85.32202780742317 7.464355116207698
22.70941223633194 87.06015744148432 5.517564111941438
23.746919601510577 87.40533715198852 3.602555266192879
42.625368805807234 96.24221005002859 32.257915857250666
42.55394809435986 95.4742392527412 29.938818429714114
5.454566855058984 97.83346830217175 79.47965930138001
3.353685320555288 96.84283575806018 79.25828078161871
2.472642628991016 94.71877641973545 79.63917627374407
39.64429959612277 37.85595599712724 18.692166026824285
40.22309897015316 38.61764731306027 20.804904067104392
39.0306077150719 39.64250905723333 22.785364735495403
37.1365520113903 40.83895219347 23.286342439868708
54.06800028189307 44.76558502338429 4.401695078855477
52.75490715981275 45.88362116299386 3.0237263364403386
52.88901950297843 48.6262379014543 3.8996838695224367
53.32569542548508 49.066036512647216 6.3193813221021795
3.3604936061337893 57.76772513258413 65.17197874200569
4.1031363312260325 59.059745640776754 63.318902648445494
85.17633940156504 78.31638497773523 35.29381980325646
6.607535105108961 57.67965517872948 63.490544162085484
5.164330300141065 55.848497719915464 64.0680318549536
5.03184031846445 54.383083868228496 66.32283024554609
5.816741742916056 54.874403392691406 68.4613262580138
5.99541190107247 53.870943721035395 15.889786169773469
5.949086133277567 52.01104168342045 14.447822127112133
8.268876520376681 50.842301938636716 13.558150071185482
10.043455446927956 50.396003137759166 14.650860823410474
63.36463660093044 69.33311130676944 21.323033279005124
65.34571548597229 69.03984190580577 23.125750292596706
67.74631724699762 67.94418629164446 22.531928876486752
68.96543603450193 67.87405802816238 20.49566777210776
32.56940278778185 23.130590456376304 47.15466975521732
30.292683819931362 22.08031088641659 47.98769733010969
28.803148550081993 22.250070582566796 49.94699914453855
29.123216710436147 23.6808564117087 51.88081731392236
23.99674403783985 22.71563654908201 55.18093212589528
26.06628336577825 23.622292929195652 53.88444876886973
26.383745815118168 24.09349890696099 51.01308745312482
25.364773937847346 22.59855876964546 49.17314616977718
20.06865451952135 82.48728563665458 6.462338097677057
22.539757238202753 82.49422795664258 6.106158833229452
23.20064815959306 83.94302040447906 3.7016233135922714
21.9324806694267 84.42900093015601 2.034678983527037
38.0748490235252 76.63324010855727 3.9544828365811817
39.74486302557993 76.2787105641469 2.392435249969939
42.534900019145674 76.52097917996569 2.6191943652934566
43.6310299350541 76.61118340643397 4.423069213003573
65.72079360437377 84.5501157045096 27.48372858917699
67.19436951429853 83.98807556744627 29.5244686406183
66.3195100433931 83.41715094204298 31.858638892742295
64.49733829590679 83.27121086885558 32.82708579890856
40.028568454750754 33.37919779351365 12.13888535907583
41.842893471073516 32.89394436019253 10.16980538330826
41.92946075127746 34.32875059094645 7.833796716793941
39.976080042169656 35.84881629595481 6.981439599099394
11.79107154221707 89.98719007736389 38.32710801006357
13.840507648264609 90.79111420770538 36.897250034125875
15.955026556808138 91.0311178600461 37.13188704729934
17.648102009033387 90.56356822439318 39.215638085468285
57.65168222812047 96.28597623550147 37.22573666365971
55.35672018310239 95.84794156991524 38.6594306769025
53.133483277678074 96.70744433286991 38.124400269692714
52.22757178875523 97.56989033361545 36.52240092243388
43.25578387905405 37.67764287742001 76.7602991569368
45.48197772024348 37.049156158214636 77.08744778119993
47.387459665585666 36.50431738891566 75.56819887849356
46.66778295438911 35.86573026191728 73.24259000088033
12.073587368029148 11.051065744816038 7.3238820068278985
27.72502464751716 88.48257452694003 54.969113459309895
27.353483297550117 86.87990077929632 56.39739479716318
26.141919842345068 87.01521876700966 59.01594508126563
24.66295632123158 88.84013928989629 59.67043332349105
2.3322000811271346 52.1626357292058 44.15998258510516
3.8619814182638783 50.80007177225664 42.669845514437434
4.307295067235166 30.973396274675004 23.482846241087053
3.040143424384692 30.121883061015374 22.091893964477762
3.591885469292856 28.883912585117432 19.490255206639116
5.632032553682418 28.478573422542464 18.323500482817856
28.20219117856644 67.98571567830676 40.34342629166878
29.496920313391556 66.02734963076865 39.70430299798524
31.624043751671515 64.98187159906844 40.14617222071096
32.6163032398928 64.85320560935214 42.311226499017536
24.589911228135005 26.37656108734783 28.917428271273053
22.06855125884118 25.320219674296865 29.230220775725908
19.993730723146438 26.663831695340075 29.7254300692897
19.832486597698495 28.56479533901758 31.62765062929682
16.84029001663403 49.129160871156316 23.43376177887378
16.99509355335933 48.22746834928013 25.912043259770893
16.843520193091624 49.28802707503961 28.167394115839958
17.11195970780362 51.551890553249294 29.011389448788083
20.452305701588152 61.35968227262955 8.069659122980077
22.759519178408905 61.49045355540427 7.217491525075502
24.956219760415227 61.37130341252194 8.277610622743428
25.69782993244707 61.075713484859186 10.341542536820524
12.138328002223052 27.142865391460777 1.7674598879937158
9.88338468517122 28.494735175200077 1.7599521548057169
47.34738916952212 96.47848512339557 23.68438582050214
49.75563390173368 95.58035050349865 23.677854050750497
51.353238195453095 95.56566764274798 21.83165239278013
50.6867928057063 95.57499451203418 19.109247937489325
10.892617822997705 96.59400108123832 49.254271682209264
8.481209300306528 96.95847620602699 49.855991753944245
6.392871873581825 97.382388853679 48.20753463209974
6.435754182120151 97.38191509267969 45.376572519555566
53.74063115605244 95.71353512623632 20.15574293588709
54.557124440919104 93.70861308206247 19.307980430114753
53.89471425853367 92.6964890905263 16.47911669412751
53.60146012652567 94.02770477142401 14.54049335373269
47.77921441910169 35.09593853391212 50.34793777486826
60.369873781635874 51.43734252173179 64.79267896080992
59.4975156951992 51.41159762339936 63.04490016177974
57.04196687628998 51.59254458143169 62.60424506477162
55.431379746806286 52.690099173122384 63.87853808505049
85.22604372337784 97.67291100008329 39.04055083874695
24.55742591849391 68.6775070495781 78.0500445456279
22.983933139218976 69.69321960515325 76.05498202696775
20.91194864325936 71.00001261853723 76.59523854169475
17.94168624266278 24.393976831930903 0.585522519668794
4.595162920247875 52.01186201936582 1.1709690052036017
38.85288208920893 80.85171595441525 68.95086527957547
31.44628062995501 23.60412997212751 44.725360006299866
13.289953579870497 8.930848184733467 21.19933803954154
11.114199888445908 7.874832154012332 20.93513900900029
7.956596897987068 92.55533107187625 28.019351822651448
6.004077861590148 93.68003018646156 26.42907040956598
6.517746750960225 94.9795446639892 24.15416430943155
8.894396804213953 95.22748645283376 22.99950240662473
45.727563402189546 55.794818520350155 59.72299138090897
44.8177860915424 56.30294086212462 62.149567537214224
42.137263410609016 56.08607252101015 62.7581261648269
40.195414053654034 56.70311714704712 61.067929655506866
31.751335056816696 79.4700929301419 62.3969924911713
32.86113663019822 80.34751532512504 64.56162662097647
35.3885940632047 81.05198376961303 64.97555795215607
37.55644012997081 79.72578684387466 63.66745277798716
1.5811914499328559 27.14820294223417 17.684943100288557
0.6946698897719468 28.16265196171241 15.680794265328739
27.99669009858617 70.46407936374189 74.04476090012335
27.263456711626546 69.04020913623256 76.35939587546777
26.167418174318815 66.75426809777075 76.3074865168606
25.44466777301985 65.7697876667289 74.60891355525108
43.05801904290348 80.1572123692351 63.392715955881066
41.3470240021848 79.63786494178915 65.43256162511555
39.17662397574824 80.37855260496966 65.87319724973915
38.00751865251433 82.47399436468763 66.00395219748157
20.830992552005508 47.97887336547313 40.03996712738112
21.569964572455568 45.26268932849015 39.87151524920732
23.532739895615734 44.21588146018662 40.61134604827746
25.49532597249051 44.922624580828284 41.98853803338612
59.89913956116594 47.282001770293064 60.19616072374118
62.61985466124166 47.92564217426671 60.411277411980365
64.07817084611142 46.77045653594859 62.11031912784537
63.22450521347246 45.74830736440965 63.89657680701646
23.106581976720463 38.69333322885785 5.269067766808968
25.931762192680694 38.57538863099905 5.77266645263059
27.640331174483574 39.03859662957332 3.9763715748424193
27.674515689155346 38.803943201593825 1.6482692962804504
17.935161449763967 24.836084105869375 10.718896854279944
15.778885427326491 23.5628199717758 10.100843474826833
13.813277407287142 24.19707048279206 8.987788385866097
12.6249013464434 26.574630261507757 8.255055552118863
33.55023708977711 54.41406974535562 11.462921132961949
32.7056426085541 55.9359338017544 10.235312027279521
32.85343431966533 56.58921900218512 7.774710526886197
33.46396336220126 55.56274477451313 5.709088063504392
2.6302508875255133 74.20439147125236 6.070174958544659
0.27444174633620927 74.44122953765711 5.158578306540004
1.3935128777582795 75.44201734548443 1.3187764690752544
75.0957932135718 85.3635202022638 9.679076749464242
72.4657701508551 85.38855605623425 9.274506235283697
70.53770960875717 85.7998333278954 10.894850133493259
70.42581584943004 86.38032104150146 13.2900479407671
10.82034867771276 95.02604014815981 76.49348502788149
8.586007955004687 94.93135609602173 75.07363526568642
6.534103570227195 95.23918412340063 76.01499310094516
38.81993042349935 37.972476073667764 49.37000252259491
40.49907276293516 38.137759543906675 51.42989288379964
40.05503576912319 37.94206480445421 53.97625230052729
38.23835526645769 36.663017045838615 55.1426523777456
16.66005159963207 88.33910627332936 75.87110272092545
22.80400878179993 88.91280154274024 57.4989712009243
20.729700255082772 88.03216140196967 58.13190108237279
20.550606079212198 88.1028087684492 60.50692966364112
19.467070058943527 90.15508022539505 61.394885637510036
18.71234717894142 23.164804076894185 27.570484800744403
20.17059148084664 25.058168851258376 26.900652644055917
22.16166540054873 25.417117714903252 25.34546378505377
23.389727241347565 23.97339822282734 24.030270336517475
12.362675075032072 96.33390656310276 69.33195164863982
12.37188040246928 94.7452872392767 71.18682979538157
12.19950127451189 94.95553833960162 73.66833226494478
11.116887027512488 97.17844187878069 75.16590490297487
41.38684762172246 60.61357287687615 63.835601960524265
43.0099139808296 58.79744894655989 63.4301240590423
44.96752034116069 57.79938575294144 65.10033839319671
45.047744223765065 58.7326143936575 67.84162930657577
1.8234169902019757 56.674050816223435 26.570952808669652
0.6149735526977963 55.7074460685577 28.797904217562145
1.7584832271900173 54.199801654177044 30.541289710012805
3.394463132966125 52.097087571581206 30.169141291409403
0.713643498309608 78.04001710953571 33.72465564454456
2.805609061201362 78.69509467951345 32.66107357700494
4.456403863876178 80.62092682716107 32.73916707438776
63.06269471729597 87.35005606484631 24.26198536747936
63.19713737765758 87.97099387447857 22.405088757941872
65.59974358581755 87.7178013739385 21.400354793639405
67.42697100999355 86.20118966078472 22.135121949908374
33.74278526657754 82.68073234613004 69.02681807533574
32.376339596586604 81.65743772931259 67.78552083828315
31.033250125579276 82.29136363837775 65.27186757633967
30.857011492840012 84.0979794161595 63.932733602366646
10.271900483551143 71.85789843846307 42.49167028883456
12.115500411001172 72.63915436974331 44.2015329124058
14.481644480247075 72.1815491637421 44.327261205923904
16.012079301360757 71.32634573704986 42.698537224151174
49.31845647178803 52.153849263608706 39.27234274991957
48.45948332555289 53.93209127165535 40.177849586304696
46.64013213452023 55.42852787640387 40.071787636255564
44.73075965580615 55.81235228164031 38.48023837647635
17.55332256145791 44.55875437290623 32.12543726133447
17.086133557654332 46.9367501202538 32.53233748847946
15.538048952961697 48.17942645393315 34.367423430154005
14.507475140833028 47.35657189967645 36.02597965873518
42.967456106227914 96.78615267858895 61.64093369303124
30.552982787005572 41.845213559673574 70.25113427489897
28.14909642207573 42.40860274769821 69.87266866911648
26.76855073090189 44.751321365098015 70.61980037135042
27.394933734461215 46.10706996050834 72.77114708303856
0.49407000195146256 74.42151742500212 8.625377227265238
0.6986753044238564 53.99771692460014 34.53467756830571
2.481425086613507 52.37973971176496 34.10598676591195
2.7508674411877236 50.791173510687386 32.33029905979636
13.771219177653109 23.645304539971352 6.258792801339671
13.107059999030039 24.74594744599418 4.422226725744494
10.80067632061743 25.381974555079015 3.3381764956461137
8.494645707484084 24.3483913729913 3.9374945155203296
20.511056527911684 63.91590351600721 61.15242464800385
21.666618371218018 65.79999784376835 59.478184422764734
23.328036358691598 65.70448561052729 57.93817876376022
25.083888979984646 63.752193773662924 57.341623883370524
27.96912398163171 26.5177619603191 62.29621284594074
28.34461709472046 25.59160121906229 60.75603763215456
29.571917167158713 23.38320547388336 61.5847657324186
31.7376075239476 23.01128949575474 62.573439617022615
16.214955128478106 23.830806553501994 5.569393054238111
15.6693735311454 23.407478044982735 3.149678177960172
16.50522049721172 21.850330097897825 1.2853723726412967
18.10902722791531 19.48474889019756 1.8689276881359997
30.842459999302235 78.22287921987075 67.81423912089868
31.538823639500045 78.61511285831024 70.01242571879723
29.514670365808563 78.78628280648529 72.12008101959466
27.377106097678556 78.49261938867626 70.95693917208357
5.091648717825627 49.63675536689824 33.07408820508029
6.583065413772291 51.66851706858973 32.51748566179982
7.818467032018905 52.34686719053767 30.446490080983743
8.696760298317384 50.5932941151066 28.636285820070412
7.2369541070378824 78.1651928763726 25.24025843610461
8.48193362116022 76.04411220857587 24.656464594404763
8.018208266628976 74.37044254291017 22.60740830165512
7.061678838566726 74.53163517001443 20.808713979208658
70.88819140117563 64.34943563388583 0.5678263437827191
51.291996142078844 97.65895494677764 40.43361992388284
53.22113158469948 97.34964531014373 41.5738032237784
1.93160690961513 72.3246176438751 1.1568587371940318
0.10694981316381343 72.34510955499765 3.1955206097463664
22.06653549704938 45.75473533883617 37.29749502122398
19.39734499429805 45.36972246301342 36.699162258600275
17.486190634962725 47.4027123874606 36.37929729920746
17.63807655886602 49.41032938121289 35.736320578677784
1.696088808430543 71.74887895488064 5.343243131977675
2.0769050027276865 70.13432124815432 4.349377146399244
73.00859973638079 81.78840496667038 25.35529985114312
71.81353013134084 83.81365785769371 25.92057147912303
69.30148200134971 84.39165396598008 26.45857431998593
67.41368039945363 83.42444498462673 25.404624952839004
26.85191979380019 66.45034993653164 44.27725743132505
25.046494448883955 66.59016363643988 42.94824851011521
22.41488351483219 66.18255695042332 43.44400480272339
21.444746421598854 65.8858818314266 46.09551818287832
9.518208589626182 92.42861048615866 72.09038466921285
10.384839275445932 93.27451142888285 74.09480131760881
11.6068200641881 92.33100494271855 76.04632987304683
12.873408700836073 90.32344602247696 76.33223475996668
18.116946786919538 46.11891840200511 43.184834578937114
18.397620607009898 46.463844152333756 40.852595533032044
16.48984213439307 47.01093199479757 38.846908863742236
14.68135927506129 48.12748060387494 38.88366180628908
4.266301335395745 30.06483678951737 11.421934791663768
2.655381484058758 28.79851311549707 12.993457942832768
3.2769716146339483 28.730241648022975 15.724501423701687
4.489603783166668 30.779473770061585 17.08158683191589
16.37841206169891 71.86781961868819 75.88882046860444
17.64734469612789 70.21327979800955 74.41415012444354
19.587568852500482 70.41108654401089 72.78046275425835
21.501469351728083 72.14728667041234 72.92554341754602
82.51175773065164 76.42843684107326 28.313096037347307
80.87200725628543 77.30678181377608 29.558039502139987
81.20881860342499 77.4067181987961 32.101255641676225
82.63047418839666 75.48635753657823 33.33832827311656
2.218543905609701 93.37516635509617 27.956122368740612
3.554479774262716 93.5347592904967 25.918945212182514
3.8416636494864314 92.10023416905105 23.786707714457634
1.9345097513872647 90.24121506354459 22.919970818443563
1.1520445504469583 71.05162075639096 14.455749699838188
0.3791093589304837 71.4876096384565 12.073742872945386
48.32800248758699 56.339885465002006 64.78487098407477
46.42395626276476 55.25143543190661 65.484018124053
45.09767328340498 54.87475507498409 67.77070287608333
45.77392349703069 54.67232713310104 70.12843405096001
42.0967408127675 40.27601107079618 26.026774967585727
41.02871763040989 39.52752809193328 28.074501517117664
38.685215935783226 39.66928877971727 28.141192539985678
37.26061649947492 41.10256318036233 25.933786259511308
17.312158074284003 93.35662708514536 58.15408917317868
14.978866993832463 93.20660184787033 59.09537274289944
12.84300451840314 93.27262366651387 57.81035038083751
11.720694341559838 94.75793979562773 56.84444633809208
1.7632637854587039 97.07456502584029 39.95751146358242
0.5837154854281398 96.79271822459211 42.032937679281034
17.558948665334526 71.35653312889413 49.46788308443861
17.636458770821857 70.46681079855306 47.02416160881191
19.692502741789262 69.58093233523633 45.57169139453322
21.698816088299925 68.76591129065262 46.19575824027312
63.453861305465644 91.1761076124883 20.648591909530904
65.50364925360884 90.39179438980457 20.117462542445622
67.03296861502407 89.89361435253967 22.419594392424216
67.14090573579246 90.7760828695315 24.347783208066623
0.9222145660304698 76.0740110636177 57.11480579863886
3.129051314621937 76.17749622096285 58.0614948782756
5.425906585252865 76.67729415904735 57.076657212744905
6.085896908693703 77.11085442596558 54.41834869100214
21.81285709394654 40.83881896400894 42.19027857347409
23.78794662883123 42.10581636481878 43.16411035578321
26.456966770649608 42.019633960519094 42.37938536685097
27.52543791685216 41.044779452463615 40.581164171366076
14.51971991373809 53.43857172820674 28.17693608859888
14.723491309731518 52.15704237857993 30.05335866171346
12.767852269841097 52.20293449339287 32.081770674092866
10.836449429400817 52.93502421660377 31.609909716763525
18.312901127161457 87.85034285990153 57.36396776965187
16.99727862721784 90.00198762008989 58.40709317897008
14.746207071872151 90.88743961104134 57.972338253992376
12.962434159225749 90.4133914325985 56.16950263406167
54.703850976168596 54.89961126983183 39.93460382566094
54.30522906586777 53.8884922103972 41.88953588158777
52.34652167947089 53.977317660006754 43.4019016818386
50.46842072543938 55.62070535949543 43.66255588394514
19.576446640428554 42.11284264326088 18.63310908639883
18.178162909905833 43.984827455462515 18.626507182567288
15.813033890071528 44.360211208100104 18.020773497643326
13.982365179443143 42.939573106053366 17.137197300804928
10.925082018128787 75.94308536590476 78.05697831763989
8.753088209166233 75.11436197195653 79.3716350492254
8.429745917155216 75.31954004289332 82.19555025242852
9.697242397357318 76.60289295369165 83.79077735968995
24.799987322527986 47.80697508449397 56.44677610856315
22.40581156591239 48.20912736192139 56.07091307088114
21.064657628939845 48.63656175104372 53.44178156930204
21.856162892840192 48.84331137768113 51.36893136750718
52.063213770599916 94.43743463827371 37.043841839451304
50.039009953975054 95.22770803492364 35.97440380513649
49.84177945972583 96.22395834517967 33.483300148417854
51.16947463005384 96.06248070945918 31.297243507944376
51.40115768839113 94.93017605746974 55.073028796119786
52.443614877350335 95.50592111455543 57.14177958897244
19.624634340824826 47.82276877178611 45.214407517894166
18.175129243302244 47.229448659095134 47.13557717706603
17.950265981176713 47.8976568671373 49.54654897197061
19.35860126885842 49.57497381274659 50.97351583645862
2.1631767899615406 74.69439936914858 29.231239026883078
4.120869560601904 75.97976818565525 28.502479426054833
4.533556391970675 77.1050876220239 26.226322472941764
3.456992032447371 76.52101937349775 23.861964531553397
42.97491211661752 77.27005201995617 22.125838019065437
41.104399085398384 77.12187208695914 23.15442258873564
40.60908883883231 77.48128766215318 25.837830494012255
41.61249133396887 78.53279284881528 27.533753102916165
70.76719289929798 65.81198697707448 49.72358721559623
69.7605239719018 65.25626521086633 47.70725242924924
66.90305014634605 65.22522051441724 47.41114956079599
65.66666455370837 66.15281125708344 48.60844460251501
43.67659927058671 93.16649596904513 26.672067557551845
45.804069391295066 94.45677911120417 26.301607950126066
47.826563262508635 93.9636283640069 25.054934606177024
48.690483431945324 92.2416006089098 23.656590272152652
0.9509764111289946 7.728015458096036 3.4621084145001735
48.29586950625227 95.34829595120928 12.579179074337011
49.85195414013381 93.78549407089452 11.937228742687857
51.967431327193694 93.76608875169752 10.29449448201889
53.28353709280888 95.39191015641963 8.984327823263195
1.9051628822513986 55.32007972143872 59.95660559254172
2.2900469004689183 55.36617482995575 62.40386565236028
36.7861836183723 75.54815306319249 1.7640649939687634
35.78193657323324 77.36342841937203 0.8780913020422214
33.725392493027485 79.11675981474723 1.8932684624130387
32.00903069573919 78.8281404712546 3.441963259998075
51.32565032035765 51.854933633385876 16.02378165999738
50.111252968564834 51.9406018381326 18.423009207863444
49.01038513240872 50.04335149689099 19.631223073217377
48.86427545453668 47.50206057689315 19.325709925806745
54.29041692291554 89.05167054969098 20.096587117422608
54.821964035820635 90.88827246521241 21.02626271979136
52.95133737083128 93.01371955938112 21.511407711607145
50.70440196614283 92.85297941877198 21.877876193911774
25.50267700596869 47.20814859565942 67.6730897411958
24.48673911018825 46.28049736938105 69.89150840129805
23.859457818628208 47.30565760919325 71.97768590326336
25.4365035968283 47.99160477608023 72.8909098140239
17.158624891131733 92.93967242388209 35.18927276416378
18.75890901343401 91.32492044447181 34.72284384315804
20.875640659916595 90.47228893429815 36.309818205955
21.982991355628258 91.68887139638329 38.07354314220483
64.60053402021114 87.03818508413953 19.0034727173993
62.767678231893306 88.79355690588136 19.769551588311693
61.417777560395685 90.51930444500567 18.639833318109492
61.33623682245912 91.1004600120683 16.2238368258481
48.1470208736589 97.70880404152598 26.130714605025478
49.419839878349784 96.09563985629346 28.020946617180446
51.837499282780165 95.6149668715021 28.486396761435206
52.97543983583666 95.24114255373543 26.89279611536899
70.58643754707576 66.49133697194262 40.33915977796781
68.196686775559 65.49932411838074 39.72793406668417
66.12638892989855 66.41413537174944 39.596316005117174
65.21318936244128 68.96088079539858 39.64780327153805
69.71348047781382 79.45443069945607 7.053029979907805
71.53388350033829 80.25406041859465 8.50925696811971
74.15588971443628 80.11624573154084 8.151106309548279
75.53628369795092 78.56799048442214 6.492271344279143
49.7946638141281 70.58224126898112 34.15721935844947
48.9985051560184 73.22049125598123 34.32090364686311
46.60845266407859 73.87812099378384 33.11298783087326
45.42785193686415 72.91318671733386 31.914006869014347
24.76261515368197 45.26786360801458 57.26718193195173
22.846065807193572 45.521221995330436 58.37123215322795
21.924376654316095 44.731993197939545 60.719642876310495
23.269733573531987 44.01814249336644 62.658796320097665
49.92148371058382 56.20789130929016 40.23135449763986
49.36437327355161 58.36949347927203 41.77978924156865
48.59398642347779 60.73256730034878 41.18315255352939
48.61923547150148 61.76423606160453 38.96050387422955
33.38508596706223 21.25376195281753 64.39238021378034
49.48919201652333 55.73139093272003 22.308308032403467
47.49299012838957 56.021434762175296 21.491088234632283
47.04430507664512 54.71055854573006 19.09003709567869
48.67827778537723 53.94629217224783 17.397751827699757
8.470778366271295 76.19736742242675 71.29866358587803
6.478249267010463 76.2269534441568 69.89302691012459
4.990935572780336 78.36776550945805 68.93674572495448
5.493435772663962 80.37307090149174 68.4345764203756
33.995178043551874 37.96244053198534 62.54675647966212
33.965844800912876 37.89260949321239 65.0948551873393
33.29552306233706 39.98589690710871 66.45551209859981
31.53728065668699 41.47045954117551 66.32918570885774
19.378157432164198 67.27345464412575 66.57830107454073
20.22798469689205 68.57808560811453 68.23887916286203
18.946798303384764 70.23574147810473 70.09018446473203
16.69412450580551 70.2853346473416 70.97219866267862
51.467072265889996 96.56884729412538 52.58688203629648
53.5151001176574 95.69725733147395 52.15854955768895
55.949731218896744 96.27034201901768 52.36736979205589
8.50981845847783 93.16161289370491 6.468462689281315
9.300451077626889 91.55563295849302 8.039732617548154
8.37114590923519 91.40297980566085 10.54035608507345
6.894003906150858 92.76979428825172 11.972199977555414
33.79757896505207 34.90426706141835 32.440447603437455
35.28070196787488 36.76188936595596 32.39559471774161
37.79865145078745 36.88175341749656 32.157197580128845
39.41828869987787 35.07322987151533 31.886133437081323
31.065863810919932 60.78011805038102 55.3509600629246
30.723901768627478 62.41436895470072 57.10133821536067
28.899783809488646 64.10997697874407 57.73039048736164
27.227020713931225 65.08770138637543 56.562495917817905
29.761403572735325 20.519175135626522 58.07618566162589
6.915753869171361 73.76797000969187 69.32750458143198
6.876750957201731 73.1636619096367 71.60115780912466
8.156663155419468 71.6218964074755 73.15453179322363
10.297459361929311 70.30780231650608 72.78659321828128
8.637591366458166 88.26584173621947 3.5111624343475967
9.212429674771888 89.80566077092183 5.620399333254961
11.755897898397793 89.05143069380233 7.274497208113866
13.563734391545415 88.18699400718742 6.522108334145081
13.017147248715359 66.24547809949131 1.9593578349731222
13.006418587887442 65.00154590955687 4.206337414391284
11.673709835347868 63.136549656975355 5.303092699242177
78.11654040879624 62.887169910157596 37.39406499072396
79.10274285593584 60.780434243361064 36.0917127197677
79.81221034629175 61.516171946639105 31.955962478003322
51.98199934174844 48.807489751802024 20.65007469540906
53.8049779118356 49.887928279945875 21.792167451483852
56.053874498479516 48.92714871833609 23.145824102183642
57.067124861064926 46.8062392651053 22.611929515128317
13.009189097879528 10.348353405252738 10.540736155463962
16.85019387615729 14.55539102693093 10.091879363510458
76.51614327837795 84.1850974176856 34.35112710425089
74.67008225660358 86.12418034100598 33.52709600326589
72.69613441303903 86.85409401188264 35.14755677402156
72.23614982158415 86.91544092985728 37.499096775001576
10.34356427271739 88.38704531414756 70.22864793359939
11.261071123547984 90.31185359064398 68.61225908703948
11.91068708249747 89.96653376612191 65.9521446856217
12.80129041562494 88.25436569786825 64.8515344513406
42.03624010751361 97.39995559644882 36.841029368522904
44.19112581491538 97.09873492821491 36.768648209573534
45.631382380917 95.42753846567383 35.00045121826456
44.3754162208573 94.59387801892098 33.32812284613368
67.17374955359375 68.08299280234294 4.901392599621174
65.65641606451332 67.1452618776493 2.352215355505309
66.34649028199485 64.56618696563969 1.535660912233357
68.6040983491937 63.677221309036966 1.7656273900060773
13.555669923180487 85.72694136414556 7.680060259965717
15.983756918438553 85.80986052103748 8.512891705855447
18.209712692135685 84.88883692747254 7.326440435884101
18.455267465254625 84.08752584466643 4.851276746110929
7.979530828835141 72.73933987302576 82.85743691831621
7.612098551358285 73.94483864348601 85.37350497651462
5.261531111680159 74.42753817675478 86.46612119047495
3.1967568974826883 74.28759269853188 85.76620674438628
5.686860560984999 72.64962448613116 74.67096020774136
4.816220872921778 74.04647074755069 73.02076670005911
2.803442258956289 74.0929554444428 71.52345918602772
1.2287996044120129 71.92821905203088 70.90658683684786
33.95442898426211 23.91332717699734 69.66908658290174
30.43624937735171 24.542018858020754 65.12445090725289
46.962124967535665 75.91547938822866 11.88014877059613
48.50177108417837 74.14627162519312 11.519708639056889
50.279923084477204 73.65426036994039 9.828391503082337
51.2818001777954 74.87657019898998 8.103271439574742
22.71647157422089 83.14043060815877 16.663554929879776
23.278786076529467 83.9406671478299 14.265692697618874
21.943121545204313 85.8906758576894 12.824369044792636
19.944093020118537 86.81268156474215 13.044383599693647
9.809556474383223 88.92465748547826 18.26131951216518
9.808414323811347 91.33605507439799 17.656536466067724
9.000263159768279 93.3589161380424 19.46659471644933
8.699687194529153 92.76986587520928 21.865741757943518
5.747769891348398 72.00356416149572 22.988854976890714
6.385450919820019 71.61658053486879 20.785632735384837
8.928774517908986 70.78161485476436 20.517326287223582
10.38044424707144 69.77430556675156 22.19079600776219
29.983281961836234 62.84147658075575 9.132972476238928
32.07140357756424 61.28976431117721 8.783639618516508
33.054538626647215 60.45913314822685 6.602710213119439
32.9102711585171 61.22115919828655 4.178047215542668
28.307584646454234 81.54833815624265 57.86386432515076
29.716841635413818 83.4021385784772 56.80283019197961
29.099179565210882 85.0133856466508 54.8977196998036
26.98351081709787 84.96066958524392 53.123950765915545
16.163248609064354 96.68357805371417 73.60336756317972
14.5970779838327 95.93977313009245 74.85899928215991
13.975346691286079 93.39758676482352 75.99409443001461
15.613886748645779 92.02923274783072 76.79313463671008
1.4263707705353823 75.54564441894541 62.88823795453478
56.40536708535919 93.64649281488424 0.11733307979577036
30.784155532011905 85.2536101292691 18.555844265864042
29.05511642254208 84.39837674920298 17.37462069627051
26.646933664636222 85.0813938050966 16.570770271432373
25.17360872324785 86.83635543729386 17.30372501787529
40.735355942765345 37.09280884023569 36.20453835136239
38.550972194788436 38.34810846983624 34.390445926101876
36.3002068935971 38.36701060889618 34.800280498805925
34.95452410006472 37.42784937313406 36.875139500658996
29.305287789097513 43.704892281688835 12.25226293156579
27.338626461969962 42.19586613671934 12.709967791844301
25.87672085704464 41.88574409188141 14.624229822330555
25.623718468637225 42.99304569174998 17.07118169281413
0.2751933287688814 32.43388926246626 32.84718882275428
2.419890832695833 31.614653384035588 33.52466235506826
4.104348833859317 33.0489759880574 35.35010481511153
3.5219400751393093 34.24679673992875 37.5595957185697
18.00820067453207 66.86454725285544 75.74311580008414
19.421122151010092 68.86698922750269 76.73274748961687
20.480830735234253 68.95442842146998 79.24287071499315
21.27920061573919 67.04620016808697 80.56277415914168
28.749992645401726 86.44654961527131 59.15166973977262
27.983090409577052 84.57994693574773 59.8258588077238
29.204666670337193 82.25711239789761 60.859887731825474
31.230759003370537 82.13514319913983 61.84322745224621
6.967884972249992 93.64821739589617 3.02024928831865
6.963204600123213 93.46953419412323 0.5871713895616983
10.218686278263768 90.56248378590276 0.4799802316374865
30.860481181228895 85.46146730438231 21.38353817117569
28.935137227996268 84.3363749059844 22.61026533154727
28.336785176190098 84.1029412089611 25.12446025076681
29.10267423876029 85.60724445137093 27.02107865070184
44.971510760439585 97.63321921621852 55.05703485215568
84.16602480831892 85.10577917362038 29.651766711610925
83.44115953046156 83.06186505678238 30.60827069428922
84.40059826079774 80.5767231030244 30.316086513268313
47.77584754540377 74.06304161782566 17.846946538451622
46.95357988979926 75.47734015890016 19.135618999410877
44.92260418745584 75.37152153787717 20.82021664266616
44.00247701869469 73.40668068047783 22.145458285306113
8.50914884806032 31.20121714796066 50.223500935479464
9.20298576551776 29.32290131351758 51.6824802346205
11.19689977619414 27.817965794972682 51.92275337011306
28.593223859008432 20.43811044942031 63.94819537611393
28.43583148586255 22.68804251200391 64.50949632050337
26.610807953873188 24.525843125172628 64.31665039921977
24.523058973036843 24.59229341394952 62.89416707307042
13.07538830505708 28.573023973061492 81.30118326286342
12.403245048581883 30.271438472528708 79.91210964299819
10.489983161458737 30.333264521703352 77.90779962106187
8.585289431680977 29.44894707571728 77.7189088148392
0.9190066090979992 55.135660373535366 68.40932160698043
1.1002855258752522 55.69032213939227 70.4765397067288
0.2407637179772047 54.55145273955841 72.6528315394231
5.061924410960283 34.69876482120074 65.56314306577191
5.92900278318445 32.88904623000727 66.01395452296961
7.797552126929554 32.82918493257413 68.10551503595605
8.341372842706257 34.93122584097373 69.51732127694343
5.314607609655651 51.33003297588788 70.27872611998798
3.472716845147566 52.940912900297754 69.74186014511848
2.3567728707712714 53.40084415177091 66.85445613632349
2.643349494231142 52.30563637464917 65.15859652215636
6.120190110967408 14.77100935025202 84.12893729347626
3.823156687700949 14.563131790630443 85.05136648232686
1.5165923701020654 15.97568255197466 84.44440198396869
1.2326545521630095 17.81336255118253 82.76009443159549
9.133864318469827 33.16126089230226 71.26950566124596
7.375853828828697 32.359961407074024 72.59852244893686
6.046890705285281 32.899377925485055 74.6084046780604
6.794599100564209 34.50400894880656 76.74471861251985
18.846369561895155 24.270001987243937 60.18121576422967
20.471119852886307 26.20881599450559 60.73996489634623
21.19142128534086 27.375630562817125 62.89716742400479
21.19558658912146 26.385488852396595 65.43300027025147
16.3094969827294 28.00114618641832 58.98903668849471
14.52596796886016 28.525505358572932 57.732002599651
11.724829142785062 27.776908761795813 58.12498774831148
10.687129041367918 27.36646572580427 60.1281046685602
0.9131869852688794 8.39363566844085 39.25046001056093
2.494903109124813 9.142528785272972 41.05551422979255
3.504645484414357 7.896862785434549 43.01386485972521
8.398177580876771 51.94905385572573 79.55487982848537
8.667941947474068 54.056685385795625 80.53455107842531
8.445016366028677 54.956960960752824 83.31180540951738
7.273884733655628 53.843753377469 84.98720468606776
9.390807842873038 12.965409260422868 94.04666509846645
9.42719487992637 13.514819481539659 91.32703085317709
7.600129961293385 14.721399698081932 90.70926238596607
23.63060833461236 27.83321398821825 92.82980536843768
2.340603235997617 11.156316974218457 60.013687854290346
0.5163393779287883 13.010411503259801 60.074978315534715
0.5808492208657039 13.72078722945474 77.19015960698547
0.3080720032466746 12.69421194328824 75.06710794436808
21.288380632849684 43.733386021420834 76.85296240875584
20.463096305409127 43.46764364230378 79.74383216377396
21.95916727992427 44.18948321690933 81.56703394486235
24.459387422874876 44.01871225944381 81.75248977480634
0.21202842327516952 11.71410271844262 24.15269382103622
1.3154787136205863 12.497190512945794 22.001635072572117
3.8149494670821644 33.49414171791529 44.15313988714044
2.206636147820818 34.968613741263795 45.035570022669724
9.390432050863636 50.575638732973175 87.06216041977082
8.512991411124247 53.126633807552324 87.20944582505706
7.827492469790197 54.46251118930765 89.08559097535863
6.975925149136747 54.0388203337786 91.45139267709159
19.128443629036887 23.834516554576513 53.765595978401414
19.099170090383318 25.580651877806908 55.219883324809715
17.940591074989445 25.816966298977057 57.41779972802179
16.172469020524428 24.916028771023427 58.7599288504067
13.500732316988085 8.282966846935853 47.01320838002936
0.6685652893119894 56.883131496265236 74.228372784216
2.6186559328366052 56.38259654234264 75.29452509241378
3.1242530485903313 54.617379113915284 77.45960997342573
1.089900648917585 54.0386195284653 79.22331151880829
7.614539982057956 28.065370612850828 54.78250005558443
9.101547894023476 28.6708665375308 56.303346288853724
9.096999423954474 28.897534580453787 58.85761001388879
7.404624554028782 29.251121447755345 60.51045643818289
19.311401395659672 45.111993347219965 75.64947425975026
25.761235400197627 44.28851414304899 85.41222080129587
25.071841866344077 42.65999676586251 84.05950975550678
2.7458077240064944 32.73933424797337 77.13557110288504
3.390404052157326 33.39393649172434 74.54260827044632
3.5733786106378003 35.53255875055242 73.55983899104648
3.5721000043708977 37.55468634514404 74.19614137915623
1.1566001653220122 10.097699846262687 55.178403047173575
2.215779936190913 10.969294002614014 52.886958830516065
2.876940102315802 9.963794969313442 50.85428343166418
3.2535411804457275 7.625902762271631 50.08487530068988
28.12659733537541 20.59681509214403 83.94258004620939
28.466742605680903 21.42136579674201 85.84922520519636
30.500838283693486 23.399342675998213 86.51647242281913
32.74812212263889 22.766275115438063 86.28716099425641
7.520190582042816 33.5478866321775 50.32611980378725
5.703342560228741 33.15426344672903 49.07482869477265
5.534646075359572 32.9292709543243 46.455357037354375
15.097107518296802 31.901297754168706 79.57288948665794
16.17922127542504 30.035081394682386 79.6937346345069
18.68603722257469 29.378359992477467 80.15175717714084
20.687222660133358 30.271589128199782 80.69874928152011
10.826929100075638 33.233408410767744 76.59518832725956
8.63577829437364 32.69511544691805 77.93204246952824
8.188283284117201 32.67359519184928 80.20429355575217
9.117534728599068 34.021216622655814 82.19415946806573
11.097275615974329 24.957244500272626 43.587140346965356
23.406823343522788 27.156603340030895 60.97767281137525
23.806040414761483 27.24186825967956 63.71623076150821
19.003145439881973 7.562823600505056 92.39508997240826
17.524971605110164 6.963100600018791 91.07751674214015
17.4302835182997 7.492216159572186 88.75786020104898
19.117514205113835 8.465878633820253 87.25229700380109
1.671093477381768 13.968391321580455 62.70732110402027
2.5890404583931597 10.734447223291108 62.92845181817016
3.090580465938214 12.234372061670399 64.40394644878639
3.6055310864471344 12.13756744006627 67.09904715677918
3.722696460062899 10.279423942212253 68.64031465154241
12.075572430880388 30.911096832054263 75.96324217399078
13.857602031240303 30.28017390738674 77.63520416651575
14.638693878062144 28.197590762047028 77.43633710220648
15.089901245129711 26.809218027357595 75.41137246116507
1.6339245891717076 13.860820565966351 50.71212387605354
1.4179561024395744 14.236930333636543 52.65373050713777
2.7923773548463418 16.269666210315055 54.33679948729449
2.6568635257878337 18.289266544761972 52.4072169099259
1.5956788805278526 13.851716503540823 88.42041013498341
12.225349510955125 30.141536041738682 53.43847781856987
13.036817049784235 28.17609947857528 55.03630541716782
15.10255772645223 27.213859142129834 55.22121210199818
17.70421161451696 27.972930843185836 54.85388649643282
0.9099863090174257 11.81307782502059 72.12196846354854
1.694154442289394 12.690068704676294 69.86463714417273
0.7930067283141284 12.620085859018648 67.52711465679118
18.122791829461374 27.62450698865841 82.05531775488718
19.716531601255006 26.004457225492878 80.52274894648654
21.888016348619015 25.546211941054647 80.57505335738453
24.048968233705683 26.61140824460134 81.80556214741324
0.7879948660028766 31.750943888755636 46.830894454881644
1.4372375710971428 31.5695942622238 44.87977791548474
4.354080426244973 30.749233586195334 44.593324649243925
5.658273822500097 29.999023431589208 46.64625537122975
0.12327924238021105 32.088763242814856 50.37304740887627
2.2354196273198776 32.5113325040642 49.134692070885144
2.8525704549952304 33.970939929349136 47.866630145685605
8.613786865147897 34.7487293222181 94.51471681390439
5.956268293747646 8.569869588523563 85.37096987080153
6.242257859251816 11.027859069717765 85.16716766755212
5.945016129386141 12.347155079215494 83.19820748570547
4.901527095462902 12.351658058495547 81.1714330784054
2.105854738602142 14.142036488721287 43.227883216796904
2.525362057401812 12.322640171448096 41.23782440485534
1.3226819941636447 11.565919044454326 39.60165721422569
3.968697904949883 56.82930573936819 69.1957810631024
4.413032688882235 55.37284200796208 71.26709955153406
4.844920397351074 55.92957686466033 73.54192249063733
5.905790794659071 57.59938010446589 74.89010360789324
7.170224533244194 33.322634097591326 58.403903542489225
6.75809926134275 31.682179891040906 60.586458256907456
5.133764846881141 31.74351742370073 62.19056764336244
3.5729855755820354 33.649107665410185 63.170913094616445
2.239300516368101 51.900480693300416 81.31641178828893
3.9527285061510384 53.264475532605594 79.91258977792484
5.731686287927812 52.53125278765253 78.36525217557741
6.581909546441456 50.51266224305678 77.44646165592735
9.316829885404056 34.941203783975304 91.60053444383136
7.7366762673039755 33.688912664693646 91.314853756534
7.984894039932489 31.949962275043372 89.13956110221426
9.08722398766212 29.61428847760668 89.11107429826404
1.8522934806772346 8.214610591385817 26.567343154037506
3.0100192921446958 9.71148197499311 24.742244387894885
5.270516432746819 10.159220557475546 24.3056188139202
7.370667156431113 8.788541591345687 24.577965931866416
4.856802029395713 34.37871183470033 78.36839370240114
5.426869569302141 32.2052241998693 79.48328408826396
5.491067288641673 31.47125278039089 81.76043276263889
4.931406431885023 32.54058323168648 84.158221949205
24.007686713764215 19.607689255656457 82.58296237644055
25.465315521376095 21.04975384681041 83.94815596807751
25.740511444153583 21.262470112551334 86.13909990586909
25.115619446212573 20.138335451325865 88.03929943906667
3.289693921177706 31.402734467554662 51.909963613493694
4.2696551813605605 30.860563399063178 49.87996174506842
6.5160056091978475 29.57976346014416 49.32697284664216
6.981050956071548 27.201399960477772 49.68852935708959
5.22325630409257 13.684119713917875 94.35178597834198
5.6221172883106805 12.986484136590335 92.03297610254705
4.136795023332986 11.946853716866299 90.17365348800452
1.5596606142765768 11.72291845470201 90.19179887367751
0.6206377974252619 10.540180202708976 13.475795755434602
16.108867856741366 51.97886423179698 85.25196907188062
17.020920954864003 50.236710186312855 83.58057100428705
18.428002309426365 50.39189202671399 81.66471396195215
0.9150678780697827 32.57532185525223 40.743504674889735
0.031221922708895206 31.141707143424004 42.507693303311655
2.384607921366264 38.96028457827672 91.44964452787725
3.516911114170656 38.01831412148282 89.92774832356767
5.9107007900304485 9.249448178239138 47.20719543911827
4.954829395513989 11.078789643981128 46.11065892175071
2.931730594329473 11.793911893763577 44.717288399479266
1.12364927524227 10.359087094591288 43.633444486192445
8.257203145272644 6.0916047274640786 23.33671201940209
10.304443705149911 6.151898705399201 22.738588068349536
10.688071156188995 14.50684640452798 68.22403751570128
11.876864546729664 12.878579999582083 67.64564033181098
13.855639563043912 12.371857267138466 66.4009369196392
16.118490947428203 13.806237520076333 66.2193331381931
12.120649091578366 12.953680265786433 93.80617640315043
11.019912935690549 10.559334076553371 94.17487622535957
5.875122353837143 32.74242974846828 52.504982498498386
7.247758362873405 30.563972084067515 53.142353463096356
9.445817893222173 30.628700183704257 54.407206568811155
11.038370454841518 32.456517440699486 54.951912736250485
0.9609720310940196 7.7722969554541725 23.258914164000505
0.7250510078132866 7.841751372277146 20.510103282119722
4.898789182448701 33.31803555401353 91.76045716156347
6.5107083438317845 32.90209646281137 93.5757686864975
16.838919528627336 23.800392776863685 77.21058320804372
16.5349331317159 25.971973766681735 78.12226834193953
15.504391519651254 26.948922943446917 80.27317091484936
15.243045129857073 26.031112906924353 82.49247127433026
4.3437548627700915 8.026562366213875 89.74932233155984
4.874582058855629 9.391068034423773 87.73522023255828
3.1027358901752735 10.949505505309814 86.24788528405796
0.7105601229966665 11.237280113637377 86.37143565180277
7.099513631394131 28.01235507690191 81.20029041179745
7.998340486379856 30.3922660096222 81.81284666177415
8.8331447980438 31.204655269417504 83.91261327912203
8.72569882675809 30.923014180925495 86.06149364410368
0.13889915036466954 8.913979112314816 28.726586299334574
6.242346380438133 11.875649324241113 33.792242230931976
3.832614760765015 12.325729497320498 33.34984079475011
2.208364325383483 11.482390936552585 31.86377313352236
2.5912583952876473 9.943612040590269 29.527118545711836
2.1508906906005105 13.018456465005658 83.05411816093337
2.0431787741077128 10.141319614194463 83.60759752741642
18.151654660595256 28.27577114437125 77.62517515000128
20.15872601503028 27.045599319174514 78.04148927703552
21.306149338521706 25.078427108694058 76.74865568912936
20.733830853031712 24.176597835207048 74.322675801022
2.6541563020271357 55.34748541196367 80.9278556864757
3.791183559264662 57.24990101101933 81.99561635584148
3.96526511013352 57.70823854085962 84.41688502737554
4.009210124876015 55.97766574904652 86.59441728332567
4.025786310045671 11.6349024074661 22.594476753090625
4.031937695018045 9.224974224150758 21.26940001247983
5.208391343702428 8.440638436744498 19.576691737556587
7.388873346335101 8.635067089933175 19.2403241102384
23.754581710263555 22.89341917721183 77.57499789911637
23.956776315813446 23.338945250559952 79.90919043567213
25.663413324514288 22.506096123875253 81.5872621844464
27.844431905140503 21.898394399087852 81.61178085587424
5.93443177021313 8.337160864009768 34.00509731389993
3.7736434493513 8.557874895004968 34.50623894707412
2.801684075118178 7.834641732526765 37.10159291495784
4.214891720636368 6.691057584278129 38.78377765736951
17.186283625375257 6.780005004419964 94.31513976250098
14.586233890588419 49.349844591772346 82.041689218339
12.378277026635233 50.862730212422015 82.39177620365854
10.569161323694521 50.68057984354733 84.29520882656344
9.761212896077609 48.647521057886614 85.35329942282337
15.832826261818616 50.6437367125906 87.45250836825335
13.268008610342923 50.50374191475916 87.07364950725037
11.691542686532205 52.068268125086774 86.99888624355825
11.297242077029592 54.4447987022712 87.76747439840345
17.110221386809595 29.78931110013543 57.33036532854377
19.382611431211473 28.466067167077398 57.037133177349034
21.16983434826517 28.215121873156935 58.863142935267284
21.546144974363227 29.352600533071264 61.1049792030006
22.204875687461207 47.24988625769003 87.53518892777782
21.321378854321292 47.887131612255196 85.55240594460518
18.84007390717727 48.13664793966755 84.62127547914505
1.6906718450441571 38.621489458916116 93.88120262212858
0.5020936579229092 40.52099335925524 93.44295967755208
7.91658311544982 30.909059268496293 65.12931240858993
7.615239197246052 30.617798991398878 63.0810523501041
9.556024418936659 28.814867968360822 62.22744416727022
10.241553808290057 26.624525653937667 63.49632683604503
