80.9630073196693 51.57468253528925 67.81351776572669
82.71011835557735 49.693197085271066 68.28311630452484
36.60838649144571 10.189450694806691 49.350275509054256
38.93523882869712 10.008292379683498 48.50859240041394
40.906947890568055 11.519294825593624 48.59217858505582
41.274462620462515 14.07248358170209 49.06061279893127
49.192159121631086 2.448169025711778 49.23884793193993
48.475468303522405 3.031136051570943 51.21224805056438
49.835222926023995 3.930427126842362 53.45599295450866
51.85534383370612 4.819860833380002 53.65926256699827
69.151311161776 31.69005893343866 91.82567857131697
68.39091850211734 29.67961040918927 91.48943064381876
66.35404419265197 29.05458828980603 90.94969314647958
63.97394909783147 30.30708469482203 91.1920753853105
77.2088630464181 53.31950163045137 69.54832314745781
76.64945406812029 51.079638967908025 68.69123396557167
58.03815462502132 6.539748528905198 70.26607068212367
56.014742878728676 7.122121900118979 71.51779604212194
55.0467665459545 9.061267047541989 71.74574321569418
53.82121739460355 10.726188324237306 69.85221590634376
53.341586385705725 28.539112388665224 65.92726971350913
53.61233394702857 27.46999113200156 68.4754118553945
53.575502578963146 25.049960507071052 69.17686885300276
52.5398248776063 23.19077141374359 68.3734850414422
48.643577323758805 45.11298353158542 62.46237186069039
47.62251180519496 46.10993429310131 64.73191930634673
45.54858742955031 45.329565255393874 65.75181763619584
43.29293327164106 44.79094288955394 64.51077892218153
72.14830079810112 32.4445292634128 85.99198570288053
73.6684645010674 33.55511953586093 87.78771621312404
76.25297213753956 33.880595787431204 88.0409444622147
78.06466154915942 32.77958240858588 86.667235099969
41.18763266296665 33.68772877247078 46.041227558302644
42.08671266013358 36.064818342066616 46.90492694531695
42.58958697754678 38.04532133081599 45.538136196993214
41.616293294515955 38.841552293220985 43.40599728956499
44.382008944214455 50.70435853937212 62.36638632326287
45.93673520742555 48.73475546449987 63.02179262775186
48.21813000423727 48.50500433097654 63.078527375214335
49.976691156493615 50.080981162867396 63.19741849120705
82.13814795775353 8.576207793224956 54.44613214958849
81.09232143473082 7.346552707977952 56.60649303879327
78.39574521427949 6.619964424301771 56.76348223763617
76.86533959083883 5.953058923341075 54.82838415569792
66.94818801523722 67.99034426017381 24.792877468712614
64.6905688266344 67.14749790168551 25.31472553405299
62.30911472428486 67.93802906348049 24.796105562681273
61.44425147007672 69.78170085704056 23.249622028280424
79.56727640983395 45.72074057249212 51.40255428157444
79.00240699095862 43.462075000341855 50.15556266989499
76.77686734704052 41.919749752972066 50.770256595453795
75.0212413567374 42.30377419605237 52.264750296032254
76.13364243677896 44.126659931332064 66.19346012241272
76.83338446747538 43.974250784556986 68.76787389625235
78.96032917382843 43.41021133886651 69.85240263887108
81.09589492659507 42.80506714686047 69.30934501360025
79.41243323172814 36.90746762584899 35.872083139992526
81.69343547421573 37.802251274756216 33.98365049914545
82.2255157838546 39.999346265468056 33.47014233778107
80.68897172948608 41.78720268808511 33.50525640052175
56.66652629834041 73.4466924995898 28.39217616705728
55.79203195545237 75.4639547246483 27.038291766858755
53.55611856820255 76.59280229261688 27.376376883644852
52.24824756121958 76.95419413925474 29.128385215900543
40.360176061053124 60.59529532874677 62.4773329239274
39.395248794964076 62.45341052746341 63.58843799135911
39.25552948500381 64.98094461713208 63.41068495214104
40.58005904531667 66.4940402116612 61.69703649587142
55.39652304287398 0.9629203811222035 58.839374657078594
56.96012051936116 0.5593510466458645 56.6014362452515
67.66514238228073 38.92841634739576 85.74818267238541
68.3790634489938 37.04281952481259 86.89889474142674
70.20402440548641 34.945637847202974 86.65964637496107
72.30657523758153 35.330959313359834 85.08451549138549
24.24066181582949 2.75536570492228 45.90596264816194
21.925670056920392 2.586932857494735 46.33711636950943
20.364542396550753 0.30113044654259336 46.83139625071852
25.421171257176272 19.09801742667129 30.642941397589592
24.061253255591478 18.560681956084498 28.476557121465977
21.64094402477711 19.199283293816695 27.963956868450524
19.748868092207804 20.266396152286198 28.9504577058356
65.99316246739858 19.694570922391417 72.16138327026285
68.46407635291907 20.81341573437111 72.3012236502972
69.26745192413118 22.942175330544156 71.16747538785042
67.20031588268996 24.57865174946574 69.49704413440259
20.408298581308816 16.37371464751934 23.833613790381744
20.95316781151346 17.207019273276753 25.84235388109405
21.949042320033268 16.522420902378972 28.068597011867933
23.06740706578548 14.099518303900476 28.484525699796706
26.945944772605944 40.228555067207076 23.24766053534252
27.600789047321424 38.441875023123316 24.08948580318522
25.975812320391864 36.72619562005951 25.96665540525962
23.304020558255285 36.480344510625734 25.39429259593811
36.56863308145752 28.113456588391433 65.79204548968087
34.67327042687033 29.573004007621606 66.51099100366918
32.95914532416544 31.07863253491742 64.72697737271626
33.789913354892306 31.803011380692034 63.1431768733388
29.39038940389975 45.314453744867336 25.300251748785723
27.505031723500505 43.733397469044874 24.35599144926837
26.064236529862374 42.01186817672105 25.266579968791316
26.229527835390915 40.75209722744903 27.583716521589967
5.227264349159935 11.562092515392255 4.368426955051812
7.370922143175128 11.852418392765644 5.469315607398119
8.8605068262822 10.378812864722232 6.62731222796104
8.621632646075135 7.765270240225871 7.560225990572985
57.061389263664715 24.999769758853038 91.9183483033565
58.85410456344883 23.591471921538595 91.0082859346311
60.488175211777566 22.040663612299962 91.98912856501639
59.27507991087878 20.33402469138669 92.09953340885582
40.7219483485401 46.11335084053593 67.3022937873362
41.313463568329404 48.040678097745406 66.29485012495833
43.462279413891146 49.12697863130036 65.69999426096689
45.90636514476366 48.40418366146206 66.3065154266858
37.15701870489087 11.43043780316223 33.3024254134255
38.711732878228894 13.097482476178518 33.15298630463635
41.37955903148704 12.849306271787066 33.15872747226158
42.91020474215604 11.274296930403564 33.501714854136765
17.177779506086353 1.348495775718899 27.334998927399145
62.13171241100216 10.192096014022782 40.02685081004489
62.24881423680699 8.851918348272342 37.74795308450013
64.93064234627143 8.27526969942009 36.88435024074339
66.95430188135168 9.906391149970807 36.781567441178275
44.98251295634282 59.5672795301374 80.49549131935915
46.43764002417969 60.813270294715316 79.81111722914453
53.056227782434 32.78061346576473 50.271588992362794
54.5851551264917 33.05089797674039 48.09980902740468
56.95546818895579 34.396390007564634 48.07564884504369
58.62716656941464 34.305733635561644 49.73609518333047
45.07780542281529 59.54667329658906 83.12914340025053
47.12101938186202 58.32894174436197 83.74030192419856
54.64511993753319 54.49469438943233 87.66568333621146
42.775836928630675 47.55878950470932 63.06391279622343
40.5963934306798 47.980430510684556 63.94802913398924
39.25847148949548 50.29073098351243 63.71740311945683
39.389344760114206 52.34229462613891 62.173435241267704
78.86723517884155 37.856078931003324 92.1802768340484
81.02010374920704 36.997950210165484 91.9608314201439
83.39091946515413 38.29631675171764 91.30992867280622
83.62709729781996 40.60180819259935 90.64694811323793
46.451378973175444 41.78112956397503 78.96697333565703
44.94755946701305 40.593063553694044 80.79646030645998
42.298360279071616 40.82755045451174 81.2627762261303
41.020990424799514 42.959249919492635 81.07003032481713
44.17717396675255 65.90656986133918 63.482916037808955
43.166675301137445 67.57148473602868 64.0318699326428
53.5145688457721 55.067025490726266 67.3885445735897
55.215009362314845 56.116573548077945 65.77651728911052
57.84585048052831 56.38205068366524 66.12061234548234
59.31033054985092 56.12079794298597 67.95673972413165
39.55509835322518 23.98031010217583 10.040151589966804
38.36688649967045 24.355169094625847 7.626806713390019
36.19525026704586 24.752816869120565 6.877961057820658
33.947619010698396 25.54597302418043 8.114856095125974
79.43814525143858 44.48296167263692 72.97447610905002
79.26534371570041 45.80044200991959 71.08422053976612
81.42286016824713 47.53391317907484 70.29372579274411
82.93306658315608 48.65358467720324 71.43270898060999
66.66950578109848 37.47768401618622 90.78425727717017
67.59787412623822 38.746440715484994 88.92019511321716
66.40199516336503 40.90966689225627 87.57345126473446
64.4419961074731 42.00151476158818 88.06402178884758
22.98580348226745 1.781415526656074 29.201541514348936
22.29035477130913 0.2837509422280788 27.896624972603433
14.35395169067381 2.7313718498961563 24.247712858401265
12.364314461138212 3.5312450170494474 25.50262576215771
9.863676530880163 3.1085728084195043 25.106517127401343
32.44943299401711 5.475134195013207 28.261258026110404
30.138130179395187 4.395362073747039 28.309649125336172
29.401833820326257 2.159467689803558 29.408136496369643
26.10840930095142 6.425545872182749 27.370174124261972
26.44113629806031 5.095567875375031 29.237287549121824
26.358786038062586 2.6323496673495645 29.579614820262584
25.379984256295096 0.8402166021796015 28.01684265116108
74.81333923354305 45.656597891994195 68.10271893671357
76.36347472902021 46.648270038986276 68.35027170546108
77.13351968771974 47.60469768399968 70.98274790772683
75.51803223374999 47.413469448485266 72.92407962079719
46.07365817149033 56.78793872596353 81.59663635394993
37.06327760945553 10.203298943256456 12.635297617863472
35.00786744976581 9.264937521582757 11.453005005872217
34.011620754980854 6.778436526591367 11.555022012336305
35.23076555063675 5.144904703195748 12.228299035107247
52.16874573733407 39.88792062204563 67.22856220604747
50.991698869851355 38.31646377409436 65.44302118153423
49.6370282552359 36.06682842128519 65.91799722270751
49.35553683253622 34.68398538282707 68.15315044658199
34.25646463678303 44.13553938471076 60.93672033102015
35.82325918332457 42.656630704193155 61.56192082329575
73.72992627103032 5.183062789258842 90.89539673610993
75.84459535625705 5.701609069044521 90.829100382148
76.48866650735161 8.202567525718225 91.65372325483119
74.7405171066795 10.281383891633457 91.74111421781396
71.65482029115249 9.022158657810026 88.87718433295143
70.38203285813013 8.35605982869687 90.74217015961453
67.84829398360291 7.960612215483044 91.14154896044815
66.10873670946663 9.246060690327 90.18366935709261
81.51902934360653 10.703301105547062 55.79415381265479
83.95994012928116 11.134714802698007 55.30704046351322
83.70562024006364 14.550656607963464 52.0495540482753
38.621476255409355 53.02021329674212 65.9234658570748
39.275046891717054 54.213952745962224 64.09247542506411
38.35366572831264 56.21242869667896 62.958583623125975
84.14689003509767 5.904023297578014 53.27068648354199
84.25060742070058 8.581287987312825 52.7049781278951
38.678050819628744 9.41076860074358 89.99044230214584
39.16660889743513 12.090008123235364 89.73332784696746
41.44804031969846 13.023622520427814 89.48734494210156
43.43883512020125 11.788210271645093 89.38738297762372
48.26996256182616 25.825746289072544 90.07134699721652
49.839497734915575 25.11820567848196 91.53712051086248
49.56408926229582 24.957394622810664 94.35282374663525
47.49647057326264 26.270019287782976 94.99643616942913
42.643322346680606 2.650958356678417 93.32634502753683
41.761535616923396 1.0813397021217732 91.80610895967452
45.53741203709441 67.69227341454852 44.70711796804913
45.819322248836585 65.81430750388768 43.02546377220015
48.00538234410622 65.00060771120347 42.12852698104254
50.286687306478676 64.67882800238951 43.27386170642218
51.82994995957209 41.70377565236753 84.92931608825522
53.57520214234607 41.457261324955475 86.61713585791782
54.881611589145685 43.137715532280225 87.7867990062324
55.26348536296439 45.42958363705558 87.61565049298268
60.75731957841686 48.93877228190543 83.42721205563213
60.28830373270564 47.732102435516644 85.68368436154375
57.71400456812299 46.49604112806597 86.28514479929954
56.16698338854297 45.646677557580254 84.69646207670351
46.18134852090828 31.64548619915295 50.319822894236516
44.92889225917418 32.43365938854252 48.65910251593853
44.47986611424037 34.88267932822903 47.862101688409915
45.05227770082128 37.049014476065835 48.74728923443557
40.22956309955811 50.66837799144841 67.51625865435156
40.98435619724543 51.88781233813012 65.30567289745191
43.09395122343756 52.76800825306707 64.60705634850598
45.19034385296956 51.905739829231464 65.90045720544535
61.384495708363914 22.446681063719076 48.476251947355166
62.17474828247002 20.943176656872392 49.65623080155226
65.18580101221207 20.885490911252536 49.692566891035874
66.56203338651186 21.872902059874086 48.27901520205687
29.460603678773655 2.067929946537361 45.722486715988055
30.818839141437305 1.5041494890547837 47.378304683465494
33.45403772754533 1.4659487384505097 47.661054811565286
35.02384659381215 2.843303686344594 46.95001414033696
62.265108921493365 13.566236702882513 90.3512362525167
62.45037093106483 15.842042388496624 91.30294076133609
60.52089700462224 17.549406112011745 91.40200826800715
58.78938049555924 17.992870008518565 89.22291474655803
45.39434176494286 22.36136145855069 49.193140318584504
44.29377654062939 20.852737618843623 50.386896741870274
44.864772646080894 18.198807870006814 50.776546609209376
46.65193260966781 16.958202164474404 49.99783996836215
29.31435909290829 7.02303418468576 68.70368677692252
27.105744492089364 7.16084228844361 68.22260087711491
26.136431413093508 10.22073716063368 64.86697999540827
77.42013919099762 4.640739902418832 59.286699068156935
76.60684520935945 4.366414040283907 57.39857758023302
74.34192656425496 5.896705796500388 56.20123641281258
72.47340998079025 6.351771564892334 57.32898447827484
25.871547877408116 5.474447927711213 47.44277029895056
27.93986637339897 3.6887165267647046 47.33317876805621
30.118875626587727 3.7896813166707326 48.79663014275353
31.134385000795223 5.432214330214022 50.2505720556334
25.873995383764836 25.491280383149483 25.257479338563407
24.339521609684635 24.27787114446482 26.683026327953986
24.486758962982453 21.76744295378886 27.7412505687992
26.192178584886918 20.42891488640617 27.9604362922148
48.13096255611339 59.79766872896066 81.52496338253326
49.617824877256986 59.09382947323597 82.91489782219115
34.61221236433403 21.197287273434203 10.070591374271315
32.665878517777166 20.521785458438764 9.668778538371491
31.82310235355467 17.82408273900769 10.42703795207003
32.65339624295535 16.937456738996264 12.420957254866233
54.212484619640094 6.028500516308951 30.881759150594345
54.31615610854795 4.560302824839884 32.83647979200186
56.07735156642666 3.3743286596181457 34.09170597129784
58.353153444249585 3.4431697886310393 33.98208281751347
32.751103816273655 3.989877584729117 11.1813330604901
32.16925868818192 1.485403010671978 10.550253241151571
33.78566298562073 5.649875285906516 69.06373808814118
35.87834113839872 4.801123161343731 68.97563082368396
37.03994989033133 3.2002277284211 70.88583864769193
36.191407119984305 2.337771176266372 72.57755222887215
31.33415408621194 46.00055990089611 23.62064704913309
29.987065051251275 48.47642092105952 23.700599703789614
30.42891813512427 50.47288193987174 25.171313297522374
32.67747096330459 51.244911792746464 26.44271773805511
58.70967175798973 59.12681010823618 43.031868369346725
57.99287805511733 61.376649185615385 44.49618025334432
59.911579116349095 62.761833766717494 45.74967920621812
61.980338955036196 62.9047903752131 45.55973183282003
62.387533245280686 61.840031238289335 50.95669810444928
62.524794489781016 62.28154573714003 48.42954205705044
64.33775032658048 63.18941867844238 47.20332087411929
66.51384814964294 64.37999008036292 47.651260718671146
82.32193579146733 3.743547976713385 53.3642731649422
83.60720852901699 2.849771744265571 55.20608663604655
41.168828478897304 68.62237347314729 66.10512414000078
17.013961799366204 24.915929052349487 26.05960440268463
18.09325101790471 23.323827483264004 27.55557824670498
18.010973733256577 22.763314505922125 29.824812260863297
33.12497698208564 38.16380429302424 64.06903564751185
34.66000903486768 39.97684905548132 63.22292383376965
35.7262269944585 41.71416207538951 64.08640823911962
44.60802782397366 42.1115764822888 22.99674754904032
44.41443230290933 40.97765677049928 24.961739757706766
42.705139616899295 40.4308193268242 26.848512591694668
40.14110744415559 40.57965068731396 26.566737650619324
76.17466750823203 19.248784901601823 12.551389441632248
78.5886991159016 19.911919583202547 12.874629962828076
80.29150386407072 18.334457454847122 14.198023238985805
79.4384618378918 16.19828406209034 14.993669387387053
47.54461371861191 1.3534018085269124 16.07444292598753
49.30326166986644 0.4782543346001949 14.668454672553628
52.10049496714027 0.7905822820928097 14.897094603606158
25.550954169434945 45.29543774743576 23.637286989447606
25.513586267382248 47.3290331787407 23.12513779885805
27.82887033817901 48.56803839834739 21.732017797643316
29.754503131992262 46.986985435167234 21.28774895354556
30.668746513372305 15.236100208767711 8.26502803035923
31.64304819796373 17.30015450247422 7.869752509191309
34.68600147215694 17.202186124441095 8.274638060713885
36.01490027804539 15.240491716342543 8.14531468846223
55.14483073189963 72.61532360399934 23.766848013807056
53.18097152114502 74.5366427895272 23.679293959512343
53.22377406494147 76.74280272758939 23.29978757470435
23.250597407358732 17.271133258582292 10.013410700579533
23.917524410922177 19.009694309293074 8.430953662227653
22.89509271665995 19.846763707821697 5.992108631345532
21.119917332714415 18.941744059969036 4.988432962952018
33.19550313509577 32.25831450838345 22.68657668718514
32.46176225513077 34.14972159745145 24.31834421111297
30.44648836500708 35.849020933508044 24.054793391712156
28.3002993951418 35.72760409930216 22.772634809355555
61.33234055710201 28.177876638064593 27.002842220866476
60.836821593399975 26.872153237864186 28.735430521432793
61.527283902298784 27.545987383089123 30.90972085400579
61.42969591963889 30.01359558599943 32.24299805847635
41.298041610361025 76.35944155374337 36.22286322081585
42.00685322679796 76.37137779715512 38.88302170312482
43.58411266002748 77.47063279348075 39.98881302481069
12.431455652291287 11.019899693978287 8.279002258557158
11.806078465037439 8.861744706754898 8.639706343153614
12.653863482116867 6.555549562308653 7.099134585151662
13.867535369087353 6.383824946607176 5.344890789537955
68.1815056374119 33.20107545821869 86.53330729558449
69.12240282530082 32.363283287418305 88.97971417602652
70.36824337164585 30.365356964530843 89.41820784774673
71.99596923282222 29.444462011515753 88.45487925919913
51.898535789581075 70.58012173202428 26.842175877882116
52.601319030702484 72.9522490064482 26.95218335787924
51.46023001660592 75.2633042181265 25.915269333514527
49.310650473566035 75.64147249937221 24.937824177986254
79.44759509574163 13.696588267727565 92.16007262110408
78.39850574126355 12.141686306038892 92.98736025765548
78.75318563959932 9.728932931156484 92.66039770691818
80.03692486087286 8.498525316438618 90.85085015038946
18.154440752366703 18.39427349485823 5.064303884430478
18.454196169549316 20.717130890862677 5.538343002736729
36.207931503664284 76.2972846845536 40.89186529068648
36.20492123857956 74.21634472388983 40.30170857471452
35.95136115144058 71.9204831398136 41.87574222538228
36.52136760638273 71.79810489587648 44.219421656939865
78.8106444261131 60.25701972450057 32.390498084593204
79.23912894215212 58.79274520772241 30.39000758939459
81.55954306181506 58.448646047565866 29.225708906480758
83.76866968842207 59.512279869264106 29.562727802386554
74.64526373672562 57.571162203564135 26.947447195119473
74.98962087218743 55.211782296925584 26.916282770424516
76.68645714186596 53.85316881690017 28.071207735701233
78.24384481893902 54.19073890856601 29.76862444028611
72.51054683121158 14.953329099679005 93.61300729686012
73.62654649721 12.480925650466336 92.84449806660227
76.11405315063595 11.820953766368232 94.39059985640158
77.12964369472667 13.558052917052429 95.61334979153985
31.901433867295623 26.86263453751632 45.90556194494101
30.178266293624983 27.654808899930334 45.34339847036815
27.649194267523203 26.534664317810908 44.615361764721605
27.040132407458476 24.22511083244066 44.44140068350289
50.411157379666236 3.3351405175593243 12.66193469469653
52.69153368154072 3.109689517855379 13.599694542038215
55.10865355346682 4.389511000102091 13.092832367996582
55.60496976188361 5.947316326883379 11.784384320658214
57.53376245688837 73.55064377489256 25.415246122740456
57.31526289462103 71.31679387491918 25.38661817104554
59.03429154477374 69.26859125141041 26.25440004245151
61.17706344252971 69.37142426172113 27.00752559078111
69.63336694707475 12.7085733933778 20.012564715977582
71.59521442844391 11.212792860406259 19.442715951790163
74.16672629621131 12.20412833003601 19.54570226918613
74.56374559161151 14.129736831429772 19.675204463319258
68.52032540949102 34.543299297739516 91.1876915936117
70.18793164568852 34.909507128346 89.51984248045291
71.13986766264334 37.01207759264798 88.78114633003085
70.54098342787694 39.0521414905983 90.08272105124937
48.148265811350036 32.920655869324854 85.57675714335018
47.82009945574303 35.107966167688964 86.15339410911656
46.75933689434698 36.991120000103045 84.9895192228617
45.52509440535113 37.1984435463393 82.99512380927469
63.49628139114063 10.901800128838781 34.70299362748061
62.129834467304526 9.446189687556025 35.16050594983755
59.86104111610706 8.623775220715334 34.086974447293734
58.99740973443733 8.675226300393575 31.784957371973
62.41384101143938 22.10374627465306 30.54147076045616
64.69988002102858 23.16251116274979 31.15142285115373
64.84754553838842 25.607695732585597 29.728307860211363
63.30450263906988 26.52547058595487 28.432119259764217
84.33707953726686 50.12280280477338 30.17532598367974
11.213369765590485 11.461974164199457 5.7020935250386655
11.440338446663016 13.713377673027278 6.1238479763346945
12.831171521427315 15.596861714474336 4.672145108599546
14.498573666359206 14.771856085105394 3.7362827540774033
73.0545874377259 37.76382317374263 86.54108232455702
73.5381134083594 36.106957569627156 87.51416768473685
75.33276810037005 35.87429242369738 89.57473750010939
77.25886908527758 37.58079503455404 90.06926423405179
23.896097770108213 43.96160130340099 25.305756385056764
24.258670546036264 46.4885928546996 25.997790250946455
22.73808588637722 48.30686135103791 26.67505193771597
69.13577798628577 67.67507064970275 28.81962177653841
66.59013185541487 67.00547698773985 28.64390688400114
65.38550117247891 65.24597392096265 27.28259124420915
66.27617382352443 63.42862236692045 25.599912887143756
41.16647897277762 63.35104444436141 65.52252935472491
43.97257416210944 64.20917361580481 65.41348624142975
45.022165980243855 65.7197674843564 66.7415109195947
30.155255684125244 19.31963982922212 6.933057122432926
28.33129328156895 19.081924255585722 7.953044905625433
26.144286877798038 17.7823680310985 7.725356974252687
25.240761440943647 16.220782332932085 6.236545897527714
56.95169447379598 69.85851702294767 23.10822422069638
57.30459268528326 67.7910295782388 24.784779586407428
58.632159722344085 66.12100559946043 24.903384849067034
59.92375743730541 64.6903038452764 23.386690058657432
43.34246860821353 45.29074556308457 40.35744133020565
41.70590498706685 47.2919255853099 40.98818208124823
43.415357391478594 49.537429721471625 40.96929189685374
45.86101499441474 49.31628978121411 40.00206172814052
53.08207041421795 17.305797376605117 73.13340223957819
52.42631746416558 15.14546343814721 72.43982980315867
54.108128660384985 13.198945646426651 71.56783935590579
56.70530173502963 12.878770690442312 72.23914295025689
69.40160666353353 19.228230512388777 54.162141024393186
67.82940246856552 18.520046468949317 52.471455647952766
65.3093131706463 17.81186697459938 52.83917542935076
63.51755796915952 18.469063245178926 53.93929183181075
34.736315300730894 0.5094681247244356 9.354955965393101
83.18458092869761 56.57656599671048 30.77302019314695
46.02684643013983 51.57552318350977 41.37591062760855
45.25548923980491 53.04695688489198 42.93020810301679
44.2340116195215 55.423773214153016 42.68546390906521
44.23599134757396 56.93154376262951 41.225204083537896
39.91034438766778 7.871622691786568 7.417741544188974
39.572141115981346 9.121648192096023 9.578028291004411
38.194743241622106 10.946335215987315 10.39607380554663
36.49604667186993 12.313993162484309 9.143133378484233
81.86812002588013 54.90900113990408 12.214330816741855
81.00311883661658 55.87569253950444 10.209486447762067
81.51664242913905 57.955615106979174 8.918110684285912
82.8062827654224 59.67898755411088 9.375088727981316
57.41490682283648 60.622547909246755 28.4626066869561
59.28776420908779 60.74847915474358 26.989822004491735
60.53697898321739 59.24936235373215 25.57530147258096
60.75383540306631 56.691849166596455 25.81682502844143
56.97194567815897 26.605580612859065 30.585362688014285
55.57230869166424 24.973070176686175 29.675445830332386
53.03219378550073 24.222187640729594 30.196056937021815
51.59271648520256 25.559365808166458 31.99725782603868
32.16190889795756 8.99119751590626 11.69038564233571
32.058911775724994 10.44192403077347 9.820994904188458
32.94097107709484 13.187302892542302 9.804456559745915
31.262655694361108 14.858334618830778 10.980404710783018
67.43685711707515 49.76743334788959 88.42279482231908
67.94564987230422 47.57135958158537 88.71333728141761
70.12763000524798 46.03997283051454 87.95890558200998
72.36296194187699 46.8622910749987 87.29962263180516
54.822083774555985 65.6646462820709 22.175704109162066
54.88288265123898 66.53857609186247 24.525965324744423
53.6189549844229 68.97077542341225 25.30941897944594
53.064618256790446 70.6684763251202 24.279512800813148
47.14603080529079 65.87623702493643 22.41966509979828
46.834327416135245 63.297233385025876 22.041135052440268
44.560249671146835 62.02058520556369 22.15483536731518
42.26603438284494 62.72479108790294 21.83379314598133
10.74318648083604 3.175564517446626 9.859543989655878
10.860195328158008 1.9007308842154076 7.955191969773353
11.361671489856219 2.7072652479129338 5.429009623679381
11.32745985190296 5.378441139752614 4.952694654914737
62.00278247498754 20.701356496827852 94.27889753909484
63.59532281715613 19.576193068526923 94.53384563669388
62.95069215572957 16.99930104805804 93.8578435810898
60.240049051099135 15.9960632007822 94.28854302441269
32.254437647322256 35.10471172270582 27.05148861763891
30.165676952773186 35.61914531476746 27.145294115895638
28.931823964771276 38.15237780195007 26.73350290008396
30.219408999810526 40.45081303088441 26.62532920483491
72.80135428452515 63.67919906112303 46.20640264447229
78.92846213197716 1.4807582055911208 91.38067859305308
77.6069877419995 3.274254935802674 92.94263269154663
75.28773396311358 3.933359680112718 92.94376291958287
30.785715959074707 51.685742637516114 46.0891535581132
65.59719109810356 36.94450230392443 86.16511154904943
66.20245828895948 35.73340591082247 88.68795713735079
65.71134024093185 33.8174972032878 89.560909155289
64.5697833848784 31.577953222666356 88.73601555795251
74.06193522712032 36.83821656942939 8.216093571561418
76.49823357946816 36.66734595013359 9.465238639585431
77.26471819874496 34.49537040620002 10.979998668105692
76.8243468910386 32.167009507183174 10.987713781648154
58.15486749512428 43.80869433734499 82.81146223798297
56.62359493114754 43.02315731233532 84.54735345905085
55.31329363440935 41.36647628896394 84.07331194064669
55.19940380736512 39.44338448680506 85.54794110280089
27.49609983575328 49.08703299372249 41.81069676974231
47.728994865173384 12.10531006437709 50.93114162238397
47.257258839160905 13.512312719318485 53.01100906334166
48.515184160905115 15.30590438856588 54.162462395053026
50.19073178717748 16.98020388099723 53.28630760967851
38.73355029328305 39.30303434609543 44.88815503967787
39.564077314329374 41.76080243102412 45.77738172181964
40.71856628592635 43.52072348956975 44.55156004953282
41.21330224001405 43.71504336162071 41.81945597828774
34.445999163752354 43.76900818675598 65.11745953131002
66.71320586245405 66.78420051728088 44.35245543624283
67.49158506284287 65.28064755471672 44.93844624274816
69.35720609848111 63.99406456864921 43.764500106819455
69.91164739923843 63.696295060468316 41.57414214022406
54.59636440608132 50.239745282130805 63.12427851297058
53.71638680472838 51.55502784956497 64.78025796073406
52.30228509649794 53.59389102661835 64.97688146428693
50.919297199785014 54.913287699072036 63.52565288002803
82.26296936347937 37.82860678464378 29.957622710426413
81.15548256798034 39.593828330375615 30.94278042092243
81.87523263531197 42.18631136943259 31.114277720169856
82.685509167875 43.477277934485365 29.48915149707672
11.05648786717654 0.7574727450266503 10.611518630486872
21.586601949219602 52.861166982400384 21.918830481169092
23.788838934909215 53.824610165534175 20.95971101255217
24.558575180736558 55.92719256424836 20.655341173227566
13.554562307947792 1.1372506873241481 5.112009568863345
13.446870115406465 1.7498549420649971 7.418469520898003
14.718288436150056 3.458202455144833 8.980509767314343
16.824896368996562 4.625461122747948 8.737897956361198
31.902867697040378 2.6906225092056535 71.4609246668533
29.746197542073357 2.09300631461653 69.9412243011537
27.45930615946397 1.8829134981184525 70.48171941063445
42.139617003576845 21.75856707276564 86.25960445963682
40.05180663076437 22.757049557312886 86.96798821541529
38.3273346741997 24.357774350911814 85.68986631736138
39.2546958489493 26.441916294582846 83.7401791197711
63.42877266573549 11.38690041722061 55.99513205238973
62.98191198454374 12.470819898942956 54.03567519467372
64.5795650469485 14.169989481012323 53.14656806720851
66.02085353945368 15.760953716254058 54.1423924961109
76.67024096215103 28.7831185365041 49.95874366923347
77.91518770642769 30.17630266877721 51.888886542735904
79.46020869835803 29.867798415767382 53.37043342726079
80.80792970195458 27.870585857668193 54.07746509823107
57.29300731027813 47.99081709194957 61.39540795908692
57.30146168362204 50.33780539234685 62.240273025894304
58.139698615407006 51.36987898182955 64.35160872747754
60.12535720322029 50.395948529081224 65.93036643289271
18.367491530913057 1.5214297676259125 45.48634231326954
40.9092521480904 50.35049296612904 40.11034423032412
42.311692947683454 51.99002655164982 41.59594816059943
41.52412324667486 54.1741558310574 42.763134508018275
39.13198840620919 55.52797713721004 42.55356733600146
16.877353446926705 16.6679217170521 6.9855177919749325
14.485451643052754 16.76115522952823 6.579798079807249
12.703189350395103 15.486548897184962 7.861383553694433
12.784885280415468 13.656490492358847 9.697739862072751
25.057072986626068 14.90457595412534 26.691632137767698
25.97458185382566 16.937059740251296 27.440013733093203
27.351949485814895 18.468870699405752 26.59805198620091
26.575712558000863 19.64906405449003 24.87150953197371
54.23825362236264 30.00016495875781 88.51011969567939
52.07895696420219 30.68127708924942 88.81439624720774
50.753870537216116 32.01514876634232 86.7369711382596
51.46906374640313 33.80714016152472 85.30456346121564
30.08396797570537 43.4487871530244 21.688705113210816
29.163500828550468 41.85651018753528 23.167731499206198
30.105002380258302 39.536536150939135 24.17749787917246
32.238828618559225 38.22504113931971 23.528991641434363
7.1400282802433335 14.335737258888573 6.519767534538253
9.415864425601738 14.88275926595796 4.855145201563035
39.92260248921433 1.4089117456179716 68.25254909366566
38.33382495656605 0.711405739163254 69.4947475661357
34.555126213639234 0.1055608822010462 66.97880739237192
76.4398485649447 32.08529047014636 14.42097082020368
76.2520609186297 30.174061610173407 12.817403523066973
75.9910163412308 27.67463754885011 12.80472317690315
76.65515449030742 26.075853135161815 14.809265752308088
77.94395696025278 9.520513484745221 96.12888707331858
84.50601395100269 0.674188898736323 94.93478447705353
84.70940591798177 2.7598699546109833 92.35745841923342
82.2767100554653 1.8079286607958 92.43306709720575
84.37169397952533 6.4244763590844824 94.4506470362694
76.16003758800379 5.6869854241877045 95.06526787901741
81.50635049675783 5.567241303202369 94.15778123017944
62.7064549729716 0.49995440280447273 96.04629668488703
59.235247573023486 0.8157631250567988 97.21996719540938
7.958847283072346 96.23086081623177 33.38804821440152
26.750254446103078 94.12819042882084 36.241335032904594
26.29312651506046 92.24330901671443 36.75976348530029
18.024294228584655 89.70415415280347 35.36134873926872
20.56546514998856 90.213319008785 35.78484365130139
22.061314722177226 91.79373127467092 34.85418418172135
6.387381974014724 95.98172739765317 35.726346939186996
25.97163429322017 92.83344521979627 23.671525944946648
27.857239431203833 94.03522167268511 21.807116342420812
26.745446917046095 95.03900707115766 19.51325103505284
24.700691537525298 96.03185772375315 18.939779529915942
29.872176469057738 95.25718632058184 19.40615995151126
12.072297808229518 90.68797513124088 39.17516084877974
14.341731631237579 91.6769337143357 34.488306043577964
34.8615139810252 95.79458682447199 34.89540545434885
29.41647793900105 92.09938379529709 17.073651477458817
28.240865536412187 92.44115385089155 19.077568497039525
28.795156239930368 91.50167619969538 21.534821242758937
30.046300179532302 89.91872986968063 22.027864265931886
29.602330615491287 94.49839419188973 15.803912154242036
30.876272864789343 91.74237153145538 33.76380487016197
30.12076952627004 92.88979817775274 35.778163583835486
26.056792278328274 89.24761694025987 35.077294737212696
23.797991567444928 89.01768356988502 35.711367171321946
13.495837535397188 78.2413011198611 75.28597383129446
13.088646095649592 76.60754879984556 76.97462378866629
14.890459092608262 75.89494528801623 79.23510027049751
17.254166581295387 76.4351174370849 79.31093975457505
18.67746932268876 73.9850349909875 83.24332833591252
17.007524377072944 72.81715777301463 81.73139265300156
14.878718260112226 73.7478647926314 80.7437494808641
13.108058927259943 75.52440634412518 81.72775704236437
33.41173487435121 89.52610460459829 96.09589352409289
31.79741202251437 76.3849901143743 79.92383119952872
29.033999733573722 75.7917966822146 80.06396766803395
27.942753425775404 74.55066873603889 82.33231390014775
29.56699387135433 74.09769591242332 84.13851553032897
20.411357173640415 86.11516158065375 96.7952418418136
19.80365773834501 87.5265334914051 94.80175899255065
20.77952077242358 89.57580044472772 93.73477821975396
22.905762910161037 90.87784218445444 94.12795118384726
31.690707369878993 66.29844611394057 96.54041661485395
30.76864840733875 68.52003350466072 97.11932853429992
32.336645291887784 70.94444333580246 96.39359830940873
33.22316576984508 71.56596757186144 94.28058799816576
37.23342579636427 69.63942769773008 97.08917398336209
38.65771692540349 90.19301495448808 94.61527247413483
40.31174070954593 89.7804953501765 96.50100459742333
43.3167493764229 90.06062906993775 96.41532558830404
44.53510258083979 90.77607194548366 95.25735102217152
46.79431994137503 95.06406482715309 96.02275021752453
45.177431560307454 93.45562602257482 95.65572882701828
43.107756148265196 93.66916417482693 94.64367086839448
23.8878516467452 92.82796984698776 95.65077359329547
25.65573368386145 94.84711926173371 95.77210459638464
26.886199985372848 95.52482293255169 97.38571115855285
42.484791897367636 83.21217273553498 62.38644498153292
2.6700643103394883 94.8562122779135 52.12902663116855
0.9672706081860377 94.70335041453194 53.10026689327156
6.586885612390184 94.58197948104058 94.2032159187382
5.36156619159387 92.9071156910008 94.28392708726419
37.011348383997564 92.62133083747632 60.22618543988509
37.56995146795074 90.0769333418307 59.60262626110221
40.06282252080588 89.24055876692357 59.22759089808415
42.298683489147024 90.11360354350074 60.05157335652431
30.83863943069481 95.37856387867487 94.2634871491679
29.682401712205166 96.21377037421546 96.04949413734707
15.7238605292769 88.83134479662887 74.5581197273462
15.900691375807428 91.36150806467816 75.76461154527514
17.751176269189404 93.0885574287847 75.05463577050838
19.793753668079464 92.74053805299715 73.50941462264649
41.43198431133871 86.28217375768153 60.11219166021913
34.39695105626759 96.26416264665144 39.23279587159077
33.22114942441483 95.60744317379589 41.67272113237766
8.208996757069798 87.44981645727758 72.31256521826778
7.780488636445995 85.21525034253672 73.59195589761455
6.512014618553792 83.24359509358791 72.89019456843987
5.65146891004076 82.36610453464925 70.82005604794807
6.531245739133639 95.57235394784038 55.03232079808903
7.689812401640737 93.84644900574024 55.48726870686008
18.237067425882675 96.26438531359236 76.28291059922891
20.04430543861748 95.66896125577148 74.51980746033398
20.227122004289686 96.10208757323662 72.21041657069033
32.150464292159285 94.9731781111811 77.10628527206345
23.388899534374357 86.32123082415121 59.725273489808586
25.97811711707909 85.79540613938147 58.797726351445455
27.407390729498506 87.11108895343236 57.232521264202916
27.224867842830076 89.20360483702788 56.24050544806083
7.054205050483363 94.80648798497356 49.111543087959966
8.39146365409108 95.4692605319728 51.175898828547524
10.802240236059967 96.0201183747219 51.62017184285637
12.835972880418005 95.68180503826329 50.440284573998255
0.8259747681737296 89.60402244311682 92.65741136256173
0.4082016060184198 83.54359806605082 92.9249555705313
26.380007273583654 75.28258185676926 97.28324041674335
26.907765129261975 77.12534950183881 82.31947188672399
27.749817180593652 78.09846477246522 80.36951244760068
27.728387035762083 80.53127061667516 79.28499026839766
27.047742750714793 82.87551062951052 80.07183963664554
32.98674889800508 91.66647045902906 94.3450517486136
30.92840091012014 91.66649624872339 95.81639504178331
28.470850516238205 92.13903593142633 95.52168922403145
27.366525150456276 93.46100827083946 93.2412556998319
39.68210919672327 83.8290942936581 82.08220613964995
37.83521844312401 83.62103427561789 80.29667137612216
35.80017566188435 81.62735637545653 80.49937393696256
35.37689126128756 80.17823036478738 81.98794304421943
27.073557641725397 90.7178026063541 73.15414734261343
26.59955315739751 93.24648522683081 74.31114162365924
24.66877456387563 94.62091213656502 73.95976884494428
22.86405011928659 94.62482516086789 71.98334882076404
3.886732800580908 86.82321443137853 74.1598337291652
2.9621495691478414 86.5562906179826 71.92456286483474
1.2590690473275343 87.67708953727049 70.4707461200756
1.9721421426163315 77.88897971532454 92.94926333201776
0.8378236471148247 80.30030212076879 93.03255844711991
10.370855044963003 85.04720993612175 74.51625886044633
10.312481153257757 87.08147460593591 76.16176004371815
10.404836874246211 89.70121020374249 75.48843090653048
11.452796132426172 90.81422118921115 73.45821667597178
33.53304458823423 79.78647896237752 76.83558936035011
31.058262091491457 80.1088462574664 77.4597677324366
29.089336999367855 78.86535245200521 77.31746004514015
28.75313329419896 76.36394269043267 77.07561873250104
15.424724337035189 91.013732580095 96.24573117040845
17.509514843308935 89.36262211374554 96.19951949211189
47.060692311647706 70.21147021884069 82.22531808036926
45.244290484285514 71.82330727454604 81.4342605791376
12.838628991895536 91.08322486090037 77.33560581633469
12.787934476324155 92.9835902968688 75.81013233111186
13.156852465182078 95.51494643933049 75.95332417395747
35.41338834719516 72.38957572774902 95.36864645868602
37.34806075633043 74.61441752797508 96.33288573068027
39.672130831822834 74.28279449593995 96.41106093177902
41.164613213691304 72.45485139270397 96.24354274323052
17.8573038513207 83.47208379966861 95.90587557565541
19.10491425372192 84.75106080540246 94.7814423422986
20.441028719537982 72.31199762207237 83.64602123292138
29.291912328142867 87.50768327825647 74.87680060933842
30.41067431730241 86.90283242196688 76.49310433703342
29.81861153911557 84.94494056811676 77.7797367969391
30.549741207577146 83.17340168051987 77.10128641974224
24.091569927599217 78.87663638374674 80.6881281169484
23.401130608179397 76.6873805957016 80.2532102961037
21.030166848467186 75.33738264821467 81.00868354006204
18.899452588837843 76.21448112122008 81.59726104161794
0.8625093837759684 94.66845447094857 91.99503078370279
2.3392499575557286 95.71581886943444 94.0772162545525
43.04098704785756 70.22603923079481 85.48360973997626
44.78078696938518 71.65152132420883 83.99805807998665
45.854684598777666 73.82015863369574 84.21808590052184
44.812556406033636 75.55104386320275 84.60556354409668
2.977394993268378 83.64119625459921 70.13023178073266
4.2504230741474025 85.6708238110164 69.62042719860496
48.19570608972358 84.65747084825087 81.94316523372721
46.64855732608911 82.75513581276918 81.79389510304178
43.90372563089636 82.97018663242044 82.42933211888952
42.87778482904083 84.27812831039046 84.15909515512804
17.95212205770326 73.67796362286764 78.12225201736554
19.23567728417729 73.47598114949588 80.21808771506419
21.64722121280238 72.22926042475213 80.70087643327994
23.27223191866997 71.26280886310701 79.11906697477683
42.73003671248085 61.682895922712255 84.05445051688721
41.34093314860232 63.44707567265669 84.83688807925054
27.81332998787062 80.55880872166117 58.95980895464927
26.537615276101853 78.86438716831857 60.22436739681546
27.255267061910924 76.92269739081065 61.87261515915583
29.49797017997369 75.86874613759228 61.74607591839962
50.28028791407306 94.30406853823501 74.91844310698139
34.38918811765161 75.19412955439627 95.7379201094139
35.21296102793206 76.95104579474936 94.70808809870191
35.05886001399581 88.48419784147242 61.16009289191416
32.58452520099507 88.97940870745265 59.782271639959006
32.24155654115564 91.3521696494009 58.56040089445247
32.73977301861085 93.233570350994 59.13056941235646
24.823619606077266 75.56675394404515 82.4702882465608
23.01056426477821 73.93603327457073 82.72676273590606
24.168648168097672 71.09889688121925 82.08744530403051
26.36893449416977 70.46504747584844 81.96025071912361
26.42721966176041 72.41689324830163 97.22813300013917
31.715836045346954 73.52734103935707 95.52343046770152
43.508665956208574 67.65559787637757 86.47006527088571
45.1559778008149 66.42817925547966 85.18554100191506
44.84199149979624 65.08623645943659 82.80305556638062
42.56434577791799 64.27949549312636 81.92730273022349
27.899802817983847 89.89284742333636 77.15869387887942
27.849172467231107 87.47863798189621 77.38892375468292
27.88020685754241 85.84840154088322 79.35402327070291
28.656064063856196 86.44404817779099 81.93655270346889
12.292038112476709 89.5287777661379 95.52464177723698
12.227315842466428 91.64192739658836 94.82249619641075
10.709963065914433 93.3974010145106 93.44142364340325
8.428351975169042 93.06236260571363 92.81804506251531
1.1400328319372017 92.43022571736239 90.16342365342148
44.131530136945784 80.6651161963661 83.68389741723486
45.387269170878355 79.91198028386164 82.05487660672343
47.25232105687902 78.23737127502206 81.73805494879234
49.171597228323414 77.64238057547206 82.87168007199305
22.25198269420067 94.9285136066391 75.67910969474377
21.07666660883837 93.09055148872133 75.84914193046541
19.44023221240615 92.3517751302027 77.79965613823303
26.582873096821938 87.85788812528959 75.2509468978173
25.624116415152134 90.02927600390429 75.16192831148702
23.31550876807658 90.77168989047661 75.3178322242612
21.356401844140137 90.32016879158431 76.7572918811209
12.829868471252354 93.26134885392888 91.65981424803206
14.15444410787282 91.39498535889898 92.87549196109578
15.096603407576051 89.32365466340924 92.03248201314582
15.683305491325724 88.30749933277346 89.7365966999688
42.03076839479026 76.81395314447592 81.24603304380771
43.901879328466364 77.22355043952098 81.922899565399
45.90154308177628 75.85640351904108 82.20166469792282
46.91968649521532 73.82955182667696 80.70947471201688
7.315587318194146 92.54618420073757 50.72426921729825
8.498142264907187 92.50880225639524 52.96458203375786
10.558076987790994 91.13724363069991 53.83854020919485
11.723488570644612 89.34748959749793 53.04378794911347
1.2258290671681455 92.90829590014899 54.914711342750785
3.4876396259838596 94.19806157083801 54.79082674089138
5.810030095416583 92.91815367059408 53.23502696429215
6.380384658563105 90.52672531838064 53.86788041283022
3.647585250899261 84.64268189181605 75.41421767146853
4.177467263273015 82.66251451644727 74.13649489695234
4.62474957154753 80.05006502558761 75.0833479364621
4.252339976943752 79.24942413593286 76.98403065713019
8.443627179896952 79.05487369005681 75.17742575494633
6.946825564587548 81.12430451191958 74.64742035910533
7.235437165389921 83.65059131045619 75.83032173496231
9.402342082227529 84.41386996093351 76.97922723523003
6.023220898575333 86.17679196332735 56.0668066219498
6.881813105031769 88.42870839522146 55.3204101647736
8.458853571022448 90.1915179886337 56.553910564512414
28.860079026488524 93.59261002261927 42.64968471073438
26.896762552439128 93.67896119983682 41.11788824190305
26.016955270874817 91.46701543149977 39.681360454574325
25.919747277006763 89.47730384688796 39.98841456924677
31.718138937042674 83.65749440931332 79.52932019281411
33.00131838931648 81.6022916889893 78.79634710412937
33.64572892124202 79.47932543893744 79.90353501107174
32.96317061801472 78.17760849573978 81.7767532016696
9.406581640140992 92.41401127385642 73.23453734619721
10.925092155992287 94.3185136380016 73.50774483187024
6.0432562930656015 85.6960184280398 77.51087033300898
6.211602890400672 86.70843729733826 75.20188237912446
7.059276339979034 88.75001762864393 74.37919943761516
8.143334035734233 90.95131451384471 75.21107508533545
24.030121193437587 91.10294824639286 37.8628051769815
21.744063511833268 92.17111425595633 37.862894682194224
14.17884808461543 83.99844962911445 57.41163566362579
12.257395710175537 85.1379922578616 56.667696997272444
12.171579340999237 86.72376338549228 54.435300733798194
14.050758547850402 88.0738572043077 53.21574125612135
22.99133213805255 89.5969281083102 39.76183163105978
21.536506078270733 87.65414308993492 39.21550961719073
18.861267853546444 87.87409732326388 38.3376251927338
17.297573324326635 90.01947315583851 38.61119000951376
29.43665100841422 96.12845296534312 38.25406247322685
32.07356263524052 87.25733614768512 78.64851638136979
33.66579449095804 85.97516570154552 77.29728251396128
36.1742434599972 85.49539597189171 77.5191085469325
37.70041663526496 85.84095810949924 79.04258546980519
13.58827583137331 93.2089020751395 52.784889268437865
11.426670799389022 93.95928846248783 53.31604216918966
10.716625085130193 96.13906810758782 54.92998494429896
25.988879898077908 78.24354919686718 76.9674032701542
25.596082493615747 77.2806930483431 79.1492402197474
25.605150126246464 74.87533188987399 80.00353627446904
25.626030904657494 72.70944494066977 78.98461967896652
56.706204333312996 96.11113116336466 93.06319899414775
40.028795424953664 84.1111223442822 57.50475820110986
41.938769219120026 85.12695277925899 57.29988207003649
14.013451425577554 91.13344619232613 73.32833934686926
14.779922881428227 93.27062366382785 73.95686691844584
13.500128118555624 95.66058419109768 72.63175602434723
13.127947158248524 96.05805713640838 70.37088147052165
24.15118539253788 79.78112048625518 60.63550946090227
22.595244981728218 79.18875676323654 59.480054981944356
32.25377825216977 87.37353851961772 57.51197641772553
33.22087716442551 89.29144977887006 57.01080123420291
31.706275177807022 91.11341048902455 55.54951374092593
