68.02221727167901 48.87282996637862 35.73129223931588
67.67916498894463 50.08822184594587 33.576726943657114
58.488516027126 61.33445930227295 15.950547134513423
60.53140769487938 61.232954397845155 13.999308659254572
60.49122174509541 59.30122402380353 12.242319389868895
58.77530358269863 58.02146620570135 11.32490642488713
63.204438324376646 73.72810307602367 41.321819602423204
61.576605543862556 75.44696938039432 40.02025304862469
62.20170890177271 77.68045190586423 39.01200301629226
64.09461004689464 79.2660087377536 39.82599027967646
76.78638418090269 40.2258421061405 40.0991821982419
75.45141273375795 39.65664275511248 41.25404411613843
73.97228935490898 37.24703909076298 41.55633921431788
73.56589751202549 35.56077914788958 39.61265945255755
42.41124987602307 45.56220264180035 34.95092998520555
43.66362103849098 47.011037691346736 36.651040199874274
45.431149430729924 46.020355487991836 38.47926189147008
45.64335727500884 43.89774840805637 39.71877693911177
26.29064002361673 50.196529258229575 32.556470394221506
26.601106683725565 50.342688474257706 30.60077598475009
26.877542936374777 52.36191994150847 29.23071374525763
27.727698800401047 54.41272098830825 29.528368231311326
15.13266285802966 19.238818566490153 35.75915294921248
13.337376673954088 18.005237658986598 35.0636251586701
12.940950611907745 15.35909735920281 35.04363910567252
14.396282356163775 13.385471423544816 34.72372420786635
71.70460956066316 70.00436002317905 62.17119010792008
70.99452524279549 72.29512233620858 61.35208067227047
49.04093328060239 72.92551394661446 0.3149395392032345
22.923917291198844 65.12746740450991 23.852471585021757
23.315770336019305 63.92102498615378 26.100276136134912
21.88263255367208 61.47816855583749 26.045591448738968
20.6673230184414 60.52725610714392 24.1924146665227
48.75604001416293 44.64841804182355 26.776034227362672
49.15898418399667 45.112649054772625 28.969036745300393
51.29010779923656 45.707773673825685 30.25684737009115
53.40647880623187 47.155843651801526 29.156941996863637
44.416394223407835 54.61844812740269 28.19331134844762
44.63095108746803 56.64087688776001 30.20539508433844
44.417518450865394 59.1190868032271 29.516174699875734
46.74675778607351 59.53383093710716 29.466190548152618
42.03980982400423 71.18190928792231 29.88431936817406
41.28216767307779 69.54500414697225 27.875048195329594
39.45838126484671 69.8535345822043 26.109040522255217
37.8733523719896 72.00730926031291 25.696252336766694
43.89131538811398 91.6795885358316 56.74598223790378
42.926102648344965 89.76228844647319 56.37072813133596
43.95365248118176 87.61542517505683 57.46545925752342
46.24515002628512 87.21673468014232 58.2020129067257
49.158188642433075 47.2159736048826 56.501539529811744
48.58819815788214 49.37367066719549 56.246599003326374
47.737481795459686 50.34445868504303 53.94566715554856
46.67667937550207 49.62507628750803 52.300548622660536
59.91594066915033 22.21076596798156 62.88621711534442
59.85876346574099 23.9110895657728 60.76509778805659
59.76768366824491 23.8216826662491 58.43435963319389
50.2289037147405 56.32620554534442 57.52290610474912
49.38667189344303 56.12996571044174 55.311485746142004
50.074404746899454 57.613727660015 53.30314186890882
51.43261493394096 59.17856562269819 52.915570788817455
74.10383095061025 72.4013695124229 11.201775218057678
76.27771292525989 74.02653671305254 11.471576753182537
76.47608589938824 76.46540672915378 11.120970259984551
75.15094703920302 78.14095303593517 11.490733279643134
75.10410258850703 20.60106563635417 56.04513243229189
77.0800908120526 19.4260678280422 56.618791945086386
72.22475744717103 28.38025245811556 45.06790594091179
73.78394651404254 30.158194944607438 44.43569185666274
73.2982657194126 33.06861335310003 44.58833962876774
71.70156684557199 33.928577783224114 46.799039533773126
68.92751826943498 39.23700751829863 50.69778948423507
70.44051702050066 40.31795313836578 49.02070994854441
71.08390967503652 42.76754750725891 48.99167960402326
69.75170391084151 44.734088879359106 49.08827038853462
47.92066488098495 57.34335587419302 59.3835510052638
49.37615922455194 59.06512731560803 58.430089862321125
48.322065088696824 61.05143948784434 56.73729886568866
46.13018757054165 61.98271337124915 56.411877176901875
63.08692318708971 74.51670938092576 44.65808200327025
62.3180080228885 76.67600104907642 44.334241299014906
60.47300578314856 77.86051389667661 45.76941594379749
59.272192410316464 77.42202659331322 47.64336832499912
54.96553064350127 26.918332822079574 62.09493093134437
56.36177669358086 26.230803365195506 60.44764818598039
57.02484911067635 27.31943298181691 58.152877964123306
56.444038330565114 29.687225136430538 57.33712819258562
58.68422964512512 47.77881885584095 63.20874481484305
57.31487368137965 45.703588767556894 62.67270333553028
55.39083045519622 46.280353799892694 60.741472750173564
55.46514532560944 45.01314592737946 59.0250298083234
65.9462539898439 54.154866305543635 41.26032379371861
65.31484099396101 54.802268527414704 39.437846576990026
64.46593163714131 53.119454603094745 37.43937895818131
62.76657437407003 51.546266237173924 37.58814008769993
36.45357753610519 66.00614230003133 15.902368806901231
36.42928424858566 68.0731882769121 17.37466462115818
37.13891183749345 67.60568437471207 19.716462319493846
37.4190859199776 65.59996306259576 21.07926478090109
42.404472474217556 77.70257958825066 41.49197652703988
41.62357044647495 75.39637286564387 41.71123441820538
42.88251720168408 73.17961464782043 40.94492527016117
44.50419034554418 72.77702985770792 38.943717340904314
23.604249675558886 50.66183827787668 31.1709316134819
24.24422820316309 51.12226111939544 28.735853135413016
23.79310196331699 53.095533593149966 27.142568797783834
22.40934203712545 55.2632664156834 27.84428870375144
73.08515873924551 57.559823626567876 59.163582467541026
71.75454168812766 59.56313501829431 59.51816901883023
71.92822711811141 61.54883855025102 60.94415337588808
73.6316015917876 62.8030895177456 61.75235359905089
57.961488092214374 67.59630964911995 77.89746664136959
56.12661729766762 66.17221340138333 78.38858383947795
56.23946144934216 63.4144083989394 78.89752645465042
57.41786931793511 61.6703861438261 78.10188860598116
46.02763802574189 62.665746616680174 52.076751271680465
47.504043237594274 61.666354396926906 53.90178112558095
47.98646233582675 59.50369143502338 54.64833219862937
47.140339844780264 57.30354709500304 54.457919779203316
61.2266696557864 83.46465811314887 47.798115904293084
60.9156647115859 83.97159941828303 50.4706179809498
62.96114963988664 85.11424219293833 51.80031270294289
65.14373372889858 85.01156300312843 50.64757301850446
35.85945976177692 28.78573348279951 55.55504839286719
36.86510548892596 26.704198339532773 54.899864273032975
36.257449776600915 24.34616773243008 55.14787024089738
34.5439737731762 23.03631146133373 56.05491413459298
13.740561681568645 23.809988341503725 40.0814581549032
13.804365460161106 21.854488072709238 38.61997548565868
15.235288613914655 19.686329750303482 38.452431835547785
16.87875007469591 18.922123452597965 40.208271473242256
71.44195419846297 44.02003222259883 56.1450752945774
72.06690937084976 43.260436618563276 58.06926204348688
72.60924377562353 44.97903602466774 60.312880965995944
71.55673026224947 47.15615141276373 60.68482925335761
70.7690485028482 40.2979228999204 52.32790718393951
71.90641900402392 42.13547075445258 53.54682523529676
73.54024286861026 42.1356434104955 55.66049606972202
74.9590335882316 40.25148472351141 56.89145738638785
71.97756595125273 45.20362940130717 51.16286937295043
71.27491065897246 45.950224321553854 53.607602238993614
73.03904139699819 46.53658752218024 55.50605640965868
75.17743761492846 47.160254418992864 55.508547897489386
56.667369796355956 89.1349042331591 30.40201966406169
55.68910743557789 87.12859979331363 29.592189308711866
55.898527540479094 84.51193302896955 30.78051491468224
57.15357190157993 83.53961462004588 31.94759538140289
45.2774942702522 47.1166927070248 41.583764070521426
47.164868466230175 45.15095861266196 41.57777547982778
47.815646140459975 43.46042231692289 43.25282497912952
46.88904272440955 43.05867655198705 45.70542651915293
41.2704927030952 77.20263580702891 49.970114151416425
43.17207310759787 76.53888869219838 48.90401729838471
44.71774953445276 74.49104646197426 49.06496811444626
43.56171016809737 71.90302305987383 49.28944467738142
9.486495722564305 62.16246965631794 41.76393039671264
8.035649307241444 60.37436580441434 41.946528965887495
7.576103110558977 58.49773305488017 43.72025019216854
9.168662462040887 57.294840274582626 45.35697219059313
70.22193374687635 39.44063188799061 46.51322957274177
71.97115049651735 40.52820924537945 45.57194872890627
73.01393609818878 39.92608116143107 43.01875169971302
71.68983930422382 39.045412503379595 40.944240497889
33.71632820472089 25.734421239304204 47.56874187964071
33.760543243425516 26.7539154661004 45.494851787678634
34.072220650152616 25.88668489449354 43.425615317427585
33.83313512421706 23.71128405642735 42.15973649845587
39.425963643880706 86.34744030119273 36.72931791646546
39.47769901723142 87.2513358370584 34.765819549921495
39.347843725528186 85.36737744922276 32.624970485768515
40.215432655670135 82.83962364463706 32.896950160050814
59.00903049962395 41.45525249734602 68.23008927485826
57.35933992234376 41.97055100239148 70.03429396879415
56.94853173375361 40.433378808712646 71.76855854251815
55.40022105464845 38.14005839689176 71.73520803998761
30.810660953418044 20.47163709016386 32.95322989461897
31.079298352106097 19.85313545656734 35.28368646117823
33.09987896168124 18.57117138404176 36.556152995165036
34.76612374266215 16.79796875376924 35.52436329273919
84.94176253355049 61.563779367340906 31.366263397621953
82.48302333823533 61.59049361334538 30.493910926371534
81.44068941418814 63.15129431572233 29.436570144450346
81.65426036080284 65.43650544521208 29.21179014825456
36.67760652771705 95.67539217675777 36.19347260855177
36.82280273154558 93.66153667842273 34.7406730942564
36.249229338851 91.24715219831062 35.93617293555572
37.450812880465165 90.24562801592353 37.76765096351913
52.7235099668334 96.68183838982031 32.723503997051964
52.554036415768884 97.48070708364097 30.44823251518247
52.17514308945526 96.04424331873867 28.067683068345417
52.494973785919406 93.58466441900198 28.251279192767022
70.45044978710402 56.03197971352831 51.8274421951074
68.26702031372633 57.33306926485472 51.13854808859334
67.1333546379287 57.61730990878539 49.364731178731695
67.22984526534647 56.66032407540839 46.85220688511267
10.01158226813363 29.810476803048758 39.65954953265525
8.942901416014758 31.874159071748682 40.93652190000987
8.973542860711541 34.09916713427558 40.26198734751681
6.808734040623058 34.33059243114487 39.15603901012127
11.341533146914411 32.45703992894719 56.76779514870703
13.697921591303867 32.27496553014158 57.78851050869512
14.356478217822218 30.69949407632467 59.58139745477801
13.285596596777642 29.444461054036484 61.54608870495606
44.02423586008193 45.528360695032426 32.809405067954174
45.64684694049708 45.69479796625908 30.867897399691298
44.99559558211866 45.46848297891646 28.270017941133155
43.48427618713111 44.0390674017306 27.18406674833575
28.67556926000129 35.4431790324227 25.21035370102106
27.188280584814976 37.15038423404449 25.512336913942526
27.17761382302443 39.24613379099422 27.444640245037505
28.38403247536096 39.9082225455422 29.12372382236632
59.554394571030194 26.6559431756154 59.016117927837925
59.28250524682241 26.738047275190127 61.59596916641858
60.45455578524579 27.987715502370172 63.34543396414005
62.620871072959865 29.404922122385702 63.533474602936025
40.85916516197422 52.36606590127276 14.428210878913552
41.29391213518149 53.863286624013234 12.924450024354213
39.99871507967774 55.95238333904463 11.917835051421406
38.208441036849514 57.5580129297295 13.260564155682514
48.14592801861196 61.25339179719208 47.429233320893445
48.167349622812836 60.680974579638864 49.850706356402746
49.01108093834129 58.78701075440842 50.97989189089071
49.75219814946198 56.72902209187837 50.73196312899324
73.48501360195881 19.472126177773614 28.88313737674454
71.38242774624618 18.973956115341657 27.845431614603292
70.73480411620535 16.757163717400527 26.31398370065627
72.26433390460775 15.111944505096222 25.12941363487153
8.508756141574905 56.575101622819574 53.69943298469937
9.494836270002077 54.497802189086364 53.806462316928204
10.568986686940189 53.089697647771324 55.80072854843218
10.758294164457041 53.40837228042129 58.10372035966699
42.230334995991534 66.61172871836467 43.4593453660266
42.74520263264055 66.76065504464682 40.96737266222238
41.33749311908 66.30808967638086 39.07308034633803
39.41899694450269 64.73462153342014 38.64894251908642
43.81268451254044 80.68104409138932 65.30129724650361
46.00580152996332 80.99201398841467 65.64168418225943
47.71742325061033 79.92446222396866 66.87530975128627
48.221165929925654 77.41556214541949 67.02222293109175
37.353183835081694 82.4889313734499 33.08588690169111
37.04062713386383 84.7810013218622 31.590761576977457
35.64510096099315 84.83327437238381 29.19437813575411
34.471496069001695 83.20365719289907 28.167977167252992
57.73117232228634 68.40096723899129 82.49968183944718
56.62529766607111 68.06640465100065 80.74698346706165
55.117084027720395 69.85332960600168 79.50704986760388
55.17499067321488 72.1753854281751 79.4587798299966
35.23537027127691 30.327940500593062 59.14865993357666
36.80535571424662 30.340233747683023 61.32689190072937
36.91759070239774 31.426909551873074 63.07148791778601
36.60411868852391 33.766715455727116 63.71773101453618
28.304617595670173 38.4587891050398 36.634938246478036
29.00904324785984 41.16065457102148 37.717343285593714
29.199042742271452 43.27700695918803 35.69838830930331
28.54183609366748 42.74127792262011 33.66488829068481
37.23675496905316 67.50856677644374 23.099766529920824
38.68449808084604 69.09056809413796 23.496289917089584
39.25549841369802 70.83119561964725 22.136312958880453
37.954083349463986 71.76346007675903 19.915629732117026
46.89957804820206 47.72693003630515 50.4129455043115
48.78190171172985 46.002780445938996 50.84294819620849
48.74663341959762 43.45266399160499 51.06510933512797
47.07947798410009 41.95715529852444 51.0896634821245
20.846910668440067 65.46300800754247 31.064792256481095
20.682052291786043 64.0806274137306 29.962701801849708
20.327160473536303 64.12846558436661 26.930913786559763
19.818673375363744 65.91879898867903 25.8331651576459
45.21729597892855 52.44710937432047 54.84801091537589
46.97066106120819 53.074660933483614 56.16667438633681
47.21500552499529 55.77574280156326 57.225651533209145
45.08082672451468 57.387382675448606 56.44258389049154
50.994140957595505 46.67352183262331 43.29661365570004
50.10253991382571 45.38628237832188 41.48261543308167
49.14129024648855 46.2249882156181 38.89848757167596
49.15342899032375 48.133854197797376 37.86810416202369
10.133387810786438 70.64128129618771 69.83484223093643
10.291010166526672 69.87368805756253 71.6731974269895
41.83266067396347 36.367992040081674 1.5487781215557912
42.09997260122266 38.52208619835449 2.375807215361458
46.44084558882041 44.64277255998721 12.648791445692247
44.51125239979303 45.66174546480712 11.302951648752526
43.951755274300076 44.13166283238226 9.426677285781885
45.53600038435659 42.8215053101603 7.687166385137962
75.31087927590936 69.27930152027291 23.98623911079903
77.10908684421865 69.28281962812437 25.3107915294052
77.43057209810617 69.43085620157201 28.077611733251672
75.86903487476555 69.260345796228 29.82161059033271
55.82421243806724 83.14642793483078 35.207923535204905
56.96428449910502 81.32110102586125 34.157712870851704
55.85107496520715 78.9416636903428 33.4844762563715
54.21743717160924 77.54426916957598 35.09941857205551
56.102874885257975 24.678451672914527 66.50138673734125
57.60595362505259 24.423698441250938 64.81351895727325
57.430292562271916 23.719864200403627 62.19397844427687
55.506605089784976 23.770261931767365 60.904763333283924
58.35481253788764 71.51914273597819 90.64173341627068
56.67708131927789 33.32888074220811 55.40295333055911
55.1691840936699 32.04309921718337 53.91943217439991
53.048503851097266 32.528428781330526 52.984659855578286
51.872254023093845 34.77938219134174 52.4484271898772
45.93857427786593 37.80852733686027 16.710840316036652
46.27947330082154 39.398569455554046 14.694549280136151
44.92786257425849 40.475937244638835 13.355093504807014
42.45669086696507 40.2643150327791 12.561507204075363
58.80715346814146 28.72854155056661 81.35921230473056
61.38953106512959 28.770330511990494 82.3183689433187
62.56298743748378 30.590547995488688 83.73959374718191
61.56329782001636 32.11723157780298 85.4401248812992
63.212270373576324 70.82794764045315 37.81339891254399
61.82027620787468 72.23996187507234 39.562586234012976
59.51253370372229 73.4281609926688 38.76985852091388
58.99948558523396 74.42423889244269 36.4802061239522
53.38712132625496 88.89642266730411 11.043701995022651
52.73030740759032 86.95620763582808 10.049477615374082
53.61564921481511 84.92534805099974 8.711849002688174
55.70078108039386 84.73291975674677 7.32994314905326
65.70635793982593 40.88757527540211 31.962520018735535
67.0139327521782 42.20343419913145 32.90330106028304
66.67958595500619 44.18270518778487 34.81442844808274
64.40835344705356 45.12805262486935 35.915669319385295
58.68654364563308 87.25476279821122 55.75671263436366
59.56267653220934 89.35389312049617 55.429731358395486
58.52550215124736 91.7766243668851 55.295344618720286
56.868751629887996 92.79107252864428 56.15137102038128
43.108269566652076 41.021048008316185 22.039951520261848
45.470985587049185 40.83873707576087 23.417671230254395
47.026039288474834 42.596959434702136 24.27403146602823
46.18921061184265 44.62327499849997 25.865226710147844
69.0218726544294 37.154142664963224 47.99953462962346
71.16273202999504 36.579846559550816 47.106205745954426
73.49703118079265 36.28769970407017 48.564630168717166
73.93473208240471 36.28672001856389 50.86366193663464
41.97272499305298 53.03309258308239 27.868236485895572
42.27611374085129 51.98779015225537 29.959426684719794
43.84392191483791 49.8143558234166 30.682384089975706
44.96209603471534 48.41954260420153 28.923734391730147
6.828748764436023 35.70975817626943 17.756480299159396
6.643687379332339 34.228122648342634 16.122174066076877
7.9984195802233184 32.57503576259848 15.720952271508233
10.881168309715745 32.637050679285274 16.326277015017123
68.08055234275011 86.78509486922023 1.7483868905610702
11.577204831737378 74.11317173801903 0.5682808140940452
11.87351568276934 72.87376946701664 2.356872450993513
71.05209161704865 49.577553054928345 54.70653675438668
71.81536754135436 48.64633781063034 56.98387148210375
71.6115652368669 49.738208497339905 59.43442315458614
70.68551537575502 51.88173868048938 59.62433072619419
56.22245913392143 96.08329698525584 35.21871601230479
55.3343333351343 96.30646289337741 32.70398467154034
79.61743548436067 50.436575457387214 16.399046740556194
81.68141004196059 49.47343425136001 18.258085052382093
82.76198834231867 47.35266478928827 18.112748121872517
83.69552715488233 45.86408922198646 16.07364039132788
32.940011543805966 69.90394470662072 73.46634706673024
32.19316058409445 69.9363235529409 75.53041097216773
33.1979722938806 69.74468726899639 77.8848200053778
35.54592513590736 68.99486337375083 78.60869622714307
59.40190063873298 14.956458778454508 42.127959237764586
57.13363867285068 15.26890431348893 42.72414448747567
55.01807121443171 16.261812139868 40.74395100850905
55.37365809981138 17.55835761391152 38.97917543947464
2.7594403446835614 57.23291708328522 15.296730443165112
1.3994951022173394 55.48120707894557 16.04513640542451
27.19880824539982 85.21853557771458 68.37568730916308
27.175747856581346 87.64804611516084 69.07624656490935
57.05436731598104 53.615409988259785 1.077822529901274
14.218460810344036 96.71023293574186 29.40404214883844
13.69511798334492 98.10250477352668 33.81871337538148
13.631099889964194 96.51168444746973 34.90080389188054
13.698771847765622 33.56943218351929 52.99802668699589
12.60796036291836 33.28371864908037 50.92863465791747
9.927129993786743 34.161735260202796 50.13418043535104
8.953732249323814 36.22041096961179 50.76522968494386
25.825496040981815 60.961866297178965 26.062665586808798
23.49833275633061 59.57191043266099 27.22523909646118
23.847356254111244 57.56640360241535 29.211587421471254
25.81950308067167 56.355360190910105 29.671682978018275
13.935625420375539 90.49217993618295 16.207956533830487
14.277721972173845 91.15712411584138 13.90333363651473
11.885283015051217 91.88351000693771 12.208770125334464
10.098209127004523 92.61659283835951 12.562478709423493
35.27104586909898 17.230565451229033 39.355704995274465
35.23538524297516 15.005901876359623 37.807781514632076
36.41820143642363 13.42646686625611 37.73642008701359
37.72024848573832 13.693303998980651 35.76762839987572
74.92551033543918 92.98463074935506 39.009463055425186
76.9895325788921 92.36353916242486 40.23039439651414
78.01990335017474 93.0961526532662 42.612284485956316
77.18732747229382 93.30644486526947 44.646764745769616
30.880602489952427 67.18239736680476 77.3048364544746
31.921340412591167 66.94337039181495 75.14518439702265
31.295429645026534 66.62773425242014 72.99030073748017
29.296013407755424 67.42248268358422 71.5561566407967
75.56737458077937 27.264379977983285 51.64656244444845
76.88637254456326 24.91060752155449 52.01215671497148
76.95556941825592 23.306538257253376 53.750058127865096
75.58537309452906 23.177313133451367 55.96583647924383
10.27353525740905 48.77114400223168 54.441621906399575
10.897529879311154 50.50156657696487 52.82916876481669
9.516225650402987 52.34511292029968 51.80273208341325
6.759259217253668 51.9785364591119 51.212954664183464
7.957169498256799 88.13756507506275 15.273313844356725
10.276321522988555 89.13574599566583 14.873458617149982
12.44580970035861 88.20944859495171 16.294825632904693
12.89134953630447 87.73111624318418 18.41832769998294
22.529643635931365 77.52021032425658 49.23662828524226
23.684579960136148 75.59047474041661 49.68424911157159
22.656690373895607 73.08194132146164 50.90560562832916
21.095717717931233 73.25179070368517 52.82170309368591
9.07091581199707 85.42472759382851 7.9638766135863355
9.945430712895842 86.82390507435464 9.648624536852633
9.665821985755535 87.01141566419258 12.288724839985356
9.418813051051771 85.07216146007971 14.020429513845754
18.133904348685586 36.06638620424533 82.49018280112739
19.56851694880241 35.242950935059156 84.35714291891985
20.42831664271648 36.65263740995691 86.4643143697569
20.154494344065018 38.99008027430952 87.05961818865467
8.89512793330267 87.99558765479341 0.5111114659611956
9.169416044673092 86.6179924644636 2.223634952346357
7.474520045572417 86.69453415997106 4.672936144964487
6.809637449506479 88.99582189581952 5.652002406411025
37.20258519845843 63.393724376754236 17.231164190297175
37.831045871899235 63.20233667925223 15.01072234342631
37.13753375721078 61.58380098894602 12.9212925210265
35.63105101208432 59.6348687637773 12.530467938508703
27.322391888894806 88.61404257381191 9.963307222868917
29.053464366956632 87.94738466326677 8.31873937786277
31.219886303314922 86.4932078111161 8.754771279336234
31.912115420770256 85.13730802223513 10.33866317767228
33.393901025259844 61.33453319459998 58.617815639640654
32.26429134290169 62.382186811419636 60.469607362159884
32.90002566385097 64.55392436348431 61.887226310820985
33.79274676887797 66.79499880983023 60.391835493143944
45.16353377696474 62.83199914634628 33.20138031492889
43.2732772903979 61.53367874520471 34.532192767336085
42.741762087983325 58.58281707703454 34.46329677225034
44.192092537130016 56.89497039096914 33.78943718255096
19.55040280280202 65.91523363827768 19.38744434210385
18.014804397659642 67.62567308163916 18.877384434234653
18.390070478492643 70.06035735436899 17.682517461151484
19.915851550226044 71.34077604414635 16.78294907322748
28.332313639502285 76.11669738569906 4.646506169920733
29.397382649353673 78.1342247382516 3.5610693189992544
28.426329667224042 80.2527328193685 2.6919605619740334
26.369044394543366 81.54319681839114 3.139212679118724
30.977017801296867 22.528292263191627 28.366527032830255
29.96828466221724 22.378495361884617 25.775151579655052
27.70090285853859 21.112108048452928 25.25952344481597
26.76125244610575 18.968471377314334 26.501584879151594
58.69678510116349 36.84877316767937 93.54623909589684
59.735193828629974 38.628199879745274 93.07372627257628
59.89345465741561 41.20281159659681 94.30965846688864
44.41636216638247 52.42083025772595 7.963062582239969
43.94259660256267 50.289982270442636 8.910125313301073
44.617827908446245 47.74614091064765 8.29034712622883
46.407419578648785 47.009923596624056 6.76274793031199
38.32086397259928 81.84133463780488 17.783412195334908
37.15712646789225 81.49984265205725 19.431219013802362
36.86362596364459 82.7717095268721 21.97629442751995
38.11230462500203 84.4017226845306 23.139477146729906
14.519942780598788 32.44071232280019 55.31799797872317
14.716072626796324 29.915254901472085 55.30570710235204
16.454724027494652 28.2569847541112 55.7991695971714
17.848694525115416 28.89416015008579 57.53809035745851
4.825550694122495 96.65001290768814 13.506833520161447
5.010418995467384 94.18910730619496 12.098973919580992
5.631509464302914 94.033125746851 9.639383020572614
6.963150522215627 95.37114966288391 9.049033968395644
31.06132127853095 53.91261290156508 58.13124404356072
31.024431685108528 54.50839781954853 55.386476459695885
31.81706058637011 56.85802011977741 54.47852068479724
33.41504065448612 58.526523948564076 55.385013424958196
65.84230251569544 32.18665731160064 20.412515999657764
67.82788499038901 30.93079939799005 20.264596449055173
69.13552306209722 29.361625992989264 22.00246111712903
68.45011096424267 28.472770842930906 23.870372647294797
13.66477274457802 96.91139145828679 26.264257304437155
38.86530534716059 94.26078634081415 31.62119933909432
36.95993197002024 94.89395298567887 32.58654507285227
35.3030069962467 96.7782767929998 32.142864536990636
3.7813577859305436 57.63251072768486 31.554173403791495
5.427154652735131 58.82646871933998 32.84793567380357
5.1616662750150955 60.5974374384406 34.84343453337065
3.665410802345392 61.46705300218527 36.04204840444789
60.87354845324245 50.30920620763603 86.00770055068203
60.34104785812596 50.5967511216246 88.22615522717393
59.82521484941302 48.55593919565666 90.24523761818367
60.27638778861784 46.09613660418719 89.99599245793611
34.946585694986936 83.36361523477785 7.6982622644003085
34.748127452750765 84.83275110596894 9.91199442897317
33.7241158751032 87.33271361620523 9.132629604195682
33.47381769788732 88.01397519534659 7.161443113621771
14.768573964936653 81.22193699973582 26.87774516738049
15.112116991914936 81.07161427803827 24.6673478302319
13.530374659884442 80.79380635746291 22.419995525603408
11.08490586088939 80.76104161326468 22.384812513445482
20.947394966630938 49.806097683692784 15.892037995812068
22.643677216002008 48.09787480532749 15.230482154547863
23.05681639120791 46.689374571828395 13.394329498834082
21.56628509424448 45.57871400348692 11.58820262839625
1.1036103602641822 78.64180922731106 54.79127788508581
2.3198542119594765 79.45943014855109 57.018779085898245
1.5604260035257846 81.02904165072351 58.04625953345777
31.285139883597 90.33431649402976 30.25607620352648
33.93933038444874 89.89018305903242 29.54235148367181
34.64676520199441 87.21740758752068 28.765345893816402
33.05518009425683 85.70847668323991 27.65041349491171
57.87588612916955 60.511821916777414 84.40406640586359
58.898182928023644 58.50816972336695 84.69852724379248
58.61541519612978 56.6632349711923 86.63089288967791
56.941124542464465 56.354767745578606 88.13620855937982
1.6041117145042982 86.1373251127987 60.55457035612255
1.6012701218462924 84.15497815906397 58.3694272488646
0.9031440244884671 85.04864358380819 56.40866018722527
8.213481456168937 75.28755467115441 0.005658359787453792
12.073366856939753 84.26207757246337 13.791695135293898
11.67645343686904 84.48670537257674 15.966770749388528
13.752904716989148 84.04087581825353 18.108106169129403
15.455020409291098 82.55935870847644 18.180910275950314
45.48815422288972 53.284122703143474 10.157886826393153
43.08768654651901 54.20571461237744 10.668831032437971
42.45595535176839 56.21827986043701 11.244992617211748
43.27706676020596 58.49737124199961 12.079156381807648
26.499945226621957 95.86849299127019 9.689249155175785
25.017713816393623 94.89436422541515 11.222891909258069
33.03304544988538 97.48627165996811 26.816877513510036
33.453865058512534 97.95934443343948 24.512383263838426
50.16861681066217 32.28354187037437 30.744481917882936
49.8658093443634 32.82484178016599 28.213738809404393
50.492639358166834 31.25475444191941 26.334662535406355
50.90441049148828 29.42589390770198 26.56307102247555
15.762941004979263 37.600894719516106 67.84351362103416
16.373286397399642 35.464043804346645 68.99282464843682
17.715291260780464 33.64951163191876 67.37067750041456
17.560746070054883 33.35909959012353 64.90532850200859
37.25467373143132 84.13832441911566 16.747808999168647
35.536498469950345 82.79093642047842 15.727807452414721
35.52551524715358 81.82442734955654 13.235106634381337
36.09846647011468 82.9332167220285 11.154705074393682
28.595429175902083 39.48820239608496 50.24620202049517
29.14674532002039 41.372474102286105 48.27754653681668
28.793198548747704 43.828407316466155 47.98911603410361
28.27486705666682 45.514503294983086 49.69852848884556
28.678908966366368 91.55125424911166 10.7109875200651
27.706128873821935 93.97743022209848 11.52135453568481
26.410727481537982 94.60033332316894 13.82586650257338
26.50949395653167 93.05578099401228 16.15913602136457
12.731908018939114 25.901785520435965 38.75553711524416
10.938633634601922 27.288793752328793 39.60885077732858
10.760798537678824 28.13616457686524 42.47474286900953
12.444079194108877 28.45710785728473 44.067696627366956
39.19793847239895 76.70528684255497 20.78002852513803
38.39207014256833 74.708886851495 20.87785075329146
38.97752100621012 73.36741451893211 23.113751857648015
40.77079897249317 72.97298433129325 24.311975079521186
20.486911971455502 89.1383052506434 39.16454336589276
19.770920214875854 87.33842487160236 37.94233151918316
18.607610679020844 85.15117174936957 38.59588970861821
18.616906127759233 83.7892071338073 41.011877317847066
49.203265566484724 9.600739292937636 24.157466042668876
50.31438485327033 7.352939929778201 24.24544771301464
50.52380075584113 5.770485506494737 26.6740529118272
61.52086816384398 20.846299609411798 65.48184856874472
60.38862639202832 23.12943049484602 66.64055698048223
58.61211053399491 23.303419244375945 68.02580632020604
24.520793773166403 82.05686091114097 62.03946209010237
23.364077940515546 84.19136287775328 63.31205413304025
24.573947171350692 85.78031953473076 64.70124200861176
26.650322604399353 86.08000119972087 65.94812914167822
59.323315084227374 60.56850663087377 82.07048519884256
58.20561898787061 61.87977455741703 80.79241563596916
57.251741939912534 63.98888189825285 81.84123203602987
57.56042947465158 65.55276240997085 83.7429710646571
37.92089438002014 67.07146289469718 13.866429296465556
38.63527303018926 65.11139049114274 12.739582789648662
37.44990161856422 63.52577489327838 10.776206998033178
35.728484591295356 64.54459628951919 9.070038409856483
58.25776503033488 49.82511974469259 6.980841017472787
58.6582605340909 52.30560550482962 5.966666888071388
59.43080331117394 52.96872708328591 3.5048591258348387
59.14255684058208 51.90035755339528 1.2120167560129198
15.291568583205162 96.8244918357574 44.01464113185838
17.01624698833359 98.11834196808708 42.60220841242072
36.97014452015687 83.96285964004628 41.82587260415325
38.452674675372194 84.62535525733787 40.057051286035055
38.72609233274865 83.86513350345147 37.572425351125
37.29385738120051 83.35237635001673 35.83513430835889
42.224172133058524 68.95737309460443 25.171912670162982
41.183887191248935 70.33242563137553 23.790507392174174
41.63934363113463 70.8240063461872 20.87330872483288
42.38173603885361 68.69142641142186 20.09280290521078
24.338532079953964 36.212796500621614 26.53006673604281
24.819771213838003 37.941199848282075 28.050290222554313
23.936490336258604 40.367854256699 28.612494630441905
22.790178016559285 41.95273193775664 26.93015968751987
21.44288795542104 63.47693640654553 37.8335739506524
22.40519236629302 62.17893849179214 36.01543939289488
21.425940798624715 61.71761939272299 33.63233070878699
19.893591164885624 62.63749147234415 32.2150376307779
30.60971739605412 68.71076642067128 1.2392545007435047
29.904651508473854 70.97187091161679 0.5773719376326053
28.12621581663791 72.63308799300638 1.8665877326827744
28.048978393142846 72.21320566044395 4.223679192819795
22.067388469885323 72.29486366328452 43.026887784545856
23.30508709381329 73.2375030901021 44.76190107904132
22.73117448930695 74.83388281604765 46.73242400117238
21.350538889746066 76.70104724210336 46.92357434703084
0.6848694742465721 69.09976774961748 36.77121602966492
2.6266845019327296 68.59035072904976 38.06885604039343
3.5324452400308104 66.42179382898851 39.074201309640905
2.4585834998261253 64.01309304332861 39.241787526484316
23.894606383135848 54.536345547545345 22.998710410042012
23.991036100064942 55.825315933354496 25.181664010254927
22.203497999638483 57.38529853690654 26.04971137993183
19.987953491855098 57.970283453832366 25.69578357252595
31.15515852490703 97.47570630959302 13.566340356102051
29.44141162594323 96.2201862322683 12.716480349249078
28.988612901410296 95.54706701830179 9.854542998958326
30.151373332508896 95.79154447808621 8.02036342185396
9.264732229193626 96.82423830403611 9.824126150346233
7.507025704658917 97.81696215738206 10.82937312603049
7.408786259112552 97.49984826810176 13.533836927907368
9.163878451248108 97.72680346261049 15.169757707952973
24.034551441379886 79.55663152985605 61.73213206116159
23.611167656292366 78.724606865962 59.45350986237046
25.13179659187861 77.22176979755262 57.87272299179966
27.448850827439845 76.1605437326484 58.44297118067257
22.25670144288777 69.6794679060155 43.503619657575236
22.952989777968924 68.37281729296346 42.07073951374354
23.07217242711139 68.54395673678937 39.67804744041344
21.221348491884008 69.26245059978176 37.97065117851002
0.37252170101862747 97.40383818274931 46.98515264122833
0.7077606731040574 97.242388530336 44.41878526199902
32.2231186375195 65.5832653819574 57.20623836924499
30.9181666550265 66.54303104370837 59.003778673046625
28.40457374893059 67.76201598351196 58.52339994717758
28.185128127753245 69.47780461137486 56.30424565944337
40.289575284170844 83.92976421447048 41.87563606670819
40.72279013422019 83.01921401674802 43.97488499159153
40.493740361316384 80.49552264605889 44.99398863074056
40.27745283805034 78.33640255648366 43.311713053359725
39.13312631584146 66.6749703595975 29.111833790334426
41.395604511121874 66.59956500612707 27.788905748309087
41.788608586122656 66.07802934432593 25.498997719012994
40.271433960552145 66.57691547927097 23.38480290217098
78.93668734088948 95.39458979229425 41.80811572921534
79.87344377591349 95.73154717182834 39.577853817056265
8.257678027211659 41.13110560586606 35.84884694342989
7.689737840450544 41.65834404278319 33.56295692879198
9.289515238224944 41.406061135032715 31.42878716619776
11.027287825769115 40.173164657416436 31.50705050168246
49.75791483133099 86.80789751259174 4.392388946824351
49.21532628921269 88.53833327638056 6.081146830523207
47.18161670139849 90.52257579023474 5.836772653870287
45.40420436714636 90.82206732731811 4.128914636359906
16.305133371447884 16.571507843460388 42.530835260973845
15.274387722640542 18.210039545127568 42.32156870794051
41.2726622731992 61.09012430859532 5.74119273174781
40.53034034692147 58.68173046328427 5.089419623078765
39.908052824136085 58.02180019725693 2.52912896307827
39.55440443887955 59.70283987132009 1.2309995086771932
3.861405815990527 84.63166470197989 0.778951650406772
9.27606506715897 84.49716555228865 0.39216915465621727
33.30623432814804 47.609124814573214 73.65707937453801
34.26773332670886 49.90522107094373 74.61317680254838
32.749934501460395 52.22326128618455 75.60161618253164
30.719137073062274 52.47487361937134 76.17962818959957
49.399639720837705 24.91528438056443 33.08667236905509
50.253530259773505 26.59899499787422 31.702030822005398
49.7455431266353 28.737927378100952 30.770051368967504
48.03726935650883 30.482362159100724 30.97806772425839
50.81776189080667 76.88776778695139 7.818634829683865
51.74236014867906 78.89431240603871 9.16974279149626
53.43597050848798 78.89096338257053 11.350484334432041
53.20864778309567 77.76963710728946 13.179206414780802
26.775793453016696 91.22195970717425 8.910035428726928
26.077035930560328 93.15039276130923 9.555014175782343
26.442792445904587 94.92440168186722 7.141593484706781
26.399343819535826 93.98479525149588 4.958894026824424
78.93273302273153 79.04829968483081 32.05828075544116
78.62086559581932 78.79352488245924 34.5734109988824
80.16015420097665 78.59585944114738 36.546206063335475
82.63357745668006 79.07269788238544 36.76056652852583
11.995690905789866 89.61099125425284 7.205023391095886
10.542224357345036 88.31700902495197 6.643927440304656
10.047427237495755 85.9668935954989 5.331432141279663
11.539724944839357 84.79734388622674 4.062057527133162
27.12444367386679 20.647847574608917 15.446928714893518
27.793256028272822 19.801274036408003 17.5328788659533
27.173765746749016 17.751339582014186 19.07205509917554
25.248548149499932 16.494922951186844 19.249829240982166
72.4894700821079 44.08327850538692 62.63252135535679
74.1473861507328 42.65714921698849 62.7255219115256
74.54793763319148 40.862767321473655 60.4922413214424
72.97737857258595 40.527507259034124 58.68688888267233
50.58086375609007 78.69799941882134 73.62649709006644
49.03688193139842 80.24801213817143 73.97249745480573
49.22484358293221 82.81627081348373 75.0225293185381
51.184096936732516 84.04800371577589 75.63852367486352
53.000232997097825 87.82952065293408 72.81095188523004
51.87590001322204 87.3548604341322 74.96173601606277
51.176824295477154 89.55872551433511 75.93378332419992
52.92658732231441 91.27614785326874 77.66972879132904
61.144489460283324 73.70926314743708 24.231320191987322
59.51193126769647 75.78727013170985 23.983960420687076
59.317106002107664 77.83063031717019 25.64827525611639
60.2246649866694 78.39722394650937 27.73073560613283
33.00624650268543 38.20374245324372 49.019251791720826
31.623514099263126 36.45038852403644 49.074093666657696
32.31015036918216 33.832207463533244 49.06676303063038
34.16024355589158 32.7373897838291 48.470037877191686
20.748174528581515 89.18990952306173 42.99460016501285
20.580595419424302 91.85492369936497 43.12888646151336
21.253473604849404 93.57445894840559 44.737369492348186
22.368802106039848 93.35135192480237 46.9742977544254
55.30288697394464 48.24684031860727 70.66669987684804
56.38143679024216 46.45712430130295 69.55235471859868
55.87019739923179 44.01895638585891 69.15044012182311
53.95016968542892 42.45785289749185 70.06798933438823
60.15511705458294 32.29853518452876 88.22883155929667
61.55958643551122 33.6963157157064 89.56458728546245
61.69672100819923 34.14927318083384 92.17261394359737
59.96673283359931 34.58184270057887 93.59986025278572
23.504553351018835 93.719456754241 53.449443591593365
22.119509567450653 95.64732257500415 53.161981946282616
20.908905982150113 95.8184542554341 50.80793103594277
21.81168871744406 95.43158978934336 48.768626140021915
24.7104058006579 24.19018458538933 0.9257165309121297
25.415767918067413 22.178501629170153 1.4700161608133586
33.27461309330406 79.34881464057467 17.59389116769418
33.835502568058224 80.21581483782913 19.365057941956593
34.53214225995962 82.99405358714657 19.43630958452288
33.92221008355576 84.38363159488877 17.53920108115234
63.19925413733028 26.053860006025694 67.58680054153434
61.22449659573264 26.072136662908353 66.30566218195473
59.086266153301885 27.635750080348764 66.10535138131034
58.43332653678475 29.234604884459877 67.79626099708058
18.114474529423823 91.04866694952005 47.74126023046895
20.108130450715162 92.77615452827322 48.33917113383188
21.388799331626647 93.03094013102084 50.065879234578055
22.026436036301348 91.44275849502795 52.248181862574484
27.12186183042341 27.885742890258157 12.118983420165542
27.690073763596462 25.68074280611382 13.429991534494429
27.113396254763117 25.20852851712364 16.090388563209178
26.71571939580973 27.00741650806152 17.994557589247222
20.27318452953955 85.18938766676823 63.9527317640377
22.083042373771715 86.11088136177872 61.943199806119765
22.416031911814436 88.68200339694089 61.7957782835009
21.07094096563988 90.38096727206457 61.55956373263824
15.109217835683868 84.49540841451478 25.98528046448785
16.235255557081967 83.35985393406972 27.935398149686232
17.505896640024343 84.27263961152488 29.816952373108695
17.896500659566208 86.49048776895334 30.691434081624067
51.41537926593185 67.45288901179826 61.6645362143881
52.419093244933926 67.93299578928412 63.46607467405325
54.60134994026308 67.47343231776594 64.08388623142407
56.713191816663404 67.21437945696815 62.89897410153219
38.47355195003627 31.293332962993567 58.91463474652997
37.43103950268149 29.310039233376806 57.95667469587715
38.82988189609841 27.218263689177718 56.77132682463016
40.8115071564636 27.098575233005743 55.50557393456046
13.932063580230135 54.529501512616754 61.257440663333654
13.128889343163385 54.60471950616941 58.7730821500078
12.869508043412273 56.252979820570175 57.224511514865675
13.186654398696458 58.91518082288827 57.21420591117338
41.93205160188366 87.41320694016379 48.700506974498325
39.8997944220492 86.80265892902801 49.83813709355382
37.71154431402878 88.07528744482408 50.6760592051029
37.76488910292031 90.72709692450717 50.735261738978075
12.217150471137005 26.15873027406353 53.09687839212273
12.453964469872368 28.495138042382525 52.45819729204434
11.958237462833496 30.498894778311158 55.06824826341884
11.33150282466833 28.793737530920115 56.70067980896524
26.934525543177095 44.3986560422358 31.853906738012164
26.38423229650321 42.559428084157005 30.45465581735257
26.63002049825511 42.13465600097638 27.887386003549576
27.912322105915138 43.28876720920978 26.394868451998647
21.937903433656693 72.34907807143925 48.38102752181818
23.676588625868558 71.99791018317593 47.138988446190496
24.804720004864176 69.5476735133194 45.808226927102375
23.468250298012258 67.76770973695923 45.06350575635519
20.791499396810554 91.53305516197518 40.554776161293994
18.545588050686952 92.06677509995737 39.99572299547902
17.407577742988465 94.38931057460773 39.43788109005331
18.347973842051548 96.47089519142324 38.84177609866016
13.85101148990319 25.743934748565604 50.91942541702465
14.1214901793828 27.169018801440068 48.873995907898056
12.675785199366356 27.597437873829303 46.98571036104898
10.453200468670518 26.488183545162183 46.06686549648868
73.03780297243328 51.323017170584095 55.221452350295976
71.45163021139736 52.722090261128244 56.17020928759533
71.53226760829163 55.22648819458692 57.02079283882132
73.07548841379476 57.1477086958566 56.4865492778184
3.014248332588186 85.25481561428396 3.6732184729298756
5.359110878193294 84.44808044201356 3.7997506779174763
6.731504367264087 84.8158349838861 6.543029999739565
5.924236617390049 85.27085415759554 8.220324702783543
20.548858689411958 84.33020295686059 36.88093798405335
20.16429231406375 82.31757400199186 38.34934447111674
21.775597377567205 80.1850332514428 38.5758622336865
22.989302174822804 79.38524713338013 37.00731219052515
31.790091526332798 79.86833597135698 22.70687650791851
33.700425858324614 81.17812225080726 21.969023355492588
33.96527331485727 83.89861618037406 22.638767387273045
33.91955934795419 85.01641784448876 24.694340422809717
35.61480139674363 86.39580453293955 17.960268092831473
36.1400326437158 85.28269247915495 20.29423737584974
36.02459148785564 85.8239195923232 22.437793675467557
34.93324200960663 87.84104197862423 23.916996289088
19.488537708128618 82.85364904263382 28.64138969748407
18.33185924185183 82.08772531213492 26.605002476791363
18.880780067838074 82.40887686762902 24.026282369318047
20.90850579212589 82.30580087324664 22.750649119223677
30.965560115395093 14.611711762823653 38.101610319538
30.312929641750497 16.912623126551605 37.08143334990179
29.550909471450883 18.99772700076478 38.247146844900016
28.518632457169858 19.349507265255344 40.41702371396125
54.211031362405926 20.2791081895795 33.261890674769276
53.249644590782744 20.85564339453478 35.50367875826258
52.53251148735507 19.00313172507239 37.63161331822664
53.00345297145861 16.49257519646135 37.796344752040945
57.73187084642032 47.82891667610723 91.88189067857377
59.31915500732363 46.3237748567782 92.52312953695653
59.41641438386557 43.91107192302173 93.11100413996088
57.72938101694636 41.914470660377766 92.16475297498337
38.543365951010685 10.954129719114087 36.06247332492313
39.90695792109382 12.501348669839963 34.41671532028954
40.69366179692193 63.341512112417654 15.760368666548187
40.17863665424144 62.66586380989449 13.758499463257687
40.17609409093534 59.7466730731428 13.24623978166704
41.22727113459848 58.14651298688485 14.144787613917568
17.658702930113733 67.72756977560519 21.49062915821847
19.86630941039007 66.30576090612922 22.046997480387233
20.204446436651573 64.45193520168995 23.461255640751393
18.67765310817352 62.411261230306586 24.34249122042945
40.57962078026026 66.3559642542556 14.379835758777585
39.89414897634696 65.91440446980103 16.600814826121557
39.74269016011078 67.35833524520122 18.62001622103534
39.71506817555561 70.14616009143492 18.890781644257622
54.79738261084197 97.58942745007829 28.624325907761182
55.90345682486707 96.1056147250587 27.37335747551206
54.51504781631921 83.7998585296637 22.564499237369663
54.93197706595848 83.37466542440993 25.093741341714292
55.88474452660928 85.09652858983183 26.84354324222372
55.92037395168621 87.45461918132185 26.691743995568345
55.0133507124922 80.11359117875541 30.8822400915151
54.28509782416916 82.25885576640515 31.099890171493268
53.870452341059696 83.9402754853156 28.951386630796826
52.90903336012563 83.82597224306069 26.924526374016963
32.25565414099251 97.70323648182074 31.191064854416485
60.27295734006495 81.14649235131603 50.99052050914907
60.49715726673484 79.82858205867372 48.398007155859666
59.31199174547645 80.70383968398507 46.247389038678705
59.34011216468467 82.65065631891574 45.991110888433
33.96681626269036 33.85744245227471 70.32333234898054
34.34192753772087 34.965115339127514 68.62360469796762
35.36418644329876 34.123184583616045 66.07183798553399
35.490096342243795 31.738184668374135 65.2605617206439
37.40353578203352 94.64278649115057 28.60621241389822
37.32970772325647 92.0862117429198 29.163567419064844
36.27352122376151 90.52673506397682 27.80117867675415
34.53436808046709 90.36208691087768 26.184901460433434
37.59726784304037 78.5892713461473 47.06988558860474
39.95399311020715 77.69225406427151 47.643690784636085
41.35337854639719 75.92577597745819 46.60798762833787
40.88939099832062 74.27318281665704 44.69397521639087
51.368929083261236 97.10664994254013 21.49332213803009
52.6222708463226 97.80239717223253 23.386951740598562
54.39484395663887 96.0068052266424 25.124709561301394
53.6583992002536 93.80938195042422 25.84628232813341
21.753236093230182 80.59279164699899 59.359609564992425
23.53190760460351 81.2423752106551 58.596827229203235
24.560950951457777 83.91253090098687 58.94686493965633
22.858303904644945 85.99454491534009 59.43705493508711
55.40775896427046 72.53955771730794 38.26687469481832
56.943921543492316 74.15972229590176 39.87773217801035
57.73613724213423 76.60848079786449 39.52419024741643
56.99288281286914 78.41074965840811 38.00583634542375
57.81861364447656 26.29414811874702 75.04464125713427
