17.619623799257507 40.093314959812275 67.71147304122304
48.50924038765455 25.244881259694502 15.481756187500334
48.99129750920404 25.696902052057172 12.924578546943518
50.3937753603234 24.362512427572494 11.518932119862784
52.4381117769796 22.997248113042453 11.826974287553913
62.11973501490797 35.261875776470774 30.778462045831773
64.25118174016984 34.24167773292701 30.164820939240066
64.1905871591378 31.60964225267235 29.48033597880606
62.67685466616482 30.31692459114498 28.238573065911485
82.51441965960909 42.92867404812884 13.84251063859591
78.79561459121511 44.4515645098031 17.951365765916886
60.07644156796014 49.151566845756804 53.08791159735205
60.62524113852386 47.58264989281707 54.56964735805046
62.881191289903505 45.98701732375433 53.792733875034116
64.23354654942924 46.700529164358315 51.87789477278769
57.00079384373059 1.0044083248736022 52.304393353759075
56.61547535538832 0.9650295997463084 55.07843568071823
14.875073748484049 26.946059071919752 62.28501505436797
15.210940363022294 28.970105019855264 63.990955726726135
13.700971581359171 30.810930025737026 64.54917447472768
79.55851833218055 33.51145420735006 5.707050843353245
79.2771670557035 34.03732382819279 8.049119269213234
78.64835723939281 36.55687530466526 9.16491332347881
80.21721585214742 38.58324065036112 8.784371539661974
68.43030068229297 4.164474287865331 38.38995978404914
68.44242313872837 2.846523126990443 40.48690230929156
67.40292503971138 0.7170209448269822 41.25817646418573
63.97114735382102 23.079570238580878 0.5629391831494872
60.265462178368914 20.373001795421185 1.0302288332101273
60.55750348702608 20.55967177444342 3.2149564805222637
52.387921056907885 2.869478196615154 4.53105543933781
49.87553304177137 3.970365547064713 5.02087975684286
49.01028090288631 5.204144739497496 6.335800305437502
49.52512962225203 6.136052158751682 8.610907742499169
74.05409013375856 0.26212288201233735 6.159132916452536
73.48919154006308 2.883944966473546 6.901644595418798
72.67321197359192 3.7792216496030004 8.706148103337894
21.538155021419268 17.178883385388048 15.096679214239913
84.53469863459382 63.82908570200644 53.44397157764237
82.78621306013763 27.405872165820803 1.4218158349844974
84.72570158790133 25.64114811678689 1.4749640692419161
7.858638801259416 5.217030616207329 25.82567008723923
8.995415654152053 6.74044910256397 23.77748773817206
29.154610197461743 37.911096363121246 84.77813029326713
30.835526120228938 36.55489951657045 84.61918559392561
78.42547974511258 44.01899383425075 24.303207954055562
77.28035175468912 43.53688808032894 25.80802221577171
74.71285551320149 42.28981935915389 25.18979041773302
74.45437098495974 40.94613879392157 22.903612131537642
75.20764145462884 26.116788777976 17.55058384937108
75.67583745425455 25.461090783594422 15.141879676220833
76.44065746185758 27.27567046421347 13.360774448737514
76.80416818993156 29.432488705919166 13.369638562378405
67.96457302352135 27.360345258297375 23.4268050161861
67.1502512106996 25.200646080353795 22.651655372140162
68.16562066483469 22.954514038704403 22.664669067802713
70.85230897520694 22.082432499476145 22.743315576201958
63.00345984571092 49.40263120803367 43.89266295221047
63.454226308195615 47.401671206552905 43.56832556565218
64.29380664897378 46.31299453194416 42.06817258480239
63.0802114782365 45.33126041421053 39.500116145020094
62.571396399039244 42.48041342956282 39.19961651465722
64.99484808787844 42.29453439345714 38.536097262275106
66.21096083300019 41.63338802213524 36.33145027914251
65.21679637577145 41.91079340495114 33.955008568735465
80.22446594587578 33.06337625204085 51.98468936831008
80.95140432689466 31.759841622445364 49.910377101503045
83.15706685363655 30.715542076695918 49.09936209246439
83.8116556060833 29.292386839227518 50.351392306240434
70.38058773608878 12.040901013951876 17.149419093757484
68.42950278865632 10.69067935698998 18.319676110135585
68.14730004421058 8.258285151763191 19.166045923797
69.1605643092555 6.196689931502962 17.3742020627656
50.90682600332677 29.86858481704441 51.92294732177488
48.57409905269463 29.26663603277085 51.94087250129533
47.397193331123276 27.381634563018874 50.21952715844503
48.28990380643418 25.12593311074288 49.739359326834254
32.040148571635974 38.425111041747115 83.06087062873824
33.024501785242386 40.59434278521188 83.91096856160526
33.75697791021033 42.68266557544949 82.3395677295101
34.469999521192925 42.60995471591766 79.72736239879465
77.90160102372727 8.576042091387984 3.490769331013869
77.42481065726452 8.356815063945952 1.508194931140119
31.538157306993046 27.83465536632045 82.05746052224994
29.517269717442975 28.53778040376146 81.33264623508441
27.27532602331939 29.012468970828635 82.236779200406
27.147172489558454 30.201685974024635 84.27271623745942
85.14393014762759 41.44429191456607 13.638822236201337
84.20032551963696 40.87824391589185 11.484295703933473
83.33435052675817 38.66820819290399 10.549988065770895
83.2695655339188 36.48496274876824 11.178766300621483
37.643405219559035 27.233854874239356 34.06814883515453
37.65600450593947 25.62634893891949 32.317270196091776
37.9267886861012 25.582923043029822 30.012714790855494
38.94578461823355 27.58995776703528 28.19298953940903
84.74967924349191 55.03063749379966 54.12469338182272
83.98942041715343 53.22692331987006 53.32980568948892
41.798792739470635 25.507556503238668 26.948156434858678
40.410857040167535 24.855114355261033 28.747904667980524
40.918281392025605 24.315748123592968 31.268502796391118
42.80933627604288 24.405311979595343 32.75916999410597
66.58719761852774 18.38598212980856 22.83638762849489
67.07963751262649 17.98612144483117 20.313665338132555
69.06865527763607 18.846313870381717 18.943916499038902
71.558613485138 19.126733072972343 19.23454896089068
72.265278945258 25.032403459061065 21.123986618107494
71.39006938345636 22.782150914925523 20.12942454082815
72.26958601119118 21.615586954280204 17.946274031961444
73.93297501184435 21.291669754569817 16.814342875470803
59.68563246323172 11.611667149031568 19.637949149375995
61.371219987719314 9.856831731057893 19.633056167615887
63.54414862703171 9.431872081430715 18.144248267119806
65.03395079394545 11.470315136705798 17.198457059914894
67.1823591632868 19.75157339647887 49.507381882265186
68.64102119842828 19.4777022249222 51.35014731203374
69.14753457289775 21.286575808067617 53.72382329609431
69.07780674561113 23.37160203460973 53.59421839267595
49.298181253289826 24.98709643392619 9.250274187796034
50.52090318075433 23.780582763498245 7.4005300022893525
53.186451503959674 23.89562662325785 7.1140989095633245
54.635773654981875 25.972609345623713 7.162653021740021
77.72352480899116 52.46662858826807 60.4747616996255
77.3467564279322 50.55981791478674 62.552898463947294
77.09790410808807 50.91034807102391 64.9704604063423
77.3095619000089 52.866279697987885 66.4829735144972
40.03365454772066 30.32586844273834 67.49412574294576
38.423422749354316 30.665151514847526 69.43361479132341
37.19724755233895 28.40835200049484 70.90752374091142
36.9135479069389 26.35883387129579 70.26779452977995
81.60300382636447 21.90552642127845 3.1172435522328614
81.16105776685342 24.206762001528915 3.4452589402761835
81.70870348744693 25.77253058391006 5.65053253647036
81.40916831202881 25.0653376884656 8.179078488948496
72.98865417346816 43.85743243713207 66.80711299015977
73.36088856278607 45.94653665991445 66.82624399520651
73.0825129497208 47.84446732205567 64.77908713504324
72.64654300604451 47.74115063418813 62.70005081870507
72.828731414871 27.316446360302063 17.55180238684639
71.13472246456756 26.208626342212924 19.085884617777182
68.51623362612622 27.00494003341755 19.51537899850263
67.41167131685512 29.01448038992254 18.535886703677683
82.11842466804029 24.486154953912155 0.8266000312251871
53.09016152410578 2.0462476834713854 28.415693445577094
54.44403223439976 3.191669231374196 27.44429925565661
55.98181078378412 4.8878359081106355 27.876251633877985
56.853782491694965 5.712629697323657 29.97705946882436
41.599313348694004 0.47446674846591896 9.69159331074612
46.29215996287281 1.4370498178099012 10.204546772091707
81.14644329621545 36.3337940471488 13.23178249083882
82.03088532296218 34.318458734156295 12.641903461539739
81.01481190442763 32.31865591976941 11.299813793418194
78.81290900942658 32.08842524849832 9.93411157011423
48.81593466009137 1.906654316308442 8.694676921195201
48.533178731343156 1.575330899166583 6.327577751649182
82.00245577115176 16.869913648177437 36.002956691418866
81.00017835246959 15.30086374679699 34.863083151129295
78.68682852497408 14.643014284667561 34.53597308296179
76.5481095658183 15.291204854270855 35.72204755066593
15.37090102232363 3.644548203480541 20.86507575436463
14.607332159622777 5.682084619511412 19.83156828435117
15.643751743724456 7.969798461661784 19.30590235107034
16.830867652365438 9.003332623386704 21.128302614578626
84.77033896375276 48.096653458801825 46.17405329292448
83.46061611150196 52.98267216557896 48.98569879613075
15.60877857157901 0.7200675024363861 39.96733308551038
74.74204774050006 8.616151943393689 33.555093010080476
73.7557952898902 8.213950715215246 35.45986838768387
74.23063811304816 6.649022999831215 37.58485424310215
74.91849742205152 4.656503292873779 37.82889763855129
76.63097832209647 48.87008509402885 55.70905378964799
79.22637110261259 49.513992562874556 56.17453683018314
80.61170250516615 50.85802423439291 54.95935071892656
81.32386180220196 51.106774697311884 52.91548987653151
77.71489067896916 1.2527433074117496 67.94673370589899
79.63589929744829 1.0788904845251064 62.55473706153477
61.629913854622515 3.430621730171691 23.062536450462435
59.921143984125116 2.2216622962033723 24.611505919996205
57.91285880633271 3.3690129560251165 26.033153837229783
57.19082824727116 5.823346048670008 25.573750578499375
52.67350244727427 22.095948606873193 4.801303842749262
54.67547959641922 23.50336443347687 3.9936714453571622
84.79028986275124 37.395209291564804 7.393811668512032
82.72735728377626 36.4296825680759 8.392081858342696
82.11896882321146 34.16188113053005 9.149469902101925
83.00244147158408 31.87583681545317 8.479893660057629
73.54394170209342 25.78861591518881 58.523211792943634
71.95208108494533 27.686647033149875 59.024048557822915
72.43169992444541 30.075652637877322 60.2794517039282
74.21368518707821 30.832733680142535 61.465812136581455
83.67960977804341 29.09351134926771 44.091684062275164
82.76054305697753 29.882038668981217 46.094869536444094
84.05362297671465 32.25647989431943 46.94790212215884
68.5985761292304 15.068011528798351 19.93829377984717
66.748385518809 14.797199328214717 21.062843123033637
66.62395642534742 12.234880477505815 20.0225200330197
67.23670136774842 10.357203090514204 20.856778926851984
58.792236560739234 24.90361891759066 36.83602149588729
57.72103195149613 25.134181962775894 38.83760087277787
56.01583204475596 23.133439915108067 40.297093343504116
55.06721899385831 21.348658988576915 39.84075666886309
62.708547841511376 25.275557590308633 27.37380208249323
64.049763059865 27.71312485210131 27.914234106640205
64.29653916188248 28.752923970084332 30.181581741760176
63.71460144539583 27.933959195632756 32.595022436375686
19.544600830214762 25.58473914432962 56.75000910399691
19.611812966439192 23.8562137500388 54.93531021243886
20.011822210894447 24.404050754538368 52.12694320953408
20.27892159099881 26.64205598679405 50.9736151023261
55.0271205724952 15.53251369023918 39.18163492690617
53.15584603734456 16.736571547353392 38.542556204670014
51.38940878558856 18.061292117710924 40.06600177408365
52.07248515602374 19.16543916272113 41.687121634469534
64.0174103130346 21.511705617942912 18.474133082792108
63.79340385612848 21.185416192908214 20.855130396048004
63.37101543359829 18.355136691942292 21.96336704412937
63.813334900478644 16.618435993868 20.35181339173037
29.748897721932337 23.76171493026846 71.06023873747007
31.945707896970596 23.984943341020223 69.86278977957404
33.28614918854925 26.248213282238726 68.97728491758845
32.42711851394031 28.30575389177847 68.70693695809582
75.3122882060941 22.48532800741379 12.088281702993703
74.15663897788231 22.567614430723417 14.269932476950975
71.91181891640281 21.681677536870854 15.090035180426693
70.44836824134919 19.823120738647084 14.19824557113712
14.296056836649598 8.003824270097576 49.28829098721322
16.31814683510825 7.482804810454955 48.01947619259576
16.890828008539703 5.547566671358277 46.65041248659026
17.879094650136537 3.588189673369558 43.72640039029001
19.307184564122153 4.0256215645567766 42.188238880233
20.00714826870979 2.8194368338930755 40.03063487772394
18.318390602399845 0.9310692213135117 39.33154055302
81.5601932771812 14.442483585787915 1.7311494993410959
81.84270782140933 16.941976073420218 2.161204229827231
82.95032288505976 18.776798037511778 0.5693809197060937
81.96588933150215 28.52520079783672 35.90661439178777
83.46350208508254 27.267918572233977 37.52440888669233
85.17911381680152 28.659831935296246 39.497854116507526
84.95030335449344 31.0021722966916 39.95862775588579
31.670650585171245 26.711875656315787 36.44761021600931
31.052050174165892 27.42747789377416 38.61622065215914
29.877016525029443 29.89202105440645 39.41156564766969
30.634484439433948 31.442545897702352 38.391400545411216
62.380455206452496 9.850443232863652 22.096257261320087
63.999681819994436 10.220104384730467 21.392079769500185
65.25623701221099 8.719151265431956 19.925471609099887
65.2694302428158 6.513210539574457 19.6882192314083
84.10876109127008 32.289139817664314 66.52376903449458
27.40222713181919 6.8085415703170105 72.68670195128337
27.722585842526506 7.2630832817518165 70.73784476806819
27.506310285467457 5.589386867119837 69.10651076994218
28.27749749931922 3.245553928811412 68.6491947123917
83.55881623753531 25.461644112272978 39.81682194340222
81.18969591788988 26.276596518540693 40.85399875601038
81.82432260116316 27.874715382647484 42.762155444476804
67.54554249232375 3.743047993345812 17.007785044259286
65.11580814790331 2.8567900468534355 16.825790593429122
63.45931023007083 2.543469799478521 18.812128934928488
63.838412086205345 2.115454023085139 21.057780497412086
34.06381019655536 7.266843239100756 90.72161861098499
35.04318968236575 9.408955317626466 92.00258156787321
37.245670818581075 10.735524617773224 91.84708192939095
39.31289807535563 10.027721061555726 90.81407553343497
47.66300003392638 31.421907379843823 19.687935281283536
46.95641232550627 29.391874396954833 19.524786529601904
48.322404501562175 27.137690075492866 19.839137841207013
45.7340717026088 29.140600298484326 21.97545397011367
43.80877894776787 27.80690793375206 20.449316565786262
44.31190586092952 25.606163455537654 19.330673440939364
45.66940454416581 23.430302718321265 20.378728990399274
37.19894577670872 29.27078525766331 56.77293720453966
37.83158524665388 27.039649252791282 58.47858197160689
36.69706761286388 25.950943861747117 59.83801323386156
34.11417894239382 26.68979939786842 60.87323006231629
57.676279286124846 32.34127471291119 77.49898655930578
56.79857267030991 32.75406301885392 75.65910262596927
57.20724846602112 31.20411702680448 73.05560544057735
58.78789138193069 30.729356157963977 72.01676463234391
65.45710838624478 9.060770003134545 50.77363821854222
63.6998066133475 7.7730046553504675 51.74647184501201
62.29349466066436 8.690255671896596 53.34547758512954
61.70429962219769 11.517455727493862 53.68071430200848
30.52826021050675 5.83818254833128 94.92733230206784
30.454381467017313 7.189657123893729 92.90998941056108
30.698631520470773 9.539874402383342 92.50951946139236
31.840750654189293 11.555377618338158 93.58847776151316
81.7345567679776 52.79195009366118 59.638759714567776
79.97802368050274 51.60328247453197 58.684723345587784
79.01072131271513 49.34044187810239 58.942374261324986
79.46535322962612 47.42272953742642 60.198781139405284
64.66723488355235 11.115183824653121 85.45247758666844
63.36861064073211 10.330539326519602 87.239944076292
62.60131771364118 7.9089201434140355 87.93641631789743
63.13784036624279 5.59339733507811 86.80358313377431
45.06682801832103 26.957899135403213 89.33550220450645
43.99323268407129 26.295112640770444 87.38129570243856
49.41854961608881 9.480043208678618 69.66854002349119
52.04806711491999 9.656954669122582 69.56018643942863
53.747738420602886 8.754989369334467 68.13418190449727
53.60874818340705 7.152290955505493 66.1662225486114
60.61777017472115 26.393692733527867 66.706227196625
59.23262603487204 27.903979906454794 67.54934131608145
58.51803443615109 28.746856698431234 70.05308778586262
58.96880118890696 28.024147668039536 72.13045841863712
36.404916632390716 16.955205750757177 95.3189159809385
38.95808646427462 16.188415657888097 94.74775747646474
84.57500484716248 64.58748185615971 49.47399937010804
83.85181477441277 59.268056694909795 51.93766527904405
29.978811670129314 11.304514007777296 34.90619453926274
32.00104590446994 11.764858482012052 33.10300003784976
33.24045145684476 13.71244052623486 32.70519274882539
33.8637028100882 15.94027496727543 34.28358117590849
84.94848955647086 4.609604361229545 57.1612420839858
83.29768196214742 4.979197716315163 58.37808561512475
81.89902779292329 2.581549905469522 59.40199109094328
82.68067299481197 0.48712638395383756 59.79173901757245
45.10370452970752 0.6973741452176488 80.48776679461739
34.98761961848979 25.595590142575592 33.052256598578445
35.0045910744705 23.93004809336026 31.9304401922775
33.338252429888115 22.056751284523713 31.760034827156762
30.952211291420298 21.762669721797643 32.70473752366717
65.13584977575005 44.557557172426534 47.62165179929397
66.00614329624659 45.08099737874777 45.511265401784996
65.88148595755096 47.55385357287207 44.222168006291206
66.26933698110616 49.657590499261666 45.1294161318875
75.2926617741458 1.7440335944084109 1.4531361655055282
76.560228778029 3.205184635431661 0.5412657674165018
76.18602406385213 6.034766942455981 0.3865144326301796
74.86913549166256 6.5616791379377615 2.1539693569967557
72.90640661789084 0.869378073134079 71.78595073911859
72.59787280229122 1.5881728630344734 69.34300031837398
73.61834314817183 0.581262406875297 67.28683824414395
83.1014085663653 0.8431995791949636 95.26156887148882
85.16605369335716 1.251467683055622 96.46088959291326
70.46238820054573 36.52718386064586 61.88254225650798
72.4581092062868 34.83967935057974 62.22036658993142
73.84503579405208 33.48776299628077 60.74953098600342
73.43329558140591 32.896165695665005 58.35994030856122
52.419424085084955 0.4782665307768697 3.232115725534277
50.108197169628305 0.1037343644815938 3.365639972684913
83.79932190273325 1.1801361096237761 91.10561768309975
81.72756703483287 0.9932060289300855 92.61428547440676
74.72327783855542 15.586592265372003 78.08550866211102
75.19675779724538 18.207160197946695 77.49392073660769
77.33443343508765 18.958436697394472 76.15319610029667
78.86455007941312 17.257010446526 75.61356574059984
12.792531985324073 15.161879110474528 51.347390411653734
78.88063376628378 16.700126832141663 69.60215736838538
78.15479863787898 15.805247849613277 71.92219091756371
76.99274291367631 16.77843121644329 73.73501697608089
75.45439371729573 19.04185791508387 73.9178698917565
85.2083061215599 23.03624337958903 70.85976426314585
83.70204126896355 21.05088422946345 70.05969912347155
35.12668371158123 9.817791760229634 57.52094055543093
36.331206955728014 11.146717042107957 56.25994972727869
38.06409129748611 13.418793388278242 56.746806534317685
38.73172928347397 14.342391635914872 58.52849359477118
20.814715904374058 30.50648982854236 85.01828843470297
23.280320964918346 30.50066873718587 85.24162675231071
25.06682788079295 28.61938031315308 84.94085714455646
24.762384561406126 26.71047454253791 82.8683410166055
72.79600838204213 15.669819295546617 83.15617348366456
72.71081865715428 18.031298965341584 81.78411950288509
72.0680550701766 18.57794604957352 79.56618280833905
71.76648365058755 17.336523122338942 77.58174036228952
34.76637235631715 15.349613996855577 93.50831641969906
35.64891525847856 13.767034698294845 92.0716755867963
37.20842388338596 13.823698221644536 90.25466651422198
38.031599198962084 15.707990745758803 88.8724230302891
74.13924276549558 26.50928261586039 84.71904762295843
72.14150006281666 24.306741960205116 85.06921807455636
70.64916003426671 24.764460518526956 87.43280203647839
61.870331127571035 0.23101660392845047 54.64161506766785
59.990680159311246 1.4165859593951253 55.441780241927695
58.55159160986607 0.8556886300952794 57.69694169043588
18.0103969330024 13.88194288673904 49.53042585589904
17.309284015610473 11.755173602120157 48.80679833898241
15.294380600781928 10.8226568141087 50.14641702616003
14.75626255781349 11.146742149517213 52.55847983302386
33.185323175362136 16.20185847278235 95.45840514977891
78.59326873346497 21.213613445381537 76.35542813401857
76.7195449728669 21.505957640141563 77.3541057353802
75.44163919788777 23.542539942956243 78.08526951895324
75.21349962858064 26.092657862480518 77.26910990542316
69.36385371796126 1.2344331275967793 66.73715472931828
69.76066373380631 1.113090830792708 69.11586585376858
69.75387384719272 2.88818962338458 71.08709679232936
69.81094645522077 5.536184110924825 70.75118824687168
61.85290798046346 1.7138398811693192 16.747869482081608
63.25263648132792 0.6656476396324834 15.64309608786118
63.84967649950524 1.0401937774899421 12.798626556727422
63.10068739697886 3.0685743752061856 11.816264774555233
46.79449294523041 14.39372654204713 73.76134034967595
48.46397907817421 12.607923641631409 73.4551662584473
49.95380377338688 11.839028136633482 71.08541539528936
50.50718716159621 13.725413684372253 69.24923206882315
73.30765962681926 21.856704859056432 83.41282969677509
73.20045590330737 20.533458318663964 81.43288263560373
75.08665541199197 19.889827363693374 79.73121567224683
77.57430223808636 20.255287043393803 79.78119679230917
84.471870465609 40.31871288326093 46.95328166836269
85.23747609847648 40.44575967086486 41.274106459515714
11.501356927732509 6.00442151625133 23.068087385566226
12.477562805537662 4.995166326117984 21.49800428713939
13.265615917284913 2.2828478643843266 21.009023848997586
12.331721359740706 0.261940045744083 22.255559625038234
82.20018183605477 31.90420982527017 40.88347638065258
84.09944526843135 32.348355021365954 42.79957030509071
85.2490566389738 34.42634378011593 43.36645825865208
85.10892651920138 36.80045167828191 42.820083753608706
83.32686762335598 7.3267602878894476 88.78954561317659
82.7027323774346 7.2002193713066935 91.50225908533679
83.18002834605707 9.722872697416587 93.11651519936044
84.69360322263084 10.820657440251825 92.23991232828615
49.37867521835264 52.29756995098874 62.477902151327015
50.352698943651845 50.314945593828206 62.90189837814667
49.2850279010439 48.59419002846394 64.96427788451965
47.99675778969828 48.9589967749326 66.37819967193421
8.779231746922147 4.091114848307779 28.965379048578576
85.07992391294279 24.874096121394217 4.0041844559570015
84.12214728231487 26.77901604582341 5.058755307036968
85.0249351811384 29.078190494995507 5.983355465071876
27.53681840265044 25.069569499881563 44.83344968355217
28.62992668296693 27.46024066012631 43.84931316286293
28.84479327012501 28.10905644480671 41.343911655713114
28.77870488930887 26.208575594078287 39.40276721577749
79.64942268045894 12.895805918543216 70.23604812793694
77.66302110965601 13.376102113596017 70.89817101417219
75.421306254126 12.039641372289891 70.35019030744607
75.45884326524069 10.113526834759867 68.48832206346258
84.2445782891569 17.752285508303206 55.587030337147034
73.4202731663774 29.45417525256489 82.73231864273211
65.48892988385262 17.269777244615867 18.163452315776592
65.97122581119443 14.594604233833492 18.56006790492883
67.46335099038176 13.132319336379917 17.263495457546796
69.3440377580502 14.055610121153148 15.742660763481574
46.047012718969064 21.33188073411551 89.55179870236836
46.927657608534275 23.22627848452471 88.71239028901624
47.32911640123011 25.686560765750833 90.18020587530165
66.01873590124072 16.508592382864116 59.404626030415976
63.68503326367576 16.089706296444444 59.50056394519326
62.086618859317994 14.850939910122172 61.51704654821102
62.7613421002515 13.512827332308067 63.52969924253572
64.76319109721295 3.177290236414934 9.453176090324275
66.62103316089315 1.5758500540863158 10.194748671690013
67.0573879062364 24.875780829492683 18.384178363392333
65.58696438566346 23.349650607247412 19.717333884790214
63.34727916505469 24.150361164901916 21.550441090855067
63.12980060811876 26.504912265687025 21.99570013935056
83.54688053038873 38.05832726522064 75.75193699717241
84.51304624500756 36.36517079273912 74.42277453568286
21.99308251843425 33.36181322736399 48.14569195810443
23.349929813840898 31.381039793905064 47.16120305397728
22.637296038424548 28.614363680396025 47.47687867196248
20.948838204620024 27.70302656380307 48.38484412338502
58.86116949115814 8.710426631238436 19.325088013928642
59.71736891773275 8.646047913794218 21.854533976043797
58.935457011118466 9.602413305201928 23.969422364820094
56.89414622408691 10.238499884033976 24.698537072737768
42.07166607063346 0.8390246734315967 78.67276461609961
40.73359866709427 2.5435981652993553 79.72102607612918
79.76674366384269 13.673956495471655 3.9708324706623146
77.9893474290934 13.391766506009452 2.021069213625342
76.7903268310278 11.670700349023875 1.4029417659090524
75.47929316554207 9.68899084211323 2.902098824472751
38.32444403381215 20.50730785809771 30.01709214046542
36.54486861205506 20.50114400234454 31.60529976583206
36.48926588286396 22.295931446350526 33.665134308235224
38.49132544597162 23.955819599647793 34.11250189962425
72.5317585084192 3.3111080548880283 35.87078774359819
71.0244734577415 3.478294978572174 37.437835964980415
71.12559948199092 1.8566122422184659 39.58659835519094
85.19405809304928 2.0021892141233795 51.07177725042963
83.84700131382283 0.08563799238157203 52.003392313949035
79.91335716740808 20.466605058830247 73.97321088991433
81.29550288688802 18.222716977825524 72.93934859206324
83.94736613698976 17.7937459585282 72.8025982626033
55.175505214940294 36.17246694206464 53.40442760044646
56.52245229287176 34.957317055802214 52.03165556148468
55.792840580660325 32.35935401984913 50.69450656055647
53.69574326456161 31.3215093935787 51.24626969808705
70.53333062568397 51.88422791656842 70.05670314867601
71.4458979026379 50.731956987176396 68.48455632779493
70.70752400799407 48.72043571271437 66.88509247213233
68.41170826340506 47.649713943259606 66.51006682536368
76.15663494164734 10.589195510895607 31.650710151156915
77.54948514311101 12.24592403810327 31.527203798012998
77.01254645504197 14.84279727830011 32.510054574642005
74.52490397693612 15.303543589564148 33.793543173790695
71.78045597605416 17.42104905422897 52.78035929056455
71.68400138388411 19.504796815008433 51.83239714754226
71.88402126218499 21.94225411063906 52.76375031530345
73.33526277412649 22.773756940831934 54.52742931297033
74.63701137646451 50.10747207245379 68.76298602955279
76.76758447417782 49.67267114849474 67.44958817317242
79.22310255793688 50.021294874523704 68.07516303838251
43.0934522223517 1.503372878912952 47.179743490421785
43.43875146611712 0.6767775402472178 45.168560554422825
47.35274296346507 44.98894189694592 65.02743746437145
47.74425677249289 42.92425278162561 66.52407711987705
45.705798021974786 42.003549160447115 68.54513784531338
43.729929343047196 42.93689312393859 68.996120709133
84.74150143080611 2.868218119618609 88.51973753498207
82.49871288665152 2.6884400922033636 88.78781318761315
62.122650933501596 29.45203597369022 5.429421504004139
60.994476708200665 27.884822669869738 4.189515010601956
62.26112187659145 25.48237673447434 3.1181110705053996
64.3851081947211 25.4735944207407 2.0538118723737058
66.05415274358074 41.65975069275016 47.40514524163108
66.33824700607119 42.40803051624063 44.92480376462052
68.71095879941602 42.710661535273324 43.6617897730326
71.05144424767616 42.18549561050345 44.32142706353969
52.2302822522562 44.83801447779492 67.97082600946516
49.77301259276932 44.90926801256159 67.2202909170068
47.968012792472905 46.54052912641714 68.13175026626428
47.96525256444843 47.96649539330782 70.24737288752445
85.11897708262718 60.87439820939474 54.85010076679137
84.41880683980342 58.451961727416574 54.34029026286343
72.09188862056905 46.613965402649555 30.15287942280687
71.21416965575284 44.39010030077867 30.657809753365942
72.6155272795508 43.10975984504628 32.497953828267605
74.73493570471068 43.90999425097496 33.4542277622226
20.9323839324921 17.782769758058958 76.36838702314516
23.26669639842737 18.565825861557332 76.99262742670813
24.14162329202541 20.672170066379906 77.8727389032575
23.369630339787097 22.727873029443742 78.54776037445704
47.987347528396725 21.97873853742718 15.978862217417683
45.32712535575377 22.550301668189917 15.95182367882636
43.593508702254 21.298944683944992 17.604381575870214
43.75148353629925 19.552776697002255 19.078888638013254
16.2469131601669 38.2450835644059 62.55198149536525
18.40939549352814 38.93592446229971 63.44136302032803
19.804745092959283 40.87878854402674 62.709675424444214
20.24751557322379 41.88688111503254 60.66381658568186
60.594153061880775 44.28630078947946 55.77340958076314
59.51439126453311 42.80764602579982 53.77754248353412
60.6510310263644 42.77719157513288 51.394416670313355
62.386667231374346 43.42728134484621 50.46933786484644
53.783938265532214 23.753365091667977 34.66313939869096
55.907357950159415 23.755038142624954 34.86459522472787
57.954176562687344 25.19851545123104 34.257265787841085
58.173227175377164 27.02305978245809 32.58249486508093
40.97862362001474 28.415362247336805 19.696224558351883
80.73788897679687 35.18734132013609 49.82849696131214
82.51060849063275 34.02527526433065 48.579756723155654
83.5091949679572 34.65395191296036 46.04674239787233
83.23282207001425 36.98718291725814 44.83698114439923
67.7690107603808 49.11574974269521 38.33974988492172
66.25319074793329 48.969965955512365 40.53527998348091
66.35944206527165 50.45724022298514 42.6183744618282
67.64326699198284 52.36858212594166 42.47609742678731
45.91647867505493 6.143030263157931 13.643844127901758
44.23111495731758 6.433184276063453 11.544815552735525
42.36102872498684 4.937565258726816 10.786175965877918
41.636162738394894 2.476787551639323 11.482543665467654
84.86803326278996 65.01693814123361 59.97678749252508
84.79392355312385 64.55652866924787 57.183376810740505
83.79057599577618 62.97896379102673 55.89986745913328
13.20557535255055 1.3677711291425514 18.27100281088595
16.01657741054131 1.7961512623628686 19.06176766680388
70.91358619084718 43.1715716844457 34.633367460044525
70.09766712234853 41.41464131017666 33.30601896396387
68.7494763606073 39.107915787212725 34.11994534433128
67.41056424881796 39.221643238428435 36.01438810050666
43.23459481392061 11.994132644175092 55.247249813522224
41.676619826464766 13.867285164914232 54.99801755817844
40.88894984245162 15.51253913854494 56.64345410792209
42.08228045932864 16.857465701269795 58.289886688234816
17.389278319853148 26.323309057677502 63.45415916625972
18.172075011794533 28.692411411564162 64.08681744845681
19.05692826989007 30.64287856558468 62.22911469656116
18.660744588066258 29.38160672076271 59.73312746973269
34.245031011118506 22.728325494592223 28.994090923976106
36.49355856615131 23.09797682145738 29.748671789152848
38.845444841543355 22.609105061582085 28.551549879568483
39.20145264032205 22.657242523207632 26.201629137703645
48.7959328791943 33.11398069592269 21.846059208451607
53.79639354157542 41.07863914505009 49.38073068880502
55.654539709255886 42.188547183737356 50.68658807513511
57.83267225527244 43.31812328916292 50.07332131765027
58.73893143554463 43.95404809931969 47.64503670556464
26.82106061010296 8.590466315162457 29.266758244069397
26.95415364121882 10.787353290156414 30.50637047298742
26.63048271246213 11.029363757431508 32.974715031894654
24.914470151487677 10.188548139938058 34.564737343451064
44.30980329329118 3.6414776597430447 48.68487349957988
42.42281140015793 5.305997811579188 48.06339736440007
40.23374422539657 5.948293884617199 49.319858415263475
39.53541944050363 5.059708544287209 51.76988948654489
62.325326554327326 42.165795944978825 46.11447919248721
61.11691291699531 42.666454194491244 48.19951842015182
59.73288216967718 40.88786907826132 49.813942018087516
59.21486872721317 38.70744512914698 49.11229398251901
73.07665493035653 31.44373098307968 52.86907643939623
72.87675447347023 29.77842270713845 54.274379912425395
72.39191611865279 30.029068744377483 56.65607079609282
71.26689802044902 31.710549120627263 57.70932326464809
73.82599982259615 16.480220723614607 50.64472055661717
72.55138679596156 17.71212134361195 48.5030218051775
73.05312488165927 16.962907368425 46.29107503459331
73.88818819840554 14.974388666137573 45.145690553219296
74.59640025199351 37.33325434431609 65.77052886251407
72.19411312821212 37.538331076828 66.22395912250914
70.23135298169026 39.14856790846534 64.99501202043984
70.57878199916631 41.09847146465462 64.27652642667412
22.907628560820392 39.88862891084904 62.95147499007612
22.65145756321258 42.1974819397078 63.37814525986576
21.05493040652436 42.881895240664704 65.54881716889959
20.160980528634948 41.46084440275471 67.18501435897704
33.5323239221878 5.4205262707451585 56.22543842950842
35.7037681326096 6.683537238527105 56.58532178852074
37.86296679166981 6.173365652275527 56.00226612132859
39.043073675387475 4.420788568535337 54.63879853730523
67.25856177912034 46.973746029579885 42.060762596731756
66.59624443621297 44.85994832329056 40.70560720313206
67.76299648111215 43.11368218104945 39.6398995513403
69.41183584531646 43.29902050335637 38.72136562633722
66.12212430399502 7.261869614191966 53.54163130181717
63.93796782117098 7.137068883402255 54.782339120530146
63.020830253102986 8.203452009663875 56.743591267634784
64.22770431623177 9.637756113890294 58.539104439958955
74.22903509123176 37.39805381952476 68.8459094487228
72.37377110364343 39.21031214323793 69.42101629357734
72.74214869847337 41.90585938783866 69.5427544040219
74.67926485890246 43.31084187640145 68.65649905851117
21.51234407441693 29.289384660858307 88.09901244932574
82.45733752078323 21.711939400042997 39.124695137443396
83.42529862749707 22.794396653766213 36.59802575798755
85.33714320463537 24.43695891539308 36.53272558405406
78.22107299368754 35.118770897252546 48.44305285254515
78.0632716266041 32.95720889093915 50.03761953922466
76.26014413645832 31.39809111448843 49.96336996487022
73.80759561533169 31.78546442397657 49.95788576915277
51.507820923493256 29.519164724959133 76.39997080561767
52.28436392568063 29.903689898894587 73.93058284532543
54.28849418198 29.504702505607487 72.93977705433267
56.58502775161664 28.43186692616661 73.68948976805345
85.1733187135345 9.946410117015567 83.87564161372846
76.11784916487154 46.07265093435528 24.356798635641564
75.15548580915603 45.10813472101669 26.355825205471955
75.1168137991606 45.41994171901449 28.750506934445237
76.80092329468515 31.304838469285915 52.551580710005744
75.63125455326804 29.872774076055222 53.8421299011805
75.35566011982475 29.77176973024413 56.6658430552209
75.8334969484777 31.53279591163938 58.281902374109535
27.603158615490656 10.68694777914657 73.82956967835949
26.853252271065443 13.2438132239132 74.09652630111063
27.83732439117088 15.1711579058919 72.77076354260669
28.688064406137087 14.819290459500314 70.61064104923766
82.04298297713858 18.84324836597976 29.461949470918942
83.63806654398836 20.12714792159347 31.064836609875936
84.9682551327583 7.159368207165371 17.218244609733183
13.68932262624742 11.441155866522772 48.03008865606146
15.474839806685425 13.075106808484387 47.314058647129364
16.502566754903 13.630487568389409 45.113754878238005
16.25515466356654 12.830311212414239 42.99013838145178
71.83229487737121 31.20874463552119 62.9203407672899
71.57769156895546 33.03852118891007 64.08937330134555
73.42664991288939 34.67949700364363 65.43526704465533
75.18864488967704 33.73345730633502 66.94261613059442
67.75734241796268 17.095140602923163 52.025385690122924
65.83991747289011 17.129429338919056 53.53052486621418
63.33820256961191 17.78401653062176 52.68895651733569
62.131572931293775 17.470766202215888 50.593166505269636
64.58638184733248 29.081765111203392 34.99693535843989
64.5247794209251 30.645439446514786 32.96785295704684
66.39035465498056 31.81363580054203 31.747313395051048
68.43930690811862 32.39282584069345 32.08110663367008
56.97869248157205 41.777962269666 56.1212636751359
56.00482706447597 41.61420162110597 54.32774971553792
56.064284826471564 39.59827977410637 52.04516213892531
57.35504956905888 37.72987506537904 51.8037587026836
16.877901849887184 29.72156814594331 67.53999384006654
17.270359598080567 31.9095660615894 66.51717471626996
19.188372445865916 32.89171333946663 64.87079194560542
21.15743823280964 31.77753575814665 64.01224196840806
83.87135622239003 24.216628219295632 31.58235113915136
84.66096024172276 29.165453992169773 33.39356695904137
26.024642226489036 29.901134503800993 48.15276579344933
27.37623404537489 30.101647829546202 46.154692043246364
27.697783465318942 32.33641138461733 44.742730254364965
27.72829742783543 34.752756880952006 45.76867986036423
78.81797685306923 65.00882445315432 61.27723713154944
64.97917350690122 45.72270270533212 58.919790822869174
62.987045364589136 46.01114136196597 57.208289784356836
61.12171068524797 47.418818164366904 57.386227697963484
60.53979211461317 49.341717631007214 59.08442958893772
66.50845631730753 52.461869174701 44.827637722371904
78.16409497388646 15.78431279767644 3.6806703661631794
79.01540204832584 16.322842008805438 1.7106438371590857
79.76197299618674 18.89966835641419 0.6284252126679094
79.7301841137568 20.845074639951036 1.5211967707176053
82.80354259682258 13.081391150553541 56.4896299488625
84.42859030737506 12.805185980841802 54.71917962955661
84.1177734516204 10.758637707628166 53.146295700732296
82.19474781411753 9.792855452086988 52.315034750714005
59.39868978579852 46.8779117671332 61.145325363302135
56.713002613285994 46.0911860080704 62.18219447365397
55.05025343606702 47.905878858728585 62.361638239025446
55.35595132033458 50.59663898523767 62.76035069244956
13.909785820767587 11.832889653104454 23.3271435683064
14.359927349699324 11.08789733916401 21.23311167708003
13.004071888986122 9.304835214407033 19.901443060378856
11.487457214875409 7.51844000285199 20.69617318276739
70.73787835374914 24.931557576124405 51.72433041192181
71.60992428763944 26.87301270704743 52.87959670827642
73.15308638737034 28.65899075075025 51.68219033119612
74.01115588680052 29.104055129115324 49.662616783751375
69.2266973909188 18.749631414467228 48.3151562477291
71.25253970198217 19.643753824048233 47.27964314809726
72.16145284746757 20.13916128561096 44.86557109288711
71.75150777170886 18.872631253306807 42.990972887437465
59.89079875989804 27.36071701937785 38.65675340903406
59.9154332274125 28.996600982533945 36.89749817762904
60.42679302837369 28.61673602969123 34.20512299625551
61.07161165229558 26.661272044108483 33.03282198700589
14.90159826373799 14.794837355693382 53.19090772346268
14.99726961821836 17.391859188007228 53.09094457743536
15.078035895863781 18.87992271483446 54.938991354059596
53.33189305379357 28.901009049894107 49.274625231563874
53.099164572270475 30.436302915652384 47.676768694520604
54.57156572849181 31.80666383511867 46.37710916646758
56.92960951152453 31.59300828435968 45.46963743447903
53.65220073983428 28.77600898412476 67.51402148630115
55.938319712384555 27.756529750748182 68.09332649339242
56.68499768630358 25.953260583102427 70.13469581971776
55.98003924711133 25.90870457277094 72.25505729183158
20.277368169196198 23.758035026492546 58.850200896803585
18.230000668428612 23.42721086877424 57.254299755565924
17.112050467888213 21.226386685690652 56.44108541310243
17.855867594851844 19.12023501073317 56.22376891699361
51.08542059898678 57.555221544866875 63.8007489871219
50.320590861912265 55.22843274890372 63.941698189938286
48.051726070649856 54.16705638810325 64.49565461150941
55.90906858317354 19.15991823331114 6.522392264025456
55.71606457774097 21.330583171986852 5.485172534871604
56.851812101072504 22.24029024849907 2.8826552442226556
57.96208841379873 21.328187652441986 1.6662974808677273
51.90033004995162 47.95290465243572 67.59666982512118
50.92617198602525 50.00948695918105 66.80976540694657
51.77958976073143 52.09173786784663 65.97443165019679
54.09874737381671 53.3241263473706 65.85102277935879
84.8328729727245 16.86748916584616 58.154851716350485
73.56797810135326 11.245845561548299 34.817772677763664
73.58129414679445 12.137815923305872 37.04925441515545
71.79864687849575 11.612322649785067 38.97632030051448
69.79738647979879 10.606386293924851 38.736896693135364
74.78511299778282 45.30841295621727 59.5772921566586
75.04350008646789 47.382546163177956 61.09356847720588
75.18073157671347 49.592358942506706 60.93990255150569
76.4350344305753 50.27845487989072 59.60253578135123
47.02278493721208 10.712221410811281 15.598896471237527
45.37109427475202 8.909358300400882 14.263379361334428
42.861281567652796 8.125011160564569 15.377564545639828
41.929484738391665 8.31488813056038 17.416751305092834
71.51936330788361 2.280829164322144 11.406091048106347
70.02196647338678 3.5236055869431278 10.662691982660105
67.20555488993642 3.92783909250307 11.871782950334918
66.55569538867867 3.1964379992503433 14.181355720927868
61.824979719448464 18.978511955022295 58.65257290276961
61.69388122252025 17.528129199737446 60.690450304773556
61.908976843395806 18.238887006282905 63.16813952401786
61.77308689349343 20.32284285436087 64.23629113105696
38.492984253035694 41.393880021988245 77.9689347866938
39.319525850398044 41.08771952178148 75.97726129613726
38.62083792469386 39.31688129820958 73.80179001355935
36.484642470179324 37.60820142219845 74.00733784694766
69.09459946722588 45.171071456847564 34.94720074532865
67.67278058937546 43.89624635767435 36.56863188649173
65.9768584812535 44.844664256918385 38.24996854129165
65.29528264065412 47.11270242843915 38.556735687345785
74.74316232967031 47.69663530883808 69.55289382144785
72.31014339327255 47.4158135346567 68.86656433741393
70.55476895608712 45.53048564873603 69.46057907584608
70.97895133748257 43.542022625565075 70.78088452312899
49.07457967017079 27.79947393654429 47.45492653193532
51.78754660820776 27.478401310010437 47.555257619058345
53.500313116001166 28.02737891935217 45.507774390904466
52.913657536303525 28.3160709142393 42.925468262228776
81.70988987920747 20.010208415572922 36.9266914613988
83.1586178564678 20.500075905700076 35.005982191481245
83.01391207703038 21.95931674664363 33.14222493066447
82.86830290827409 23.864668021561908 34.089518634163646
80.2517467655762 54.28350365290812 52.810384310476216
82.17741304937856 53.95932643799191 51.44261883061395
83.62901578290514 55.70425865665224 49.99358715675989
83.49542113349372 58.07005906273655 49.75810349468281
46.977658198816584 3.212439746074042 4.43662175352459
45.63598886724049 2.108206139956043 6.593824115794178
44.92067438061008 3.1317107338519485 8.62330562724577
44.924957640265404 5.663045903986246 9.134611957209428
43.411206180445824 39.37426868048663 75.78533422130282
41.22785475048786 39.146907503946004 74.8265599992653
40.05118098083025 37.124822442440404 74.31712113191391
41.148936472788144 34.49765103202866 74.23367631240095
68.50354027894612 37.161776926429326 70.51083071302345
69.62613789309098 36.21447507958491 68.45296913465118
71.87255314522571 35.055878886620775 68.09174181040655
73.80132156459909 34.675091493159194 69.44453333333216
61.61115675325312 43.67707084192367 44.17683398892291
63.835997129523186 44.200500701074525 43.66027403776965
65.58521199225109 42.984519405098546 42.35986041457659
65.87640289667061 41.200096377429915 40.86863033762068
77.64045162430008 8.489551513122864 33.37607805265615
77.04397012941233 10.151362187517197 34.53600007677399
78.57234553844903 12.109880419537161 35.55348597101249
80.32622111645743 12.338454167825434 34.75290832412323
21.668517137297126 18.79173900247035 49.659768641965805
20.618391275916046 20.037323258987325 51.3350658064226
19.34365876167848 19.480079383326476 53.4860063079096
18.416930129652965 17.467498210986726 54.303628926457186
35.34926440822495 94.09093731740614 0.8348956590290342
22.891329339803335 76.56198236914219 50.6604085784014
23.993881224247392 77.59432155922777 48.85717071439371
25.17645344715087 76.35962486190762 46.66414643329772
26.14103471614262 74.08513903306391 46.330941847789624
7.682691887693478 39.24189207298123 4.561577356857828
8.469343982376422 39.59025145483718 6.8813411074700825
8.153291926793287 38.34232718272201 9.008955615028649
6.583537658629624 36.37252909006013 9.611750650717052
32.54728956584909 66.55998507784615 2.811285522356412
29.986080335266077 66.26969249676375 2.8105842729973505
28.45467346642252 65.39698619335049 4.477822958942339
28.626568422755536 63.42093991260532 5.787163403278456
22.597182448215598 81.23557380261518 43.897779959612926
23.122417077635 80.97765810847898 46.17109844526277
22.179591147636426 79.54806446732019 47.976975877919415
20.40254922297186 77.84936975270762 48.27059455308741
21.88966858520021 83.42565299991108 11.469242963989545
20.023228539868086 81.61706902646817 10.832254784541183
18.668885416283445 80.38129270203608 12.77971269131175
17.487065825544505 81.07689757822769 14.526195576404612
31.41539377756135 78.58407917280657 33.78418840860619
30.417608867585646 78.22114959698446 36.05513756263826
28.348464728034756 79.58554743846535 37.21966860432336
26.919390301586898 81.41179020377365 36.389480987886365
6.03764733704258 11.286442203424654 0.7599855790270285
4.69799663315357 13.208647802442552 0.59229810570627
3.1611266057153573 14.559496663731764 2.517842168898296
3.6273761610084994 14.913122078516366 4.610689141779765
10.921220876798362 80.23969875696119 30.417650720835017
11.59869356354618 78.08528703023332 31.74775127088617
12.652997009816872 76.01586045530983 31.228818545244298
13.750549076002 75.026911465039 29.164306793181904
11.249471330912778 96.27367368555821 13.44278444210012
36.96334127895645 37.1355542152038 0.9665782932251306
37.21884409424638 39.44685743137568 1.986399497880212
35.785971986265196 40.99979697011626 3.6243258281417705
34.34487845747214 40.00456616224543 5.376850227585868
1.8365279139434814 74.24373212066429 49.1269263415295
0.5727342989828692 76.82281866221055 49.64841972513206
28.349863135390784 92.12154663726776 23.970253967097452
26.07994866609591 91.55799843955684 23.611196574824014
23.88303646296261 91.43057683737929 25.194578671097347
23.501476006234594 91.61413587957557 27.384591993454727
32.053446026671075 61.35639855455636 65.26626256460813
30.97650891307581 63.29376964451047 65.18354512386453
29.05681858786766 64.5085071773529 66.55782017266277
27.335721294765264 63.832005956797595 67.8910497508022
46.189862589968385 93.47474782841263 31.433130742841822
46.063845493732316 94.41537226987799 29.28124771053408
47.08516845411974 93.69649397786915 27.05757425766824
48.94902881197776 91.95193877753917 26.445525139255963
11.210033082752625 45.141038746246785 7.673296636457144
12.690904304765512 44.357978964668995 5.177872374845631
13.711558423229816 45.9447595079101 3.686251163737793
13.759515258945656 48.63926877950248 3.666215050654297
12.096594402032979 37.839506864419995 3.7295557261499366
11.736427849239785 37.307028397926864 1.525813539822936
7.581253162817971 83.4159786521215 0.9136249800090902
5.997002088082295 84.20851470173383 2.3958671298152043
21.506087081030486 76.4588805904801 58.4434313651692
21.068412598664388 77.34922399457868 56.29159721102804
20.88043981432904 76.56736331907275 54.01189761206005
21.93442704858115 74.11935460049379 52.889240291541526
0.5425468853076024 53.6325016223048 28.490216935725826
28.311998327974152 95.14861987024643 50.378716376424116
