3.782542799077235 0.9345305337160084 87.9366472858606
1.7329365984639256 96.50678521021159 85.5974743951532
2.4220273957889247 93.92448436434124 85.09039592095867
33.21526421294567 3.5911045161375412 82.18519127637974
32.43611819861358 1.9589714746951954 83.52346135591705
31.202636192416552 1.967551806595795 85.99335541762156
31.451972133309514 3.43412055552385 87.88504031121495
42.873539945157695 93.13421096199538 93.60316593718922
25.711383970199552 97.33846388152041 95.15037915675649
28.76190457486807 1.4507960773900483 93.37019516800028
30.954032334479884 1.4090894796630393 92.03758015389674
33.08233114733889 2.854936675994224 92.24498596093994
12.14336352934187 3.7743556968026715 86.77428978584332
10.23675071507335 3.2359873163128694 86.75472019115146
8.375996963129928 3.2069782785796335 88.77736321377276
8.391114860764704 4.461649578298461 90.979429997935
30.709662669130836 94.84934541152609 89.82088080670503
29.545296832346708 97.08944385512173 89.68859372899907
25.695992048112736 96.43640675616157 87.43596575506774
38.667037010342746 1.9083186423492304 86.28518580785011
36.17767676783455 2.3320894387601627 86.22981921905055
31.502922197532428 97.26695742874325 84.50630937204583
31.749140558379413 95.94360560734377 82.63960887191213
12.761145373225663 2.6536762348671954 72.98008755247129
11.645467605564397 1.5509885015171183 74.85955467731014
11.989835323651148 2.044766247837027 77.57039510866215
13.243526724023447 3.2385516838377515 78.75931215663353
24.124443601985366 76.82259601151475 96.15920478221577
24.34713856271579 78.2007545754029 93.94963172144612
21.73858476830563 78.66571704527334 92.32606519971667
35.98763252566578 2.6599761764593763 81.19289356186727
1.0969781845070237 78.69558665172435 93.04403223307473
3.1856136503432015 78.87912070310975 92.15051429231974
5.173791358151952 78.76656472348694 93.99743026639068
4.880479064532292 79.08276139790628 96.27161424778372
32.825809857903835 79.34256665464349 8.786889166138991
34.727820511188895 77.91959771646805 10.14032557758666
27.7096262994323 3.236403254980858 91.59189994691019
29.308480574455082 3.1990500477782633 90.289540241209
28.457537012815987 2.6042350670316092 87.45299436019792
25.710798467897952 2.558542987499992 87.20189360949159
10.48805048750147 4.62318827104429 84.4771080872503
9.355011302746156 3.1402616939470054 83.10741863765763
10.139536505986321 1.1529106138186698 81.60869812259195
12.391242270049453 1.0243872457759884 80.29366965815053
42.10690852122952 2.754354373587244 12.658917536563871
8.399599913957685 6.857967551391843 95.6621052212721
9.285945313076274 4.611213027573591 95.47636522768492
8.367000639021944 2.491101791629235 94.34808442431276
6.283388852239633 1.9887106623811184 93.13841896190216
26.862291090584506 4.641664754327438 78.29177974248702
27.02129141790482 3.203621544539631 76.287584590541
25.010136059342752 2.172732091804079 74.76520227668037
22.587729091535966 3.1750301531954204 74.81356550902245
46.55257346942802 3.8771454107459347 10.42979076412887
47.702572125936186 1.8825122140454271 9.835835457778462
43.24113237767787 95.23873845582226 8.137520612103684
11.819158151856554 1.5727443262672625 92.87806617368808
9.645368500561702 2.1807409446256645 91.87785339325387
8.153005113213206 1.184091825199391 90.6465531186605
4.77711736881178 95.65079450654174 88.76663056821783
57.688109930081644 73.75020445001927 11.277979574608281
55.57844617571359 71.71535511554787 10.756684844809818
41.113620048465364 94.70056717508177 95.0847518638231
57.88381193611053 76.04505078957607 13.007711385388879
55.53309487170985 76.31759162735824 12.772987083097435
16.022308686918535 55.922850859537945 92.3594436095297
13.843651064083529 56.516434619554346 90.27738954862532
50.16951710273853 97.17177469061401 13.027183678201228
21.033658092296672 4.310721396397702 96.14665654428609
57.51414735335616 94.24008352307214 13.749392522074324
27.765068158802112 95.82387636612133 79.87654316128365
27.506770294413254 96.90250188000047 82.08759842220263
27.930573805174813 95.8718523529058 84.6481662246133
29.99500459988458 94.3998186036073 85.17979449930709
54.520672906531836 73.92486159962611 11.418645305449235
30.824663928889613 97.35158473032405 8.307119498356148
32.073241576442435 2.5834137098768117 7.598896613473839
32.663593844872615 4.865827016451628 6.909989486678012
29.238024933725008 77.17685296804007 89.81827250037372
54.73438772818242 77.50439664385988 15.340236012478648
22.526444852014283 94.98809466056035 93.93400971638076
22.94231989254889 97.49279570972065 92.66793164319152
25.81134301611198 1.4001116298776468 90.69686349475235
23.0417119036528 96.69343341283216 88.2963691522871
12.506084217956259 58.551111696426936 89.28972847867922
10.77527489101228 58.18603640599672 90.96084268203971
49.652425121659476 93.64169261091197 13.437076111365059
50.636498892071245 95.0644519193685 14.60254375746814
25.486990509790374 79.9889981236537 95.67055362371633
27.107518596144423 78.18263425530475 96.04248400425038
29.413222303632075 77.5856786535052 95.37142811946106
31.030362985404132 78.56257675086798 93.64812373569299
35.19776549346917 75.6819654497466 7.3344318458776785
34.224055284973794 75.1584350121829 8.84699728639449
35.332705859596295 74.99035328906368 11.442899344116714
46.9966117898186 3.2588430929934415 13.332301611486628
3.5499387360021526 74.83890456281448 94.16012797526426
4.650237577879091 76.20258320020687 92.7221920674458
7.276180389162323 76.79435868875794 92.72780578112689
9.205169432583201 75.54312735915343 92.80330350799095
37.01270176915052 77.36042168309751 7.927468470254995
37.19427833929924 79.1604600224755 9.906869364691543
37.69375239389849 96.30538452281122 10.076513632602678
35.49631403232669 96.32367373864103 8.630308453059929
36.42400557985424 75.8363513233597 96.51353216242701
34.473757595675615 76.39323079147701 96.21282770702847
33.14999669169891 78.53507338106105 95.33273322017855
24.778019583197068 63.46001143200437 9.709062351575902
26.72818270497182 77.91198868722842 90.39512805740625
25.389190347823316 76.96883354484969 89.01118063389883
6.079260622256965 4.186944567314162 1.9876147387288465
13.067117190595896 97.05280976881168 3.7722039150874824
17.610646835981356 0.8118800006570793 6.10277140676459
16.945026972289543 2.1042564331080755 7.499219285822792
45.606716048588254 3.3720577200070188 86.83577885882507
44.48912735519212 2.5677578115563815 88.69662939358479
42.3046808109248 2.816090622774715 89.78940605588143
39.969718614614834 3.365361363400139 88.3979496677247
30.49903952691232 4.925700448045436 82.3977313838132
30.90545671074311 3.2457881458846534 80.5301416357242
30.406183922898105 3.355233223410489 77.8804754373956
29.36325263479742 5.147550396135507 76.57526714595963
9.189896689741213 75.34396557314078 90.29111435400962
10.132750826686065 77.47395960989064 90.22545827685096
12.045199031263982 78.6367445861305 89.12844921097442
13.857765073524536 77.61984152992017 87.28526405123239
23.098448450612374 75.1748076740236 90.0777251866584
24.636719833852283 76.3115723887354 91.85924207582961
25.810691941181698 75.65397277938395 93.58643788619011
26.4684655920337 73.20097019911097 94.88517240332538
23.974130271293912 62.50739330182219 6.924698862989777
21.825107484180613 60.61224089210204 6.77093219687375
32.13687389682694 75.31988771277963 95.78502409584674
32.62368554317855 76.00389219005378 93.62007803315286
30.350480649671173 76.08913415664445 92.0671722967569
28.638559659720155 74.74510288555513 91.87910384928395
2.28365817393783 96.69697652968043 94.6462287135659
20.33687909136191 59.40942942574208 8.726847928222133
17.020708455135935 93.6348357448081 7.4422766265203215
15.382234155294757 94.01293378085624 5.9285173136477605
13.192700810555747 92.6942269938795 4.880035174370582
27.288959101265338 2.8738433049686125 80.60045505209389
29.061806271164038 2.6897387269801194 82.44901977853357
28.676021010510468 2.1709531726523994 84.95239347009267
25.37880541100219 96.68503854078139 84.82290675187863
15.969322544553055 97.30534049055309 93.95455218337139
14.807020866944768 3.6799192727607 96.33275614767014
25.367917907762003 2.3782102765428563 5.366723736511666
30.928802407520255 1.1566496601947887 5.743473851318684
14.893217747801323 77.31702006268586 79.89810957807626
14.361620515443361 75.59069686938821 81.33588699778579
8.324698050088285 94.49977557542395 2.581425747648436
3.388642305571416 79.05273981117207 89.39387008071816
2.241577635976179 77.05541303231077 88.94174342893959
5.705534181376566 79.14273029155328 85.02705160386986
7.637036228518972 78.66449440509807 82.99495635997224
8.089843293051919 80.2220957093084 80.95498490552474
6.186338180758541 82.1723800816527 80.10290208932362
1.2420809240667652 76.25827957562828 94.3293828026995
1.0793897553477059 76.1773542532192 91.41347134456863
9.241644607453244 96.50199893207224 94.96623749356908
10.287258345171601 0.7953973498643776 94.93889114039904
8.013936472596917 0.7996816359371425 96.43775267031357
25.91347114354649 72.85815700756942 89.52283274033375
24.608475995317267 74.4223461449868 88.03423679943685
18.333012300040973 78.59502210913361 4.304747659651572
2.9116863960039594 76.81775306831433 96.64431818511862
19.127187362518548 75.7189707660022 84.56464639048703
21.46964201797908 75.75922073211443 84.60118351935243
23.17417880649454 76.72662994122848 86.69964446445002
22.410928384225596 77.50568161906794 88.75641327848324
10.050500215658145 94.95061999665401 78.86015381050483
9.116437430155578 95.7595192810168 76.98348389385589
6.592715893732046 95.23048445433234 75.93318818552875
5.064511494986566 94.71151570963033 77.56816233316707
7.524270339866513 1.0460967619377042 80.27402867860992
9.386415103382705 1.2229435877095183 79.02428546569091
9.325643301654948 1.2357425490095402 75.93900459094196
7.025712482443395 0.5738512508954794 75.23972955059499
29.557967347858636 78.77565815193248 5.845396531797704
30.733819656459648 80.3747614948781 7.452778117989889
7.843006476799865 75.67285581846029 85.60681477468779
8.028376012173123 76.4172501410105 88.02801524201602
6.348815128225135 76.3129157713221 89.85051338317253
4.429951021248519 75.0619290348871 90.25305124311616
34.08826742359038 72.60976695228491 11.292787297198737
32.1757230651771 73.47667325419708 10.069887862939913
29.64866329707297 73.08796880299457 10.087520562321648
28.231207918825046 71.16459849959634 10.469099385363952
9.859704178754933 78.11299078363285 80.46754785490246
11.566780551175542 78.63354514542871 81.60775713831171
12.218805335499562 78.0706833116612 84.24680442471467
10.56190461194682 76.60130821381338 85.70823412135105
16.278834384669487 93.82739028861802 77.76522095080192
14.906760730704034 95.19668159120252 75.93781753561835
13.476635748671203 96.9332821138963 76.31372022302473
14.962399673799485 0.9108500432890334 78.45037648296437
12.854770560752728 79.63574725397098 3.091859467173071
0.6216144918551203 79.39897663964507 96.20550421902155
22.38588376304302 76.41739388820163 5.9414940406318335
24.56269891026278 77.0885884408863 7.020061979040159
26.14579538179118 76.06907461231528 8.486631967136688
26.311310978824356 73.38860919463576 9.505035591796533
24.16679700640547 73.70735411003713 96.40925965468595
4.763804203559885 94.32886553118986 73.31066311644328
6.939334430471699 95.25769688649463 73.1412228977321
8.181648180852088 96.83329146240607 72.06326544662952
10.958288317103662 2.292719398190683 71.02030187294541
11.059990555399771 7.309016944573071 95.95730553589227
11.851736721946196 5.167288139578178 95.56896179695853
13.00763858146885 3.9187461842569378 93.58778689055342
12.323756690987187 4.633504717098036 91.17162383207453
13.776398991858672 95.06055222403067 70.84994233265537
13.231002951681088 95.86523048503823 73.1876034185878
11.281761135346613 95.80121373325453 74.55267928838705
9.049969173268831 94.43614597026102 74.33667920417112
10.481377071851286 80.33967695188657 87.97361345984199
10.032815487390955 79.92624667781669 85.92881670161411
10.991438254085347 80.96285131327416 83.57664003980813
12.738520686919971 82.25654274339824 82.87063648882005
1.387823391345709 96.95875553460037 82.81697298088979
6.463094173689019 1.1908378513706552 83.14386852088991
7.593216296041645 2.4693716967004242 85.11801963678573
6.492478062117035 3.8451332322757166 86.75813837893685
6.166320590844345 95.88819643182669 5.9967535523170525
4.745396667650533 95.64561439373917 3.720220574936236
6.174366073613597 1.1769335655594395 3.162854888867348
4.619640933599858 1.982268737231841 4.333942973372596
2.6742906912100963 94.98371978010739 76.09544790308594
0.7055990201008077 94.7158019317217 77.32777273029319
6.9855125728902525 79.98256233215606 92.34870996413429
7.470980843024461 78.7060587311437 90.40294956270479
7.802468756072447 79.07315146727782 87.89400674605756
7.205048482308859 80.98142360986586 86.30456375496995
38.97631477724142 78.47779163821592 11.701530617295997
13.804197177120331 80.09430166850966 81.76951617379777
14.990593187890168 77.89328190901013 82.6270597806299
17.16307704739277 77.69757637521367 84.0270838338702
18.848532552306164 78.8588746539234 84.30633947242922
13.685892758812827 53.137468045937254 93.41697826948804
12.665674573662706 55.50794194397022 93.08794573963884
10.713451032490354 56.643888255191825 93.68695105502037
8.539382235933367 55.46270589913143 94.94719221933214
16.43968310358534 58.45452803117508 92.99287190204758
17.719900455649054 57.622541805045664 91.22382384455238
10.955403726125509 82.21615837301806 80.64485567713105
12.917143988205611 81.32377746523308 78.9406571083189
12.527978338080626 79.52169689616777 77.30063116066935
10.678493997135748 78.4235441254794 77.90388874353741
22.1472011519781 60.799285255939374 93.50048856874606
40.302463901061046 77.22641520446335 95.55062885889777
27.692669551892095 63.10235294268338 9.694867197775327
26.355582814111905 61.42860429002763 8.193526469892863
26.184247077137634 59.14510552876115 8.058866618591196
27.500792899081752 56.97218909480806 8.949559532213286
36.97081063385219 97.45298146950734 91.64602224038711
39.21109938744294 97.05366690600123 90.48033348669239
41.54350446434719 97.53517398776606 91.08631703369377
41.94111002358649 96.79668807210413 93.63923157889506
32.824535005976074 76.99147735698371 7.712122126714476
30.99120903362835 76.44813240395295 9.16691295142926
28.640044978670993 75.03246199288854 8.823611927287095
27.68917900127991 74.76456181188662 6.38551805922645
26.49334618322783 59.54207933607905 5.550937641865405
22.912506376235946 56.30346693041889 5.0442509138366285
23.926912274691272 57.93029547609946 6.004027896429896
23.443580662827692 59.02088998002883 8.292165339624518
16.4487790112055 96.60709335486058 3.950928071092601
18.9302426517273 97.1657699304035 5.001602549435067
21.052681026972706 96.40105947183916 4.418657777179354
43.93742928556299 39.239865341562826 78.25658727022478
42.01513981191229 39.411025724949994 77.1257092054026
39.81242773339728 38.43801196224441 77.72354245908069
39.03319507930141 37.75042477804563 79.84302661146984
44.49598057283886 20.278186416928985 82.56415550025133
42.44917230683639 19.197485343885003 83.4478360510386
39.954122530180356 20.13055424373887 83.64627311742024
39.02608822616672 21.31097013582332 81.94753921402294
44.34106786196985 21.509671534276638 94.35447386921679
42.46070834056883 21.38062842757735 87.76232216824708
43.91857860984102 20.171109289005546 88.97008118954099
46.4114550108118 20.61195772875392 89.96929414573607
35.70912147666372 39.613811299899616 92.16704570798831
33.90941932093882 37.858010086013955 91.60172128731547
32.921838339409845 37.12082392327956 89.52285017790017
32.18357462367633 38.26454701250542 87.89848376954676
27.044684927020334 20.510253914766793 95.3689976472547
27.95809265780452 22.329315282288015 94.23821087169632
45.06566849440337 18.724969091012117 93.4583560370733
47.44491223059306 21.704976216956805 49.633969122409646
46.72192198228293 19.917958177633015 51.167800292286806
46.13430401261401 19.749008734272508 53.67899624317306
46.03869915818313 21.577614819109122 55.33144649290528
38.330826655025476 21.397121483414175 69.7260793404812
38.2683488000788 21.337094393304962 67.47286132718298
45.09837428796726 22.79044159028712 75.33383788129824
42.90301370340625 21.803938606921264 75.75242332299617
42.27759621287148 19.215097739658866 75.081360499724
43.18573698253397 17.942109840870152 73.19618508506264
50.702296738324854 18.11954171965446 51.78901172885474
48.89699494489389 18.57323814493543 50.6806805931618
48.593680125888326 19.787080487611227 48.04823839625641
49.95574671911671 20.277462247354624 46.46612589107699
34.532961670665415 34.33895742635026 87.50285618990976
35.26675617507472 35.070038017991465 89.40004916634257
33.92436829123911 35.0235959769676 91.6015065301375
32.180203383427504 33.389832791140876 92.34310714545435
28.884154700270567 34.732234636465684 93.65674588219514
28.01716428927027 36.95211923498578 94.3924970294404
39.15841490006092 37.503868730874245 74.14424688403591
41.00344219746399 38.818914858557314 73.01602761341587
43.6661656852452 38.574781972099295 73.60445289574709
43.83492927061617 38.02145609579822 75.70692720841039
58.86370107672414 40.50469584423329 12.179156072410834
26.109990843399117 33.65878067670331 84.49264438443817
27.197345230779607 35.59278075530772 83.77941796189383
26.36732827572771 37.97085835167941 82.96955663207667
24.094108789499924 38.43062933029359 82.07653330342164
48.260863002953414 42.55096801823206 74.06850116611088
42.14579121047779 22.576829771484366 53.73213270668786
42.0138994707017 24.1240094330573 56.17457304601705
41.187511115027235 22.631692177812642 58.16597137861264
34.39799893997518 37.4222960703114 96.22926149983155
32.50634540080194 36.2890394996261 94.86511286882214
31.574583624654384 34.353599461437376 94.68617788763339
45.73023189895578 19.240492687891397 62.70531651798418
44.7788782320317 19.960850563673674 65.11923125489886
42.41301380646478 20.0081671256359 65.88985925299527
40.729978169623976 18.213371689018672 65.75861728182657
33.53882672176326 19.607462442427384 84.67952937534338
33.1972408529953 19.201587082296648 87.11097764445698
31.424191203110553 18.651953124131733 88.26576712957338
46.65517661793241 21.450842826191558 46.56868088122276
45.513638586483175 20.110945420617067 44.69712826277615
46.38417603331768 20.381159071352144 41.86247950133454
48.232979433450645 21.773862027307402 41.84066922259434
26.20657048076347 37.431835562162995 76.62562809518468
25.58434757264321 36.68561028985976 78.88867015313839
27.708018185838007 37.25028157188671 80.5849325711457
30.15142798956719 37.131756199267706 79.6894788408767
42.24594757279918 38.69340098297615 90.05812502021044
42.339794921429 37.972333724139645 92.25164135975339
40.89732043457594 38.66476167083263 94.40106222824348
39.49265737529678 40.360797571759186 94.86799016090167
35.318276388669055 19.607535563187255 78.45785240756933
36.44582898211383 18.816545547934645 80.22366374826056
36.56358185357505 19.794834248361376 82.66158212672246
35.546143708258356 21.549138003125897 83.94894230537572
44.68623565006274 17.86096170712243 54.505489423164256
43.30934726029603 20.272586138363668 55.69368162967303
42.89184628718183 20.702216668471856 58.032284635778964
42.927983197783874 19.14192534110112 60.271579791246516
42.55383735588571 18.641354261797293 9.13534968623948
51.39411385907237 19.927358719523813 10.013902933104063
52.72604155126849 19.794026939505486 11.939490099067086
55.46445084235729 19.48894025818393 12.348790426665511
57.370098743235346 19.621629160976056 11.043029799497914
44.51071765387081 17.990653989119224 84.98347713355321
42.37835267432336 19.05433962495132 86.31258140387753
40.575070756713934 18.068659991167674 87.74725816583107
40.6977536873131 16.556573171678572 89.70419826843732
29.106082559080015 19.958146049474017 90.21751646302575
46.30289846158679 18.017250090379985 46.54195998860722
45.21494388146873 18.70119133680004 49.00778058318276
44.662919868745895 17.345147922770057 50.720786905281244
34.10340843607582 37.031205005212975 71.72038842701328
35.220118196067176 38.62620834340277 72.53623327018312
37.76006815621923 39.388198333469234 72.11383263733362
39.447784981440456 38.70358485186967 70.77555350710905
50.48455829950187 20.274649727571436 14.115447070449145
49.67833119998479 18.740624377979557 12.152468970632047
47.93361366719451 19.230332234974867 10.161941113636423
46.13804722457827 20.414380003589248 10.71186672479584
28.481625589275993 18.36831681062922 95.72860572277622
53.15853568086616 16.45629628953857 10.14881026100027
46.98931701775832 40.23270579096444 74.4335902546653
45.54304274201404 40.04968769443435 76.39264202149766
44.304386307636385 24.1478650425731 57.79185258593859
45.202626296969754 22.239281673536336 58.68283700517773
45.37925454469901 21.186878340026922 60.74607302266007
43.79373943160047 21.63702642998224 62.223564664179925
56.5680997598944 40.564089817052675 13.55907626809744
57.74821854306946 39.54240254436222 15.34940855378
36.63588896396447 40.64275137727976 94.49251167650144
34.52522589032509 41.2097439952658 94.08484424124917
49.5027905617153 39.25239387633822 67.61980710358824
47.985916130006245 41.05458443078769 68.89140052947648
46.85563780085994 40.63909315860185 70.97377552324384
46.008952012451275 38.5178063066563 72.26241822710219
51.385296665058355 21.082389221039737 52.2345573555465
51.064538451994224 19.928258221516362 54.32265769157816
50.213726625187284 20.517657818349015 56.63442923157041
48.31767223082705 21.616150118613305 56.881302148898584
31.964964318224812 40.19375603283428 79.03539066895338
31.074034980728083 38.86896315576386 77.27325681460894
28.6351039785456 38.95463525804845 75.95732044242163
32.767865825094695 39.526359662992476 95.27745914256597
31.7181851325319 38.751642142921355 93.15205532767425
29.853213065229113 39.04788908811329 91.5962177894852
27.970053721154812 40.314421414411036 91.61369898039977
28.60664567527893 36.6270766187252 70.29426937928135
30.271536065271665 38.86616472773483 73.79572710417199
32.25357293814507 37.67523333646162 74.78660598868554
35.84361129057428 37.79766936897459 94.17044007569797
37.34013780031148 38.03179620411043 95.6880698432474
39.60996569228812 37.05495513550678 96.46628545610227
40.17963441188272 34.43770719240714 96.4598218876187
30.529685031109306 40.5689341854799 87.10289988071894
29.734166870107973 39.334839295157636 88.48346812731411
27.516630308287276 38.77406058520073 88.18913832012238
25.500649864366114 39.96865632234057 89.00106541332383
38.922376555069285 19.794866962495387 61.780841141863284
55.16240178311911 22.231311665492452 39.35661523935521
53.62303758979543 20.515441738934612 41.53314203367988
51.485844531645085 20.341424504268225 43.00246574867988
50.09339521005465 21.581056798708314 44.31155371930686
36.41361088283388 16.871611022319822 75.34367458499975
36.357161942264504 17.238573889995756 77.72190582347213
57.953357597211856 37.04082003437098 14.100931969664535
42.332812119774886 18.134081315005968 70.57031478074974
40.12646608063148 18.856250283958826 70.33215915203095
38.09014078028277 18.1027256197896 68.8555752637932
42.45746926559434 23.042079628596323 77.87311554408069
41.393739404308164 21.740332383137407 79.1868049337073
38.68276088888698 20.983462648115946 79.3104219507023
37.00749733200535 21.487018138792564 77.51682930601099
45.155467454923425 42.10706942638698 74.21903372185751
42.511068529442696 41.255469848761585 73.72776646808259
41.167982537024685 41.30678489481271 72.16862220273019
43.608777861993104 38.427389397120315 94.44905213828689
45.2341874630856 39.6258060557233 93.27188445750781
44.335970614623314 35.77983620503818 94.71356538004689
42.68211488947541 35.21999989445775 96.28499017408537
46.44723090226339 17.97696390369348 13.625044010543139
47.22380357368484 16.859519419684695 11.304987970939044
46.11315394123801 15.936689742981898 9.57919714667104
43.97449067768977 15.705265204224368 8.71597285455133
40.869219006475774 41.335417994282494 75.74555352976678
38.451246849085 40.391291819395036 75.72187492833582
36.61795737994225 41.30335435593921 73.79629630262396
38.83216263701389 16.458658174896684 72.06502160368699
39.99668401922492 17.6463117913319 73.32406507675958
39.9589606360259 17.404038681818665 75.98302950005342
39.03615102191902 16.394499719135116 77.39521003276738
47.906900170330324 20.418953391593814 61.78287256168259
47.7390502434167 20.484043960378642 59.404601065832324
48.93981224117862 18.55475746121196 57.58731323074246
50.992562223156746 17.23178648805596 58.60290736193666
24.71389754164679 39.76514504210155 78.74863696553673
45.78998952589616 19.905493577485643 67.98522832605734
44.253617342259716 19.86604508143348 70.12917242989354
41.99883924294096 21.27052144857803 70.52841818742756
41.07884236674506 23.163936548688074 69.50966541697824
28.66996715890036 41.30382737681892 84.99311288142505
29.211086672332513 41.38543266945539 82.41322442238804
26.678093746749788 40.945691531914 80.74957928554299
24.5294360088445 41.01205070585883 81.46518754022522
42.88269065869685 19.206869337646534 77.93083073169265
40.655958270314414 19.112084021978546 78.13870003268389
39.16550009605728 18.34755500849995 80.03859099954315
40.12717546765987 17.631789285962036 82.72434403898288
53.47334968099015 17.363607162435578 13.476227523614472
55.373086573065784 16.537136510374488 12.401110985440427
57.37000527910006 17.007064236086258 12.954346148619948
35.74282083772625 16.576644162151066 81.82258273955941
35.74949949162218 17.62000930995172 83.9834022452753
37.55769487640591 17.47984985241094 85.85011864331034
39.73036877024529 16.925944070574722 85.41671651249987
27.05544218548677 37.40106880922822 90.45689285557381
28.8498175796911 36.48278645747562 91.56375686718461
30.778359896943083 35.477475466199095 90.69045187451562
31.092436720599764 34.153685239440954 88.63846964521721
47.47475087884232 13.122305147258295 9.435199308027832
48.909922385350285 15.427300904336388 10.040592376607833
50.685940174711924 16.13319703370722 11.626853976309002
51.61092141891031 15.005631403188982 13.55058944104649
40.19944252125018 23.049521330678004 92.62803297191746
42.649720428738576 22.482331638483917 92.47004434719628
43.428608435915145 20.013224018793366 91.75772654316823
41.79872205706613 18.823217185976336 90.70947818357425
37.16211714938637 20.14641436599651 85.6920136768632
39.30873042118195 20.48273207873233 86.2911970885316
40.08584282021391 20.476023295457168 89.0854709009897
38.75583534473017 20.093387321502448 90.60086150882353
40.91227794648917 21.95454067965519 73.33120617091512
40.172313310804945 20.97099796228412 75.11300744650299
37.738004939748144 19.54622072415428 75.35743564860819
36.610312530489566 18.796599490588303 73.14167233853718
34.242016171777315 18.990669661525132 90.29481274582555
31.786876388005062 18.42182167380033 91.16032460548605
30.24380954252655 19.427096865680387 92.57674448361605
30.241464802867444 21.06735855957218 94.53597115487545
37.36232007342306 23.213895765409646 65.00812407348785
38.99886912528773 21.63793456093633 64.61755440209737
40.92405819356677 21.45426410768044 62.6966364327992
41.40530965586223 23.096248101937356 60.706856137338825
44.045631534859375 21.42881298011619 79.67940758843038
45.291997343104235 19.769220137321234 79.93383178408355
47.92146545736455 18.96321908142538 79.00405968189219
58.50995750423076 19.920160913116693 13.420980839471742
57.402658269646004 18.947253763854818 15.240281207721903
21.328314009886867 36.69600755356408 95.65930130452445
23.952458915822902 37.080836375941736 95.83113744755725
25.6456428795207 38.324157943975806 94.30843277496903
25.585899155149484 39.12605137995316 92.07007717874173
53.221026958360184 20.411970020819062 35.40416646627237
47.02194021729554 17.760827756536568 43.27807528104027
49.405123089655326 18.003563113458807 45.009921082007914
51.41533495961849 18.092794715210523 44.365131367730484
55.01683786776546 18.421836085981372 36.33258838255519
54.242608177424195 18.989506917364615 38.32503751214257
52.65967269442013 18.219739730088843 40.01606097898248
51.55527747774268 16.388898816565753 40.63343991161831
56.20341053329076 39.17254980541884 11.242054790478935
50.93656479097362 15.594032753203942 56.35303210707502
50.02424025215817 17.610831983003383 55.19812607045446
48.55967037808314 17.992064041581692 53.506495675836675
46.55233083164089 16.544617713295775 52.559571897116626
29.948263003321106 38.49924762450308 82.17008434518756
28.63785755443276 38.616014765942055 84.3654781054683
29.048944137396262 36.754379572387336 86.40935193326713
31.606545438241092 35.93568488684445 86.95247527113666
37.75391857402042 37.01315111344284 76.62399788542997
35.936928051713416 36.99604530254785 75.18820136493132
34.95947559393702 39.45841141844705 74.99568127853256
33.63440828609911 40.08593172783398 76.64079793129845
34.471605428176005 15.969006833880789 86.72635217899747
35.55716913285044 17.83869475756533 87.7238940883068
37.02744817014581 18.166380344964118 89.87533707656307
38.17462617342477 16.568856929288916 91.36330129194985
48.20168129998188 20.047962780201733 39.729734521157525
50.607364645507836 19.811634975823942 40.39794486373694
52.74998549622892 21.174615350759726 39.00642287215634
41.670487887243915 37.90729726449518 8.30367746398197
43.811658951123555 35.360277545048824 91.84646554087877
55.10574948993216 18.268314592611684 41.764892577180525
42.18935464228819 4.108519513689617 18.086928936142243
41.68452358047094 2.249515547906165 16.649665933432992
41.30288165345091 2.3895874516286035 14.064854114508337
34.80475132261949 79.81330118573017 12.104876167231913
32.28715504521997 79.36818886950897 11.989415888762077
30.784094686886437 77.88941946135684 13.788100544631234
31.76349159903847 77.84397345334669 16.590556817456743
22.7557818114107 95.03138644092688 50.730481436884865
25.04779789655448 94.8893251273832 49.645850741892005
26.634572692338555 96.27563999758674 50.9012969093581
26.486368453620525 96.9245754515029 53.34192742669368
32.654551153943196 96.69865593899698 24.183790006537805
30.097963483942767 97.1924231835478 28.031404826498356
28.00735722433903 96.52220119037823 27.60136980034562
31.08827081468128 3.767880425387093 27.805247730828224
33.81093065682768 3.1839567812675016 28.21289669011718
35.05343040768612 3.684075979953683 30.126200405527324
34.826688457142666 5.35722744165039 32.14898064887889
44.20649516174317 72.52503003583212 41.5995692175619
44.548095526663786 74.76444540479196 42.23658860957433
46.08928760743744 75.71008272815736 43.99816078879271
47.34844345793295 74.94137255063501 45.700613544843534
45.393965389376085 4.089642807139902 57.88695347638013
46.89081365998885 3.9835846570681213 55.702908889357445
45.17215004010183 4.240757285000744 53.57186786941879
42.73250356276744 4.763363389559034 53.63615303364532
44.19009983992671 79.05043887605936 74.89044324461939
46.29323875647997 78.33727894159473 74.54347389371226
26.584434214892514 3.992054834125921 70.6395346274996
24.77674078721615 2.5348822680736065 72.02426771282656
22.29744367439987 2.758442709218233 71.97294257552248
54.95779660474763 80.28154755144396 23.42265203789538
55.66521626513434 81.20817826823308 25.531322350170957
24.01533966995339 1.5735434588335344 30.766101834169156
18.855583395177447 97.10713571933319 31.31769752597832
19.473481627294895 1.42591128564341 31.848219451338053
18.54544732328124 2.60632717772786 30.14948554794078
28.528440448140984 77.16553518853482 36.36073446802728
30.869806854892367 77.36523524698443 35.35289015152791
33.08554729245226 76.37258270999408 36.241354912162095
33.827773846159154 75.05500897485112 37.99535197998665
29.128114950731675 3.8822846241508344 45.28878166877365
27.427442725052472 1.8773189676315913 44.95155165345366
25.480450765422056 1.7707568939897986 44.17706176770772
23.860426959084375 2.805028576181185 42.55642020313461
21.98006743768336 2.6759854694818874 35.96426850216491
23.43793770695554 1.4664663309100887 37.172027523458816
25.93081410792633 1.9073147706584668 38.171240479653896
27.013742608665677 3.818877224900865 38.86911593749766
31.819457276019907 61.31801631646245 69.64364523081383
32.6711725970604 59.80507618775042 71.41585138395922
34.67453247324791 59.69645039209652 72.81857697364237
36.80621199843713 60.73450480988699 72.83964672521954
36.905145737922794 74.9721972210616 71.50099650506301
37.617325172628476 77.18932964652791 72.4265321483736
39.90961474016247 78.31875579388999 72.51701769042252
42.21898747970309 77.22583808486362 71.95233472439091
42.45788756900794 60.336725060132515 65.90448614633006
42.93712381335645 59.69554865013661 63.47767687499408
44.488681005043425 61.05987309704142 61.719643477839654
47.034996229468184 61.59324515479736 62.658641514683524
30.308673465294774 80.68679564153067 27.96730960049176
31.08066993289654 78.94802513979042 29.402853615120126
33.414858824985856 79.30165179019893 30.354658849460513
34.388601545339654 81.50653075730006 31.447605098789904
52.06985363201794 3.8021910329332353 25.43277926672481
52.24991248819979 2.4884860234816326 27.426596624944644
54.48134690966483 2.347587214091193 29.09880092930272
56.40354926496353 3.1252770166712516 28.211766924674624
46.45611182475596 1.745138774960113 58.881118408887374
44.96205646773923 1.9439600546518943 60.635119662563746
44.958383710514084 3.4760361687690526 62.841203177516334
47.38367427857407 3.948835736287202 64.18948435701122
33.120769551343656 2.0399110093044928 72.52398597500618
28.535076672533002 1.7223874561175632 73.24408202734001
27.31221572288654 3.7078045590100768 73.50863931144544
40.552056902007116 78.55090160300388 24.025731184512825
38.299457529612276 77.26640053747595 23.678102669850645
36.160452846203 78.12557832634272 23.376884177358846
35.15247346952244 80.42842885738247 22.711306363864786
22.1761365800752 74.18206264478165 63.87826908181061
23.59756977574704 76.05166342077187 63.672285071360854
25.933902204513377 76.29662739234537 61.92403668557076
27.094813810439284 74.7904341582232 60.59950016507351
54.89349853251641 83.86305790477428 25.483344618578165
56.040948339311385 77.77168431632813 24.451305304074673
54.506811355989335 76.2276660094349 23.804161953373463
47.027571266127346 80.06509544959067 46.2938292235399
47.90570449704461 78.29850610194815 45.84293933469831
50.54169940080292 77.71784327049659 44.68514440496218
52.17645022639731 79.53018318279425 43.937302327084275
37.172765480572515 96.36149070699207 22.890355454652568
38.17064550206356 96.60969250741121 20.632725213795425
41.288096759528536 2.0126737984358365 19.657107500943074
40.638624075950894 4.0705270464857355 20.667882306332313
26.516479686538275 78.45758900087658 11.784635741139102
27.08808015294495 78.13244340517691 14.268331824645745
25.649512691342995 78.85296437998682 16.046307804481952
24.10973101563782 80.72131370163193 16.67060189906511
41.475183897766904 79.61193819233894 70.22353728249853
39.27317905189306 79.40123588168026 70.22100743252001
37.88170114298739 77.7079880052742 68.48521070743192
38.39257592755319 77.99740749911284 65.69369423259876
43.516636240557276 86.79333664941699 53.897832158842526
43.76020365806821 84.42188186745113 54.630676750924536
42.02825160743379 83.11367797751058 56.60244216288275
40.110201508747124 83.90597706516989 57.542063249424196
43.663664314329885 44.28163097937721 17.465824707056672
44.485056186169125 42.3742718300584 16.496456944167903
44.50223288025903 41.48730209331423 13.920704726161254
31.823118580452878 80.25943706353249 56.983272107092546
32.51530245400088 79.17357998069852 58.687155365692746
33.119543260473755 79.49244389331275 61.3360554160658
33.272610176971725 81.41357870951644 62.81955175977316
21.561676907681537 79.89557076963433 49.42755485173248
22.046452544903694 79.98170685230185 46.9466920014828
20.43477424581968 80.47180611751918 45.01335735518529
17.903433577577097 80.91432036917419 44.90672261572874
47.28809729313068 2.5095219966059696 30.341573095320022
46.64529180812424 95.53128545573492 29.61935775512048
46.01617906456469 94.86992788501762 31.630373311551512
47.896226610039214 94.07143876549154 27.336852318789052
46.66832439604802 96.17018647413583 26.94604939503872
25.45476039455665 97.43268943647081 38.25963129406474
28.089415453473627 1.442242828791986 36.024523245365394
29.65791595085728 3.1668281834113947 34.60623807608934
31.786423667167625 4.379778057111274 35.44268979017557
51.931165016733495 78.917012037225 29.86624547642667
50.15198919628273 77.32378339986376 28.62599552775734
47.95935369270272 78.27182848700227 27.41934568314041
46.156009295531774 79.79803312510931 28.3191254913293
52.33467065866492 38.266676248949 49.22946504401146
50.81752547033131 36.81113356481254 48.03746422934635
35.61339833057827 97.17410347516024 63.29104297527258
34.419489397054484 96.82407462370814 65.13661006299456
33.85242220829095 94.97911915470372 66.8396378646593
33.85986454242874 92.6638729980518 66.69157068892581
22.585700485394664 2.0348842747212426 64.91634668011528
23.6859497406617 2.2670511532115247 67.1537074637382
23.019464787815465 97.26013982832177 67.61753710364763
24.6203973899774 96.49000021154623 66.43362942707094
49.32062911905013 73.1175420107559 29.209709066511504
49.82072936612642 74.60039713471939 26.82893540377546
51.998227468426634 74.75973925170933 25.551232509564656
54.270190679993604 75.09630482072728 26.270208040771458
44.23931665359359 3.1320344075802597 13.53578790191026
40.81161953731508 4.040129784299971 23.52217050142032
41.99870632099525 1.8966791764357487 24.765827318097752
42.73812515094412 1.5632880725630494 27.075968048707516
42.10120717280661 2.979927607133005 28.774933178144263
34.301108769575166 94.42287824829701 24.990223258288268
34.78991782518678 96.72470135992836 25.542626555867802
38.144916348984054 96.9136343627943 28.797678998534774
26.212772207236462 80.54602370256887 35.69094838604307
25.773328628118765 80.73818960101752 38.029473715795525
24.360530578076535 79.55324635299203 39.49399334264437
22.0372064199413 78.37880690283477 39.2464363949312
49.655277282908976 79.22542240801366 59.78180312253833
57.53247478957018 39.71802855576746 17.550760926999605
55.199290822695 40.32843964607084 18.306298000480968
54.63489062852417 42.27107616719943 19.80545262528482
55.92794758421277 43.77703036879284 20.580845824490353
50.2134287093922 2.6066361416011876 51.840851240793626
49.37076415501188 4.932251734396611 51.143749941102286
47.96276139791383 6.2798708823973035 52.08537718194039
5.893724780929115 2.8371995520007536 48.06400130061778
5.796976302918245 1.6132581139542648 46.40467501862748
6.564044024134858 1.8056109566713363 43.570943981172526
7.477451754919047 3.6246723241925567 42.44015720561415
44.4214137724771 58.25121569458963 36.53397623780754
44.15044343516778 57.99331199014872 38.66692930356093
42.533665884943616 59.179784928521414 40.45797056787505
40.57097578971026 60.49732270104234 39.94794611590674
37.64043515849342 57.087489908493026 57.79936589898226
39.15354205551347 58.54494134111881 56.41671565268663
38.521523909222324 59.5655852517729 53.92245007925072
37.23516862578176 58.735442622731554 51.932582374513615
35.30990038868923 62.077765999990746 45.356754182836006
34.82756551013723 61.112795252741556 47.492879055338115
36.54252060973394 60.88617462091595 49.75655615013095
38.06127224413158 62.70497919781016 50.5506090766456
39.684128261099346 82.02986215082937 54.76597024421056
37.930380204509255 82.85597893649894 55.64653754221461
35.838336373904525 81.4105397360547 57.25352764988876
35.098442000038844 79.10955909384401 56.91985555665614
24.148408255633136 73.48678614790022 82.71099815771301
25.760547031961686 74.91251599456642 83.94897112057475
28.382221145609932 74.8683044449428 84.30774624090445
29.995171339578725 74.26939582124838 82.2302028624286
21.472079582744424 96.63461946646031 41.32821751201299
26.021896814629205 1.2669180622587963 40.75914607700801
28.667069098062424 1.1504604652398809 41.587128940301966
26.480608317905073 96.6060634889699 42.89792629332564
52.451867726314404 1.971895642325932 35.19675590375659
49.399989337127764 97.47650372748572 33.0450751588197
51.07637104618359 3.321612337372443 29.88708501528931
35.93315799180624 82.4073973728518 61.48745050154524
36.902752578025286 80.82338192894046 59.73452003044758
39.21307757541955 79.99070018793313 59.437803922248854
41.492953132272085 81.24313955188917 60.62821456728947
53.8256004032052 3.782154995925087 37.18221729333253
54.094380162253834 2.696129879286343 39.45389248366646
52.35261882237669 2.173709425607717 41.03202129826817
49.951269795397835 2.9318431662529805 41.583028789995815
48.67421415886534 80.99245691907356 48.80367210787851
50.26454416412885 79.64081434273356 49.81880812932426
50.483590400657576 79.45192225761738 52.27815940694774
40.50517721684091 96.08381846103926 45.0155853440606
38.619012894789826 96.7464299549179 46.86324603963022
36.422108253597685 95.41076449908371 47.09076045247164
35.21200670161444 93.9404946449291 45.89353820392167
44.28530256441897 95.0058756357317 77.25367422652671
46.96905250013257 95.77607097320156 72.70270284622882
26.99052299433836 95.32952169568576 74.7041761280585
13.782655415352513 3.008328854623172 66.6059562998843
15.68472791930569 1.716341076867759 67.89736408582584
43.38883479435845 97.51069279070852 86.83230941426571
20.191166662536972 1.1451595573253834 70.31116104338055
19.21825719046852 97.52294362919582 68.59586077102104
21.225679772794443 96.38068955139971 69.28827176366224
17.85018575214 2.6924785253187196 17.928025674399027
17.78770789719332 2.6324514352095068 15.674807661100786
24.61773338508178 4.085798632191667 23.53578421521606
22.422372800520794 3.099295648825804 23.954369656913986
18.684007301212535 97.12474811510704 22.951221974663685
19.592148070875034 95.85176021631833 21.066046560002327
42.363365404093514 57.863762436162006 29.08903300165564
43.157400785061704 57.706071467257495 26.545119145300813
41.60444246610697 57.402932588348 24.42883435140413
39.37340028086539 57.87491711269285 23.97815055318264
24.76445472249942 75.84333723693622 65.93135697531923
23.766197394787042 77.73382997976749 67.11132574587376
21.11707800675551 77.80386300667048 67.81416092626388
19.447529602327645 76.03000099746988 68.11234936854464
40.59843209040041 75.06008497541997 44.29541341689751
42.29935334177387 76.27859149305968 43.062181499540294
44.10424608027254 77.88941370301268 43.847943878184104
44.90011530081669 78.02514542159192 45.79708494775269
45.526009190155506 60.59521484398495 36.22542106026191
47.09736567114344 59.0945665119772 35.20923714971427
48.84329061011567 59.34347084328669 33.38918872134334
49.151036531397374 61.407881286751824 31.766212696851586
27.81790263395975 75.30113095676131 50.41404404231073
25.734970456114585 75.93045973621038 48.50526110070226
25.803718899777273 77.01896984594858 46.71313324430065
27.73729879895525 78.26879919689672 45.250820981602175
41.29884224119249 72.69212320865148 42.12500410017693
41.472006958671294 74.57271730687857 40.52371486486108
39.49659709762012 75.99944911079187 39.37973004375394
37.085671558782145 75.28024534392394 39.316284577340035
41.33638102652175 61.67796877846854 42.60099504595008
39.864652553931464 60.89033185405914 43.81444510208599
37.145001890583096 60.79842166470155 43.830618847413966
36.030748914795105 60.883820388415664 41.660699924356365
34.25167127532625 59.95039266810704 52.128067477461585
34.009630295741786 59.41110169453226 49.69600265040867
32.06057431874773 60.89909558680327 47.97151128544978
29.789177356404068 61.09193427114474 48.460704470034905
21.411986691148297 81.296743350679 42.35125888914036
22.982010320081653 79.43187684381286 42.473193337958
25.048219052712064 78.98801260250248 43.90275606800066
26.4988027114004 80.55907076139677 45.05646830223957
38.38604722224426 59.367791622588804 87.1545879174451
36.19820405610044 57.94733239263546 87.64811101394663
35.526548642844595 57.116690556774 90.26165815392253
35.31590941391573 58.633799738742816 92.07547591515315
35.613864342503554 62.4772723412323 67.09436257726767
37.179102392888026 60.54051920510084 66.57328466998219
39.355404194536895 60.270996017348054 65.27265019143917
40.53320510820931 61.72653910849853 63.72739691386331
42.04715548302443 62.63043330723239 61.689508610388664
40.67246120004803 61.26722877998823 60.10374829419224
39.94478152815609 61.3420562809568 57.787574712057626
39.681074978229 63.06618773852582 56.16686238798979
49.79250736170242 36.30337961157782 55.432322547595405
49.43204097866948 38.41033312372338 56.016675989997104
46.75161031377684 39.600634926104156 55.9936516523586
44.57026979040485 38.37331848207902 55.54532132116281
23.152599860107998 79.23349679191655 62.19456583659116
21.635608342068927 77.87849163722615 63.05340597208752
19.83980263729053 78.26166668821189 65.11565683969508
18.62824824491757 80.52751707725997 65.46970222007845
57.01575887963379 41.39692608583595 26.726339707482584
54.840664740321266 42.27751816970955 26.92035494871501
44.639553886163014 41.87433653912746 39.8650196851618
44.55541229258902 40.46329629374809 41.98128942609585
46.245609958875065 39.288995766443875 43.20142754602991
48.165480427710726 38.14834739918587 42.650838107462654
38.17262630841036 42.316022719367176 31.651224788905832
34.90181551277432 44.531569101612426 53.72298229881342
34.566543571330946 43.011970247169764 55.47914660032461
36.80953562587557 41.708179312523896 56.468809842470534
39.31250821089698 42.585055380872696 56.41471208799055
11.807419087940078 61.76529680714769 75.08408235509094
50.45231783805205 41.80578214132268 63.19026714627256
52.996507702516446 39.40135476485781 44.59183291609423
50.67750446714289 39.197693099668136 43.66813983191971
49.92677812598269 41.49399561744692 42.234763132958015
27.07661811237632 94.86875843276464 68.9848069063023
25.630735150769084 96.81153805679706 69.29955208517089
23.74020753472503 97.52654171634987 70.85662707952451
22.20008527717673 96.3162309964188 72.06641863416205
56.419732624398044 42.50164327922804 24.06885986883151
55.27057470758185 41.88751994800907 22.493650998451454
52.542116585454814 41.29390311894056 22.177507663586155
51.05982935811652 41.604810764798444 24.16230518235979
47.14349222008541 55.00066181972836 59.5657793161511
46.71954880806586 56.919685958084216 59.88501008527453
46.58887972110018 58.46411541791951 61.79802478397979
48.27220182121427 59.24665612919191 63.12172532624689
33.83386808026208 94.59695771383139 70.45833867526953
31.575082786377394 95.4634546476815 69.73644138448799
29.423508307476457 95.36172804002436 70.5822899481601
28.343933008948643 94.65397497513625 72.40704653289582
43.827318138162866 79.42547004368338 79.37565057684111
44.80619147399435 78.7834156893841 77.64854917152275
44.29521905413169 76.6923224095539 75.85423006899242
42.33455597707837 75.28987656083304 75.58390510634838
33.36322469044767 77.90932157178385 69.98371261189529
35.04973346516257 77.78239034167942 71.64898533730826
35.24183303060058 75.9347354349273 73.91855457350457
33.31507137824184 74.91181326369603 74.84909193279836
40.370583852469856 2.1426638283247064 62.463119637170244
43.32359800994512 2.484304249845755 58.80569131199251
42.63791595055789 4.041575305933779 57.39916199773656
49.05257297607079 62.200609044055014 60.42064133674208
40.09987566565903 79.15058569545408 56.94458760414073
41.734184070341584 80.63168424737334 55.88732552194746
44.482291217333 80.55761896074085 55.817899491896235
46.135226053888886 79.43349812013822 57.107650589528674
45.226336724964455 62.76564105551811 43.69539185248996
44.68052604155395 60.4826098279502 42.06388633673465
45.48275803833163 60.39803760406064 39.219445022241985
47.665869640498656 61.42882157990218 38.646361495681454
38.80576367712865 58.64185932909521 49.75977185193635
38.13225122743777 59.387053851293935 48.00374608819336
35.65067408935763 58.54810506373059 46.87543792080562
33.988642190289596 56.82544761179217 47.80674645595073
37.13897190560616 62.35741040910716 56.51400434416985
36.45550166681052 61.407310246025034 54.49478308403393
