31.555470228286975 10.54734151883586 49.36504449780313
32.45528925642867 8.807132300464392 50.957164063465804
76.95053521151226 4.748112423887337 62.338188198985684
74.29249618829223 4.754261636548176 62.85916064373991
72.47941728373995 5.791912548914568 61.41017204963841
72.13010000934389 6.224873662586809 59.18980206506778
56.34510666875953 21.213086882394414 77.34493388117191
58.10718512974956 20.64096471371826 79.41739741322529
57.61993070432563 18.43492597059229 81.0323555683483
55.853461742202796 17.11987505895613 81.49472889670577
61.48234195162811 6.393579071061489 82.61660198178215
61.32002842224033 4.395626324702302 82.05734132512394
60.01372815421445 3.151777429666367 84.30131073254918
60.45917849426595 3.491702287785712 86.67309474893027
52.08378592581757 9.72242780335451 67.30775994178738
51.235750556235786 8.328575676739984 65.46768295355655
51.829102189821356 5.880744975705991 64.79679597702699
53.21530748097262 4.138794825975148 65.8079937638966
59.03624288951345 8.01491005645041 83.51128614013378
61.05935033535244 9.118167313018173 83.20530245198324
61.554417087945495 11.07101842649422 81.26498700049869
60.47344732190298 12.259918186667841 80.04363856382751
44.14431842419712 10.31219425083679 28.766511639065474
46.20997079197635 10.481501887171163 30.395288334773618
70.53854920370175 12.979200597622473 48.23867751966999
69.17171275749465 13.866473295516593 46.18595964768934
67.86444711291963 12.63811314652151 44.42865834660887
68.56344918974575 10.239411775136864 43.17414338437451
26.463732449492092 6.322415119451334 19.469605146223365
24.37585418712793 7.074434050050921 20.127501528731237
23.46343770566707 8.791022933053966 21.771851720629513
24.50101866659013 9.907254280085299 23.510008858327435
82.67937140247895 4.551185486904223 40.74231491806578
81.55722552658455 5.081108161592224 42.75922069475634
84.47137302656567 1.8933083348411561 37.99381307109801
83.00732502508137 0.4118092176638658 39.22825882896126
29.097645929076343 0.9951941344304722 46.77774423557983
27.53338660637368 12.41870075249063 34.12576021302161
27.37491869871571 10.930212137608464 36.578170057114654
26.771386792666128 8.885462267684757 37.06665189176715
26.254071752175747 6.577629037595005 35.15231898383725
51.028570461327526 25.003984297365633 56.4098181267748
50.51961587167222 27.41787305085581 56.63568743254184
51.68943584808881 29.40631477497461 55.77670599700897
53.00327391511574 29.864765199424358 53.72108017673825
72.29450014211753 22.84810417418318 50.877599333647915
70.26125232661663 22.393457273914226 49.05054539485233
50.46284823255491 10.682827677692318 35.632668663958405
49.15791438926205 9.81346850809044 37.380702114584444
49.40630085972214 8.694667840080381 39.65914130135397
51.277388740888505 8.583339383994284 41.16681297877006
77.24880592705317 4.314823647964755 39.579332457761254
79.68374666044129 4.499484117710361 40.30453441706834
81.0431382134047 2.1101604081382512 40.92988226291587
79.84834353111752 0.27289065598317 42.3682367065012
52.129982810361916 18.91800987780859 71.45371412224604
54.60120872053602 20.13398380222782 71.55958825936577
56.236715242685776 19.830946902724182 73.41333008290063
56.23611472762886 19.09422823047295 75.78177121961518
52.03912689115203 13.031958006317188 66.0181075657576
52.180354728451285 13.418710687591611 63.33723390432023
50.07410608607524 13.985224241017928 61.540802024102405
47.98818846126613 15.08311644628179 61.8882540638781
34.07672277149926 5.788127693356412 74.94433244559394
34.894833088726685 6.874710082173597 72.68836924579628
35.87197880662776 5.845121119065956 70.56699281507095
35.772428019172104 3.3344818228537747 69.78691491732918
35.22743701172268 11.735414333382638 73.59260484514222
36.406105213740815 10.323988844631739 71.67517454366958
35.23103023800889 8.485850669823655 70.24914921199542
32.76832454953677 8.268588392903284 69.51426352850757
34.568581058599236 8.139551325478275 52.885724534399365
34.057679408501045 10.21175497143754 54.02857531374423
34.439535999475396 12.687975998656306 53.38022044897803
36.3008082872896 13.344511394059905 50.89310737860661
28.699777767259068 21.83426170750536 33.08617098860133
24.340609309873575 17.03993405374765 31.20402057583822
24.903938038431647 16.53528979577946 33.967027770089395
24.986878350080215 14.114286280692045 34.98730682650913
23.14385384994034 12.276624374703752 34.2616505922881
31.542996310456736 6.351631585383757 64.66752643105464
33.912015607911655 6.137984319582372 66.00748110956472
33.898660722298885 4.054684662363924 67.01859515251206
32.96129636143418 3.321588434235863 69.18186149149486
19.48850503878318 11.971810761330124 22.918527834669753
21.203165897358016 11.98446370561242 21.11493211149578
21.87522632084988 9.872170793254597 19.715428394515456
20.839727135648523 8.017125340022051 18.95914698506975
65.30058596553238 15.660436679011292 48.1905429647658
66.30259727337037 13.088957038629266 47.64765762392008
65.46577086455925 11.491155539709895 45.970484897800645
63.85918176474093 11.345354227726517 44.31219500265378
52.04469088660697 2.503977360583648 53.11357599457122
50.410290513443044 2.819489819733433 51.056131035942954
50.76497828902324 2.392106108884063 48.75755325454701
53.175378772258306 2.1216229269458755 47.2148948229107
66.87182409461947 17.27121105448633 50.294632273544934
68.76325951390957 16.25481411113753 51.008331991447584
68.74198962257101 13.22810029674719 50.5372332403194
66.77104204951105 12.120996575029062 49.93528327474952
45.233795817960754 3.9877770643534656 33.156756754377916
46.5735800575458 5.367855774110839 32.48625973024519
45.85059969620733 7.754516175594868 31.199502508464253
43.664357885043366 8.052184679842226 30.046685841121235
26.71730317838551 0.43489874838856063 39.56504778577219
25.252311149172378 2.242195094599972 40.18439265629589
29.53062285164102 15.464633056385019 38.591297753105586
28.88650002957527 13.149973748671416 37.9594924663393
29.85872234958261 10.794710375147808 38.481233687276124
30.681600950420655 10.273666185856891 41.018720828943586
21.0967419199324 5.906533292628161 21.8980244800214
22.092029784170368 5.80271686550779 20.073847674625252
23.79374005098585 3.854225950133614 19.22063892665659
24.114722928954944 1.67767950515402 20.318313730769916
57.63541298036268 23.28670998477438 76.34091397900731
37.19813276992067 7.151607273956658 87.80770488835067
38.56457657432449 6.907040013424769 85.99374362195049
39.45100231600825 8.533723828204494 84.12584827613425
39.544790648623575 10.732133957609495 83.89487074182874
45.55744300315507 27.554573014493833 44.52216584592871
49.060887651611566 12.792669136709975 32.71854812565106
46.98017752449523 11.344180766869831 32.89091043262814
46.63652411813692 8.878252604323336 33.54128843850591
48.37416652436443 6.917985036113992 33.62397426113159
40.70284776297725 5.6267264320578665 79.71074942802876
38.27249629014325 6.4678200973526785 79.33714350689881
36.78152803485315 6.174903331443911 77.54486681715991
36.95049164120141 5.796356729458591 75.2307150716892
68.9245323827058 13.974354021919657 42.23244788370902
67.29030398504743 13.247659240261497 40.446910782574975
67.20083945479159 11.318317717449094 38.73970936497675
67.77643603771125 9.32676295828426 39.20974862359449
72.51903419474102 26.78331174466303 62.851742478275426
70.74457829703364 24.144513945602803 61.45415252732761
71.77977640451897 24.71864536333149 59.622084219615175
71.02552084655673 24.76926172434653 56.993205262163
68.84284948098292 24.236320980744335 56.01847801311498
63.1078771810869 1.9432971406749795 28.627490749749278
63.73641323828646 2.1064817234006976 31.02160182342397
65.02311488391105 0.6609002302266763 32.649522807622596
78.59903642842177 3.2600377990178666 68.74287787122188
78.88697931345166 4.489790024412223 70.89239295184366
78.30644725426133 3.6592882660724952 73.10656784864582
77.07297881516389 1.372267052231318 73.95777528938366
51.7058700881996 21.946978976646324 46.25991609507113
50.000679012038155 23.720693498273224 47.172728455719515
49.34049403179823 24.16777662763879 49.96175552859513
50.96872450052347 23.71729114766166 51.70828961147671
66.7148719188337 4.125957297174614 38.358280080695025
65.06705000475253 5.581846311004266 37.0873186092058
65.39931254908697 7.6338849030131195 35.77493560905736
66.93305021332209 9.67414511154734 36.38669565207168
47.35631669230283 2.375456027695162 48.06029502798683
46.909304069212524 3.0418524467109873 45.3778378062863
48.16568255624661 4.652764304710866 44.06831858204932
49.88607910863029 6.627063145933032 44.524154085182886
25.449630218404984 17.669883806041778 36.583477309433164
26.015252481372784 19.795857841222226 35.35797208937004
27.39493892540033 21.373620059578084 36.80232418483438
46.9771355653505 4.82031689546572 23.71581374329969
41.00307097470299 2.8289210726385283 22.162259411498667
40.75715107053652 5.351145418776807 21.137976806063765
50.11861943006767 27.3589179762564 48.026349017589574
49.970681941556606 27.094482392336204 50.24104918240174
48.983604765522124 28.85099187329699 52.19467055529244
48.97572021380924 31.370466019261414 52.26400125692748
45.707213584653516 7.795624332392952 41.10651335835847
46.793508106907105 5.671752722768421 41.74861217209574
45.94753970176741 3.705431619430986 42.90738695126174
43.64552794045068 3.040917118395547 42.49935151851735
31.315778824424353 7.802796385421973 41.316288056102145
28.98498039839471 7.561135256653789 40.548429624139374
28.194210914412697 6.9744872960054005 38.105141207447126
29.00897481753512 6.031405698772 36.068027018256984
24.66871736223563 12.695131344962299 22.498820139177624
55.739688571878375 21.833136003708006 61.11543716356415
53.58846987903072 22.646225762623498 60.43753544106907
52.89881157076881 23.794125003931452 58.06461549249575
54.16938534955592 24.982230884945928 56.4261313112003
49.9173507570335 21.615096872998198 56.40642069463138
51.32188840026002 21.12390749702238 58.332466605954615
50.56428859006459 19.723862215004115 60.61942261315505
48.65196639129606 18.079345658097512 60.6259594211658
68.35435844824093 3.7286686794842137 35.14983146445926
66.94700990276336 2.0430194685238785 36.579196130150635
74.32976227664767 2.7226209829456836 55.66383144625686
73.95323372468523 2.7860931366664015 58.10772230057109
75.02140586899837 1.3492917712522994 60.080425928542574
65.71582613006284 9.29432532097104 47.449594627682664
68.1498226988392 9.694993096220449 48.383231331305225
69.69619294836846 8.484850593029218 50.093209362202785
69.35545369411425 6.763667248855622 51.57589058984049
42.47714083295752 6.066652187670937 28.715756146727156
43.73079509414438 7.166148810212321 27.406915683302834
43.67137269877038 6.77319477132183 24.67605815817238
42.25713819252223 6.218064447508115 23.270553385704652
68.27685003193594 1.0944905413661428 38.844619253895964
63.50462312597278 1.910607309714081 41.13730999590743
42.237818940156146 3.336676079471182 29.443977899999062
40.92836230657245 2.5292213603338203 27.290620338710596
24.908604962715916 8.012793356641957 40.49761345034918
26.229714067518888 6.0258744694311055 39.71557948790298
26.007212818193185 4.130182404068786 38.188721950389564
24.243386848623675 3.7034529973483945 36.41830435969864
57.03625583604788 1.0955921587924689 78.90184031980255
57.00645218121723 15.025698736007012 80.6440881886763
57.98098712030012 16.37286654323354 78.96167126081936
58.16465667003588 16.04530157230996 76.37718085558758
58.66244523100866 14.099147372141566 75.01262085208494
53.48315435470058 9.61685496144367 57.61871619325142
53.49800692793486 7.690660784088682 59.728666052215964
54.00457617105671 5.114900906123606 59.64214624604929
54.06635551435473 3.6398261724684726 57.858454901667734
55.2004532361245 2.1660588980083646 59.88302320047059
48.40370999404732 34.92013991650538 58.26016574289046
50.81402632635909 35.583849010350775 58.24026345185597
52.90707700532074 33.66630448905543 58.965259544882315
52.21414874441207 31.562035263629216 59.58517366012862
55.15245244232377 35.243314792423654 59.521606784976996
54.549524269034784 37.092888050338026 57.90345209469063
52.482026828671955 38.46759985155612 57.758992270813486
50.99918666288633 39.39801760331953 59.43110906972904
51.39947708768907 17.714256644552687 42.78182276479636
50.05194704764891 19.615635704749472 42.8813683771301
48.48867874425193 20.62923004107391 44.634987521699365
48.992488014912325 20.504592687213517 46.79973035336948
46.94752455119786 16.383469668516188 38.18160000775344
46.76122900893182 14.436038162094079 38.38672473722932
48.39105219534434 13.33080107813951 40.40124922269742
49.30004741183837 14.681823483834513 42.409792505914886
4.649511070526497 1.2330207598255523 10.080476603705312
55.42391363581899 22.63762464134357 70.7442245238668
57.25552258444269 21.034661534991553 71.24509968685163
59.34426503901508 21.32151614941208 72.67858155319216
59.63172418543038 23.061452341516237 74.68841236309916
64.04510456058408 2.9277207750777143 38.55414696034344
64.1239565594302 0.9753908208269471 37.143806543325745
63.07882336404304 0.824684293260939 34.63729790364009
62.927905864332146 2.732193016015544 33.57715409469999
63.53792450137273 11.789877081744345 37.301481116222334
64.73083437484371 11.114505718427887 39.54772350234459
64.93596452942558 12.250932265582723 41.70202039242702
64.17252541730323 14.970033029446911 42.23318953646366
51.12293864110467 32.16666896925705 53.47068032188744
51.565757532655645 33.65244321196917 55.43414707505795
52.01822376675529 35.91437665340929 55.82905287383218
85.38286902762039 4.37781012159393 40.624156711518694
85.15302212136355 1.878442723755616 41.5232982767226
48.80010192016174 15.750745583322656 35.11325971340473
47.900114345588094 13.773016184663417 35.89090320391797
45.952727549087584 12.400712938435353 35.481431176236875
53.992695628741885 16.860992060915454 70.90128155782317
53.2979979926944 18.1174581811536 68.92207762794109
52.90908108220181 17.435839981049163 66.57519454309636
53.766035889771615 15.332166981006546 65.37688296513362
51.28391539830227 25.06746780865385 61.91777210289164
52.108593599398354 25.686415657671553 60.101666155117236
51.95927952303465 27.71371692914011 59.056576555664755
50.31907014729812 29.65902564822784 59.42583290532078
37.547767492717405 3.598952822295655 67.86999892226227
36.58959525086856 4.999477228382779 66.02224332575733
36.444398770607116 7.698989825260193 65.85672115586148
36.19406251755372 8.797831049943628 67.70388767617953
51.306376790500224 16.260852320601604 40.51812426899788
51.05070373866032 14.163502518131837 40.398953863966156
50.25572121534682 12.980963249993229 38.349405552838846
50.629589614547434 13.46165935333674 35.70991843858707
49.64881887663571 10.681253938566622 59.9458120929513
50.435382896348926 8.017377537635959 59.551459899607146
50.727521114660895 6.461237786503325 61.24462780572595
49.373654258610195 5.736800696834159 63.358242746461
48.48528439735424 24.8242744324267 43.6236408201186
49.58212123306867 22.811977760843874 43.312228905062625
51.93955964713757 21.881324441040746 43.20650471896364
53.370924389816274 0.12906752082177617 51.426441016905905
71.76750113259068 1.5104268864742474 57.030545146761064
71.71339482917784 2.9563534477093905 54.992753991401784
72.1472058885085 1.811324147164558 53.3218050497568
52.177784110461964 1.7469133450613583 64.93665650439554
53.04876826293911 1.3089332442143928 63.087651791704616
52.891367983021304 3.1436248263560964 61.51097475827102
51.2634946494419 4.1805331330807025 60.052013129756745
72.8520638455591 31.099351817392773 60.83235744231155
73.21677850810438 27.431705709779923 54.645075158250464
72.25960774950558 25.902794570987005 53.161342271455034
72.1134724092648 23.17887484755926 53.43648780752483
71.92257996592387 22.598604825105593 55.48670402293645
53.516634146667116 11.647020324688691 59.400791498691284
52.03426897471571 11.277656570850246 61.329337413904724
52.24914732464054 9.939397146071522 63.554293823559824
53.65238881393582 8.066631197679875 63.56066218788082
41.30278609573202 3.2078744935705337 96.18056211871921
41.18016387182461 4.32884675027207 93.81900361568245
43.249762620471536 4.798664904566744 92.1748017016438
35.28330150406008 7.926832719621295 79.64415051366326
36.24515350630662 9.820893565394792 78.3687544242768
35.47537936375285 10.35090086755006 75.7690237714229
34.53220692291501 9.0093176149427 74.86373227590761
75.67889402592628 19.92969761012266 64.31077535419544
74.33161531296804 28.763333666212194 61.05687040314734
74.2419076459571 27.091503195938007 59.273571210166466
76.17580812950612 25.04158001084236 59.005203009839576
51.02102045948403 12.462417754981667 43.675701387491124
50.072394134653024 11.360565297298486 41.95646356918924
48.05568146184099 9.523585248294149 41.77904662840821
47.391522030446865 7.890875488819051 43.78494122011476
72.48531202498752 15.494208214420961 50.422000922042514
70.4132379257973 15.543800652297834 49.12884133948256
69.45777142388934 17.181133498810127 47.68448689704342
69.97884261368353 18.618450630600368 45.96662350917347
44.26791264595756 1.1991988861852034 31.39609521037279
43.45618927704319 0.13870642948820627 29.31551124323131
24.413576429071735 18.15203652547837 27.91670184220937
23.024637018519638 16.44296031819217 28.374512967755564
23.222170552772294 13.68310215178343 28.116008721566143
25.228361985080294 12.287150665866376 27.963269901152497
59.51833004168591 0.647536549170219 85.37750144792821
44.15464880190115 26.115623342550013 41.37939926756282
45.08923864162994 25.322138233600363 43.21831775946233
46.06933090930069 23.06218776076941 43.99731465921169
46.068932711466736 20.725196896686207 42.72718962294649
51.62065972084025 22.651082730915093 62.57300942224196
52.79736596776972 20.991219775991365 63.96253930132531
52.11713796500318 18.33693081174919 64.23174978089219
50.18378319006753 17.581750710679717 63.11794988766152
25.416565276060982 16.20755871242474 38.90258898824046
26.945138416263614 14.24601110546235 39.18669407349272
26.63840777056277 12.123083548228164 39.197163159398315
24.95975531783239 10.327391680336298 38.451182730843804
73.6493856833689 5.2541261347032115 56.6421780213181
71.91685680247124 6.817091186380921 55.9149122214
71.36411013547507 7.771681512947006 53.92799317249015
72.07530067970639 7.535085921117141 51.458849964410106
27.230790491980137 15.846461487896828 46.958489561597965
27.965777380642695 14.059150110246224 45.29893161544492
28.254534060445543 14.346507954137959 42.779518334269795
27.666474062439505 16.318793134593783 41.257585915099135
80.0562938324597 8.146453660811902 68.48637806609123
78.24735262661144 6.1088205013674415 67.76313454630322
77.52612569465242 5.865647469515353 65.38902512219092
77.35730891556214 7.197845238555521 63.62474730331311
46.880900783193425 2.5909578050795665 40.625301293609944
48.4296861830628 4.315884671325055 40.2300873512285
49.09547640280298 5.9098217526424595 38.26003302259073
48.177096890065464 6.338903638915163 36.17556031865078
83.42545561974578 3.1466254184757787 43.25250233832707
85.54613707360677 4.423498131913859 43.786611858283116
33.4484079935252 13.761652167643286 50.12130337227681
30.866848803607983 13.567810774779533 49.26033840489877
29.549840822715762 15.4770842316253 47.94984134336388
30.28870557017984 17.569453130885005 46.912116451634304
25.710206573089987 19.15404178113364 29.930372953592617
26.93141342569044 17.907880347751366 31.5034370927452
71.12012183699983 28.191046777061306 56.4101821441367
71.59575421853974 27.20418549475128 58.44269002776766
70.64869513064552 27.60741098528276 60.81566378091801
69.96320692130426 30.036993460069247 61.87405373685219
76.00573485285935 2.8722421463858425 67.35892388468147
76.22179135020724 4.666945541303311 68.44227498954181
75.11136566481206 6.61751497821328 66.68263612855601
73.3338947576691 6.502649339951371 65.26740904873054
50.250502925807915 17.57550378887108 37.96622574749241
49.41914068204643 18.03438986360852 40.04856235031709
47.933235640746936 20.000522552077985 41.136151585022155
47.25164410483457 21.957202303219482 40.292259039217434
32.952144156122245 15.03317845015295 52.40047235370825
32.126450144910514 17.33204021710187 52.44216850435655
32.46595124829762 18.945716075048473 54.91998671428901
32.84206224509924 17.68633160085582 56.46683071428661
73.54500215243145 21.692293406562435 66.02001752032035
74.40714481533286 24.914671027131234 62.48892423566768
74.11235715294836 23.618755038351534 60.78076509648277
31.16390688927147 0.825868717226559 68.17260979490932
29.946088955849596 2.4392104663308145 66.79487086020987
76.49070915665682 3.5323776706937524 89.6838325106883
78.07694158801787 4.717032366665287 91.0718186555451
78.04034618856134 6.552510902537955 92.61680900886194
76.15446263691389 8.285142536716902 93.32597008590955
78.56895034603328 39.403544756212355 95.62575235548461
80.89123846910114 39.22214091048676 94.6442871362621
82.35263451043849 37.48208170724514 93.65926590456587
81.92745184800587 34.96734258983968 93.55124928537288
61.65011194064158 13.514217096024234 95.69592070330931
60.48979626288834 14.142613371424057 93.16934504221074
59.67147604637999 16.095190143270596 92.55594073199788
61.43028870059242 23.504851292724204 78.84945483122975
61.01432141076394 21.069188943746507 79.56188183377742
76.82714183243331 11.613587595713085 72.54340060205875
77.40214190460686 13.538502757163487 73.8795460992806
75.89745500072677 15.154631456573814 74.32498986117767
72.43325209724601 42.4558460358508 70.09692961742375
73.26044248105154 42.65322330664085 72.5237715523585
74.9234383072661 44.61338337760809 72.69042270293855
56.50227896786631 34.571792495948614 80.187703689237
57.11865074931763 36.65371955987457 80.49151809535054
56.74200362120306 38.85182999206419 78.89553064063632
55.938138297693406 39.195123635930244 76.4577100469099
76.88021058410304 60.487168616222185 87.88332040756922
76.99050164863776 60.243490825166425 90.0958202383576
54.58205205872979 41.17068264362601 77.79428164693296
55.953015385578794 43.13138892913248 77.17614280382094
56.44734104447315 43.961882516035644 74.54738270955099
55.1668707949002 43.645114990331365 72.527220370207
72.99042024796267 25.25254145087289 67.35871421334899
75.2195232539235 26.51764597000622 67.59439479580504
76.93874810953939 26.23919996006719 69.40101519226103
76.96708713520813 24.79702253333427 71.58263102782014
84.5776528056197 11.976149042010999 94.67921598620154
84.74189540463496 16.449448520483482 96.2039052083621
84.57219848058526 17.63118459002073 94.03790102604333
65.20403461038265 14.341909034426386 94.70331034922788
63.31523610953648 14.384522029432798 93.47543367262152
62.46339543606197 13.187779927306078 91.32696628781133
63.54796388155909 11.986421720365714 89.5979918750936
62.09289037779415 9.92857537940147 89.394509247357
60.48306271646875 9.601358490583396 87.49415262457654
62.008805312658325 32.23539199236047 93.0289280290549
62.52571265406636 33.289410843598915 90.77829882482587
62.96242741168821 32.584263937597505 88.57001509159593
62.44335968381945 30.691906032417283 87.78564777902308
76.23008127689192 41.105895509013955 80.26429804054942
76.06477084704532 43.06878392728763 78.53048871523822
75.48161946315513 43.08106064679145 76.08564671604131
74.79121190362503 41.242873776514294 74.38372669608486
82.20597478118397 41.69187322525324 93.7575823706469
80.82160322414298 43.1870152034879 94.89734180575017
77.24198760779659 3.358712910073622 93.29965716190716
77.97044214446576 1.2064021147514041 92.23412358595488
76.07350985791216 57.51817064531097 91.23986540029185
76.34902750689999 56.590015452681875 88.60290888190984
77.47620100621775 53.90066352481522 88.33803972987212
76.6705763086982 51.902656187214056 89.30386290447441
81.89228231338414 0.1352899149656085 94.46334772548589
62.66142265115592 37.26654394506717 89.26962315938503
63.06740741866023 36.94935928659049 91.82893619986334
61.52692558286245 38.33156190951434 93.73480184604975
60.89007972309351 40.557440349744766 93.64183355976763
57.16384063521218 35.409467816889745 83.12431770008239
58.48029597083526 33.33192509318984 83.40165349016833
58.093853185735256 31.158807966003067 82.81232932602673
56.04372301861863 29.610990792565985 82.16311974441398
79.59264620850084 5.6722555560588965 76.02839524205017
78.58198819277142 3.933248107673659 77.84056669805621
78.94957678904053 1.6058246137337506 78.10301845606986
60.96442674213649 19.99264914014614 87.42809823651183
60.76103533921926 17.46922960865751 87.7216492596494
61.7930552137061 15.997362211169541 89.36928726974901
62.62054966637566 16.50379841771313 91.78113472424403
59.60418338075052 11.964435486602039 88.92771307725839
59.6171982439756 14.224113050849184 90.25237125722995
58.66024277012135 16.020738077127326 89.98008279590752
78.86191199760599 41.552680158235155 80.04556585468701
78.56833598328772 42.39174706302245 77.91759729531806
78.84059798628805 44.75344051551245 77.68911772151472
80.53337030922746 46.44880349851195 78.54115163345736
77.40920823063887 15.870288896681245 69.35824797989325
60.577617986222215 22.50942675666888 86.36103854296469
60.94696416893214 21.73742959867713 84.18068936609839
59.636800766029154 21.976082960900982 81.93620612924848
57.26250206143733 22.588854865932145 81.51139999957712
80.55277709313496 36.360364787663535 89.40144826662087
80.27864435397629 34.52431926764416 91.26686851564438
81.61523831984589 32.33979026680864 91.59591194853795
83.33426498691873 31.13199236824715 90.36454360171851
76.48670629915222 25.617795415006363 75.82190905972108
78.20495172522482 24.281673519356 76.73255501756759
79.85626903204884 24.961315538716008 78.77651374572558
79.31265404397094 26.33487367819094 80.94215768273193
76.04892015435325 8.62294681211334 75.28186390553176
78.66456428193939 8.07682320973146 77.48565775670079
77.91807673235785 10.171033765059887 76.71402722857597
79.23893944647018 11.976322743185975 75.18562125208842
81.69264299085918 12.084122359048134 74.46137357665849
84.49634446407767 33.038150886611 92.51184624062009
83.89815306185781 35.55306214954354 91.8588131111775
84.74963995359394 37.418263363159525 92.27637917123195
78.04130355451977 5.252380879187097 87.85829595103868
78.83401582976828 3.5801511567411404 86.74448489877223
78.63027177262839 2.448377504088293 84.48652419317567
77.96211667369434 3.3451453750860622 82.35465227073198
62.87839469218915 20.84282740780948 85.65604082996872
62.70918886988841 18.784123705936167 85.58528071315334
62.06518340086002 17.775378747629496 82.9143716720939
62.2859257670664 18.91370250624307 80.72086764909643
59.5575066182412 17.741702987953698 83.04506829558754
59.9188286131117 18.839773521652024 84.75500401443965
80.57726204905117 20.436123022098602 76.74624918848374
80.24476066011405 22.256924169039 78.67543690826379
79.23812944362572 21.869027152130013 81.11186787218108
78.3494680047831 20.12836676830472 82.21631675403523
77.25611321466057 41.60843085524588 82.95591560625894
78.44500000199862 43.31145425224852 82.13828095497631
77.80321511845257 46.05794436382637 81.8372824038205
76.79691905348811 47.549793298348646 83.3992981195274
75.32867892315437 49.08819128548272 79.53714824133012
77.00053940504303 49.875448697726156 80.99132109532583
77.91312931492422 52.45500012469646 81.67627481488023
76.96414674214714 54.434932327187155 81.24125507563215
80.84932588535638 29.984746761593776 89.25941598758607
81.27852762705001 27.812704266792768 87.83986961813494
80.27859913629834 26.917219691748645 85.8594571130153
79.01796944793976 27.442285417270895 84.24120443222951
80.3222780647009 6.690261127823294 88.93903607944445
80.82296117150928 7.640105966806261 91.55709968527418
83.34922949187926 8.078632745373298 92.63087480988132
85.45149904378155 7.91407481422076 91.8544715739305
77.51610895156077 24.069231876552685 82.12498164988311
78.99140423911018 24.776350958122475 83.97447493328771
79.28599938641797 24.056935496394473 86.35231314110031
78.17245306220562 22.286447516505067 87.6653873471404
79.8581841205008 0.6721484027645637 80.54503282493285
79.94983428845738 2.588891386349017 80.76862444454899
77.76884491189371 19.345284938987255 76.06760462567605
78.2594446297991 21.922806493149075 75.55174390369254
76.63300664329776 23.496337598726075 73.87366388183605
75.04811775820812 22.5085673983802 72.4973950070429
82.08258977832664 22.70139914442362 94.83175492011817
83.35722525065343 20.8816777869229 94.85194485855148
62.42198031783745 41.985892576232544 95.76045064219389
64.45538687293313 12.00392653757594 95.90560751091691
64.08862515325097 16.935749338215423 95.33397583488338
83.74851744953313 28.918474159964312 93.13038177864775
83.69441767594901 26.785135633988883 92.25472630427255
83.25609351034315 25.11703953321291 93.98753595503906
84.80386302434285 24.369400442113243 95.91523261774869
81.38942490195431 18.29258938849075 88.48086824163022
80.79971146278642 20.615098464277473 87.68889095863699
81.24050299678959 21.60767727222173 85.30004414388587
81.22530939998668 20.293734135411807 83.05319441480499
80.75900747371942 48.842440893035075 76.91625913237051
78.35200914980271 48.11688759560684 76.8447132815612
76.80431632476022 47.74276107824937 74.78146781539189
79.8805368713266 51.779807620547665 79.82482159477071
79.39433034425328 49.38671399705462 79.61564402970586
80.03553269398259 47.40823148513102 81.00526156268198
81.24910788099025 47.59398849996869 83.36989891756038
58.71442661698602 42.073459445388806 80.28298332763205
58.44289790052078 42.35993456046376 77.87329141005975
58.860801993057834 44.361404950340656 76.16747146219943
59.69716374825386 46.616034050675026 76.72137816631037
75.76237791600522 1.6114423721381428 82.4065024638485
77.34076457658446 1.2973340638665924 80.99125298477524
62.59622943568907 34.27917793767489 82.8781153526463
61.22633186703625 32.20516945399224 82.76853390974557
61.938835915700686 29.756732282620035 83.29089731396044
63.40916775130844 28.95314131640205 84.87781163165003
65.14087328160745 33.610117580456844 92.97471489769426
63.65089720384698 34.43457425860489 94.38020002764551
58.69055952073625 10.23338749667602 90.9998288820918
61.043143203550706 10.615638369714425 91.54772883641948
62.540562798228116 10.741536939977253 93.90350475199128
61.92309961014532 10.896428166357687 96.1090813854343
63.444349445883084 15.955785999893742 86.88283793371097
62.533270611895055 15.551969313289584 85.01248368218457
61.21736411292436 13.197449890372942 84.45002094451262
61.52838052287014 10.951222362889222 85.33963657519854
59.744407835769756 36.34682411800262 89.31709972322287
61.5416502028402 35.226410055218885 87.83994858811128
60.91206597493367 32.816132328620604 86.33145329296381
59.12750435330979 31.964610173846008 85.57251012022937
83.32959575320345 37.68211594916866 89.62513096013527
81.51287172344158 39.02748443859313 90.52423790271096
81.64429886658843 41.76513254926999 91.17951306644113
82.96292189158723 43.27507975101041 90.43401622648763
82.16814525366844 44.048185751162514 87.50147584191063
80.87390982826615 45.51521594465008 85.80130309962432
81.03450390203398 44.869498974372846 82.96803097331446
81.78998196324213 42.68603042177778 82.32857311654502
81.39927088488332 53.292437931562056 84.00589569590021
79.31139262251915 54.044456862161645 84.66379207840808
78.3989761410583 55.761045745164694 86.30814227030636
79.43655710198136 56.877277092196024 88.04629940800427
80.3323049151025 1.949943963635785 95.98098470959143
79.6317892248286 3.8574818135214466 94.80609383827125
81.76168640309226 5.100896318271436 92.82228327094997
83.64498944044486 5.666502074669617 93.39898180245267
69.34164029115898 34.542833511966435 67.14142077453965
71.49771196542977 34.136229858085215 65.12456950810736
71.82107401577115 35.50244619260838 63.126772837020305
70.24984338823965 36.095966991782284 61.44833188114117
81.78035933926276 11.588547898208114 94.2675364820634
82.59079106783267 9.56496572376777 95.1780684258574
81.49935799060813 7.431512221279276 95.94224193881843
78.86031809872152 6.465208894885896 95.30052797894128
79.2761477452648 64.00995686585837 95.74031112551506
74.42404347417441 58.941833573440846 87.45481838434661
76.13870433274924 58.95448651772314 85.65122266117262
76.81076475624111 56.84219360536532 84.2517189441923
75.77526557103975 54.987148152132775 83.4954375347466
78.26607760322437 27.763938473697003 75.28419464988914
78.93745301811613 26.79846517388342 73.13018777757549
79.39250210576687 27.73952654146558 70.71714475584594
77.18998109377706 29.166825885092674 70.22443500210444
76.03228035532362 52.87655610473889 86.43431502969825
77.0275682195616 52.77273967761852 84.6101382243021
78.72927848637708 50.82424876224434 83.75692947633343
79.05026136434618 48.647702317264745 84.85460428044676
57.18529888968618 27.215370135995986 80.96803548321749
58.46624580938775 24.870597566026795 80.81395632098541
58.80533176040022 23.41522884012915 78.68828673995665
62.884966609698715 42.914617998158796 93.02531444408964
73.7840506517456 30.400162144839136 67.10315190610672
74.48518277636582 28.56139617364033 66.14947616308515
74.04180380661867 28.291630671622094 63.91404629253919
68.56839500756368 36.2670911647706 69.46500653228136
70.2052329498222 37.03902243395485 68.23955256084594
71.02193995672529 39.49053192168887 67.31109248193455
70.50615878320895 41.65072730612872 67.96013334541766
80.54421602177052 3.8811601512129528 88.72862783871078
80.75897540116168 3.2029402013521318 90.91772456112444
80.67539968252703 0.8343206606735694 92.17975293097622
79.60425579762686 59.665154157073026 87.03511068885447
76.20066088107319 0.9590633547151772 85.07567870415664
77.43034289154129 1.0030882477499978 86.9772369718618
77.09746545123974 0.8410361099843774 89.45202400949707
78.14112256839306 26.498432613189117 67.12432419494888
76.9738270469829 27.68656314351951 65.26232801189182
76.45662031080808 30.477773787593346 65.33321842418017
76.9808138250842 31.61364226210326 67.18179816315659
56.56751848321306 45.277992211803365 70.29666045473476
59.58504950591773 48.20304357193627 74.61676715338217
61.91510624159897 30.83904511506315 78.75927941110994
61.095237994056305 32.208996026057726 80.13421479820249
60.34695224658597 34.21057654061313 79.63122746014082
61.239179936899625 35.79913962896048 77.96480204050629
58.69981289400102 42.37608509461215 74.43727639683082
58.231000373464326 40.34952213372089 75.58460998967445
59.452984889109125 38.30210173348084 76.03754418966876
61.80776492535313 37.59200686179324 75.83810784612815
65.7950335091709 36.45889437303382 91.87747869689905
64.8269906300028 34.645134036947844 90.37159310796878
65.57055532806574 33.552781353363905 88.42265382955108
64.2754477610754 34.967839915565655 87.37062853573944
80.19597208679221 26.284607937258624 89.79095985170665
80.58129871068121 24.180643169104666 88.9748190379419
80.6220088053288 22.088830070757126 90.87850126402648
80.18359895096775 21.888124192171087 93.09588362530711
58.36436053327567 33.51821708403053 91.18272672578676
60.132962204171655 34.98348973635746 91.63918486090859
61.2886781627071 35.86087547589045 94.04967906109337
79.96663821849329 5.937274881243268 73.4001405840679
78.8003858328092 7.719098735649762 73.8407730196399
79.08906703926077 10.323673860707839 72.96061794743835
80.04081514187592 11.149483236878558 70.75066662476027
80.53364127169188 16.590552047060992 95.38481647096553
81.65950268143074 18.60906970016055 94.17652173520123
81.28229589298388 19.563486847827235 92.30304720573382
79.55264920888168 19.302145234114636 90.46124199104614
58.61047985946909 26.90902356461861 83.65034038475679
59.40800429204751 28.99032235462333 84.36795977048908
60.49983535806215 29.678009128438312 86.7201716186138
59.76791982756153 28.869557056636157 89.00812270363392
78.7658626594274 22.913826573873493 67.03635795946971
77.01659285998132 24.36687774914478 65.80126216245999
76.93264764922148 25.47609793866702 63.43036269200532
78.48144126339344 25.587662129134014 61.5533210065877
58.85308816560033 35.194333196034044 75.53691691670919
61.02095555903605 34.77908862739377 75.25047994086265
62.62834917269329 34.72832119041237 73.49724760205368
62.746904066182324 35.87715166360566 71.0092242683875
84.85223084866774 22.62925248061681 93.54612408562652
84.64627582927463 23.692038721229544 91.51256277934253
83.09060051433505 21.96939666366848 89.8820377332448
82.93732341567839 19.699147064413623 89.73398036979395
81.64002936609074 19.202932357245306 72.46452678634635
79.39306595540134 19.744036837080017 71.36490519392663
78.34434373485809 21.873657371169944 70.41488016554784
79.28683326695206 24.14109956327127 69.87215567985082
78.335925216973 41.573934425481625 75.2798609639809
77.77256393162952 43.8077462545358 75.08253998016473
77.58072651608848 45.41390866604182 72.9297652123412
72.20136529011675 31.310683232846195 62.84498277173347
73.66126623048804 32.36120529479898 64.96212859464833
75.7593656377003 33.376366127893995 65.0242819493091
74.33113666812694 46.7011860863549 75.02328333703923
76.0986236409392 45.844598734214294 76.58049811444704
76.0119298549831 45.72726259557632 79.23057895736878
74.50046624018908 46.52599408660581 80.90128522898199
75.23920760439565 15.837113698442565 71.49833130069413
75.58598373908707 18.462688424628244 72.48127669418301
75.43509665608076 20.445037189403305 70.93422743067191
73.59048435558327 21.059344917247337 69.19108315892458
76.21240567304892 21.103793638191238 66.29776320995084
77.45035009642977 20.22746921391189 68.43722412533023
78.98786241941195 18.50759309641774 69.00627737315325
77.05217476765037 35.83833597638798 90.24782455082956
78.52127559601315 37.310055349587536 91.78783278088952
77.8919830579601 39.47860946709864 92.98085102450663
75.84112764547824 41.2228235395424 92.21246513970252
76.19047869233377 29.939419257661196 62.30910264600909
61.67329680811103 28.482773157249426 80.75810691352375
60.474591541749334 26.488045163729964 81.44355486651119
61.28732745413 24.08431243787555 81.4366650414759
62.99342340510291 23.12840293262845 82.87218801175342
78.49729739690794 37.51966616508592 88.27896078122274
79.34677177728321 39.81960811001573 88.54547884734869
80.25546399353696 41.434891590177344 86.51978683212499
79.89667991623651 41.38630594935704 83.93726678628984
78.554951752904 44.502554019205505 87.35319226741717
78.38377352872075 42.39650598265042 88.54974441436475
78.76230549960562 41.96228124772066 91.18758527841244
78.67279057562857 43.340384744636495 93.01441891249623
77.86793135144744 17.210216003695642 74.49377079854453
78.27771994711674 17.24595861646113 71.8532622560786
79.85497281801445 16.14904170918499 70.50273183910696
80.20158830088835 14.054330174207815 70.90193299246646
79.34911486446296 65.12205933758909 92.45299239188623
77.96017545391086 63.4129831303029 92.91080351743241
78.15770898816352 60.65312496389415 92.652299271243
80.16390042047152 59.257173477977105 92.49956045082935
82.22528420376351 20.734104027644204 74.88930007400016
80.63698867303022 22.67182683034661 73.8866236634433
80.15842676569805 24.909425654159428 74.62782360090927
80.93030975977614 26.138041414266514 76.41426154932931
71.75498063268725 35.090666317418766 69.15666131693551
73.61477541810866 35.1123973916245 69.5681390829433
75.43953049745188 32.77742001671587 69.51006155171015
74.78178338383792 30.59732498688356 69.72731203736335
82.54343436427988 24.669097158944968 79.1776522162867
81.71915305420958 23.38261630528306 81.00179880501625
81.72400614608812 24.63992331654211 83.7761168105089
82.50465735777603 26.78270675106887 84.49637512476195
59.64916400445118 36.473405323944704 83.41742668187746
59.60853291292621 36.30259639084505 81.16051977167041
59.834962800657784 37.949083603279085 78.84907064958456
60.110293652874674 40.022338468169984 78.5936855499847
72.75276086582795 37.63752146752026 69.6937857122622
73.3477362473425 39.77656721788119 69.14245759198852
75.62492121020416 41.25365596937109 70.04323282916702
76.76656663858776 40.732114578463054 72.22565645445748
78.17633071043768 30.76116946545225 92.82845016176262
80.17399484299901 30.038413522175077 91.79363323951121
80.97158266787083 27.60033703253515 92.02131660788655
80.65695032345015 25.85172426050863 93.80353243084798
83.50239371083896 23.12321649639517 85.12133741893501
82.83282438140404 22.87643306827706 87.3273022339129
83.24660674288002 25.110386928868447 89.45861205333877
84.13945053173295 27.04158196431523 89.32450065570556
75.12533131143017 34.716552726429136 67.49537950161834
73.0610591721042 35.660400577149574 66.69482942271776
72.263702469947 37.86881884853887 65.71370723166878
80.64574500848123 66.12406459324437 94.46666350326947
81.86695186108167 64.87790315986209 96.03972764242205
74.27732855887872 24.08687045655047 65.02314417136101
59.24403398981971 28.36667248211145 79.35807794532471
58.94266992010802 30.490696729726025 80.31037513928524
58.10506041086971 32.626882753179906 79.2659475976241
57.085461087234776 33.135842855799424 77.11791199238696
40.05324804079984 49.96178105421195 94.31405451084171
41.995937294246204 48.172783664547296 94.00445618226456
42.05162226012535 46.157583461064235 95.41473019264981
40.65013380276434 64.15084420482985 85.68766307868545
41.067181435341 66.34805330281645 86.19136102529157
43.115596028787074 67.84861267006352 85.32393613156489
43.67294160280508 67.54842838728226 83.40890212420318
24.682884790955367 58.897861139353545 96.27718727684645
51.42296853338403 51.02733293301124 67.74833913302582
52.95671136853292 51.80867319194179 69.45052048004412
58.39717178236418 48.17560106916082 78.57570676537895
57.02066370429651 47.12730094087321 77.23877279211055
54.97052361132131 45.77408642490088 77.33379052668664
53.83690105208688 45.026625212012 79.58748099871431
2.3012531556954587 68.5473997881275 94.54555399947924
2.876253227869012 70.4723149495779 95.88169949670107
1.3715663239889049 72.08844364898823 96.32714325859814
45.99484912169967 24.23837763303016 95.0837389111037
0.6936345771856453 83.45145816242064 89.59654819322552
2.4128594328015405 83.17301215248162 91.40316858968151
2.4411984584702813 81.7308347257487 93.58478442524061
18.76946586315935 60.816178914117955 87.95129624254204
44.30981156147161 21.3842613760228 96.2230809509143
18.770212518446833 66.11416728010059 82.09032934124804
40.9978224299449 42.43125123946928 95.85728860780951
40.84306254069984 40.42654524942192 94.90763756603349
35.38827761037221 46.244339294040266 86.56483959360115
36.59678586158878 45.27402101772523 88.29177526774694
37.47641715109371 46.76920258558407 90.63779826207914
37.19180362979063 48.99446875011439 90.49168059154073
43.624242092598685 30.939890548914605 91.9675149165603
42.991033883901515 28.68997438206267 92.5930532130795
44.68156972422082 26.937065803403257 94.1774627299157
46.425042167301115 27.077341064147177 95.17973615917192
17.78887696336831 73.45932197555909 95.07903011826463
19.19817750078503 72.4125424137996 93.22688568871087
20.74781496907743 70.39104215169883 92.99318132838653
40.327387930827 69.75538405009922 80.80984711077578
41.79823189984897 69.82036214421814 82.83919471757993
40.73805151387211 69.37015896318553 85.25545313461141
38.89591509248393 68.15262667492296 85.91846108719365
42.48055215820033 42.2377815191021 91.69553936890452
43.17574321764164 40.82411447612143 93.67161907710768
43.876858297099695 42.26622425670882 95.95747663827257
44.19308274821639 44.50407254246677 96.32974197322875
41.713072491796744 60.430812727572 91.64628785910014
41.42071307278599 61.40537866852633 89.20246409064212
40.15777660791259 60.317850437015615 87.37100230585642
40.0734343313377 58.211930315576495 86.2518963204759
39.2866274739624 56.52685595811528 81.8045063520244
37.95981584085986 58.528645413872965 82.97094772504427
38.78223451712609 60.43242505045474 84.29354134549101
41.07340229401283 61.2773758786264 85.07796187161512
19.600840309950364 50.41092025586671 94.64095650659947
19.74473106901721 52.130449539017384 92.72346616491991
21.21895730369401 52.460029070956416 90.73020555079603
23.0045307490911 51.167380108428915 89.6285648695462
44.36970836807957 33.10737426959366 93.70871774699891
42.527917326534975 34.36096247211834 93.08792612076397
42.008317595886616 36.60546899485303 92.03478271832329
43.288695034862904 38.6202668695509 91.7141398250502
35.60672119404614 56.82468340309453 88.90621156478612
37.18580730048796 57.27379456864779 86.64359943745444
36.663076368532884 56.13208527518172 84.46922036746898
35.23034222039886 54.97349048520849 83.69133681692269
34.74460055531231 48.91903350967915 82.98000598179996
33.53978331251068 48.20219400886619 84.91768598184002
54.026364185957675 51.80640502186618 74.45429930438125
55.110520479027606 49.8094555058155 75.4262431334714
54.51228935031847 47.11509763174812 74.57077025140062
52.76299011137672 46.40144792573296 72.98780620777586
35.77131116126002 59.19201405675596 91.1705887149298
37.52674090614259 60.51689905054841 91.20141782950962
39.63339267013482 60.997243134571 92.96980575570745
39.5957478085587 60.626572984929375 95.36012047409287
37.35799194340654 29.862334383645138 93.58753006677264
39.7530798815308 29.04333859367485 94.41497823702841
41.96187430208839 30.582917584930783 95.0537399809835
42.20867738468457 32.850549378558405 95.4859431290361
32.98951720223394 51.58993242464257 81.07821284050858
35.449156735238326 51.64643677764357 81.51381025672298
37.31457748706283 52.38815877398627 80.65478185484328
37.888315356889514 54.465191902109844 79.19373172477975
40.58624642116138 25.861035394092447 93.68112999771529
42.3043958666215 27.279699317003264 95.14685105418158
44.6794517168689 30.6278920597017 95.78865685850944
36.68353871142149 50.81475025994154 85.74984741302316
36.300161752056944 52.05510403813931 84.07439861056663
37.762998884313774 53.969328377732815 82.78878688405204
40.01709790698273 54.95809357461635 84.02559211964827
2.8833195539010195 72.80410108909567 91.36040137731372
42.955276442540416 26.417355772554828 90.74765196455662
43.17088033969895 25.14562264951019 93.14877838226248
44.25228614644411 22.875021222168982 93.8387697954477
38.76703184156649 41.07753620275225 92.97744653784186
40.219563186728 43.222234126168146 93.42917927038916
39.463010864945446 45.77345170109179 93.76136155862984
37.547764197637115 46.69762657448779 93.31072517306019
21.840406529422115 67.31892110527338 87.78731414841597
22.178750516457395 69.84618875258242 88.107283889112
20.1844034555611 71.47056504878215 89.35090422933266
18.521779874572783 71.08856547449325 90.9511145766097
2.1071179665599145 80.4301497911405 95.87581727925652
0.5222290814702617 79.44237959079463 94.49954840446337
76.27379540009251 65.27165708907299 91.41704643028994
39.20276160346043 35.433639735915456 92.01322469723068
39.28426040130292 36.67194397650628 89.7198322941579
37.49081242971214 38.414854685961195 88.64019721328403
36.21277903905133 39.98329194067852 89.91985714181222
15.385336318036021 89.87513329534272 90.90392537526091
17.773332308889177 89.21288456289899 91.7089207309723
18.30756586127332 88.70544222737374 94.2930331523614
17.20988375820488 87.37090618763025 95.87588993918347
24.03761571641097 64.42344326832348 86.51388682838969
22.324442158754675 63.11932617262686 85.92448031986905
21.15820954120293 60.573287359729605 86.92498811508598
21.70662302427757 59.38500856116952 88.78389314301761
61.923242537730125 56.74274797371069 95.92035245631659
60.927412515075964 56.402966998189115 93.30828888318628
62.078064249198974 55.55311366874285 91.26573343318853
58.3054140235844 54.09570097795421 74.87211895746151
57.987311819173776 51.72649971290016 74.75020558674885
58.611994821460776 50.2652126122568 76.86900488055178
59.605864500121875 50.925901318709656 78.95488667765777
40.086729838374254 30.211460514652046 90.69232405124848
41.35021685165589 32.36984055750787 91.47969802313385
41.29807342508838 34.65491515245343 90.20181061246845
59.376855398412864 64.86785459273996 94.01966623001762
60.21512775232368 66.48371190348422 95.48426048425497
61.35884736865642 68.92902345826414 94.93959179995086
61.01145138524917 70.30968368946338 93.21998037655479
37.6592514138644 70.12126368163813 79.57766651311903
59.53924947280382 54.14547549612701 94.5879868577585
