29.628023197175498 46.015462817404924 33.804679802188474
27.565075955793755 44.8148079916152 33.786025919880586
25.076905093757432 45.70916542535076 34.25440402342497
15.560968741053578 18.625289087385834 11.53078004522721
16.931689757396338 20.326368502220653 10.729599603692934
18.99640631887155 21.57429602427292 11.577752298551983
20.698098084616 21.164113608324808 12.5487089599034
4.680232837645856 93.49340488562285 36.03909563427514
2.892036668620658 94.88966764542907 35.12974285610824
0.532276449381964 95.35921407253407 35.8388410963357
20.464703160341898 63.21999235333097 21.885582484264066
22.68374434759642 63.01556517158522 22.74670422317922
25.030650746041957 62.23575001646593 21.86966582154674
25.743934464061713 62.57640624453159 19.666608111626505
72.48760556783184 75.91842995305612 2.432630276982123
46.396087188437896 49.52710360537556 8.321662609014497
48.1547862817663 48.99713338845587 10.380163753788219
48.3489506479697 46.896221869305556 11.847016573124755
46.29822305770863 45.660620293641 12.930240249814998
53.4361994223196 70.78382899479315 0.13643613366184995
52.02845164766565 69.03534259004617 1.2818738961688163
51.341902109923716 66.68778056064517 0.9607567063157679
37.146108829163694 63.403341646253686 0.33119434082415516
34.3989340694243 63.73419577775367 1.0188125996148654
1.9588051513042548 56.19618141494225 11.367236263240247
62.37177478874117 72.9042270301646 15.544532788623238
63.65745169380159 71.0656214260665 14.938402878211633
64.8515496571419 69.31150029351707 16.64166897241989
65.29515070603023 69.95670000803177 19.128554198864553
19.729114718085356 42.19464915841927 11.126752155049427
22.116376676697985 42.496207248231315 10.969158510996342
23.432997723971933 44.13370398710936 9.264842191752617
22.506778759608732 44.76350159137605 6.90128881450925
57.77119245830012 58.60666331571979 8.080160636308067
56.29230476237289 57.37730981198573 6.658078652099362
54.23464712280046 55.831612894980964 7.457912672757479
53.38407738149871 55.113467858205986 9.345616461651515
45.51720360796163 85.16495382989528 10.969601219498598
46.88449299299606 86.51352454654295 10.16778020333158
49.660414523319695 86.4068074849371 10.66208863094919
50.83532288981093 84.77591133938522 12.293506653605528
13.612336713115054 93.75328821651689 21.268478470176536
14.597296201888474 95.54311194040808 20.819347057562897
1.265363408985149 93.00667402255662 32.36932998910083
20.680030895844776 41.364856108028114 14.585114618462912
18.52884185398918 40.340115493338814 14.397634361878513
16.50418502384667 40.72252344463816 15.667434108590232
16.14728384640701 42.06537673578287 17.886010049784474
3.301646066392771 95.12641199620822 30.06024922614101
16.168488789365224 94.64565262884035 24.962242001166164
14.253244213286864 94.9965831164753 23.71080379516679
12.256788904429959 94.59135546726644 25.239362605525606
12.57481403627556 93.09428126850172 27.752555416723055
40.757116987176175 49.258169528305466 18.680163377272216
42.99463774908436 48.02542617244003 18.930853011958614
44.14866743616238 47.2204714934652 21.071027313768482
42.850398147118554 46.19286047249332 22.482421862216427
14.187895384664925 95.43476702550886 28.524316479304805
21.27292219799711 59.05394701320563 21.430921771343655
19.179273496154167 60.61326082118176 21.848727376599758
16.815362772543786 60.018163607449516 21.764318051770964
16.588598919164077 58.7597781840748 23.33590579379451
36.16804927989279 81.69648036357442 45.90706787076804
34.9542440597028 82.00715107517462 47.69882987218672
35.94165962800315 82.08569550245761 50.35775330760928
37.79876443330848 81.43344851958616 51.188738163050296
4.955156250308706 56.0522749011164 12.26440537650053
4.649208444000449 58.12385809549696 13.48601337999308
5.880578739185711 58.82269508584378 15.736496500473795
7.160983574175152 57.64376140836627 17.534028717714634
31.622954896981256 44.64013349222479 23.199710157581624
32.617948968925454 45.95532163527092 25.25134796445247
33.85944637039801 45.35285910374413 27.21486452165644
34.333084738005276 42.84311750090384 28.068306531614798
21.660865828072012 47.3180790377258 12.629717361035699
21.526322435889014 45.04094109042241 13.468542307092907
19.352282399728782 43.45928639453113 13.41478146842504
17.090470266341285 43.9397258499307 12.955280366894094
13.90198390207626 41.41223777500619 9.797755272282506
15.280990224007313 42.858824809058596 11.179412456134528
14.461953826862073 42.326771336700254 13.657658949315122
11.821130959446283 42.36686865111669 14.371150330654642
50.883357247361 51.63943742564662 9.451689052367588
52.17890947237433 52.8815851521824 8.02129462527788
51.17926465031635 52.36457082885843 5.641132295046198
48.76842240195356 52.319480746208434 5.035870153227034
54.13475256546094 52.807509187875006 10.623315210209888
8.882007503840216 94.75801260845758 35.6866900633002
4.324747769922882 95.14127199596578 32.43242597510152
9.18289272611662 43.24472002775705 19.53187392476987
10.666822077663065 42.22905579389835 18.012314338265263
12.949188557090817 42.960453747170575 16.917878500935444
14.81016510813472 44.444773469846844 18.02873274048509
16.937611213717815 62.84369386231475 22.887961624410195
15.328673581120524 61.99723503492153 23.865431813368765
12.413451336962538 61.59141354271757 23.22618915497233
11.49470948038039 62.44966948585185 20.935174983038
44.38658152865652 51.17074688126354 2.1474248323565948
60.86075116985296 74.08147450433363 22.291981118380868
60.49646907073453 71.79306842927905 23.561139991840815
59.578443495614096 71.26733169676919 25.794990958622385
59.75968386323669 72.49204537899357 27.913539400987897
35.04509733586318 82.75316687906648 38.26624729445971
34.60674491179864 83.32053968518834 41.021447433351256
35.7866584755114 82.50265103894785 42.91867309401579
37.744452559563385 82.24153970430874 43.384385328203784
44.897567374714086 47.35358140401274 14.94797342165747
46.9212276532603 47.901707675377736 14.914522999103328
48.24594324933824 48.46553990530176 17.56384482606463
46.69145055017755 48.75224744402951 19.71870834308796
12.964607730822646 79.94016516774433 10.240843284287138
11.034069214043216 80.67340090420413 10.713572546019137
9.279144002092595 80.29612293145256 9.054694419211105
9.287176138871278 78.80371833911258 7.130206962563649
50.44927703688694 65.72265516948494 34.31978906654176
48.41696846583595 66.51073506128515 33.29903076671336
46.3451057457102 65.27901269109172 32.49300940681088
45.47347469089255 62.95448324175359 33.08636571836249
34.576187466920395 63.903388082016285 48.54039298474982
36.34144288081471 64.12009271484462 46.71272098088646
38.98896847404285 63.827038802710156 46.93858059316031
40.39344827730717 63.616930891517406 48.92233504011083
22.877911076682558 81.92899424295868 33.71876071146797
22.561609309907038 79.72451848639635 32.8457435478168
20.591636548531852 78.41541373253224 31.793717881055436
18.334787820663408 78.97193478316015 31.750466526438537
34.67790563004844 88.09093935501977 27.40051739681984
33.944413876824534 86.50536222796742 26.025154571543847
34.36259392241731 86.02606344848674 23.352199581730297
36.22702255855057 87.22563425004482 22.004491732703258
34.23211222055376 48.5795768716852 27.550311335351925
34.05269783834503 48.964462323736456 25.087349851832514
35.66589671836975 49.52193080991817 23.292993019196253
38.25067164878887 49.11381529683954 23.250018632483034
24.934187801277428 70.0240131202821 19.372972362299723
24.234307447972867 67.7593022948303 19.13809881523617
23.89194663210936 65.89439044370891 20.836876280378014
23.53349645190036 65.65726568171067 23.205485033062295
14.314577598624709 45.788223855935286 31.065945541426967
13.431443263541805 43.50859466418588 31.20267130128474
40.94253437456404 45.57909152819013 0.10405742893949108
18.550382252257922 82.68266445542177 4.633082148166839
20.803183822178962 83.14454608066272 4.215274977116587
22.595175187960354 81.60845690773688 5.068057691002513
22.273977086875124 78.98567203599376 5.529707682481339
24.342306433962076 47.19816991825682 0.9949746665778759
25.87770128545279 46.02845269116972 2.8475175515758235
25.469092712235103 44.229501262700055 4.531641007119841
23.987729698250373 42.31825833230717 4.670275910780459
9.75555524736275 93.52016229424277 24.424023471861446
8.719708564685689 95.40034669500506 25.720959312569892
8.556206498944498 94.79095815113885 29.997262725692607
57.219745749017186 71.50819828302355 17.271405172087814
58.63587134116693 71.85415474273236 15.231613803244503
58.311075888558626 70.63121386544807 12.539253413460274
56.546406460287024 69.67687953219276 11.616365670848596
27.85500362015086 72.58152287165518 12.219509631204778
28.595633810333098 73.06079658408373 9.85714208224841
29.005995163643462 75.24369115446034 8.809542810562029
27.91151430338397 77.70076097886457 9.470938225035237
5.884266960138504 40.75887790192797 19.2244699280534
8.426905355099326 40.855830717446565 18.252384078075767
9.15939466014279 40.82184509883306 15.86952979653823
7.764815081959764 39.94463179097751 14.30358692796293
48.22883147596901 49.71979100845015 13.275698208406421
50.36530518967179 48.68202773017035 13.447878533015784
53.738213458780045 50.92659222853674 15.225569161806831
3.2656527071564727 63.90295627318833 11.356406503046985
1.2236604007195742 62.38110738029997 11.093975524913452
1.7900971039511553 59.64298370645158 11.486471178645427
3.614063259631923 58.433792405058064 11.12949560686653
45.48134652660692 46.46824766489393 6.981224583561198
45.232547172379526 48.19070585026759 5.233264874121866
45.03943947291009 47.83705425513221 3.163819497569668
42.27886642500745 47.33036986647409 2.119186821621474
40.84345317627354 44.808683681839696 18.68783949854254
42.93230953363701 45.371232549963835 18.259910480050294
44.938873810015174 44.692147370268096 16.687817669222113
45.07280738178142 43.60117463330121 14.669006142389984
16.877743266049382 95.2697875578197 37.9833460400322
18.34363797823934 94.11134140251173 43.65798973123127
1.9070482192131064 16.554897740829173 7.516286306753113
26.74848789776838 46.477468882469765 30.304285684606928
29.14635663974447 45.817500081051314 29.80025754484042
30.235402775838658 45.68954834493742 27.26277193135182
29.4548799467199 46.399306616128385 25.207724917566306
33.35620887060536 51.052568691410954 22.306828133708805
31.837748135484205 49.308822163056774 22.134197804557235
29.355413129505752 48.67525122305987 23.316403473454816
28.664901696731057 49.694412042973426 25.64505036089024
2.9229829047611524 78.98540442753294 45.4704609802377
3.6533508892972257 78.78762185834233 47.567460981538176
5.702708466539897 79.3864303305374 48.877746467774436
7.989360751168792 80.5384043748553 48.08947440164384
25.014335286238225 82.72509912399562 26.40228533221814
27.213430630713525 82.81756373069616 25.770352541041266
28.47981939683825 83.29825369468261 23.158428918588054
27.8464603262938 84.04498805690264 21.29372007828003
9.853139969331513 56.72499022266403 16.589471238037557
9.797541673927043 58.87726194008492 18.317491561338866
11.861168351882782 60.22411609684859 19.31972463204176
14.01630474509567 59.314679971933074 20.08903223194654
42.92452710659772 63.72109325290775 47.322699082853326
44.59952518350195 65.04441281242514 48.50596167040782
46.44019971928482 64.3429597215344 50.501452058626334
32.055699465296335 88.56396525866398 5.078779998256103
30.65265586335598 86.98015988751769 6.360982920368089
28.46444491720693 86.48973229694033 6.675594698198627
26.206841379443073 87.5450213642906 5.560230433543188
57.387208254989055 91.25742254623806 0.4064883860740153
55.66459753517479 91.53257998073555 2.1562018868396904
5.549361912839834 42.86978431984037 24.175733449551505
6.9757499607850635 41.73183256604568 22.42251839882025
9.118187761659225 41.69975076385617 21.907096927635944
11.197761342984286 43.06534465569417 22.246307505028035
0.5123988916858433 39.885224612604276 6.871354796632481
31.976606606577377 42.82851309215665 11.811141545650257
30.117321234877718 42.56577020980876 10.364000087914386
28.05513307696546 41.89607601197967 10.421067776189464
26.82247863905103 40.2668646170634 10.542379831098204
2.814124129696999 36.33080224343824 10.835561708544565
1.0480700190971877 37.82701226631039 11.817528109921538
38.235374037235175 83.95661248356735 27.39148240585726
36.05541881593207 84.24286015358126 25.686343732100998
33.65552376046847 82.56350640031336 26.20348091014534
33.34377829497475 81.55125680664717 28.160567163940765
46.038452347347935 85.36701822822167 29.092751701464188
48.03108751023872 84.78522967015536 30.008634133022532
50.25237003237744 86.38045539795338 30.907918365439105
40.29122980521928 66.73889955170901 0.22423907399874887
47.99076406819013 82.29137495865162 32.605594196727054
49.00623058284871 84.19142172381835 32.47884790548089
1.3764011936465104 77.4501521446021 18.511863638057104
3.8720829501784992 77.2850607090983 18.70555160281141
5.780946605578478 78.52631559825412 17.023457429028515
5.533552454320049 79.41353278606053 15.077741131157612
17.305749003725598 62.1753202833863 36.27111678260928
15.22666683238946 61.78978601561482 35.83190353182632
12.964993809588842 62.8587691587209 36.18789074401596
12.518439323094084 65.70412103010477 35.77501065375793
9.412927789629002 40.12122479005231 27.433807444837036
37.74324907499644 83.68596439220339 21.544125310947393
37.288018861354274 83.12352574656461 23.739818513314855
34.85908374855382 82.8086433271769 23.47884996454048
33.372131967815626 80.71310452686957 22.52376566032198
38.96998780275507 65.57965311141784 22.47116183351646
40.29875522719492 64.91435879767292 23.78550439470996
42.86893067349522 64.71610632377988 23.32885421303505
44.307822117075226 65.99299700324187 21.486953038014956
31.109472876537946 81.26619184493778 40.65941886199461
32.50019467594338 82.0649190935853 39.059107189871185
32.878994519779354 81.85410424394922 36.58157586405196
31.255560675143055 80.2291933027336 34.88422320459185
11.36255634593404 39.80023194105421 11.329911665016015
9.474098302011592 41.218689778228 10.990338672509592
6.820867267205424 40.521741183779135 10.765627230131095
5.901376374260692 38.55493914998308 10.727623204913526
3.8929919541485205 40.57812907757837 21.752875447161035
3.9184280998444923 38.89406263231721 23.43142486467497
3.4920132692889765 39.01104411661797 26.012357958124053
2.244630287603417 40.51833162171838 27.664331728518402
18.75030945352371 39.366102256156715 9.957567253395062
17.225270548306487 40.75229026844462 11.464921349135857
14.823976949721562 39.535410370097956 12.809823513476564
13.888155161892097 37.14606179117737 11.840442326920378
27.0393790288536 74.0344192871278 14.50252488383392
28.241421321869357 72.23069855412038 14.92549005507877
27.787136415993327 69.82166602808874 16.165960817159924
25.713400351741395 68.8936410771312 17.20258310401944
11.137205808036397 64.36197086854557 8.199221194012269
10.222736621302237 63.07095280123551 9.619247526068342
8.184750948442879 61.7148220544556 9.706973330578863
6.08557983588945 61.863825750771284 7.737473049803749
55.69165861763946 92.28793732895274 14.320514069174326
53.36624107859199 90.83616622457647 14.170266764809707
52.03218300775531 90.21339260652276 15.570142342063429
7.026720795566675 80.69818280424467 5.120322398686282
6.625460896593227 78.85111094491091 6.7387864205091
5.842328194051056 78.7239598788535 9.06553426882034
5.063114885562822 80.47087334970713 10.878044040122344
9.710989300315205 58.83616433242643 21.448372187162335
7.404282251060914 59.307820916129586 20.1348291280201
7.255142887282052 61.66878665441533 19.227513499504717
9.103256466806837 63.205891844774804 19.59600986076382
15.195179404283433 64.73867241851934 1.7921318752823416
14.236985324406332 62.21282703863289 2.0997290731948612
12.164232861045639 61.47759119222783 3.194908893041174
10.345156305124958 62.8464265553244 4.950215734711239
25.283420102510092 38.733907205203664 14.120998353176706
24.211269617544012 39.92317308234606 12.15697116331394
21.90105841955148 39.43782514754407 11.292551397141953
19.754496550104932 38.401354983778894 12.568632507470545
15.77109195392033 75.17781179705035 40.888444679534636
15.76082137549278 76.46973242178404 38.88634146095545
16.976952055849072 76.45637046006208 36.8419548809316
19.219545804974196 75.81366786472485 36.05174931980779
41.6014665402801 83.0313697261585 43.35717496053094
39.50656946012212 83.99304699411942 42.34878698987189
50.6689376948683 49.175630827960596 37.59824369160203
49.84276844053516 48.5218617662998 40.0284966258267
48.343729710547976 46.39746858104364 40.552673215761246
46.340285491112326 45.61049835085568 39.60012023749486
2.7652859401152026 19.6898912708648 12.629535134056999
5.066567717261363 20.092658527720236 11.877074580168307
7.357523126079634 20.578400205866462 13.758279627424429
17.9288720889733 21.68672949639193 2.9615058355623933
18.867824576040253 22.812597396032128 0.6221691892713597
43.38877248827766 61.507173609695194 33.78659252498765
42.42106681419921 63.14747301215114 32.23960671022883
41.630668251679715 63.33516600505056 29.83316368881638
41.4428761923566 61.71984587668829 28.250001781779538
4.35668396645275 37.58713852381011 13.346440512713176
4.122749623159135 39.603364573147225 13.655618726898059
2.1355302080997873 41.07776683927818 15.050502550830743
0.46501033916255846 39.86618060628732 15.422267533909668
56.04706326208903 69.21573213579671 19.069565647711485
58.03895877506345 69.02431076643103 18.132494336465097
60.14460267486563 68.40850759852742 19.431709521805363
60.277027835847605 67.53730651484958 21.72245176469824
30.60449911567085 84.49144682839405 2.43723520143032
28.904419531684958 85.1826409665783 4.352701304405432
26.796004479476213 84.73466017789363 5.053244469126441
24.75889388254484 83.865769488827 4.054255087015601
30.888813843479664 83.75419401787723 28.275136192453793
31.050521620658145 83.01544031012136 25.90410761723127
30.998368586846695 83.84193530977866 23.702082606560076
31.43298191198747 86.2586676437108 22.754643223829618
27.406169177595476 60.633240206303995 24.608100436963866
24.81833697333323 60.16757916229663 24.277305077407107
22.83977732768342 61.60625471939262 25.154055935466
22.704037290431003 63.479947735613095 26.963599120427187
17.55255771375519 64.19203400727281 2.5262219033241853
18.31296847891064 62.88326345957233 0.48808286039676096
32.09975458733957 82.51559611093803 30.52389347298718
30.790898782756777 81.47726854001708 31.781329455024135
29.113664018967743 82.86280875716857 34.09922701348007
29.713839382912663 84.61290693155198 35.323196809056356
2.1100105812504517 40.971749926664494 4.979116028017036
3.223911303009999 39.73017373989243 3.724350782328044
2.8096386550749304 38.70824156510453 1.4292671197939935
5.375911847102794 36.38843452605516 2.924701234780144
5.225389227922057 36.85928052035779 0.8309714974038788
43.730183740342476 64.70640184868573 44.83911166665876
41.41354007983065 65.54582316231186 44.11618794606442
39.307342031046 63.71625546257327 43.26000676110398
39.51390004601532 61.605755324134954 44.495574513374144
54.92402359640242 48.3580937257474 42.11187967472257
54.159820321551145 49.41429521220474 43.31792815742383
6.3132813528902085 37.36494622049741 23.41291274051357
7.9522923757815365 38.99953977147705 23.00604003864061
9.933964602856882 39.28859454068304 21.140942378986882
9.889444658813828 38.673087547951546 18.72853196014246
0.5612401136095653 60.78424479773992 14.20475220328929
3.0128969175622258 59.94674032425972 15.327073199840818
4.563759186243254 60.97279836717557 16.845495367058767
12.668007962164005 39.40890699181801 18.591926176061992
13.324591813064659 40.18798507232471 16.188628343753283
12.384812635244106 39.53984507452328 13.813945954027227
10.195804118622842 39.14283776609105 13.731757380725774
65.01378602436276 74.46800686681131 12.375016577364638
64.90501600198436 72.17778928383623 11.367810015981577
65.53827624982155 71.68417377446944 8.545031114177332
66.19848269089708 73.35233042775957 7.165478014096828
30.596707667574435 47.409886640479776 0.48744485517473213
12.255124871614475 23.81304537501885 8.421819918158082
12.102388311153655 22.062934198036814 9.803053345717894
10.9165583149555 21.508006561757366 12.23729909872425
9.04899946761553 22.84746588405771 13.529201063732035
7.288420760554807 40.29345501001385 0.5751061330403548
5.534116240073617 39.3818673490848 2.1186860572313817
5.647745969060403 38.73908008266732 4.5423246725230575
7.380606405883913 39.331445834359954 6.665154986234104
45.104268323417465 67.11909553830363 4.266712508039644
47.02572337107461 67.9812028076874 3.316312770993115
48.1385641221148 70.17889780459969 3.422113102716758
47.78501692296977 72.1178061583131 4.4295132785558735
60.18765277856579 48.03295422605665 41.02499094702722
57.40389761481082 47.932975870261785 41.45152550205431
55.748617037569105 46.983466858474806 39.83872937198411
55.85237981690042 46.19959412862694 37.20722950786546
65.72400233500781 50.21257847799977 44.34944371785665
63.177457319776245 48.55801853655166 44.68928386022944
62.17539847741107 47.32753847073681 43.07421994398357
50.456481023627305 49.99878618659031 17.366677547100284
51.385922470592 47.388153183567674 18.162371229445792
51.78017461788364 46.53271819490101 20.22438163115878
52.01832658075311 47.62631760432381 22.48403777933733
11.738120153806019 24.455807954498507 2.71588151302293
10.725644622522932 25.674404374072154 5.14097733482537
9.876424923095511 23.905480165247457 6.967895738750418
9.845089402910075 21.84372390929136 7.234339301720555
23.594378987581525 20.375133581698925 17.8767243784057
24.127948698202445 22.38902028485534 16.45375762006547
25.660573686281325 22.89967681727955 14.37987944013618
18.467387151433844 24.300749951434042 3.650638794047482
15.974308120453644 23.456281482972425 3.6231724918035364
13.83809272519732 24.293821505918256 4.655052275285238
13.352326648634088 26.361310699792355 5.566529528077585
46.51884667535456 90.04648994536483 10.360371110470199
46.459858418009425 88.5474976584647 8.221002101808054
46.04479476688635 89.10919742479511 5.748642848200811
45.958541533993774 91.03326868746801 4.567068528354276
53.864386474271946 44.39725546140273 36.47436797629032
52.07229026854076 46.055065590394726 37.94852453495398
51.05715194108962 45.463668772374085 40.09257810497134
36.57212784211948 66.42253314907634 43.71110130753128
35.861661791067746 65.17074619094996 41.52766196253099
33.34017768677868 64.18750611276855 40.86257212175984
31.095240158939873 65.05654105131964 41.71706991704092
52.9697839829667 64.66855840779067 33.07104991942032
54.096893627947 65.58483292954064 31.415240482486148
56.728150437497085 65.73203277982299 31.834539682176118
58.61300845877509 64.2128345315638 33.12706985144226
73.5991794558921 75.61276169050883 5.411822657332245
61.18039980106259 67.60210159355921 32.80679631738361
60.31986021936617 65.44765520642949 31.53260699555175
0.8245956018894792 42.47294488832009 13.239230551264127
49.53103298914201 67.8306716663915 47.71624205564197
50.75734221148551 66.26492444602694 49.446157067524155
53.01286199559304 65.2502432590439 49.34867741917009
24.6301263044032 27.71496054219428 16.72545208791368
23.487088427947413 25.28932272479117 16.40057751114993
22.006119851853196 24.00104394454185 17.682817844463308
21.25424361611416 24.006425535410415 19.682824468843172
49.97711388788501 62.93476750458053 29.225911750677735
47.83811867281651 63.688021771125406 30.510327250737042
45.526869612625106 62.74892947061189 30.528559954395387
44.7357569324768 60.51876448883338 29.213336906935293
59.056169775642715 71.38248336640915 8.002129494520483
61.20495475936204 70.75447588434392 8.965057124606743
62.40512573577666 71.49383817359099 11.007448505591686
61.94129477231819 73.34258311689896 12.896168065429931
53.621846018105 88.06030336214828 16.776252990585153
51.92585031195058 87.24935515599876 15.159456723477135
50.36265446427283 84.89338863008233 15.365318906926614
50.54497979818189 83.03483554275266 16.773815031065926
33.88700089688003 65.41676882602484 45.85502863432525
32.82845611295967 63.227388235413166 45.78755565103899
30.330552540705025 62.47934586917081 45.866766333282406
28.47168195110778 63.23373237039275 46.18306413410747
41.94559572771094 47.936713829203676 36.70823233659695
39.86301886417389 46.577304801434906 36.98669899345311
38.4350453937382 45.156902058234 34.887661575644444
38.83346294230597 45.37951802477251 32.39100428141284
14.065069096122633 59.70620650811897 4.540120146265546
12.752298498494044 60.92462813442967 6.538557057129591
12.118729267435382 59.88221743513115 9.018978954929523
12.579759449039864 57.53816745207492 10.078130808911924
60.139737603470735 73.51299772271061 16.785068086347042
61.17419809718971 72.1386710521379 18.151917941003838
60.8752535651506 70.85945754922682 20.21085262614631
58.914560585954085 70.80602058878013 21.96743737809658
16.221158037927264 24.65402015129693 13.962298051820424
16.163759215570707 23.01889793999009 11.987277808653495
15.856191133496376 23.50397658905689 9.545411029448784
14.474102437681285 25.2659534771109 8.175578055195501
57.094946731862194 92.61654148380158 10.166248646641952
57.02076974250401 91.48349703117269 7.95361483595892
55.14112249009947 90.84603858385933 6.379473325328856
52.699652945270174 91.13860930796963 6.37964123947491
52.62088102295559 54.69367478040669 4.994084276547204
4.5762530359315 17.446324033927922 11.839076419280536
5.626067262631504 16.459656454696777 9.807400217490963
63.443844528755726 67.97842376183313 24.218691094943704
62.872040696388645 69.09782898211151 22.12427304022249
63.02321750657539 68.51729810299261 19.52875419042842
63.97641333441843 66.6923237190833 18.30768519302438
29.244254492422424 79.96189802196095 29.956716064841512
28.441441772057022 80.81044624690462 28.20558481937264
29.02361821947753 80.89913723332612 25.843309143777507
30.863946960998323 80.13711752353753 24.38957759882163
2.844995512805724 41.54715136788687 11.96747642710652
2.9290816373715702 39.78176436503302 10.596287900188887
4.5376692968473975 39.41658414552101 8.146157784110919
4.51470744505672 40.84071501674785 6.3324389108526224
22.192932106509172 24.41695010736195 0.8193437142626984
0.8213750970463201 18.10646654206866 9.875953788157618
2.014844604265173 20.39004584006373 9.753246619458066
36.54684057954869 64.4466709167945 23.68966319757218
35.58085515820505 64.23514113940045 21.21454499841684
35.01335109834153 66.04813411226253 19.609538995339484
34.96996646366333 68.57901978709722 19.60591324253326
1.1716304864161606 36.577413961501215 3.1884938012681037
1.474508091790441 37.84852345540632 5.2734771041197614
2.639459566477464 37.7570706264944 7.422587326341943
4.24305237203061 36.40783532302538 8.470646062276636
20.583655575972024 78.88686752403058 38.353241047918516
20.882959135550003 78.05090498026136 36.10242879762303
23.09290790611071 77.67270330472554 34.80218090826602
25.18047806631456 78.01941584894664 35.40225522047067
42.176795874652086 69.13327185818214 3.186945971376257
39.58101162205201 67.97852310445498 2.6402002952835004
38.492570261583815 66.24535391020785 4.220067602398762
38.5829123457312 66.04866887016054 6.637709967516126
45.19314745632608 66.22657176631446 53.910831531422765
47.45859014808476 66.11409287489315 52.39760962183093
48.298653102969226 67.24621714986392 50.52412578498399
47.22933154874233 68.78436583713416 48.82213528438247
56.72616439450533 70.6151242105839 36.11411014747042
58.89072860283093 69.83432925148546 36.27605405139718
30.948899691015338 66.74284340059076 18.037516234907486
33.33183680580261 67.78834023971324 17.516758658211582
35.106487337663744 67.29650948016389 15.655911141311359
35.35194153467862 65.19359201149666 14.378263937810372
31.733456550698982 85.88116389916347 40.503009193885894
31.29663708838127 84.52795326701057 38.682087237786625
32.2421554958511 84.46426821345872 36.32488830691633
33.67028554918739 86.06441534689289 35.12666451039508
21.608888636232184 59.48153240938064 24.13147196622884
19.095192843021398 60.122308781346455 24.469332789735677
17.351066628966766 59.71669946716565 26.20047064866246
18.014789883683434 58.492139599155486 28.6001028666734
15.199369151339912 74.98671874632902 47.09025713554809
12.994010970147498 75.8233414046905 46.099643821971505
11.7399478117703 75.1531946721714 43.88791775722841
11.947056218910244 73.86618725522415 42.08116744494864
23.216770738633485 82.23868409110479 30.483324425855706
24.972025109969774 82.87906500392499 31.46517128204514
27.170584188653606 82.33753920314135 30.25392235218584
28.153989370259474 83.44074548165042 28.148120219786197
20.951384744209367 61.73800911152359 28.591220774413568
19.63768010755514 63.220883792520844 29.325839117731018
18.496895103610246 63.53107709451391 31.844686859000706
18.563974726776685 62.033656540838244 33.68807239857245
7.158849447180176 61.115019838500345 39.64829582945778
9.78834245837907 36.50677115763614 24.545168270889906
7.880703796329508 38.36934503690762 25.70477790222969
44.25931631139473 85.49294562739661 4.124000614606237
44.03747848819086 87.54815157044182 5.519532276359893
43.37910567545474 87.81627267201746 7.953187049655424
43.60358000136753 86.4469695615727 9.441223462401249
35.34326016651928 71.5554819752844 17.87480881278987
33.39408914839418 70.44897157665793 16.29831302378554
31.01142708815837 71.6070374361853 16.11245503953156
30.204572669260244 73.91427541351938 16.373744784323367
11.528259624638425 76.79653513428181 41.69733065750927
12.95155726236244 75.39761439633318 39.692817702074656
13.040357868138537 76.39355050993744 37.19477088765406
11.176024910539052 78.23287359479302 36.15122849689091
20.98747349067074 81.85380287461058 53.687837558260235
19.484243646655433 79.99279304326376 52.54548064200925
17.090238470765303 79.68353237440492 52.201618345279954
15.205225043500127 81.22200925246774 51.8473625271528
11.142069599158923 94.40948053906773 42.213309251587674
14.82412333094665 95.36359179420693 44.650743570070745
16.07501670892704 93.14752915262645 44.87126599477879
27.280329846900063 84.08765169271923 57.30876527510045
29.27286640494683 82.99787284143693 57.35549046375755
31.670876364890237 83.43713323559561 56.48855964212129
32.30318682683235 84.66601484362367 54.649490500507554
54.599848564901656 45.27125021314649 33.726575372289766
56.172784655853526 46.32411966041811 33.13153195014727
55.966921745815576 46.80062735263447 30.653385563666973
29.874342449012364 83.71836907269511 19.79516831758709
32.093682161427004 83.13538536957114 21.33725137173897
34.61715760591775 83.48516198959 20.792667903074307
35.75006905591966 85.28122182170634 20.070967134666873
49.641775942026754 81.58650890690551 30.496058391130223
50.07724734459867 83.54461600940783 28.75856224273045
49.32346046268347 83.84039868057326 26.36418672826904
47.790974631947066 82.41411883853556 24.955348029893567
34.821430693544976 84.985490729644 48.059894301824656
36.22436966770479 84.67488848150256 46.00463774499359
35.988253242462605 85.25667768217176 43.72999275880088
33.774689991189796 86.11592945242835 42.23825643699288
42.96999127703271 84.24685228627845 18.92283591180511
41.76620781325259 83.79327828992253 21.126268852882095
39.74070767822062 85.27038193704075 22.05793977990436
38.879219259094725 87.40202444708319 21.290725346578455
42.356138211403845 91.03909327115039 6.347356567217922
40.822063867565134 89.3240011090364 7.371503678089048
38.77293319849318 89.68508206753178 9.109950438978105
36.88654048940671 91.61245662874674 8.286900848078771
47.275992420771445 85.80140239675353 26.61097382216243
44.904343328387206 85.49659459920765 26.082401445908477
43.55373294422052 86.37468456827703 23.85865187027352
44.44955685135909 87.31597453124705 21.828653764813126
43.15513112670825 90.59499746140442 3.5372266633475604
41.916709869952314 88.87394963437683 3.7510125589094443
41.73138628276324 86.44473493556339 2.2885006504287713
25.120376262520992 81.12525397808555 4.226334188458929
26.278657567063462 81.63100163855952 6.472863840936997
26.135001783023704 80.04032807294934 8.671789146758842
25.440418106205982 77.64894450241341 9.016922634566345
1.6369941418175784 74.8033331435903 5.574799600287778
3.181847733633689 76.6016143907335 6.839668073738262
3.5900617594892807 78.89426195335525 5.073786188510474
2.4236169109149523 79.15072061199575 3.0494673695526746
46.988753836702834 86.36174625443617 5.898405868358878
48.90730156355333 87.03202240672059 7.72224835179993
51.0477342009286 88.31762307165637 7.2387112052550275
52.373550756277126 88.66430015323796 5.048645772170714
11.964923347154976 61.27320092839765 16.67745756943637
12.449815739520009 60.52267057500147 14.27370339666478
12.297149546957575 61.62407292241349 12.013373494187478
12.462929693830013 63.89091319991892 11.335773047269951
30.98674354358928 46.33603244909931 36.247444256777065
61.32811817854999 89.19697761087454 4.2027545140420735
61.60218025824005 90.03754213325578 6.193814489292278
60.22226941255733 89.87831712843143 8.45335362800235
57.95831353404641 89.19138763198451 8.952166260947505
9.621637890592917 59.50554992411627 9.665388657397726
9.906148817851555 60.07524955280621 12.369427527131524
10.717304350653377 58.53891296391691 14.052260396241868
11.561117375119286 56.63525962302144 14.300429793384254
17.057874526284245 62.218576305579845 25.841526902582114
19.150838526428387 62.39841949421533 26.401496467575864
20.90848359537514 63.746163730878486 24.98448096116635
20.58513385069768 65.62094998965323 23.403882120422093
52.67658279512941 73.22473145862189 4.803583787782358
51.12236486107396 71.73927005017617 3.869273537863733
49.658299066411196 71.79718744863595 1.998943386525836
49.119374003415096 72.71043998230327 0.18326168436038331
7.00084348527081 81.3283895576159 23.94957076733322
8.153303866092646 79.49289059692045 26.03812086120917
9.145554888866856 79.81305372436998 27.91547710853022
9.300842367776294 81.60237507882914 29.506388275910698
4.584178259725869 57.636332285627304 36.03060553340789
3.2414234855998503 59.14925921427398 37.842246463213414
1.1087460172482375 60.33031006256953 37.85572656530761
5.478438137472117 75.32737205112805 50.6041584848076
6.857916037304778 76.9815698848509 49.15707320067413
8.01297711448756 76.40548929980693 47.3321655258934
9.551855663112722 74.33458751244567 46.62194338839056
53.47071989805676 87.56826183436058 7.747152219536547
54.085335670792404 88.5615470259991 9.838602341551908
53.85066047172009 87.67394205395937 12.382676561309896
53.415633528156455 85.64269418342688 13.064798136595481
16.180085400286597 57.055059650314725 15.425746799497873
13.931895660099416 58.02552295458388 13.903398715331257
14.129248323378164 59.04612783658468 11.674626507302495
16.212061227350627 59.798277505359124 10.035649496878744
7.679535709589727 76.95193899281567 15.34992300883633
10.084395321735865 77.33684020098949 14.593099569684497
12.219390962378853 77.51540798841047 15.937845628628885
11.877556705394769 78.20680785545551 17.934756857173383
17.93330034675977 81.0620272839242 56.17525622050688
20.648276283508757 80.76558964879332 56.564490979888085
9.843225341281379 56.234940035690364 36.77674534424482
8.278523205136276 57.888830247869926 37.5363891578037
6.024178475375849 57.6243160714598 38.76080847878504
23.471861329305092 23.838756591212857 13.251285940444255
21.72244994648875 23.690794195172455 14.959836287322103
19.371220440647665 24.690298597635465 15.096101629548626
18.80114739002657 25.226585095232195 12.939349403289217
27.698579769800098 26.61492520509347 21.39685269747291
29.74924044276041 26.40818305847492 22.660375501113563
32.074206184172304 27.01704820788087 22.133091767278124
33.31086362334246 28.422124432105154 20.69658308128654
29.67431490645687 47.306501676933934 15.495486038581062
31.621323859361432 46.46808348292734 14.446820884924668
33.752394992418495 48.163515870277564 13.46296393648101
33.92830034279384 50.17919846000541 12.709845899515251
32.226030334185445 44.313205951862734 16.449508852843408
33.270843439090626 45.188119486345414 18.594179674908922
32.27962020041672 46.132410374098185 20.722695051449794
29.5035000091617 46.13754244952993 21.405248560528555
27.9283861265492 62.84279838081906 42.05545878994188
29.762076340359872 63.1853698865336 43.01640240643969
32.02164679846965 61.47639927163929 43.147075569237714
32.29324855150589 59.34298608373594 42.603680368228254
48.83981073819575 83.24035020266383 18.743622100553715
47.211160756201785 85.10811002101428 20.20730158000863
45.06463591682523 84.6626908012664 20.83254512775397
43.90543910768238 82.47262063766777 21.887591176604534
35.4860520741294 41.133644734477 30.359611981034455
34.84265202533757 42.964056925459985 32.466387164712934
35.84597964788052 43.14412694700738 34.47818946090144
38.13110662606645 42.68386093649041 35.34857913601228
71.0990131976382 74.45033296285317 9.876648376823022
70.77794969768865 72.49535185562269 11.462901148947452
69.31940567495961 71.82898088383364 13.19924092639358
67.01278813033822 72.78352165197052 13.952007501198395
43.590195687977605 88.9970416203594 18.35779026146403
44.01729806457779 86.84535013365077 17.542923828774512
46.32888166414109 85.7296861303917 16.549451820100355
48.21682968697578 86.84159145431515 15.76504267484682
58.230473316314935 93.33249151115669 6.354469069542326
57.72866660082231 91.54555515489508 4.792665478090105
59.074649749325665 90.83670986022452 2.5424583525568174
61.3854252454479 91.23169707041677 2.4580979392811386
59.34375909533502 94.12166747471979 9.086139684729241
38.05570049087553 49.50862111458982 19.889282867580732
36.48528825834479 47.95508275386312 19.24838523387486
33.9694944800752 48.04680199624263 18.54232622296753
32.4363924123448 49.36904348891507 19.446248754388773
55.119081509738734 88.66004139857556 14.5426272449535
55.87873033366131 90.09855379080142 12.995735368937751
58.31148645239082 90.48736699435176 11.759417921553347
60.371676585187565 88.7347556352827 11.543749605499478
23.366505752338 44.76666524020386 32.33961215322845
25.41984619592728 44.17643439684697 30.744568347988928
54.944684418303936 66.85803020028288 7.494413849248756
56.56728275286367 68.98806420119098 8.461952622124
58.844477820366684 68.98529094142597 9.799145264704752
60.375950217720856 67.3556777505749 10.173887844557296
52.120291335617885 90.39663807687383 11.093727291965806
51.216227801395036 88.38191172872084 11.79330004568451
49.036900636145155 88.2549074915028 13.747821028852044
47.129507655329306 89.47893499429404 14.064986991499065
52.48604080448341 50.37361826335686 41.61074871635908
52.450957811469266 48.69428275287318 39.45404825616053
54.71118622510138 48.90607824756184 37.7665695453722
55.96990440350197 50.954637535065515 38.45728946521707
55.19119364250349 72.51998349314991 1.8354383869373831
54.38902831933984 71.16195731177699 4.057074187313212
55.883929730726074 69.67197002091639 5.841380648090673
58.176452267616924 69.48417991342187 6.067909753777678
0.3287591838409752 57.79890748066022 25.383963055403466
1.5523540265805142 56.829600600131 27.612942518690602
16.02700733050257 22.46386259261941 15.998478749670404
18.256898394018563 22.217048749120394 14.91453383507058
20.683948162791715 21.301270725009477 16.108981969557274
21.254898632703814 21.350035860502533 18.34689357046734
28.787454261965216 43.76851535216937 0.47596612063929455
28.18873036747095 45.62008930341387 1.9210211690498682
28.40833494875888 45.9455166637519 4.822374764293132
28.98566868736307 44.57197375151556 6.327567852771139
13.277102443727628 94.60932316339662 40.2093292081541
2.238837264271822 95.36723304021376 61.482503290275616
1.9638965317979786 92.67940159593894 60.2928247912954
21.26810318653738 94.71286604621086 46.675046882223455
29.163323275122714 46.41431919266075 8.192827116355785
29.492656867940134 45.830994164081645 10.39887584143279
31.568448567856255 45.388590845397815 12.059891428887545
33.76845623018913 45.95065655796607 11.854696495794144
14.177756480763806 41.135569002828426 29.746031875756806
9.701196608717138 94.70620878028062 55.95168361059305
67.13429220257362 69.98503629123448 14.352368581774614
65.13878623043746 69.81131393686185 13.0340568337211
65.08252261743047 69.3198884204657 10.273354177696651
66.56089706430532 68.1522258298918 8.855114760537239
55.06344679475592 71.00086346864448 9.241686211591846
53.44560448578078 69.31323256917548 7.95878389528145
51.11888596885638 69.64680090506576 7.0788126389838855
50.02344196270152 71.53958782813076 6.179270920858444
59.72001859135306 53.21482286728203 44.85408986252647
59.849920553848825 51.48862702708001 43.14713792527664
58.10774171479791 50.50200349193464 41.54090867330859
55.78627084140687 51.0608577872979 41.10551791377266
1.7193542853217545 93.95039728175303 54.48619839995751
58.39027817745234 47.40428014368166 34.32014345257554
57.475312315281094 48.45185439632951 36.30012066073441
58.36663789657698 50.38474656323795 37.634449185980046
63.166095978238644 88.09319750168775 2.6182836070058
63.83909804780966 90.3465828362742 3.73537337893143
4.7034254122386825 92.93905407590339 59.9801598081032
4.603385471867413 95.12505657224821 58.43050448788066
5.038769801041682 95.521995562653 56.09809381179605
7.10203240369003 94.6122644615535 55.51330647847262
0.9226665274018797 76.57527547127332 22.178091623690193
2.6524262309271793 75.69277534823252 20.517710168012258
28.20786995497645 80.21821137765328 34.339943971282075
27.689407608216978 80.94185145422452 32.56698998370046
25.564398825453186 80.10281283060864 30.916965620941173
24.153737293216288 78.14824847108581 31.261278083963763
34.99654642755372 64.99241085867716 7.449040329586092
34.9187029616408 65.79550468266721 4.861477498570026
36.14089379779803 64.59351110132233 2.8605454330528697
37.26509522560487 62.12603928554432 2.8902735935302015
36.74543167359995 87.71238668806228 7.65793222108691
34.868786201021486 87.98969228673995 6.325368405142743
33.05683818874294 85.75858261068147 6.233034174462596
32.3755891931099 84.42033080722176 8.101704673819453
41.95760086753981 73.12578164783173 2.097033762219215
43.793766247546564 71.65905018706661 2.631269874058792
45.8195748132531 70.90404500883082 1.1684481764339378
31.082922204036553 80.72538994980748 47.25627718750978
32.49929989378736 81.85641436732395 45.974856410825986
33.25892211282844 81.75271592141908 43.82494159735849
33.13934659260551 80.17704172209805 41.8220449267478
52.493783104190086 49.213884343713545 28.785498634697635
54.01510661504189 47.93910128072297 28.539416982857347
54.555598213896566 46.20338616109877 26.27761652839397
53.18536649235889 45.631071773458736 24.626616358871313
43.85865981818333 88.89671134484459 11.15516018779358
45.80075412390208 88.01903263996527 12.305171141757008
45.550271235361336 85.8051730776244 13.741475056903596
43.73198335160912 84.8965240004127 15.31425244520716
19.028650126091684 24.64800540132489 6.4710491276441156
18.525697074617774 24.73193790436476 8.856577058401609
19.890092591925594 24.015110481155453 10.889500072667392
22.3232315000584 22.700291700875216 11.037650754533344
4.62702159844928 77.75531428640696 34.959059376274446
5.50378087703134 79.03754333311832 33.05859494449554
5.402766571046133 78.44380653921303 30.447336096071655
3.8036439343913595 76.923463881407 29.175617257961733
14.707753498521207 57.72163547959411 27.763283843933777
14.750245130677248 59.276128987063345 26.115973459024726
14.055034804232196 59.40642458044667 23.691898698721044
12.498963082282835 58.424968556463114 22.418453201114477
18.61015051305036 80.45452650341696 39.55237933287046
16.437309620643614 78.94713563904276 40.018717796955734
15.697033008530868 77.55242736008105 42.1251410363003
16.905021545965422 77.41509015826576 44.40333836834632
39.29480841887627 66.372771950613 42.611206086018655
39.289664048639466 64.90098106123362 40.619880292070754
38.59642158324862 65.24351475312561 38.271089922243846
38.48549027945506 67.34669506372552 36.90398224155136
0.2732677732178658 55.436936597262864 0.020616891932953633
5.600921598292175 76.44912968421367 27.240914487038626
5.5707383371783115 78.60496730442351 25.68899523732993
5.086865864981035 79.0779795729816 23.32647607292799
4.566546186661825 77.66541922207594 21.420245995411893
42.136038432511874 86.2591437344638 27.195186016572134
39.88007780764789 85.99565822239623 26.58957005800391
38.991315581979826 87.20332131761124 24.32803453005748
40.83761545913118 88.57423364204008 22.96002195677464
44.201102033828434 66.04071542663219 31.338646225993735
43.873541140452446 64.67423762310688 29.584447539248544
43.42131902194244 65.08381747616924 27.125480577302035
44.17750780746147 66.67746928103827 25.326721807229607
7.916226335057377 81.36271635934396 1.175095434554314
2.428513637414671 81.544629256318 1.7972829717572791
19.613532378421404 77.25355199395976 52.48921636011781
19.874330845610324 78.20946238692419 54.640352923322695
14.94170344011248 76.4456848856118 52.50096452995683
13.155001144305631 77.2916134358186 51.12284101599551
11.43890509079626 75.99508243346838 49.5756701400109
12.084977053263277 73.89391302767706 48.129300754900235
9.872642112697696 59.85183383531151 39.61715721286512
11.145173411828942 61.47796944391588 38.1567049768954
12.246833767374852 63.608744071795 38.65012307842775
6.944794155409636 94.46040189706798 60.63631622589622
9.266530211451043 94.26968675710954 59.460852769321185
14.51672419015063 63.79531309844404 6.337077370831283
13.751925655672826 62.80774429198728 8.232671308471396
14.776693089135783 62.107324720940575 10.425781403286697
16.714225754525085 62.98401360257094 11.756508418641172
11.483577243305874 80.8901088342006 30.876426547702305
11.363419442916003 78.73578163205835 31.81529571969362
9.548386715639856 77.56146351382131 32.988995477391356
7.748093461177484 78.30860587367707 34.5941777136397
8.028496821904914 16.250491825887465 12.093654182142233
8.531339871442512 18.65017789183363 12.207982424063042
9.454558949391311 20.290437529799842 10.254803489732504
10.64549621209214 19.635433497558598 8.432273882101384
15.519113140785395 79.57173300971922 54.73622485142225
13.80692913155995 79.46062505192343 53.24764321891392
11.293127620317021 78.876809734201 53.45673924334742
8.734925242063586 78.36303877175204 52.613565390591795
4.316503947698688 77.94400135356227 51.91588777166114
3.271738271530748 80.5046171697282 52.205869279462064
33.40717854438332 79.59520440190437 56.48407204342562
31.72091198804024 81.12864245007142 55.24825770606105
29.06220356162027 81.1972302830815 55.27525841554178
27.43374528940315 79.92806563500224 56.01384423665203
13.51719790060483 78.69669647993356 42.791924285139
13.453278987151148 78.22821642770455 45.21985288016985
11.579597416316062 78.45883858100147 46.885333500512054
9.157723767319165 78.69433709816747 46.68867762319934
26.240764140751185 24.155440236058066 20.26497908340721
28.27150359826408 23.133855685302215 19.96807337402254
8.475959674601919 76.81366699479662 26.92283504354582
8.171780500942273 77.65990599731582 29.56379647114953
8.061200553868396 76.03059331578109 31.34608821292533
9.159421434005598 73.84049896230198 31.708743986510548
13.287582020840743 56.38681652815166 31.775578703052386
12.965839897598054 58.479237711026286 33.3957783504813
10.589523058693711 59.421903348468966 34.312723928109804
8.264469735535789 57.81408337063377 34.53474055021341
27.234150329141727 82.57884534714894 59.35166998846914
1.6641554320294762 78.55010844428647 28.788384504358934
2.8816032217734056 79.51138993116048 26.90935717993565
5.491086274878847 80.60047489930213 27.706047156146077
6.149529191740664 81.10316596962308 29.676001152839106
31.898282907439146 83.55359825877929 4.89090903487018
29.963356090463698 83.51749678009246 6.088897976594427
28.579565552224746 81.90711535171431 7.6285953233902255
29.126409983591618 80.04940627338726 8.8021238409861
6.1508365223277295 59.22354354464908 34.39684395094978
7.43217522953323 60.52640820765362 36.656079462808954
8.672040811968397 62.42705793609225 36.976261603299875
10.180897953514227 63.59966978986571 35.72884081727352
5.438144728804317 82.52960464014643 22.088066455535714
