33.16078662076337 33.52239271205149 95.3799585147794
26.24109154684983 72.63607029821443 81.05067599446873
24.381324659234494 72.04961656957268 81.82584066389163
22.493503791916005 71.40561465258011 80.1423965386818
21.660133569927616 72.14424590220626 78.26427182370784
26.752097902078102 30.892213304912055 86.92808048892599
25.305726077802966 30.865882297419276 88.42345529595065
24.38362771312216 29.078720749379883 90.55528559224707
25.91706153255154 27.133561923297087 91.35163161487519
24.626668993362873 72.92557184269965 74.60201002921042
25.24065392191926 73.93580519604816 76.70932715709759
12.679265982607987 35.323859120889686 87.1711638305255
17.69974567536854 12.658224222956235 93.88351876575021
19.01132471241498 13.486181695795379 92.35005359844297
35.25834225480126 52.30398323979665 79.37923829745839
35.03999372208677 50.02377220479425 78.82949591501752
27.612872734328175 28.61953401497167 92.70657539985146
26.528746184217756 30.307667021132414 93.96200163946509
15.140073605786545 34.0329651869085 86.37620606850825
27.554512347373947 35.22931651009802 86.56795458357722
26.034261156697205 34.028767330450364 88.22032166920387
23.22069122494316 33.99542774988793 87.57473189196665
22.28402877101848 34.89675281570596 85.77464090925403
37.67654405813994 16.216755115336827 94.16322759538401
23.68735692578508 91.31850324057412 83.56027130418083
25.983536999153177 91.7419993800434 83.82942303034292
27.547017965987024 91.81478765663911 86.02709118376531
27.055124546566017 91.3708646301575 88.41008808426574
39.16682500002011 91.13211117431014 95.0009310996275
36.51684753746241 91.11156464728066 94.49642035303067
35.1046385212957 92.92352021829154 93.57502628281313
14.655299580316846 89.03790838679352 87.6307576081288
20.052479558028214 89.62833632491585 80.6186028608412
21.9395900306254 89.32841603790303 82.55003583693332
31.19845840225349 93.36188274374318 83.71723479386057
31.806245005574706 91.38038432993878 85.23124164590476
30.388295952360075 90.96463268091745 87.55208222197523
29.44639959614937 92.19881575638256 89.20796503667208
22.916266106792158 89.53378694753229 77.06188603854986
25.150183431009452 88.84950246609762 77.69096711200905
27.485034707842885 88.57331332422817 76.16425506568277
28.03536557225871 89.55263826190367 74.04190422300066
30.48040449945414 89.1446600801623 79.67011158844278
30.76845468577451 87.18492073841502 80.67782581990032
32.463607207453464 87.1023014197688 85.31555126329843
30.54403501121197 88.72887448477962 84.46316136811053
28.39887830941492 89.17895620616234 85.59585433163183
28.313187595150975 89.12782788036823 87.93519163917098
34.153701576035964 88.5000625733002 92.35856658366104
36.24807688570976 88.98243674489181 92.85364229419132
32.932834766369275 89.26138831399885 87.36909244467591
33.38830176912495 89.0067036190159 89.68025419266617
34.33806971557803 90.96428036206736 91.47760589827406
36.26095972105063 92.49669746355737 90.98962474889693
29.539146147587633 89.77899243118023 90.39160545460955
30.75354776543812 88.37977666845688 92.17038188747055
32.160121117377365 89.185858577861 94.07656216970017
33.07663531211471 91.38965680006272 94.33716086540313
28.980301346681873 87.0735388091129 82.70514058761299
27.75861977002584 89.1364547112575 82.69794864305965
25.344715695976983 89.79094994890839 81.44325673989808
23.952757308966202 88.64096290613794 80.19715992412652
32.79403263296952 87.90941516394946 82.61473127058322
31.83677272549528 90.14642274746559 81.91989269493146
21.16922564999615 91.24163982323724 78.67707126942796
23.388343885369004 91.30064546059663 79.14517706379296
24.78992668241379 92.63113229492681 80.83937002964565
24.213053535272703 94.44049716821776 82.5409408943534
13.8790085207402 88.02252055840228 94.72146158716752
15.188564807717782 87.0269091933206 92.85324261804386
26.115497773687707 91.39359168990119 78.51995258647014
27.96920202734268 90.23761391986719 79.50879771970398
29.177679367528725 91.31917055715897 81.78836078237536
28.22122844584271 93.28190191858073 82.84874056803976
13.01567883138219 87.38755307290904 88.43297975117468
11.879696097747715 87.12318541038142 90.65342387667273
12.087531519094457 88.18523520761974 92.78638629005049
17.28426190975292 86.23124850864478 80.51579612915978
18.49150309545102 88.19328987066142 79.71086623615741
13.093807814511129 84.54631711334588 92.12443750542633
12.92487398108678 84.80488997060061 90.36181407641558
11.199998149308463 83.55325943900232 88.63653640254773
9.975205048691413 81.36487339227737 88.81212256676751
11.360977279181743 84.92843625198205 81.59632956895324
10.869961541475423 86.90352513730149 82.24323293760766
8.410903787673224 88.37913338459813 81.83379967936153
14.342365685301461 85.15588076661203 88.07211564734267
15.895180267787532 86.64218151619164 86.48757887456975
16.221255305535383 86.77637519284708 83.78899205814733
14.841807931555454 85.44806851991211 82.07429770043056
15.567074079992395 86.7035916442983 76.58152965901
14.473245426990541 86.52234713484172 78.5137114664561
13.46988861536341 84.53788986968745 79.85289050559692
5.149441079877772 85.34841301913512 83.13150177232393
6.615048207487203 87.57783892730406 83.87304645147341
6.191776816649021 89.13545506932623 85.0532752487257
16.517362234514177 90.01992171480906 79.02232118910098
15.712761878079007 89.15078814154789 77.22132693737495
10.940552629431808 85.32167683392204 94.12399871839429
9.517196595591997 83.50759313597172 93.22367164831935
7.016522928776165 86.08664187734028 87.87164751145953
8.11863090721972 84.94092709493025 89.46807053486052
9.463057359888701 85.47801552875922 91.55430685710851
9.553661436025388 87.6795673957331 93.01168755505554
5.590627144024598 90.73966416291032 82.45948100644283
6.343748830704158 91.86175469842313 84.22470801655531
6.566835756890687 94.80088113758097 84.17188115469379
7.7285293506347505 88.9784006944117 87.10789978560426
9.793516167869111 87.5707293349137 86.83642785523122
12.112099692708036 88.03993892385151 85.76683646508394
13.268588945147393 90.11165317102696 84.98673351400173
6.246072561545427 84.15285962093454 81.10247306730989
13.343303567002241 90.22101946295531 77.586592263398
12.397399853100062 88.29920401881864 79.05867489579036
13.422237783518582 87.4968617418002 81.36861143010822
14.651675192098342 88.6912215936203 83.09194351310185
11.979874034647112 83.01199905136559 86.05144424046226
11.096178249058944 85.0233240222812 84.73254592323605
8.437511264075788 85.88022184169179 84.62237981354966
6.65751781391928 84.95074690717875 85.40437095985607
60.51825126255347 18.937128216101026 70.14373858813453
59.718458646691225 20.748499483199495 68.74204592902608
58.475156351473416 20.525922790045822 66.58146932812613
58.94646895488997 90.57231617208045 95.11218695007226
60.81678038240187 92.16097837659764 95.4577123401074
58.31464896126433 94.07016979485833 94.73164475744579
63.71158647050268 92.23761618389479 93.87739546339259
53.99025093606939 65.42610803315219 71.94820655317086
52.69463485529027 64.27633666885262 70.01421271461501
50.79490176433668 62.42768651627624 70.18333257461427
49.150855565796334 61.84948006467716 72.26776418806608
41.87332207260033 78.93598492640656 63.79858855396948
43.037974351285555 79.41400448698325 66.36529493206616
44.99612974361222 79.9450161896321 66.55909799608536
63.38023844464021 74.09978454942336 55.07676194067853
60.956805690886576 74.84474966024294 56.400969381481644
58.77308611870123 73.72285452081526 56.16005644644585
45.312431433893636 34.90811019334092 74.03696296561607
44.982653803929736 37.10333173263503 73.34034060803607
46.27755897164737 38.57489871298607 71.21999194312897
48.323287176974226 37.720606829096894 70.44074736410141
82.97285678737428 81.33876293409158 50.50156554126897
80.46814580214985 80.0128695352377 51.6462733261813
80.11347499790809 80.3547994733914 54.18541438127538
80.736284634321 81.81427956694212 55.70292642770635
46.32629978947286 62.574314953562286 70.75426478888753
44.164523110613075 62.05625528272872 69.57641839138013
44.15302275339971 60.11504497469273 67.69198501853629
46.235227529980364 59.77230635866534 66.66347745002142
68.95118895900383 37.73828326954463 90.53112445574885
66.79669401190742 38.709593850260596 91.75835755222998
66.11179350004656 41.1615926845294 91.93727642012729
51.21131926948161 60.21506724251286 67.40274052865516
48.60536364366076 60.844085298761975 66.42854284883627
47.88798848287936 60.974635828596924 64.52106191368014
56.541271715092236 36.06894851922432 83.1404592227394
55.238793373654424 35.8786016068972 85.03818224189176
52.675621841659115 35.14980054521157 85.50212869393155
50.69598934290834 34.907523021756646 83.44652163054997
46.56748540228857 63.791031585462186 65.73017608676881
44.733598043515336 61.82207343776566 65.49372868414987
39.1046279777714 76.47635102434725 72.57013380693208
39.631090077531795 77.71864936976417 74.60097080793926
39.406013177837266 77.06435093629283 77.15674404103227
37.41136275347773 76.30150117350405 78.27240700109863
60.090209196143256 73.4020827566286 86.78887069641615
57.41858262397409 74.10961682508227 86.41538943132122
56.23339581438194 73.93031990221702 84.23943758952652
57.19902542342922 74.26521696846072 82.23865377425982
44.5548994303814 33.592626515790045 88.35310903419155
46.03817606351162 34.930847552227014 87.35181133220384
46.6792881885468 35.780194899312114 84.91930527285845
45.263555431309584 35.56496230737551 82.74639065341822
58.784150286940644 76.94252469241111 55.94122721571069
60.9598338447013 78.26062489021544 55.441338227246725
42.65487106764331 79.10540635694721 76.92858091073218
42.613469594695665 77.73145138264988 78.26751994330705
43.554208455745204 76.90719122465153 80.43124182154374
44.92564736977259 78.49133432790192 82.36121488802452
39.582338369807374 37.81760986236802 73.55679357450941
42.342452669913776 37.68969528802387 72.81374333580628
43.00605722101276 37.9724195674672 70.60508520659931
82.85198543579392 49.064505631788805 84.48869277914073
85.93929817480615 52.580833350186346 84.41562786562005
85.4670240288782 53.92884896525235 82.59195358377266
40.81869800279124 39.522845710939855 75.46897565264696
39.73271706192877 37.209045258620094 76.39772419124074
37.655398251953606 36.65160515314537 77.29999351247417
56.44443935135 38.322317199237304 91.2267958602713
54.70085884246554 37.974575593234874 89.74694027358139
52.80543267309851 36.191144926718714 89.72916481174835
51.63611115207055 34.785637001573946 91.58088331395847
48.591843844101334 33.97804418625547 84.63869555420595
49.13895029595807 35.15880294641067 86.70214793498415
50.545967648324584 34.82408471851198 88.62752781839339
51.37875940864069 32.63522117172268 89.89772770750207
37.56471799007798 78.00104880472897 66.2409622708316
38.92556041811193 79.49952502923328 66.93047382061599
39.760722810429385 79.51753550640329 69.1691507963636
38.81178421746104 78.78479871238946 71.32642508409178
42.639956795198046 77.82466395813135 83.7127092336954
43.50254572113983 75.66510568127441 83.05728406977508
44.64325979977439 73.82200903573171 84.2929856236381
46.26928965837421 74.36318016397652 86.04841140618782
49.7857116475521 45.1907529514023 65.7036059623676
50.15804878725965 73.54165483656298 85.70355782371684
50.82388517531605 75.50133729280681 84.87338798317785
52.05326251017053 76.01342853457284 82.25914287877619
54.026187716033306 74.8029189591636 81.46691589383234
61.94448619140725 32.739607067180444 74.96225471233757
64.08197775801524 33.58983711153545 74.1518537266776
64.81728254842021 35.71651233935523 73.58281118727498
43.45817649641384 53.73594184260202 88.76991477728997
45.971123812321814 54.33484589172838 88.87824503404181
47.407092050625735 55.436057961463625 90.843251889693
47.18235299659631 55.56173350666577 93.07161480596156
39.63059245483024 33.55528565764206 74.30000601357143
81.76997423303926 77.40460856315376 53.2336340858846
79.43377628586452 77.41816102296372 54.27449782625561
77.36348626549369 76.471859454408 53.56856488431944
76.77746750952498 75.34279429305208 51.160692048709606
52.89258914623032 76.03901464351061 94.56635560956337
52.91268173411953 76.73150876894807 92.21721449746282
55.05029477484096 77.77392415893478 90.93183662232214
80.91972828999013 77.90816520807739 50.14475134350039
83.42182315655353 78.76963358810623 51.1896622417
85.61759166734291 78.13993251292096 50.68449034960906
86.66326779447846 77.55332537956721 48.58956878397224
50.06317047520413 75.10683705304913 87.80445032280504
52.061906687065516 75.34953446138483 89.10882823698088
52.997618573532456 74.21161573037253 91.35362620466262
51.86909959673945 73.40809303659208 93.07540676481425
69.00614538494222 57.93792742864818 65.21202611143205
70.4156510002606 57.76297434501285 63.12950383522857
70.3134024063052 58.408159319620566 60.96922128938826
68.45468631259695 59.07106801331922 59.439687393291614
39.942504907596174 78.64056677202842 79.53260243848086
40.83416184804159 77.33866176956032 80.98056531679086
40.24231065347321 76.77704878578315 83.51417570855637
37.705886275692286 77.0803451196256 84.39480268274043
43.83036957534071 40.51484149806817 73.3843681016008
46.2177899226801 40.64196932770667 72.9867760237721
48.40426277998552 40.116547173442 74.62827250219841
48.60778670077137 39.843292794289674 76.74093168463743
85.77155722053301 36.150421765438466 68.69982037682388
86.57961840079182 36.514093967537875 66.16811058981992
82.82573660823394 61.88954819049717 50.17676809913482
84.0610269344252 61.61316694624982 48.25791088294419
84.35405138704017 63.26721295953053 45.940556697506466
84.61484364983377 65.64445836055648 45.90177473967095
47.285642799453065 81.16557496829896 68.82508936417862
42.485399472406165 80.35230797259233 72.38638116871877
81.27561296374759 59.256429944443404 51.22223909730295
82.54590459519397 59.40429102919754 48.91216295790947
73.6063271273095 77.68979697388616 48.845498288565196
75.13339739513366 77.40298229503952 51.05238932027153
76.78703267740734 78.55014268331863 52.0163462943692
77.63573428142028 81.20706137817201 51.72656255212843
83.29517234284955 72.36954501270452 67.37178146211193
82.16824652061126 74.07998115003302 68.56654372174492
81.23921261053884 76.23098149470441 68.2100390462619
81.47427257984472 78.20116165097308 66.97740302032656
68.33344848132276 72.81052059862348 68.93240205047246
70.7698174264039 73.85072817265633 68.9495205492313
72.37877945341683 74.0307124820215 67.42851664621824
73.08888531969878 72.73567863727615 65.18865026839316
86.61180410891158 78.78455794129097 53.18328410316836
84.38706515181626 79.52084624218881 53.579066052424714
82.65736137226254 79.0177529103922 55.26973421006845
82.38654310721029 77.43396457003577 57.03655923649858
42.410536712204525 71.70289870324922 95.0299076214516
86.34678268389595 64.05595598511701 53.13374233847686
49.40164932223453 34.786940661472805 80.09852884857511
48.045587866153575 35.98971641609425 79.34298825597016
47.38747255569976 35.70712420891351 76.93794239801424
47.15729586351181 33.68865930588884 75.34988981169894
36.452581462031716 75.86505602679343 80.9554773556594
36.47092208611575 74.66959551367039 82.740124472882
52.96661694384102 40.57358115805405 67.19912083138811
51.171358747568 42.2573920187254 67.33100229159285
76.79903153988172 80.39068196346003 69.1120172569015
78.15745485531501 78.28119570597238 68.19589679890582
79.17735806277368 78.10038583295248 65.77421936152703
78.41457781800436 78.94887343062243 63.60777236746605
76.97164662861114 77.00072828976094 71.42517095954835
75.85049808225695 75.20201306846018 70.36129602870204
74.70410045107879 75.23859760793654 68.3591345423451
73.64757295372286 76.98702551752295 66.57289941493272
68.09449302273994 77.37608771229766 54.24703197551471
65.92361805872439 76.38022383993861 54.37009365389242
63.65910547121662 76.91221836169896 55.331120672629446
62.82522484458427 77.60687817205253 57.23373902634933
47.15178260383731 37.55401850779128 82.6758979097255
49.78033218331368 36.88161550480264 82.01319620864678
51.61586162658211 38.251057548443235 80.77562943424705
51.09386137245079 40.23922640868489 79.1191576574752
70.57328494041944 77.68260580262148 51.128090509534466
67.83433687268628 77.34026530300002 51.52661490357442
58.14522194339989 36.18875001402681 92.02827194223234
59.195845323472135 38.08411116694067 91.12976386484365
61.721724032908554 38.17814626725516 90.4392269066253
63.56281099670102 36.732650847038975 91.39971273760163
41.841702640283756 59.502047660585866 68.64493554729064
41.083289778950984 53.748482415695726 68.51418239221677
86.30913388594095 60.52156429343197 46.08168560446981
86.71100246733633 58.37717911342236 46.75522744467629
38.847875843116405 80.2920205026988 74.13407404623155
40.20617653388779 80.66365246182461 76.64567416727812
43.33860871142469 71.7445746702885 82.38757864731114
42.05954049991947 73.25621670117232 82.8080600751062
40.404575275396084 74.62833736566773 81.59897551848994
40.09328898750325 74.85472055928048 79.00760468533424
55.25788514519416 80.29757609694212 76.86203771958131
85.34638475010034 78.62194942690228 84.07478656230444
87.04681109078912 77.40849470121574 83.74512810844223
63.37073762723561 57.3748720498415 56.48615283084778
64.676883321187 57.62959610772084 58.734355898906124
66.92294542725742 56.44383080120268 59.374272917563076
68.7186202550047 55.68983237575054 58.032926703155134
82.42079526846481 78.3663543046212 89.02138432226258
83.29766846191971 80.67414476829968 89.2591344325528
71.12467539585903 35.532274754461945 58.46137498338009
70.33922541185922 37.28320993088656 57.56395407730996
86.22341733908884 40.84185545593943 49.41282187076384
85.01303576616013 42.08571414775827 47.70979162618566
68.35288903039495 54.31521705281597 69.9389182449325
68.67549801570001 55.52848045762913 68.13417068525251
70.26333996498218 55.31029221127775 65.6913744435052
71.34625965067768 53.43769527106017 64.69885592456424
70.08881748086729 71.62450391909933 74.07706568646435
68.9013711904392 71.73688927840972 71.89554471000217
41.93682089183292 16.203293543392995 76.96885721228918
43.72099380362691 15.089590499680916 76.59829620176427
72.68551207643524 54.193681904122776 81.95325065463841
73.64561434717808 53.00023121782318 83.98158860730513
76.16030157000498 52.17374665857764 84.20576809844174
78.08067965978083 52.82161217553593 83.0014753032823
53.905793329392786 77.40168615285648 83.38714613386846
56.14652406807928 76.75616652687702 83.10571522601387
57.70227400631595 76.81214592925743 80.69814292360915
41.58406877236325 75.45091449423255 71.73663899506809
42.37064891603674 77.37872325245215 70.56262255084518
41.85976865036763 78.29955337867358 68.43460503373286
40.49595769071201 77.49705996998647 66.37912933945651
60.76769583867705 72.52030607750021 63.65805335212543
59.445369863636465 73.25240240915218 62.079170139466044
59.94887724723317 74.38448396557861 59.69169737539404
62.05301985302615 75.01310806652457 58.78255949444886
74.2617487449738 72.24962523126622 81.07444035533759
74.06069642554426 73.30043669843661 78.53651604193648
72.94036125486673 72.11697980414833 76.49718360938186
71.6316843889364 69.981997277955 76.36471310671551
46.630223192340964 31.77704815732491 89.19886610253948
46.35355919132778 31.845785407830792 91.83422223271114
66.35536482921012 54.09043288360899 76.82841383236487
67.96585038566171 54.04947980322795 75.20044226288505
59.19142078534982 40.5927752637034 87.555401216287
58.37974784551047 38.904742000035824 88.57395029374415
56.31344298956238 37.74005135297251 87.59940840949818
54.504094508160364 38.56431400002677 85.96294478645575
85.28829377348677 81.76079415287374 52.01617861487221
52.689030591628146 54.329072729515815 94.85172746420686
72.33938025220682 75.77960233492823 73.44188789839644
70.43232537376757 74.61655623595847 73.5603516738382
68.27209628770065 74.2808153816823 72.35416896818926
67.28629403925348 75.1184748853486 70.51877147239708
71.79127552261815 49.420258958186594 85.73043278449666
74.05664793384972 49.69412412253918 87.04897228608571
74.0052020732334 49.8941462310553 89.88260901845408
64.16649565272853 19.410149021559846 79.93308432738147
85.699209450548 57.57613953218899 62.692912368140455
86.58480383067601 57.213790384849744 64.73447131263005
38.36972500665357 51.61503616490594 82.49318945776491
77.5457490894231 80.94745240080236 54.3344227913299
75.98262500181048 79.62289583420336 54.73842840529114
75.02646598127733 78.712761480039 57.601598190521884
76.55449631916377 79.29826301204292 59.23289604179538
46.02038955162809 17.411493408137396 86.07391365314639
47.69284769235861 15.970225800649027 84.62633833204939
49.05139326031081 16.70624647411172 82.39916580721527
49.901732980756215 18.333892442732417 81.59905739642699
40.90521388674243 34.72701789727976 76.66234603685156
42.761160802094096 35.75980920297051 75.14293148552895
44.428985395757515 37.71071071204536 75.96408998750965
45.88484911586349 37.62061988129085 78.11772633814225
55.0979290790789 62.67938113133908 73.3266485924459
54.080908668220424 60.84247844506211 73.71561779320429
54.47424498170999 58.431316227439346 74.94045903250165
55.60146705393098 58.04764479330101 76.92816774448293
80.88658405375756 72.32723332127433 75.82844428450625
79.02987417046037 73.63720961829523 76.87314300566611
76.92121479807594 72.90605811753429 78.24350391507502
76.39989828221911 70.95626705028224 79.54906782632908
55.25584780449212 58.64526370890091 85.75535769974861
54.511036225761366 56.97128778377503 84.26473237912465
52.298769625962414 57.072039652353325 82.54304217957682
50.1422792530929 57.988953953782215 82.66945509373011
52.237354040167574 57.96642439994633 76.60886370238889
52.19641058063579 56.630676936651994 78.8929948233505
50.31648837330115 56.30803184577777 80.56833722574413
47.795107957209886 57.50238537618933 80.47136506002255
84.10236261307527 62.13952552723434 61.26230356205921
84.47312053752151 60.15767113803436 62.84008827677507
82.64550591770654 58.01142004910482 63.03812270134235
80.63542128186066 57.60078138897864 62.483459318619275
51.50806671662902 63.88108943658173 66.74309778174965
49.64944235157269 62.837523918843196 67.83125650662271
47.47718514207315 63.8311607504841 68.69095852590026
72.39562618104995 34.91398336148088 70.75764607770402
74.51369000667749 35.61441551478535 70.26581816069606
76.96056849340816 35.32511822320652 71.49134521928768
77.71008577149983 34.45487740723166 73.11979347141308
53.699212734304474 62.40933645160026 67.96394432042528
54.779812336567176 62.28209673510571 70.57402874085479
72.78458846362051 53.53760962500257 68.96811981217512
73.91530273066803 54.89016783178459 66.98151568170753
76.12662963795631 56.1448797952958 66.91526824196829
77.85414402433695 56.18135143509266 68.14618897121558
39.80265757591215 61.45245939337961 68.51933664530115
58.2057561640749 72.36532889119994 58.53323424666164
45.59356095922872 35.03969125486077 90.80369103821289
46.546269817473856 36.99237534532587 89.47746718900757
49.38018971014062 37.34178577444704 89.6132225770699
49.35145134626144 54.279101672792464 84.51014677596176
48.167930562690955 56.42296362878784 83.65873502692385
45.72802705957028 56.887862770315635 82.35002094317737
43.97827075607052 54.75521939502643 82.02913722020608
50.26355594265546 55.94552325150833 93.8409722134881
51.50534563096823 55.27354583591443 92.28257691492432
52.13613377122114 55.844255227157106 89.6925698937757
51.23314250632018 57.59733661962258 88.26684860323854
51.873093360059755 51.5267695905218 93.89883424465808
51.87828479104477 51.89224927300377 91.46824359294534
53.55646286622379 52.166175570385164 89.8991919753914
54.888447263242305 58.169404967613644 80.29979860169412
56.34513864864963 58.17980360289117 82.76097929608164
58.20040311963199 57.3155224679056 83.30783687280889
60.459813967259436 56.33890251635573 81.96912704692406
86.63196266505739 43.666535136944944 61.7928462066451
51.96701174670269 36.69378697974163 78.56453850638678
49.628104232408475 37.45859125183185 77.37393511528373
49.085928566368345 37.041969108872806 75.20078354842234
50.50730137811627 36.653657717507194 72.97680081236692
54.444966099825514 42.07871163472844 65.04974339490045
53.172886808039856 43.90071442053625 65.72774703591848
73.57236169036655 73.64434650658427 52.34389559673823
72.32253856846361 74.84819839715665 50.2468482441691
73.58667404115667 75.10561432190104 47.74662337771287
86.73726906238646 58.42599151448355 70.46689494582002
86.29326145084974 59.774207853810246 65.90494757579604
84.0234488107864 60.03543818248006 65.60800775032816
53.344019061620706 32.63375985153658 86.57607532633126
53.971443122615334 34.19165792151388 88.04149184738336
55.95686274848652 34.873052021895106 89.207279775465
58.37630363207259 34.4319156933734 89.2344337639667
56.02190456953528 55.63406678884491 78.40108763819177
53.71952357043469 54.64933508461483 77.81538154343227
52.97459060974803 54.40581224048054 75.17421571223933
54.075359841165756 55.76216094201805 74.07870231292831
44.97534082549595 74.89018867488024 79.10546947301876
45.4086779700411 74.17957978603494 81.61726327020283
47.432262475835095 75.21400208969715 83.07433984218525
49.3413667021756 76.59621098620397 82.5015261734253
77.55557637441225 59.94748153723956 63.45036657145886
76.19268783254776 59.03701665654446 65.53885245502016
76.99256658563978 58.715449613898876 68.04034744074346
79.26929718742902 58.505123156001986 68.65758928404568
49.172824187420396 58.35758469528401 86.07960304501795
46.82437644636484 57.17027787218432 85.69843849245476
44.978973655124356 56.91583735365247 87.41528873713054
44.691261052197916 57.847629217029294 89.49271496852539
62.440665216846156 39.965244067054215 93.50025003516971
63.26276014245986 37.71786238368161 93.84047794929022
37.66672236422565 54.1682928315899 79.60199126817223
39.01163760265237 54.67814166878853 81.56434263162437
40.98356112349988 55.96909563738017 82.16388233151118
42.78929036200282 56.761782284172085 80.4822369293046
51.905845546040325 39.00390729914228 72.42225982915615
49.987135521972235 39.291032224551586 72.38319333837443
48.565881493789476 40.89472735895295 70.3877612712403
49.389275734050806 42.94916013057964 69.38595607787677
74.96969988152884 48.00431705682717 84.59864375659306
73.65344811052962 50.28967908413538 84.21624518307682
72.01029507972237 51.028424750683925 82.46111481626413
70.95556753483987 49.836028333391056 80.57580843615698
67.24816956021479 32.436227712197585 64.30710935700795
66.22231797541782 34.5338941116113 65.08522261810596
64.04771944060332 34.82834904386521 66.44569309162802
62.868896184541605 33.408580514617576 67.89212277126697
82.05602502543825 77.37627109958062 73.86926711861813
81.43711855027128 76.7361116956746 71.59985798709117
80.16276314550002 78.2834547619304 69.68221543718857
78.76289510383006 79.85913654670611 70.6302434989581
53.394118487462904 53.36430647390413 85.50447144759823
51.63068072335797 54.91761659091512 86.0737898681865
49.63599771306576 54.58493403005673 87.90682941794738
50.56996805625987 53.4359214487292 89.90100502393442
80.3380570920171 76.90625692987807 62.76725836984661
79.11774271550861 76.82002757661125 60.80640929546888
79.04243537801648 78.7275366650611 58.861092505993405
81.14434835064483 80.0506000274748 58.14695373786752
76.10215071936435 77.90518327930384 64.07035124781365
76.64463310457442 77.6747807901672 61.61895571749315
75.39168717709236 76.6844541119302 59.83875089126124
73.78774945369237 75.27764498312811 59.644507684666216
77.4427076715807 73.85403140578778 82.79143700583057
77.5665068965492 74.25615117031957 80.79135884856433
78.26493616474279 76.66230793975443 79.478160450617
55.80535523537076 52.31402787165579 86.95701687783033
56.11760380669562 53.8284228007373 85.34256471715672
58.07243434034622 54.78429061966557 83.71744047817167
60.360262300804216 54.67178360112817 83.97337289341766
68.2424386711423 38.23687658911972 66.96338920780569
68.89549440505832 37.64782596145416 64.86754216922411
67.46773296577743 37.54632871640844 62.87926118018653
65.7486048932306 39.17494705998275 61.94797119755916
40.6950134984158 52.60260959417534 83.08456796497619
42.03396826394737 54.15599829519038 84.20716628524625
44.50583703731976 53.994975705140625 85.2115365644286
45.81145845319795 52.3365793109676 86.38048131695005
60.82287587603157 22.028423831526155 76.90854767261365
61.94302048461363 20.88633389675651 75.33254863554012
60.96583922844031 19.710991966208173 73.00118545299152
58.73685140011451 19.5637900172637 72.34986385344072
79.22137693396881 32.70913915903189 71.82109084634455
80.05319057211489 34.10417639048664 69.54504498026559
81.59632043360394 36.04994499088629 69.7581305888374
82.49717280747224 37.01128353670239 71.61677528802495
41.934213025627265 57.34349504876883 90.19865927914748
41.51889225689377 55.82898196946941 87.93542076225114
39.86957459840786 55.65456258901685 86.490292162559
56.68860451507403 26.04713406924744 66.69635187496472
71.23709351848125 71.85336407430842 70.7413394108807
72.8158406987506 73.79197219412305 70.92612453747215
74.50250852156323 74.37895725546807 72.59932439615874
76.30131308317212 72.60701026472907 73.78700136839169
80.52694385166494 21.13814587204675 62.82307100333297
62.13253640462061 60.49298603292264 83.26944533359018
60.61988733201987 59.02530968845001 84.58967770419936
58.252603183455506 59.30496078527306 85.16574172322235
56.387363433459676 60.8268112750649 84.02774671814967
55.192944385555045 72.95134574848797 92.8511156157827
55.40055146943752 74.6098404580818 94.49388187822915
51.457008940436026 77.27053751180593 87.03359953158858
53.20476520403729 76.57845022199402 85.6437399423556
56.01299286986739 76.7759281705117 85.78943150835252
57.05572033648728 77.39487626583711 87.74530007860069
45.08763003972859 69.37167800181638 82.53604781237533
46.86381016775907 71.18491558703059 82.7193594091456
47.72022486497311 72.47656520879205 84.78621681775331
48.174274480134045 71.70627204124797 87.20831188661386
86.02767067473997 43.1450825413024 55.20698260949266
86.25156558055089 44.276349248643875 53.34131315572148
84.48561823570752 45.91871554917551 52.01535604799113
82.04558453172257 45.28974202845774 51.68368347231646
55.03039477455624 50.22398483774093 64.7843385488381
54.6915995780712 51.88564141190478 63.074875366056176
65.3586679112711 36.11657253870388 61.606768698323805
64.10427663521591 36.45142913139954 63.65335952343406
62.0815405287774 35.43926398314292 64.65604655036967
68.63946546653263 49.31766097894654 81.47225710948804
67.83967285067038 51.129032246045014 80.07056445037962
66.59637055545258 50.90645555289133 77.90998784947966
65.32956439927726 48.27535262762959 76.89053743042962
55.26749329123248 73.49248919013338 88.30388706770296
55.88861779233473 75.61849727182894 89.6610931649555
57.23196508517381 76.26093283362067 91.41645727429294
58.38167710329501 74.75997659039223 93.13176892738065
72.21460985022831 36.48337228663749 68.61447534219877
69.7429479444975 36.46706069689988 68.31734474564382
68.48708229777198 34.71220768402449 66.59043507703251
69.40983940398897 33.43215386011387 64.88056086138867
38.11871647383564 74.02814548214344 86.2398457551551
38.658910005484174 73.64193336516048 83.54309663759025
38.63912917288516 71.92904917753783 82.3123696903397
72.39178812683116 52.3522108628774 80.03435535744306
69.67896660374768 53.11156081287201 80.34854262255594
68.35319296084366 54.60372884206578 78.99696395785287
69.1506965803671 55.89312353169572 76.79535366644782
82.80957797882 74.16388579942644 75.75668054763894
81.91276391433767 74.8569890427783 73.46647229485203
83.14258602434273 74.68242245116018 70.90597507912915
84.96042438489445 73.63426903578147 70.19610792462913
86.23711905723647 40.086767516388775 65.01373493552676
84.3674832833334 41.12214033637002 66.44415962092255
85.45555483142257 44.911718536671366 47.81580956981322
78.33622131869973 57.111490452921515 61.47790009222415
77.48681474076591 57.00359431903313 63.51947275687033
75.38343872870809 56.679191195297186 64.35519699084507
73.44935065699705 54.98900738200268 63.976098837773975
80.4298925648215 74.85723448966978 64.40275987384055
79.0275029082644 75.33158858616301 66.09543220053094
76.43499650599632 75.60271943668995 65.78105467755952
74.74042995962266 74.73898645375458 64.55507961765811
47.844661006212604 76.32110356449807 87.02063778961003
47.064567059189066 76.9888543397656 85.043807135166
48.19794953784893 78.90701352762412 83.362553655434
50.40673280691056 78.72994186650101 84.12577531048879
48.155820588826025 52.53752326249364 93.12530363792611
48.45535402275314 53.979368303127146 94.96362993203843
78.84948911242745 55.46467912179546 65.61200717736193
80.38511604465546 57.41522311515595 65.43302474145412
82.84058311011093 57.70377030809809 66.018778710716
84.59234219397659 56.17400588687378 66.57461730083668
73.5788340076707 55.939713358150684 60.146328523622174
72.09799479298293 56.011582435771345 61.62255231853309
69.8747180074062 54.958146862186894 62.226600973032205
68.50720952653393 54.45027652575922 60.46542957443482
77.31915188922467 53.21355099100183 86.61799238741003
74.79504558543287 52.143450094302295 86.63347874754972
65.41356048452943 22.458403194711778 79.403702783056
77.60268632863021 59.97992109893482 60.80406362714204
75.88250427320197 58.7990441234202 59.585729115403254
73.55808919668128 58.9407489383962 60.33724784096636
72.54821592826713 60.43890185153159 61.81008506204425
44.96473739048847 17.948726839979052 79.47658714218291
45.60750124104894 17.066307234298097 81.4668558784728
44.17851514608307 17.10419097742738 83.9820330928459
74.22866744522406 77.59609276217225 54.7251013378002
73.02857449958024 76.59626267760278 52.78963269191367
70.82122935640614 74.81773828308647 52.903969061745485
69.13467330539002 74.92896474880419 54.37235234514862
68.37450057144304 36.611300254838106 59.25209744257811
69.33790414350676 38.29928862722409 61.054239491917784
47.25922620449449 43.824901364351035 68.21302941197493
46.96413882635372 41.367586764115984 68.40736935200039
44.58484321600469 40.22867431988074 69.3376031372493
43.1151588401755 40.786699288565856 70.83046966361955
54.60136084790178 54.785673529046875 90.34146085947809
55.17518040725772 54.86241635570517 88.20285017048343
56.60195756476278 56.252616219319535 86.55808451051129
58.6081088982617 57.90783895285069 87.52283391178467
78.78475192324717 73.71461720645368 85.85457561919443
79.75176941524127 74.90051670381092 84.49185228824584
62.625653492557795 78.78760739582633 53.42140466271844
64.12728564284969 77.50110425544214 52.313609165641566
62.65673938749034 57.175998135518554 61.40453422548812
60.703013619283276 56.214093467697595 60.6414901445046
58.45473349982567 57.24523818557372 59.681490446780614
62.130906178124704 20.805395832883192 81.05946804014266
62.49578176344376 22.16632266513074 79.41359601107045
57.54052071517617 20.98042631156161 83.18845801951208
47.976355631106095 38.121599368828875 85.2263455515383
50.44853209992572 37.19523767356648 85.65764847752762
52.00406911127623 37.41647059808524 87.27771823141228
52.14362667475065 39.55371933643878 88.85681790153674
81.14979217442412 23.41755980549382 56.54542600151356
83.38077824644198 34.18050409511083 67.81166198017071
82.18913984078523 35.87157273010993 67.28999179350166
82.07720418503524 37.486670028664996 65.07072618399589
83.87191899356651 37.28399209832462 63.00632124243433
77.69548741766738 70.2988440813264 86.75419248867115
78.93318872085595 71.40988067038111 84.73934044091456
78.03282407704525 71.2723360335216 81.97055555111336
42.717954407648996 67.86226571677308 92.10192201335963
51.37035426410835 56.85206769370913 74.13057795307864
51.27782801831958 59.302304418884184 73.85889918535467
52.5678619660045 60.73974841739032 71.52868247439157
52.91212327616652 60.13235664429344 69.50578869543136
85.23207405934343 61.68810040097708 52.266547477465814
86.0512873068486 61.825991651738896 50.3306455593596
84.25198550282262 54.53148409224545 68.89995272577961
86.1069139526264 55.766623598124056 70.16677978831245
60.04144171258867 24.04627516879844 70.58931755341192
63.14817268049356 23.481527437971607 75.52975815221008
78.92711368916731 71.69002271630717 73.62172421873038
79.41647214008289 74.01852437757755 72.79705540969114
79.30549759286957 74.9874094883656 70.4817187310585
79.65565881053433 73.69185455194413 68.03148318582876
54.80000720238555 18.276110670584046 84.21894007366247
55.755176860442894 18.639409227760357 81.57071825061817
63.557882310778254 53.03179024461181 60.388138061301234
65.5293490311613 54.54592395489527 60.452569204080966
66.94144518543874 55.54870773090207 62.40360224389722
67.2533890668214 54.04162895223157 64.79726483819768
65.75811332433577 73.88208888619323 53.134156211504866
66.80827329487411 74.73324862273238 51.30298693816549
68.89194885941151 74.695369893838 50.880039312071304
86.90130898876195 56.558518254223095 77.483875493637
86.87775459751838 51.03720999617729 80.5631831542918
48.257475009987004 18.319902787777853 79.44745155816608
47.32662952348253 17.403094070021755 77.18584938804067
55.573786010781426 42.34703189195413 69.87673831130806
54.22985892753287 40.229958119605044 69.94537537481486
63.2555095306421 40.254181148220695 90.69122536731507
65.03933554166808 40.39479213069845 89.01546777545528
64.85052946430706 40.644905579924576 86.60355646941296
63.11664109296924 41.48308195467981 84.9912276264446
76.66743939886112 49.544552254564124 88.41763585799761
78.07717040861095 51.00301843005714 88.16016369514317
80.18721561815656 51.172109053628226 86.66622062190527
80.47123615585116 50.265012147490225 84.08178249909297
47.315255037054264 16.826963821872386 72.31077375005572
68.66653825579918 57.86165172693469 74.36330897295343
68.931573433802 55.681549371748545 73.21696672805936
70.44075835558141 54.86229748100341 71.53366008505331
72.46959488330805 55.81701526334642 70.47871549309556
73.74013771636888 60.14240976784094 64.30927631709096
72.58340881367263 57.76047850530261 64.54642416198008
72.00517020779375 56.883947539004616 66.75657223542453
71.09393873062993 57.836310795281705 68.8024219309212
50.95936104396858 54.202089437483416 81.92331904462861
52.74973531964467 54.53183916796122 83.16661782361925
55.40825550323663 54.87322379132118 82.79227682160553
56.80962594773291 53.92750693188711 80.84787723673139
80.8341735735398 70.69274818096619 86.49679643222345
85.4550789412958 85.30158784235593 39.7079385927026
45.10297070398115 58.69636652626356 84.57844552001563
43.581726770475846 57.09498332537877 85.05238555625391
40.934947147289556 56.884023850089484 84.66636651209382
39.30584675663549 58.67791403536019 84.1220711650461
63.69578725375285 32.62097825876962 71.89734901661619
64.66672697715018 33.75555758865496 70.05121062636351
67.35997315018278 34.12080272539262 69.08563330915753
69.37182827757525 32.73166930516105 69.95212593071274
63.598082871569574 36.889956083017296 71.4839833778046
65.23434956386339 36.43136880039964 70.06665190735103
65.65611789223355 36.97116843947831 67.51663730261865
64.44270049308193 38.17768349602889 65.78991742249606
84.64605989653398 75.98401636580078 94.78750506732845
61.63926366277606 35.376711305794906 69.03420478132921
62.02665264285509 34.552678672823056 71.02747357755989
60.72208822679101 32.59221669346955 72.62665597059942
57.8957825192 35.152447683741016 86.15626362824526
59.29083048225008 36.45642608239933 87.63077481198839
61.33098878928804 38.219024020192606 86.97924533505469
62.2642322801794 38.70375972339456 84.43910689794915
59.29760112340562 76.66553604520851 83.63863753277857
59.73516431060851 76.38374383256509 86.47133861886881
83.45508018731472 25.215298684816872 57.775424791246586
83.55263396789906 24.46894986271845 55.399830357957825
83.49567579732272 25.58782799838236 53.219236926269424
82.7032494916565 27.99939832746176 52.67404045124456
82.85827129116086 78.80372586793648 92.82510915643819
81.73568999686559 76.88866549165432 94.4874676275303
57.40515258505655 76.56682496686769 94.68104514389914
84.33906397412002 21.652105503496013 62.247618311461714
82.84870457504591 22.060694168508757 60.31927950426938
81.67423698130825 24.36123908957068 59.446184421378646
82.00626502599721 42.620848838733814 51.07078937583896
82.05915044915561 44.16989156089088 49.313138750413835
58.81832938760919 51.915781282751965 59.66709096157047
60.9719486975067 55.67010246588972 57.75528055299372
62.99964034349806 54.4577776110136 58.328333055838705
52.73373412601383 24.464192094046073 68.16690218732028
54.318272125394884 22.539354887690052 67.43245799564062
56.381506666992905 21.725853676624794 68.48947975005267
57.79171862187303 22.53621984249688 70.2772641916578
84.47916639333752 21.763325935919713 56.19851765945122
84.5268298027204 21.01713453989646 58.291544545240335
86.45975458710494 21.432872767648277 60.208896154113255
85.18644854067591 40.69690993466186 58.54414333188153
85.91514722766374 40.34476074566395 60.709666946601835
86.98488539929946 38.52063284503064 62.039680860460614
78.0221416260654 39.28313669926068 67.5681585948389
78.17350953329489 37.198790870033896 69.1859460668974
77.60634653855628 34.732859808177636 68.84060842239053
75.63243457918418 34.58857811825985 67.90834883375702
77.67069345498581 39.07367405327684 71.33064627886993
75.84435931204943 37.74130548985424 72.33121876329821
73.17656450819975 37.667067671390186 71.51321132574984
71.66572682776268 39.062210258404065 70.16572419704394
83.87605614850385 40.34618105875552 51.212614263593146
85.66779352663009 41.18989301853404 52.98142789569584
86.3370679526701 40.33726917824537 54.96130322222517
86.9977417977704 37.81219020010541 55.701609845849156
83.7992460176584 42.59115850637396 60.243281645801034
84.45582355744689 41.716594824882364 62.49277171753047
83.43545713379747 40.05962505436619 63.82873959652039
81.62171321145206 40.161993783879495 65.39402375878537
85.51033787179448 39.50031523383649 68.43091234920848
83.65924143632813 37.88037350583978 68.61850875792628
80.87931681502323 38.40615698534243 68.84404230273329
79.67069500248577 40.15358195246422 69.27736592494044
43.902640250580035 77.56635264302929 72.73276504972462
42.177172320672994 77.51056248394612 74.7500261578749
41.828595449794015 75.79708854093516 76.59088401314082
42.891746959901354 73.96910009718927 76.98996046432141
80.3806800930491 47.247082007689535 50.00067299564949
80.64846614388529 74.95902572441625 57.71808025225305
78.95541194707872 76.72613913455898 56.83934040786109
76.30464039560192 76.49035729740586 56.14002863446901
74.64032295462361 74.93319957106073 56.99350393876737
75.2708578678905 58.77745679752061 56.76436070797316
73.68204638962183 57.77290215900413 58.01372640625026
71.1439211853248 57.5920811129964 58.10979680989252
69.25964347031666 58.58921206104619 57.018492681759334
81.05797884126834 24.305742056334722 65.79575291074205
80.21198430588795 21.775817028019386 65.31946021257745
83.41401454530056 81.92096388858478 84.04803070824552
83.75960606133368 80.1790503351106 85.8236986749577
62.170959458999036 55.89740559931807 63.69350291411205
61.21471563353638 54.065243121778856 62.184020004619526
58.99545693710888 52.83984012703087 62.267227700979284
56.74088335917426 53.263409853474684 63.12026703923894
68.3674285771518 58.89772756299501 67.91185408474593
68.68034438292582 57.63777488406451 69.76429327311155
66.85688662601643 56.24488344639061 71.32503865901312
64.69499252878431 56.80909623046094 71.84274244930126
35.01041820046137 54.98536706466985 75.70595083965986
35.322618358633655 54.61360086499158 78.0002922356233
60.79018130300441 55.54034916586113 87.72304371718883
62.3300298421345 55.93702030943914 85.60194134472744
63.51356649847561 58.618810335256036 85.17166745910535
64.13058526485524 60.27392111198196 86.944393758098
63.96139206912866 36.08517988425638 84.39458875616367
64.27293697439684 37.898013595257396 86.31616795960761
65.85160143865436 38.13919267215322 87.98216209054323
65.93136711079222 36.62667568716771 89.89293583239825
81.93666468630204 73.99200393899837 83.24666760340938
80.25178700982664 73.71074603082435 81.21338255618979
80.28584132803658 74.7791634562374 78.75221960705153
81.60985926179096 75.97068703430665 77.74143053369423
80.79342927181817 78.17055649785522 91.29123553982932
71.43764653117313 36.29136418496316 61.954183975239054
69.60233878439776 35.453139359913706 63.18396138257019
67.5735564746717 33.98053009233886 62.09621946110759
67.40948951820526 33.949614583473654 59.84461103792874
45.053429480039 17.289066496074597 75.78334540927321
43.800010944729955 18.763108670669364 77.34971345664218
80.276162710159 77.48449458167093 76.0423425411923
79.4511583291249 76.4249745121249 74.28801225838939
76.90855818352134 75.30789486172505 73.96658854441243
75.10654807956878 75.1846014963149 75.17782066316116
67.22260561852102 38.714195544627195 69.74462117871077
68.21929895854494 36.43445169341203 70.30797533280189
70.08161147968646 35.79519932342544 72.09655321232651
71.66954650749311 37.118036627519515 73.6355449163391
76.29833066820042 37.334123088105315 75.00925278767978
77.79752858872764 36.0476774791504 75.42557024208539
79.85505011442763 36.12467253175547 73.9097813857362
80.16069016707718 38.46763089739623 72.4042763612005
78.27788967234613 57.27303351848028 93.7750084837756
79.15938402468375 56.47888716731703 91.89412545842089
81.44691146168975 19.579548990226275 54.594105006707856
81.27126654845948 20.55644833427431 57.00768337728535
82.96236888225354 40.44256741781062 91.59794677847897
86.47092257383103 53.88276261609358 92.58557327224206
84.07559491557177 37.65794374913647 93.33634554475921
85.02335388707655 36.464734767960145 94.96093776772997
83.46487974390212 92.88227054570547 95.14777368573438
85.48196818037538 91.61304787769055 95.37058870615094
68.74272207466547 95.18298044667613 92.20848794105972
68.5329822255615 93.89405309616157 90.38379817171207
81.7831354897045 55.97845131131061 94.73488205617814
83.52450989501263 55.75382682157317 92.89986474764312
85.66066197527329 57.12138017978259 92.64240489225827
84.96881609187348 58.911117604424 92.06896687467683
82.83717089330878 31.774659131897582 94.43897826974847
83.3662543885498 33.60659844609751 92.91237210037396
80.93392706936145 53.4567642483556 90.14654551434343
81.63486756550974 55.84638296179849 91.15434468664529
81.16359087567237 57.22821215832534 89.33086529876749
74.4915792535467 74.36229102751605 89.9329518772796
74.71800598225079 56.84368036494084 93.3534956773303
82.49797108051632 74.81418713995451 86.88506063366438
83.76835068495406 73.23787136605982 88.3639596347879
85.54024506634079 56.52598403849079 90.17001407821196
78.38405361512936 72.25399327608213 93.55224315588022
78.72706364970361 74.36478918473829 92.94997176974829
78.8163854632391 76.67550580812896 93.74002691778352
70.86997489993503 90.66500327027894 88.69652583256412
84.91248933563796 75.01090463444824 90.33958754275035
83.13672967259646 76.21777042477794 89.11549957298548
85.62734742369108 33.556516245819694 94.59378252436164
81.87248358563389 93.99796180052196 91.92339280798085
83.48388627284307 93.16549004034066 92.63773219017169
85.86564837306722 93.11919962349596 91.27566747696305
86.43395961884835 94.44450677688775 89.01093805196805
85.04344371374488 91.38182437287345 81.97240688663048
83.7072754991218 92.79049594034164 86.55147217549667
82.12487398166414 93.61167758442343 88.54152746816675
80.70564674111262 92.49841354389179 90.05823143822512
79.6692217406854 90.07665612314152 89.90455419651026
75.16201080304042 93.57238233768483 94.57251032295414
76.163742504609 92.37882748063831 93.18687612252997
79.04334041919327 91.5233842933549 93.01371298526794
80.87259174155311 92.55355196135048 94.00035243671685
85.93623602018191 91.80044852322231 87.86123007423416
84.04923750148639 89.98877649565017 88.78076478640057
86.63294338731767 94.80010514932306 80.27901008212186
85.47122141101278 93.14173865463337 84.29541622421732
85.08434460031295 95.01170671390472 82.6355304750391
77.84729449336922 54.48845116353594 92.64765085486542
75.952619370678 54.32730088398929 93.58318600467322
79.63522121368317 21.74414657613853 60.605858039567295
73.78678003717134 92.28475732330422 88.35237060916828
