33.670369476369764 79.32835547538257 59.930305078915545
28.077265773396604 55.30023378876274 80.51003243772574
29.85709991647476 53.20019889290635 81.51457133638056
32.438049382562866 53.58918166602382 81.28336971730518
33.76394511869269 55.4278128131321 81.50355845919023
34.12594426261564 80.61957464251387 68.67636478506907
35.55247029175029 79.10335834021768 70.0854925965725
37.29825915173528 79.59726113410912 71.97967038772514
38.49825192015288 81.71121217586192 72.60664202812512
51.442098957897514 57.901367916385304 67.29642592420106
49.65264512212553 58.683864423100594 68.59603670215567
48.74510250540149 58.05009821147832 71.16305319670855
49.35027289790447 56.15945944476608 72.51013285297778
58.133614179342274 60.74019399653954 67.42689834790269
59.850679769160976 62.7883934815547 67.93654167300102
16.8840926690319 91.36802194381654 79.0531749785384
18.70016198975371 89.5152454855836 79.79185729110692
21.208841877635667 89.46029566961434 79.92173244040919
22.75327272691752 91.42561255373742 79.74541574276839
65.95059613158725 90.56727889942587 39.02906892999011
64.24086692409864 92.64188702285217 38.26743744384538
62.070663531988004 92.6866337111702 37.454745194566144
63.54631451331406 87.70832127937317 52.865842934762824
65.45197756138478 89.39942620253346 52.35848168892312
67.3330501578865 89.44161751358426 50.57095067367607
67.56791119856743 88.11708984354112 48.67628507277674
7.863634072227193 81.05408733595034 92.10537079121895
5.797250139869439 79.25620951831368 92.04062475878084
3.6232410903066445 79.77571592504074 90.91239725336514
2.8067723741970614 81.44162466768155 89.24172714804153
74.22625298414688 91.3963656234381 52.018013585179716
71.82770903843698 91.45887772140901 51.015939011335384
69.9023425674013 90.35632922347529 51.36411550458925
68.81085863570746 88.55910403856319 52.49956151842494
13.516995718874488 86.98561330099803 77.01499971829875
14.05147290992259 88.23536463457621 74.76800371748388
13.719590144145783 87.67944826160166 72.38577817222289
11.55213569682412 86.49125579381979 71.32125802550642
11.947480129703155 81.83423025462868 95.38250682578018
9.888263189879128 81.46526735894024 93.93757448682375
7.825817985120443 83.1951603944374 93.63079212101691
47.590640386277485 65.40433043078693 59.378329998500874
16.542370050720375 87.09949710345686 72.20195459401229
16.47723522043882 89.10698107944302 73.70470238117203
17.862869787905336 89.5719784828076 76.06101991373464
18.527162958701844 87.70621124508291 77.89769002339976
83.90635921211667 91.35530164128006 88.66338474109475
23.16240946053457 64.25223488268117 95.40146456089407
25.92941031449662 64.1410061775464 94.8315116945195
4.086080683633603 83.037852992347 76.55630402602344
54.90688609959959 57.62942349855063 95.6606482370443
55.87432764441078 56.41228579178351 93.99020234002042
58.124588449634054 56.233872830271125 93.04063941223819
60.21286829606566 57.80159541325787 92.89042714607228
47.97913690357323 80.12559420075617 60.76970010126245
47.203375753845094 81.01355239264065 63.09613891645033
47.02828957670848 79.37137561182038 65.22025411005679
47.06959101259295 77.17603201942987 65.59520471775424
2.5349463021475165 77.26203660403529 95.12915551325705
21.553641569702847 89.6603676091216 62.074638314104625
22.82940262610946 91.23779480379135 63.578434013017905
39.438424535151995 56.200896999502746 72.35185181223736
41.199651501324624 55.804596391177206 71.02366463507391
42.45190070419192 56.82087505128263 68.8774434844209
41.465841202125375 57.865163628184966 67.04967235235608
61.94788693940835 77.24487674033087 93.76861128289619
60.306097012140604 78.33364817315753 92.21382498164009
60.52520141311002 79.48401639846125 89.92083718089371
62.72365108646957 80.14406041464599 88.68638424686813
33.18973475188665 90.30228409776377 87.60690639643566
33.916248953910866 91.35870081356485 85.78913798632145
33.77102270122177 90.63315504142936 83.00542388445554
32.60361619977805 88.92390402906 82.13447906401397
73.26539303770262 79.92263703853813 78.84785018839949
73.35277612181575 81.97866621499361 77.54167256051893
75.20906633125784 83.72277951530063 77.47482308254483
18.079376031787877 83.66145249918972 94.45803432908664
63.53058816270981 78.33326382359702 85.5124361353801
61.24011734451256 79.24356092335593 86.36835887240632
59.301106710431405 78.29441847165876 87.67334509658231
58.345925277464026 76.27968070526966 87.64335807208934
34.701625502042916 67.74114384381227 93.9819293342458
36.65089525228223 68.14186329747008 94.71101635706569
38.98923382706561 69.21557137762663 93.75914641564572
40.10732630201893 69.07264397352837 91.75266411552936
48.57559847073127 73.19334731407285 87.51623984662987
49.83203361552251 74.83729085352132 86.36004207351847
49.1557405063314 75.09513969359475 83.6200897182713
48.47719615552641 73.50003724176496 82.12085622986623
41.57341136037649 69.39605919752407 95.20554136261181
41.859819286461864 67.65661316022874 93.2946590250164
39.674634336976666 51.24116188242869 79.20038969539894
37.62922392598491 52.80178111562198 79.92259090763777
35.22032801408585 52.0741191078748 80.41849313011463
34.06507587056756 49.79596312102682 80.03297965965685
57.28988661601693 79.92213945077657 93.30091453129046
57.821297745966085 79.67882292470577 91.00417822139711
56.93170014783603 78.25789556223731 89.15783426914719
54.77252482861517 77.6957509012717 89.46758826467698
71.85310075379337 82.12622138492625 69.85391928372717
69.36694598104344 82.4784705709299 69.39789184790298
68.29010977560272 84.71522912108477 67.98484426694458
69.37269636687272 86.08163180254068 66.20947184369496
27.90835992446525 65.37682126923315 86.38680546282067
28.100724383777926 66.46828021651004 84.45661857658284
26.347340866287585 65.67073241438445 82.43613150506803
24.996458166406228 63.63935540881045 82.49216759068653
22.95443200649439 84.67763774211237 89.03687535692984
21.68198239254809 85.08947003569432 86.7570558973908
22.658677418969454 87.27472009812959 85.03703450739644
24.70200044798107 88.55030683901774 85.23219091975399
17.66676517911812 91.3850272714105 73.38970329455447
17.85696124195048 91.3317305362242 70.7361570560682
19.660266647254005 89.89052795844071 69.34559737593277
22.109772488773178 89.58296096318801 70.02587794870239
14.28063667264904 85.71181427805163 94.4724307210312
16.69743601738416 86.57910897030541 94.19549598913926
20.14824261570659 65.75564379014179 95.74298080368055
19.553571432404667 66.70376994627068 93.49604506746299
49.39237127160119 82.52817878348706 50.54920282593097
48.643958333171504 83.21006424233117 52.479498622963085
50.212577822474145 84.5568114013631 54.537533419055606
52.47639711775297 84.27238144730718 54.71012550910803
12.899203529479356 90.64717587481893 74.40813169596146
12.9739364037432 90.29888505147369 76.28046059227746
15.479301289547353 90.43941781960817 76.90836950488868
17.09282855336913 92.0933069334002 76.12340544355476
45.41017068471349 78.90687538981747 73.30230206131793
46.171499775751876 77.94476457973614 71.22046568719118
46.75875088322893 79.24816805749684 68.89313989974119
46.51632927583964 81.98014505027072 68.47268357242254
33.57189098987464 82.4580756906544 59.346969201857604
23.032937062963352 68.79474691347292 81.35897568291156
24.755477144726225 68.17385194642128 83.21249760562824
24.447812954009137 66.77267108386609 85.51556578395709
22.481784596890876 65.8915718549403 86.47444156187476
31.030164386068503 80.30931155249681 66.56548251495626
32.56191327031455 80.46498736368844 64.72046417990386
32.57611683157431 81.4546882550155 62.26195308648445
31.224368714970996 83.12499385621192 61.32653997811151
44.28725285300927 77.79441355120164 65.8299006031878
44.219647452748994 78.00882225160609 68.38618967056011
44.5506455936787 76.2528024832219 70.13674166781522
45.937137997128545 74.46802112448985 70.31029937929137
15.034105708305518 65.28121842138648 93.58896129891957
15.577215874501952 65.4320126620358 95.72412432424429
46.20275787741443 73.26529302094038 93.6034546469817
46.374472617205235 72.87888652250011 90.86852177104518
46.990647048624325 74.36275090028445 89.28039449736376
49.7816477349456 75.34447024364786 89.05587076383432
73.1778643313967 85.4887615162296 73.8546633253872
73.62230406226784 85.32021067951065 76.23690405174638
75.04471637939731 87.02053517089035 77.63126270515092
77.27247770562659 88.34180740834012 77.18989663796138
25.753047574767436 68.19937613247845 94.79869860916335
27.522362692811793 66.56956646688826 95.5023816265142
31.578524990672886 68.87668691328211 95.3148121445501
29.658445875561636 73.81094538449003 74.03235611158607
27.90638474896978 72.43812339264682 74.96355468763592
28.235646435421504 71.89932955360777 77.67718940420059
30.183484392831286 72.54004794343464 78.64593482961749
15.056532034069095 91.1130260265936 65.27470512976574
17.12508158097296 92.12453289507431 64.33656143625801
18.938353630086358 90.7828743581607 63.15388727146863
48.24306111455253 76.16372734348087 70.18793518230264
48.44840520159016 77.16592978654114 67.95842121580415
50.30461636100828 77.31179355894194 66.36701318073553
52.796973667419245 77.05566149185823 66.27791282393513
15.051082633037199 84.00009832499804 85.11314526827917
16.37120176609747 85.39270704370055 85.1144460436363
18.72879059600933 85.32296185944132 86.90148225664825
19.178016831750746 83.68738431419372 88.4580365699638
12.69365924133539 69.13942953331939 78.19930022474696
12.151449047397263 64.87964023718474 79.76146613962023
11.292806979126226 65.04323870003404 81.79949251674854
27.18788730872585 63.255032868910966 92.18168702496106
28.614101365924842 65.38042902639287 91.5330331632402
30.527394733509528 66.21890750989903 92.18277338715045
31.32730094396726 65.59567405874363 94.47099014336818
60.02148606191927 85.73303694361195 54.987511795247116
62.498174220066346 86.6581448770572 55.03496352056465
63.35527102035335 88.76665501528278 56.349629760307
62.26894891798748 89.40550666030254 57.97909320741571
58.95564724223525 62.11769796531968 85.72261961342765
60.04613124290417 60.64390688961755 84.64403785465481
61.44851079782363 60.63919339114064 82.37458751659682
61.20146398612368 62.3776835015138 80.51174917757133
57.338665868055884 54.152216946503366 94.75809611792454
59.3808814680051 54.94164573522747 94.90602450848365
63.98349763277076 92.81745489008526 42.696100888973135
46.57683034371748 51.07355111212434 89.31027002720458
44.3276614200406 51.0305861578624 90.74603593437169
43.12112458734923 49.32649425158271 91.68381759947286
53.52459271675336 56.806126745408726 72.53649254999144
54.207069728321464 58.922662174179216 72.46789542435666
56.14080265638882 60.159794406467775 71.12718922872399
57.895684342321026 59.178922790642034 69.58793159108183
0.8661290572781639 82.73463693395439 83.72931252149696
38.92619365080522 51.396966412219754 87.94361585214874
40.96642596366475 51.467515418057225 88.95517985191677
41.74829191472589 52.08234995994554 91.30744233202037
40.04536711669995 51.8595114326748 93.50884399101636
48.01522268039003 88.78886487972854 56.42742677385884
46.861517418365075 86.38699500668893 55.726673521219574
46.11522159218127 85.5266807606348 53.68400956661007
46.455110726197006 86.45009560379955 51.11021805723536
67.3938546991525 88.24766470095396 64.08244776362181
67.19833040238822 86.17164266903565 64.98842318768665
65.73646244920216 85.23901414875047 67.01696346379174
64.35229640078859 86.39813214333188 68.66669346010046
33.10623959052129 77.76881358601962 66.33215218422663
33.965270415897265 77.91271648024909 68.21537630415963
33.10205893927653 76.97850179552752 70.85375425795881
30.970601156907566 76.59124949595375 71.44795306236301
31.601691346776313 92.21155897569734 88.37979783744167
29.734340300205556 92.46940272499177 86.32617960434376
28.16061802383316 90.6144212950036 85.79190580234678
27.282603331862354 88.35821225596989 87.17092623892248
79.97576479993154 88.09477986523517 80.04590030944553
78.65101111118653 89.74681970457786 82.00862754277173
78.75232308267003 92.02426095754012 82.17172741832319
62.90933595177718 84.90594793238152 77.19053693756923
65.17676843507917 84.80202965198137 76.1402713187576
65.73784897333674 85.38469124765345 73.72049890318942
64.06336092521742 85.33079473936937 71.51493772519343
26.11846773949636 50.81775397443968 83.4093051643417
27.602292333261797 51.7498881781105 82.14755794264585
27.017261010466974 52.14280213448927 79.58324873731299
24.78000884196546 52.161776822520544 78.4826049696189
81.80196735935775 92.15955731596709 82.0583557166845
82.5333120168799 91.48782756670373 84.17965164990339
83.80970764309284 93.06416039104518 86.07690729043736
75.10289398613259 89.24121808400828 82.2755868929298
76.56999116939498 88.2009112748503 80.82632850952584
77.65453182145643 85.85135261658928 80.45795720062074
77.61579357773114 83.87605541621801 81.6635716766407
0.408377615887762 80.68019872449521 87.7446448211894
1.183538550044351 80.0257584696615 85.20859011352977
32.89027841255456 52.14804586951718 78.16183723204692
30.40282046691822 52.143020014688 78.91410606294913
29.01091894088698 50.218693571208306 79.58347035755477
28.875840982804952 47.66654432692938 78.3546057972233
38.936680147462994 93.21355140903609 90.3864693073479
39.43059524762582 92.91444115877826 92.60460759431443
44.049620038666276 70.38987076766536 82.81896711997634
45.05400980807237 72.85380562817747 83.12726140009067
46.00012608960756 74.62025795590388 81.24092727962108
45.61160426197274 74.6149867435369 78.80942753864811
14.468130281723514 69.24454749023056 76.25448073295327
15.932971548488856 67.87405101721441 75.63671145644717
18.700462450150233 67.99884538657722 75.09432893220747
20.27557326615176 69.51065962869289 75.63634338128229
29.589958357659516 54.83574607623263 77.62155037163348
28.246408376397234 52.92397725613662 77.36727788677277
37.377921094498035 90.60169585903681 88.77338884249646
35.86088091280405 91.97955263724924 87.53077806754325
38.42330894690218 93.32914429971746 83.98103137087902
26.26028382713727 48.09693898646259 80.69847007850734
25.022154702440016 72.36075932846315 84.75547330360688
25.275232631614845 69.82340624176068 85.3949904114873
25.316612237470405 68.57731575096656 87.20573650736159
25.096712128213557 68.99375789730027 89.84730513354314
68.19408103950161 87.96410279330854 56.46074555221136
67.42652521534971 87.77163273084646 58.960065409714616
65.29890344585657 86.71069624123582 59.94781523236554
63.416236895277585 86.86591305321478 58.69904281634735
48.93490995221103 79.87230803201801 67.30741070612514
49.80165654671532 80.6282995121834 65.48716145519694
49.00561371652461 82.88382475546568 64.24611768845062
47.56295338320358 84.75438562332957 65.44016549510107
41.62777245464229 91.69831042673147 94.35751745756292
69.60299054298468 92.97038642084274 35.11180605549404
22.837042406846255 87.44486132845063 68.30040131083527
22.582175580962726 89.26636209337768 66.68706172719496
20.871588792419683 89.57856661325891 64.78671743540966
18.87196059114472 88.67405875105163 65.02530959045092
26.450346017316495 68.47682871878538 74.59296547480155
27.536580501733795 69.79781705866547 73.14291907483265
29.951023341401996 70.73113307490239 74.2977569075159
31.048174407595813 69.42733255748647 76.20905989738169
68.7115332158144 92.78243314403834 52.321694703259745
66.69199571131567 92.00703537452152 50.30827142602677
67.1114495545384 92.39534854237657 47.989837425694816
73.72273760759722 91.89875572756813 48.025066232651575
37.03194276308475 87.96757264817208 92.06929973342848
35.44311552857823 88.66764992132354 90.00353034382438
33.0372448641629 89.71174640490722 90.2372143787976
31.34357247415739 89.08086224680923 91.91452266165534
39.77187853520954 71.69508653053154 94.78142395831502
40.0743297767144 74.07106963688645 94.83255912039807
15.841157464907516 64.02240843650848 78.23025479907051
16.83084231395391 66.51501426431749 78.04194533540254
18.469081857844188 67.63543143878667 79.39399684103678
19.968790753765383 66.68501918969169 81.2172762865085
22.807535278079666 49.647660753096524 80.86810693430455
22.322530380550592 51.324358622041004 82.19813066331311
29.776158310244483 69.75370519688869 78.74111343677238
27.46509438089374 69.55048977566962 79.63515118019161
26.61778466128273 70.42092017321858 82.25738440073096
27.97031728610265 70.15546535453493 84.49118747291548
40.591609718111584 93.02199424613923 86.47831335025988
68.6389669511037 90.30764594144543 41.49625910465773
68.08495718746522 92.28114629633193 39.90428003967281
69.64315875276698 93.07838102069304 37.90601939494358
71.90226085547033 92.78975984140429 37.352637442183735
60.28199715837809 84.30227819280555 57.11326730031546
57.68346416743339 84.74280806452487 56.57855307099523
55.76178508919168 83.37396881979133 57.42621035807593
55.659159845107425 81.20943296168348 58.51803207875092
30.25208401710595 89.44488504326168 77.530392958622
31.51764478646621 91.69352823088424 78.60809339080754
33.51103572528332 91.25102730130772 80.17017105543144
35.553168199438126 90.27272183132547 79.92950446912437
32.466393328533385 92.46651918180237 91.23847573026606
34.54462028992973 92.16716490339805 90.8937264478047
64.0675434780351 78.87052896158887 94.33503301650791
6.666263261743739 84.1633131298319 73.7993796880694
8.880346030857316 85.29553966386408 72.61903950691513
84.19080980997926 90.01959025120755 95.25542780467487
57.28520999881683 62.36072841679568 72.48358093065782
59.3703577859824 63.22320308880126 72.14575007931222
60.224388152801914 65.02497300465535 70.29338875485513
58.52552274417449 65.85569263395818 68.57836433343775
13.592771980592858 85.99951075591107 83.87111782807068
13.46855885554786 87.94724919065526 82.23564624829739
14.505221618378673 88.1830970689762 80.2869347818957
15.767943400664564 86.8020499197506 78.54440017663553
50.55078881735161 80.05465935425057 61.473261581550055
50.753656820735806 82.17344529034015 60.607792994672586
51.913939256152545 83.09552313070851 58.252307330882196
53.23189136146292 81.92293707610055 56.65442174546293
3.871757436981301 64.36037165357115 87.56466115666495
7.839744802182976 65.37340103957149 91.67710122109041
18.027336998835974 91.81856283273639 67.40840758251059
20.768238297420723 91.84249520510788 67.19607440999073
22.289422363899604 92.94542891478206 65.58655431915273
23.123776623582806 66.5615034073855 75.57183400084666
21.163199801783666 66.49395491750933 76.69626184045015
18.74219649964054 65.481008266929 76.1711571461643
32.56267569722872 71.33903157993454 77.39938278277462
31.93355693083848 72.43448365449987 75.09593203449018
33.1989981960241 72.9459455449545 72.99261411439751
35.97136518559962 73.17389519004409 72.77261988358809
11.060778829439736 63.11491533556049 88.61955158933168
8.760516904451897 64.0722433430965 87.8571926290688
8.271222964444027 66.02167559601783 86.23923815959559
9.955937274605843 66.85690944983278 84.20023790343906
4.4034724933456415 86.74929085655309 78.94828616234638
2.886811531251087 85.26221518394638 77.90180068521155
2.0777874267305645 82.71567470319124 78.83663219145659
2.131501563027011 81.94380042672007 81.08581344431954
10.601741183548851 62.11804663337641 81.49543401856896
0.12213401033574661 75.06984761680523 95.25253632383486
1.1309403697460474 78.44773407263071 90.70995994418313
0.4965219471186732 79.50988911160881 94.4195994377017
2.201447983361386 80.90345921290226 93.00669899750882
3.627639142543171 82.99681206088715 93.44846307306018
49.14917217561065 53.983890891014795 91.34597013471038
49.17770508129463 52.89123915938071 93.18699545326203
49.31538985756528 49.99584117507167 93.87102954765419
47.818689887277436 48.19949033319214 92.16348842785351
60.53481074176676 91.29131324991825 95.14992552602361
37.986409593312864 55.147315935290216 75.16812031509745
37.8536620652492 54.73010584666972 77.64880211697725
35.50146010654165 54.72950400155645 79.33065344422849
33.12036861174094 54.91514463398916 78.2734436844443
62.15904694162186 56.25426372970713 94.45084021822048
63.538556750966556 60.57941086401956 87.41514333283241
64.57758874564875 62.14974238455873 88.48460552723873
55.44163029950435 19.126793173543778 0.8842933225980518
57.9864379508571 19.08889920132587 0.587108167206046
44.318082545175805 10.616600744587714 16.30588376550882
43.6330304160207 9.108750298497919 18.145235207773933
44.488616687149936 8.755559953229719 20.307579143794975
46.60327319631365 9.756655848616614 21.707732850873885
87.22292171691504 40.23774410855387 28.98784953846467
85.20966950767313 40.41675200656782 28.650701076489153
84.60322347232 43.14143417285198 28.448023842112406
85.73318656190986 45.02731496479451 29.724726923782626
46.531336497941716 54.249791608250426 24.898752880305466
44.938450429000966 52.44610876477135 25.118249303252014
44.0974958118988 51.11431278137602 27.360812987902094
44.439724552982256 51.13013527647038 29.268825614745452
72.65232705117973 0.0863347253579943 4.739305331804907
74.24663355055112 0.8731983698351697 3.900117331472932
74.64651756156435 2.9706922326473384 2.0960867538080032
72.94806711273044 3.7149990218196782 0.5382190394309015
52.96157837251242 52.05255154413661 19.15387708282952
50.679763877681424 52.33192028872653 19.988521325535515
48.66025927789596 50.473615795025644 19.842909046616168
48.475136567432905 48.41943196754986 18.575636485212403
77.36580714655058 32.28612258843595 48.4721852985963
78.635309316727 31.772763345446208 50.562166379941786
81.61322500295181 31.76668460218561 50.26486051508891
82.37872777964344 32.936682028623345 48.615551912798956
62.96037777174907 62.80673680714093 8.127534367975414
64.18206678412416 61.4457256608481 9.397735560646696
66.01199817064082 61.54636657788311 11.311553150851068
67.60753636868056 63.446080376120776 11.94680190216485
23.524302845042417 20.855502149999595 29.527730402159225
25.872726800184605 22.053183860446428 29.83149761342937
24.063072925519556 27.366611695014754 13.66177889852939
26.77683620997425 27.239799456086864 13.170807426815495
28.001525332614722 29.056844930807998 14.248441374456364
41.432986346500776 46.578853748350035 36.21599573600436
73.9717052071929 18.84805638335718 41.94529880473631
75.62011930289552 17.458733068622273 42.131910296511144
78.53501644905087 18.28227655404225 42.396725010084296
79.22690308824112 20.608295421938312 42.9392646643878
83.8487368054594 7.622578234129263 15.228688156310346
84.67046996095064 6.533816936044784 13.628101243998863
83.36032298667638 5.658361506636328 11.777430959716769
80.66671257936224 5.8405312400753155 10.955118418038587
88.7117327094581 2.8335751351765657 21.325164300261264
89.12979348433466 2.39040177575275 23.475025787583874
84.08487260345456 8.029900203340638 61.90238406463025
36.56091535634451 31.557631396139364 18.945419061654558
36.343709451865756 31.51386651402276 16.57028818879632
34.50254145960412 30.204727293844044 15.129412867069995
32.26114897230177 29.688701854102188 15.626720067351775
45.326763371193266 6.72124906589232 35.249635128534244
37.760852964609136 10.15043594699937 0.4524119981978245
86.36218639850877 0.734598889860898 18.59291354734405
87.12656833646805 0.8462821828415703 20.749779617826373
86.0416556828087 1.9853013906435613 23.114290930812643
83.48040033406059 3.040296383050933 23.042671308914443
84.6911818925982 0.42209336222997507 27.00900143095732
17.736709193593423 18.03402728550701 16.191948037672294
18.71728629978494 20.25698049245928 16.68755634235523
20.652150587062657 21.646997378311724 15.686743472336119
22.061468800548827 21.238330217881792 13.687986444881743
88.43794571164413 22.926235132004223 24.143168750849636
89.03435355040321 20.163426952072108 33.26158511511249
88.68905382831615 19.825649442753498 35.87345823717864
86.68591267639198 18.261551488449097 36.82811965196024
84.20035978114541 18.110302598939526 35.653616243066715
74.6778134502986 4.180740122348695 5.357423967532099
76.37487065108145 3.0833280774289284 4.4996174252069805
79.06507477228732 3.6085484292766576 4.711973315494507
79.97255530106521 5.365345319715116 7.10924825930021
41.11580021756121 34.61735710649429 15.759287698880362
41.44298122315653 33.47343458854023 17.82466034126201
41.61540241256587 34.169308394514886 20.245640306306253
41.270930614147204 36.35362246001626 21.484126151824576
82.27862691889646 27.579911265375177 2.548752054815774
83.2043997963866 27.324114672918068 0.4865810998874936
87.57725879663134 28.84524930677504 0.20786617108092048
64.46863021845786 21.99845074447955 8.157369746681159
66.51679446317968 21.441074456622065 8.188243680983717
67.64912483658165 19.874456106504308 10.127460682157816
67.05886782778587 19.528670474251776 12.088615371812272
78.0278527305755 60.749239532895665 30.704763715093996
77.3288854966932 58.39647943133821 31.29279752877908
76.48096696050808 57.66837196998873 33.90322770944532
77.63847353110081 58.75257246341443 35.34583109702928
88.07537062161221 48.705656650502874 25.96258627425163
86.9880125338536 47.04370720316851 26.551979223491426
86.81102710526538 44.594683497363725 25.550446295019444
86.9688943675601 43.779948539741156 23.165568751699624
61.814728153021825 39.357932534194255 5.035856106859521
62.80643331516858 41.007897011571494 4.289261766968296
63.79335016235909 40.24684969182294 1.3215158275378682
64.0310985830189 38.04692755629786 0.7404587436799308
48.245268894041246 32.71455439027307 25.691817931783703
47.58858366644078 31.279978125512326 23.63448221119465
46.4819757883659 31.807014509550417 21.43570041379969
44.38250201061166 33.148141652749786 20.944815190202842
77.41631621228254 26.75678556102664 58.174433924285246
22.292073840643038 29.773531931410467 4.471702494396413
22.766155055058608 28.040895299189817 2.1397582626193823
20.49138455469813 26.958529079856547 1.338939552264361
85.53008766289967 25.255137046120932 5.734414395442614
83.7905910379023 25.79424365594056 4.111841182326136
81.2902646486108 24.691174446697932 3.674482935995457
80.12693304544902 22.840513940587364 5.242169506386288
58.6387283575854 54.11026167186582 33.40553904195523
59.271612539606004 53.3353907630741 30.936659356456214
58.077717208419635 53.465674001436795 28.734525441095535
55.55621172097747 53.77815094125831 28.428194217613935
81.5815887321791 31.31077039640024 31.577937396479413
80.28425602975122 33.36859331308181 30.240916768408848
77.57115742005362 33.4699508550135 31.203940487974357
77.08081129970385 32.30718416921215 32.96668124370827
88.99044103066204 44.181516126760386 31.680599994727153
88.67762516536052 42.138683023651126 33.11775106818687
64.76582973963657 56.331660521106464 17.094333277548976
62.69419339093958 57.53943934661392 17.680374557133227
61.0166324555093 57.11237804428698 19.463498675280466
61.29836755923114 55.747312094047984 21.74301218386844
39.75014529307361 46.49431983060428 25.673896333976497
36.22314751139047 28.32470632389341 19.637480970580224
37.943737732449144 28.306167778746307 21.603925325104463
39.613165631758626 26.09750455725341 22.274640788860637
38.567496180941 23.780948940283626 21.643642264418183
74.74645728304739 14.922305306120034 17.414802013551345
76.2341812665517 16.963328792057297 17.40873314110641
76.77339405926617 18.73827749009235 15.632988634874797
76.11377292004548 19.210895458143547 13.480099721412882
62.23092500477488 79.65313155685224 26.116570689142925
63.93423037835196 79.18122802401035 23.977020307121215
66.40797545295214 79.03568505420672 24.13323455952567
68.01994783191672 79.99254547207636 25.636577221744982
48.59524397566676 34.6869064042198 3.861861305368772
50.07984889164496 35.803037797023016 4.849967580028702
52.769189616237774 36.364241423250995 4.274289681904926
54.32365451927315 35.35695807702981 2.6983538653413253
40.54076418202604 32.59404591627505 6.622509184786939
38.660299131956776 32.37953186778377 7.96994496961836
35.93114825662508 32.14848074319587 6.870787972653489
35.02565659911259 31.84138052206978 5.160263901994465
79.5887297487726 56.01919589987028 31.74006183835846
79.69371430625955 56.43570900983988 34.112573450396944
79.90394220355417 54.781095817559226 36.16774116358195
78.74806353905689 52.57733420137733 36.360207138286945
40.21348804168414 28.376874302425765 32.4646389501215
38.88947417347824 25.992786737859063 32.3887661588766
36.842745469365575 25.15625506808777 33.70805167125731
35.627142700786216 26.00806609540079 35.588679174159346
39.25574246719232 27.961948798075756 29.867436956238066
37.63519545833093 26.634128196787206 29.69996834771559
36.305376128246664 25.565386126036593 27.764237713778385
36.45815620657586 26.46984276934085 25.39655659045283
56.95678800327811 37.10831368868246 9.093108661901127
55.200507923200036 37.97995188480589 7.253827626135787
52.96282312394055 37.43765368421697 6.751828108452405
51.43904129531952 35.656496278562436 7.0841097746131645
52.89341366552343 47.00552992636106 39.43077697030042
53.86650144564186 49.28974185998638 39.82240290909125
56.571386678524306 49.67221449271906 40.64940941444708
58.496184692212644 48.71196287080476 40.28482002960236
79.3386171727472 35.781888051599644 46.47036301987507
80.68634855538288 35.03066885069597 48.51698490080462
82.8368746108507 35.7922541233836 49.31141230728545
84.24958255100506 38.01282268403261 49.00194851599272
80.57203225689295 41.10080414182148 24.466351642800724
79.54739631029932 42.55571853130931 22.553487183130517
78.47075262327749 41.216731532072416 20.322116690019016
77.10260759711082 38.82118854722793 20.42633969301193
54.425892777147894 42.47643307134086 63.39553872110123
52.62893866764788 40.63321739935731 63.780774841064094
46.81616031011244 14.037670553280792 8.861380619282073
47.51317750705211 12.59142663439719 10.947426268036631
46.399109058843145 12.69441710421766 13.069832791029803
43.551063639282326 12.414679824713419 13.271671189107563
74.82328052833553 64.05423649666132 11.643287755616763
73.25630930550399 64.86612869544534 13.876608829112646
71.28307688411965 63.26545674866102 14.617066139113838
69.70949675063729 62.205140051168215 13.12754302489971
13.994802701709927 4.52568497635631 12.895215171008898
14.071515964665759 3.5874833104251618 10.788969002877595
12.552265612096779 3.8910220625421 8.6805626525547
10.281261783297 5.309174378102384 8.356895537193513
62.829466847921836 16.091153044135783 8.91612790825396
63.90182936452294 17.71470329027674 10.47303070214272
65.07398009870857 17.75529601791865 12.558016093825646
66.09246556159171 15.623855490610234 13.918064828291913
67.93434846464628 27.189838684326542 54.728030789726745
70.67482079698567 27.326544097880635 55.247395746749696
72.12885831874182 29.318638855308542 54.27163438251536
71.30433291015525 31.58102304057259 53.29021620235885
70.75062207183112 79.8949902995837 16.27985242919732
70.90208084083709 79.15101312195931 18.456041431648753
72.62360797048237 79.80094888369291 20.573793330905012
75.12039104266283 80.66712012588532 19.943934540309552
69.52828104616646 63.28068406691836 19.12437393700532
69.74424514876745 62.20367956441665 16.854789744657076
67.76546230841592 62.16660215339249 14.963265924819442
65.80535898358674 62.90166870738538 14.806166863879117
40.388097556445025 35.33367272926564 7.253394588964799
40.45330265375034 35.52866831879754 5.248990800438873
37.97087267527181 35.37969365450922 4.468692723739128
36.02619225756778 36.27286163609466 5.775988991052043
81.07964280401984 34.2870482840432 51.3567328961262
79.07247361522677 35.06262694019922 50.94887378340518
41.18829328209038 51.35507263619618 13.843341499954445
40.97141684806064 52.05422928972118 11.656029755145772
38.85332831385583 52.20436306775906 10.073297721918006
61.995803775281644 48.52661210800328 34.969173068130615
61.550249921151725 49.36083276149271 33.16890477981159
59.41217208745993 50.722913793584596 32.32947636060385
57.479069710969284 51.16680270592558 34.025545116429726
80.18024032673269 33.76935559903655 39.9179468424698
79.7864179620575 32.96819348308607 42.00881279031073
80.4344264694536 34.162341418319166 44.60297884547285
81.91448578541491 35.82749960506444 44.86162664386321
62.775628636711424 51.83864176044243 50.94243328024366
63.47757589014973 50.33928057404013 51.85057635121077
65.65491325050401 49.121451089945595 51.940324184379115
67.88399486838418 49.734025398889834 51.65391530864586
8.805079695250894 1.0246319196590064 5.261263509401707
10.388243679643901 1.7921893205190926 7.155936000592113
11.834753962690659 0.7260800869819861 8.660598613255635
35.30238460897143 12.157680669282573 5.742879824557933
34.75137069871002 12.516105832806675 8.096671741447594
34.98212218890224 10.80229772236886 10.08057158738232
36.2353751394784 8.839533153970125 10.488639780547178
41.3704010412893 43.78824570466447 39.20172737435387
44.70434710376268 54.517625597889264 22.52972049532265
44.947682372527694 52.598328955164334 21.169542493363384
46.572558318284884 52.01841692642725 19.273697811946157
48.38163503325238 52.89884739805589 18.527392131741134
18.590177536229422 22.41515026286151 10.630064375060549
17.89374093123867 21.314870771188403 12.770915670376022
49.90549005957241 34.611970264424706 22.779636453758673
50.58417063900828 33.553380985804615 24.675138075668045
52.607716764325495 31.690667203322352 25.080059995561342
53.90059424193186 30.591384313500104 23.88677522963596
75.97985660055134 43.02765771261113 16.823388701324056
74.66828612414072 41.3118254025477 17.66276685473576
72.35791210417558 40.3114422119628 16.73333631706018
71.01709616765781 40.8831551654885 14.67327395190297
45.6937002936 5.331676103632142 32.528965199344455
47.39387986772688 6.7249867612037475 32.89510143785075
47.96378916889321 9.221045893375615 32.1674527246607
47.0453834156831 10.701226882240976 30.441823340514787
34.39510449083702 14.558599348993699 4.65097571867253
33.83088639237952 14.468314776393672 2.538257053637973
35.11249601428655 13.710895842380081 0.2818071613921559
72.4805508064439 53.28013822858527 29.578339773153935
73.8393777783419 54.42929255661615 31.28554125695849
74.77126169115166 57.06616109032744 31.17383866774208
74.85089655958066 58.51804129749128 29.83210633802348
52.12555415213367 17.83614180316837 0.4611277553655531
54.23637585079258 16.692486633692294 0.6104727044984547
59.28150579135586 78.0039923440085 7.824692973736655
57.03107815227054 77.42211278139366 7.957178670995639
56.07496059396993 77.05768391163585 5.425051686679902
57.74733370996869 77.48480403349541 3.4108854700390268
53.08585221469054 13.521657780893301 11.470829419627515
52.921778486596764 15.528714712368561 10.487763511665602
54.41778845269752 16.504165043069438 8.531599443678283
56.627891218078446 15.989592000089795 7.640265450311494
47.8018321876311 12.616715247301416 28.841382920735256
48.230622910965025 10.897050287126387 27.71313734041397
47.50887787184136 10.247742723588404 25.23908547539242
46.06085521472657 11.588224489201336 23.50001267734577
34.77165190700661 6.972183843549131 11.366866675789847
34.68829018689624 6.0605041616878585 13.510043698274576
36.97280574956967 6.4411672288014215 14.796271834072881
39.09327479287008 6.576673062539451 14.232698410463628
32.51843038777565 8.383094204391254 11.42345409699351
32.68412311469803 9.278746183558438 9.08108261316943
32.19328043225271 7.749843155688417 6.808145110907319
30.182218807747745 5.968390259453232 6.478611127892865
41.850638108256646 12.566633345013434 15.425913719910527
41.5700530757487 10.339408809971257 15.403450759266372
40.257003064939255 8.942040723893149 13.678883438007416
38.50810304843473 9.327257913880365 12.582983670574933
33.070047028290666 32.68564916903347 7.219868354921271
31.730466564944166 32.00592225918902 9.01381455737485
30.340323222150737 30.0208409235496 8.925160534918483
28.829676908017312 29.082373864449224 6.635498868429576
72.70609108166725 24.550397359480026 4.2367384857881865
71.52654209288669 22.588669520861647 5.051624448606515
69.4530352753907 22.368318252954595 6.609910098320115
68.01654228804956 23.56229534463791 7.653593420037019
74.24737938123616 26.493663194466354 3.028235469801999
76.38928665097279 25.575968175114593 1.821842865316771
78.6874710903085 26.04172334484528 2.4580029595299204
79.23537505754463 25.90622037367819 4.569866469383533
62.164404974420016 14.301129329779563 32.000912091535746
61.498426622435055 13.354092669042723 30.023537832196098
59.93305258277288 11.19770925516475 29.6775955060245
58.004301115585484 10.4867828337109 31.30098472550255
24.400942995356335 22.89803513931182 10.374222003140913
23.307611434666658 24.55429784422303 11.996486584502222
23.620103055354186 24.86924119756187 14.640645919120079
23.935343623065627 22.708022195947272 16.035747343911535
23.90560585950362 25.5550437753945 3.3730665096844565
22.728274865228588 26.190859673004844 5.2853284428512195
23.150147881384 25.493266539249092 7.9614142286369685
25.349097614234577 25.551427795998514 9.343022320883659
67.66678657300578 49.528077332713444 30.97159737925641
68.0855095775808 51.4276703240047 32.44934718953364
70.33836053253424 52.35904535666117 33.663187171970684
72.65314676020242 52.019533123601796 32.654721542909016
48.996362519460284 35.4069118525015 0.6521328978573483
46.893871265159724 34.73443930892898 1.8409414999731997
44.618370626720555 35.52244841440699 1.524352304869933
43.31889462513922 36.67053908724438 0.06732167520601123
53.0529989788717 31.29249102612336 30.273870252332554
53.13749609007566 32.033045041772105 28.350659179182472
54.73999236534879 31.665990934334936 26.310969884050824
57.25883786513899 30.03811608235622 26.690910729731698
81.94936777854336 77.28597847180922 17.964632652062672
82.04341735527382 79.44339518026118 18.980876187462833
83.96395945728149 81.41995271008622 18.316607526548385
85.36090619825372 81.58780111432647 16.66914947597237
64.3227583393879 14.599928381408171 29.994955803277122
66.01655417438056 15.63818272438143 29.761480912868645
67.15991958459857 16.68020372043909 27.944678965151905
66.49950939838111 16.845251284096186 25.45305754633005
57.530113129381284 26.353025586718903 37.795301266533336
58.71571477114303 28.6781697119232 37.978345517775914
59.631219894092816 30.221830252509005 35.73080004650391
58.817751961908314 29.367061591036382 33.54245975203192
44.02390031935771 10.381480407461366 25.280460667874333
43.244438255663475 10.94741865048704 23.24624195141364
41.84570618131552 9.793679697012651 21.37245325368811
40.14204525225571 8.080200471993583 21.845028345090007
62.425779389418764 34.879737037346096 20.16286959957598
63.04490024950289 36.188947944055435 18.41816936456013
63.42132526093085 35.73396123056348 15.622440174236129
64.06240139198256 34.072378923847936 14.570229363902595
60.542238490069444 40.00877830388772 10.022938745648993
59.00377420137136 39.20353962159875 8.223476711692582
58.191678697685205 40.193598210801284 5.957531064869877
60.08551590196494 41.667124777360094 4.611442050569386
62.77150985501586 20.060184681662115 2.0982384949247863
63.6846437737363 19.884629949937356 4.428248022088105
63.49143221886141 17.720271766426087 6.1122936891349315
61.42998214464744 16.32454012221917 5.497039243633533
23.25530575092979 7.046071717826781 24.28824000403357
25.190035115208094 6.355442659685984 23.33885148439901
25.20402738967125 4.428769954583019 21.061015008579965
23.359982878541558 4.311365600632325 19.38096676560982
65.12358509247088 71.20635453714405 33.587153467974744
64.03372774530588 72.44100719826449 31.99150198531465
61.662639047945035 71.83974162880143 30.916679386388775
60.7200634474907 69.5544201367893 30.330032279031567
37.380232446574134 34.26002697299643 0.10895870137175138
36.873923602102046 33.69987853195797 2.3560166823808903
34.90381043953873 34.5176677908737 3.9260120969539294
45.2648166174557 47.98306730910814 29.38009718592402
43.51860274564687 48.01878362725467 31.35610444193521
41.14189889422276 46.94851921249764 31.22064966502304
40.329034022284404 45.70793493566255 29.733808255864883
79.7581998783554 17.146328318789834 44.57530388500654
81.33541584989042 16.097706284659658 42.472873387015404
83.3995257031791 14.790662943424415 42.808840893700975
84.98526748449703 14.528326801822246 44.72159275149204
53.73753225952885 21.173212137812904 8.30156656400799
55.55216389764494 20.681884641569617 7.598213788098277
55.787788074840414 20.77383286282813 4.609177849704033
54.95878415953833 22.119569306493208 3.12398754317596
48.536043967785076 19.120136931238235 11.03191578893142
50.39996594120865 18.575331980736298 9.682941210385275
51.2947048626343 20.29650355003015 7.87470435576204
50.29471368491283 21.843735165074254 6.4708640496235175
84.08619565814264 14.32113117230217 59.89234075795255
49.93089105250565 13.014088242759271 8.677140524367273
50.872146195764316 14.886439299994802 9.147629929327497
51.870085932864015 17.164706856285466 7.940744383639582
52.07575708805044 17.487007411664678 5.384049837088415
52.049276587921916 44.62992509370902 40.67559725568163
54.263331519080026 44.98708933920606 41.4917990124786
54.200583327532534 46.31728315062625 43.966919440031084
52.053973300470744 46.56434591990901 45.62636211285027
46.556780236842336 36.683403869531304 5.528942360729368
44.71520190994417 37.24295423690711 4.611493473815345
42.851670219374455 35.563302117447705 3.623014215428305
42.1165717294959 33.24680547937235 4.569621532444749
50.528055380025314 20.0924767918893 12.645502663992518
52.20051359736478 18.061709648242246 11.700351146056935
55.02822049727798 18.474168041466537 11.180570924264133
55.90609919807351 20.080370555709997 10.328218621433919
58.94717435759982 35.26314766548407 8.556702707873743
60.418821306392545 36.91579058204719 9.218122169294091
62.54003214702515 36.88693737883121 10.407549935569799
63.19438457721597 35.71837070638276 12.728165103909156
49.102041528996345 44.614365759113035 40.142608394404995
47.206673068539935 45.07506432308757 41.61495501012723
44.6963496139334 44.41423246672438 41.63759320403206
43.50409858066797 42.5782985352059 40.285001454552614
80.35194817561003 3.110515949612289 10.82011908930179
79.20004400950154 2.704393324497022 8.472370632729206
76.64205940024425 2.487320988504169 8.028738906554409
74.55846346593144 3.007829267706969 9.59135631370728
86.23794277661312 19.47146405540204 23.79075606986253
85.8163476963283 18.61247605161571 21.575644499439345
85.26865877248997 16.091072222772993 20.851041026379427
83.79169613683804 14.349479180552866 22.204612661164017
21.27082811656289 24.651596723706323 15.850935339028338
46.4650291040392 28.028525364462006 25.29128426448284
47.80425214438881 29.778525544715638 25.916156425818258
50.461599351789395 29.9146548407813 26.359135448919343
52.19004522656844 28.23035744937061 26.333854157984817
41.299376724502274 34.71715437032448 0.3395589460679178
40.475355399364645 34.21881204402241 2.500248418749854
39.063420932535145 31.960933442434147 3.217539761407558
68.74981485773095 21.332173887979916 2.0107729527884968
70.69151481250377 22.499810565939445 2.2301939833459707
71.44721719138748 24.727643162550706 0.638542001699337
33.37548768515712 31.268352868551183 10.988856496697206
32.827511004997284 30.716867360225667 12.888648364270761
30.633324980092947 29.092283423422263 13.352882010262446
29.56067234497123 27.593465324080483 11.500114882370976
71.75332902181603 30.173544522286612 59.860992582023925
71.08140949217797 28.404537821200446 58.27493013597445
68.74412430518476 27.740360676293893 57.41045801912067
66.54620746390346 28.6239918175968 57.56466394895098
61.79317605141885 48.398675204375266 47.61492341931112
62.2664514620239 49.20088867340628 49.56172542744767
63.60669996152787 47.55532607560765 51.431943897562796
65.11029668684063 45.802608829100635 51.342680936515286
60.60941771414431 37.22333530966711 18.974646649671858
58.7794851195212 36.882323573591734 20.23762148626276
58.38645679881015 37.46297967934772 22.76758456404217
59.67211212310076 38.74420125682076 24.499953437230506
88.52347296863572 27.593971975263624 3.9974521164916976
86.1908436617297 27.927575921938285 4.966674599842815
44.68196235799139 30.086785930098074 25.912549482474375
42.63676553284849 28.95875205379712 26.29924699623289
41.620993778178615 27.8407559654417 28.412987277265813
42.22074353622468 27.326672958401183 30.663271768515934
75.52018338427396 45.52747630480758 6.521971222935449
75.84569551226446 44.73112815836991 9.117907099307589
77.78399734636432 44.2695784430603 10.138051681858537
80.24230275429288 44.5260252715929 9.646009357514052
30.331718311698452 12.767176567504107 0.8277507482793844
71.43219116252153 19.893631159744572 6.206149311439626
70.03038146644985 20.485935338442044 8.43589819571838
70.83579424271088 20.450521785880568 10.67897877794347
73.65771502173546 19.82601538905098 11.735039702844036
44.061683347074606 39.33010716775082 56.16487691664101
55.68793069061838 72.46804296229682 25.111483994776002
42.447206282204306 7.311828530528775 13.47599704734653
43.363596069240934 9.57468823279134 13.459633628791646
45.91468182227175 10.340787388053807 13.979232101831235
47.94099806682507 9.497545964749161 14.102751084940442
65.68817957376766 50.3082225895948 36.52222944424461
65.84376929526438 50.403544698773054 34.25850416024355
65.59080292413614 48.21604174661344 32.322090144944205
64.02920493259168 46.84490466761277 33.1392067120054
57.540530471224386 21.067950042907576 2.293535674476901
59.551612880798366 20.10840882362958 3.4834001398053895
61.01996656025053 21.20268847951993 5.256559702096329
61.45833632457979 23.67104116149416 5.577184634892147
31.112657334096486 32.358406038118076 16.322873847446225
31.488253074163683 32.476371287649144 14.23443919035634
29.179427169077652 31.433372294033916 12.680517921923705
26.94489274867298 31.20504213837792 13.664259143932531
66.21890042987216 80.01684802987222 7.287401859985861
67.20620924614705 81.93775763772737 6.864802886284974
68.68889951907475 83.77159755293683 8.313944788656014
68.01548839615891 84.05757581724374 10.168308038396722
85.35317030568632 17.77920728171784 56.83915751892547
86.00092003275803 15.701700718326201 58.819154928876145
86.9241457406353 13.45487906482559 58.20180066060146
86.86917480226059 12.064582951675439 56.39628640174427
49.631831692632076 43.31673495315226 43.556099282459876
48.67965462511673 45.49819340396784 43.950551245452196
46.62973954360427 46.56791594494291 45.19976629508666
44.636570187891834 45.26392859236802 46.093095524900676
41.30993798154734 14.99042530320754 46.402477759944794
39.21014493030042 16.477283498996073 47.290011327846976
87.63727822534405 3.7057263618871734 4.218051279501117
79.183849202356 13.003205677913611 47.04740555099829
76.66140089251812 11.937702777567765 46.411033810860786
76.2057672942588 9.11135769665905 47.33934977729813
76.28015953892505 8.87386792525426 49.78119597432363
71.42648256152911 30.35221210276977 39.71545985087099
72.89367016397063 32.12104685379415 39.99155353869371
75.3808709304631 32.35897031240213 40.88686003958583
76.3299134532966 31.236971379523837 42.95770535048254
61.26220092705455 11.587853454337855 26.099443431959944
59.277125432492895 12.248984965765258 27.161275057146685
56.87728576743685 11.718054891911908 26.834361377331465
55.732656502410954 10.420740111021939 25.06821958490754
20.341553257254112 23.574203665555668 0.724066335550657
21.21730002563906 24.852198022432887 2.9887132913318104
20.34193572975014 24.06373269557288 5.421580965351726
19.116177319494046 21.935744478334296 6.202593933007883
68.4799980696765 11.535607879109643 49.955587650124215
67.09823662865678 10.269106400835147 48.56412397952516
65.0414834603366 8.712746126037086 48.902488760317866
64.05495559981017 7.884377488098061 50.971088005185536
71.39231950034545 21.643908386518095 13.433154069071687
71.618078478604 20.915387279308856 15.439890384900176
73.5469899487507 20.240918586190023 16.495254311015437
76.05146110706376 21.377546322498155 16.716631716190534
68.04793479654387 30.95258807714268 35.32395783915804
65.73305012800753 31.93142389867578 35.60301353659857
63.423216536948104 31.92851967630433 34.10127456221716
62.800346977440036 30.37390143232491 32.54363222392219
69.35374497108056 18.02873086646269 35.00443611194766
70.2327722469132 16.2550214757519 36.985742989271884
72.30953030668417 16.430988004497284 38.50829808584404
