48.36825057729119 48.205504820112814 93.42236721378993
48.9254500381042 49.97783265572522 92.33548005070236
47.607624200698346 35.15656994766583 74.64269937925964
48.847457658878945 33.72384714027115 74.97066485965541
48.261676424484605 31.394777487554467 76.01050128984751
46.765001003734966 30.831065445924718 77.75524270014047
41.42195340087323 47.960604337430716 94.1835651047817
42.37249109463592 45.503004632184265 94.27725050694784
40.94004566520257 43.25935833631864 94.74099774525986
62.02047877348301 55.0148579437542 93.79131614141153
62.67519796826467 56.587772398736355 94.72509292586186
64.28058156023134 58.72083747484629 93.92394271342317
66.2292035489066 58.38502991379027 92.44583474547258
42.606653247414656 53.00078369243433 83.77087791268077
42.99713705325009 52.897509261419096 86.14060820604102
41.371117607581255 34.001591664269256 91.87148454179611
38.99228041933889 34.85086311820014 90.7123364693797
39.01802587295531 37.145921373821984 89.3650514567752
40.773612677224136 38.30254200065054 88.82185096056271
10.815896198758722 67.4651810735448 85.55455855077543
10.57619309768224 65.94711958498853 87.11515550894082
8.629132381241746 63.69802137866292 82.49854310414992
9.564769411847191 61.32299709604019 83.11466419086472
50.22601311511145 24.34278675348326 73.28182597044301
49.02829534440698 24.034813884503645 75.64093128816724
48.598491395917605 22.58977322089387 77.32310168098833
49.72973036739377 20.315710585894955 77.98977210097817
46.547555839283184 31.356748726973276 69.79984337484855
46.2744578744426 31.364670488861517 72.49805819705736
47.0131266049512 29.56382286612258 74.14452829054787
49.4068454375468 29.502643432369123 74.56212147166323
10.859658012877146 58.43629108594603 91.94744500842395
8.453004301180993 58.454319398636414 90.14300347314646
6.60771113761689 56.68826745113124 90.92941012273923
7.066212854412218 55.07374872390029 92.2686850328084
59.61991155230766 54.47350001680848 91.96937325115883
59.42069012062142 56.72391146973355 92.79745441236686
58.393243816008685 58.75507082986265 91.45696200150074
57.71820184875397 59.24112508431232 89.27996940738036
6.1521194539459705 58.36554683551381 82.11522540692161
5.089517760005128 59.97620476060767 83.40078463708265
4.53838406921005 62.41095415326221 83.17592158889964
5.641091326162588 64.31906549388901 81.74814791135223
35.35679727523047 38.635420608888445 34.214718329941725
34.695557979666994 37.04877402728651 35.81813091801637
32.44518891965131 35.97464104693413 36.22540170614146
30.33510932997944 36.179997127858734 35.248188756898436
7.343625418952878 7.162065237907609 62.33458238892279
5.429472960290364 5.513322557433311 62.85186832877706
6.904437371795934 18.252749388922307 54.27571763160636
4.6640455912383745 19.436103355668397 53.487938448817125
2.4277589496287946 19.7995771899648 54.88052813385894
1.6360853995021312 18.696318045620107 57.14156902649737
11.293995205730159 10.511369647212494 46.37060365536669
13.105537150813378 11.212002070533478 45.70608879769952
13.854942350877055 12.853208364066587 43.93822078142377
12.648994297135337 14.681867792074847 42.420252909841594
23.574605633351425 71.06061268082003 79.59679538185547
24.26579032647131 72.13568471002195 81.2794955492353
26.713226145065935 72.36795215037961 81.84672171083552
27.85881587705345 70.46321675980933 82.39061495836363
39.150564340460065 17.911028416078032 30.789347236104344
38.65537620383046 19.205090445583505 28.44984439965165
38.537846805757226 21.711458507774875 28.086422203355998
40.24227718308186 22.614493150993887 28.67082215585425
25.5995734714497 73.25255855581261 85.21947364321643
25.350992604017033 74.93038109096112 83.02800733829525
26.50927669220124 77.37203315075728 82.88471825650818
44.026925687758386 33.66175300197767 47.81534711992009
42.838245567815484 35.84473490601497 46.842051778783926
42.75781173905153 36.836965343736864 44.77251513767992
42.9419232410591 35.96412533789863 42.601190248038534
37.65360743924163 77.64007338639637 52.327194829922426
37.38616275624762 80.0160029447241 51.63551853551409
39.162541806495405 81.31337031022608 50.02592119614716
39.182313107753906 79.30683225628711 48.1055335261145
21.549098492040716 15.42333515253382 42.34055049482386
19.85572614144917 13.58216668307155 41.46291194399909
19.5971917738925 11.212611577114137 42.56861099577485
21.75211433623136 9.691371392279569 43.57425239253284
30.810171831846596 7.563912539538778 57.44740493217746
30.097932246911697 5.92495895150675 55.85639086088484
28.119904076778344 4.359922630654197 55.94998614937309
26.069087793487824 4.2379360764416125 57.01865047971184
18.146147642432524 77.79171865317473 55.18010194240278
18.580071587772576 79.30289708601495 53.0571724334287
17.246101003703608 80.13284980511564 51.67124914694541
55.096218597585974 35.52094713470976 30.51958785110592
54.27007920167308 35.19331043005112 28.44435147429454
32.746933695942566 72.17710934161286 87.12927866273635
32.303839228616944 69.96174181052962 86.80691640631322
31.14658039712684 68.11768667023206 88.09974918254476
30.693093997280638 67.5751700002941 90.43759697835407
30.74122569206288 34.93904968264992 70.90392350433484
29.14148811574165 35.15280694747546 69.12174532753987
26.808284282662115 34.22775793645231 68.84323362430453
25.056937692136533 33.45928143245922 70.39004696856479
37.55010165026189 75.87004162424377 88.1069226445753
9.413580118967896 43.30232743438027 50.52247077174625
11.311242876466041 43.88840046316318 50.86881501796329
6.999183257899038 25.89183915188248 59.08119051789569
7.941972562120763 23.85414354231679 58.47163020335762
9.19134819793733 22.05792181254726 59.81575465442368
10.527439954509248 22.32463596457929 62.02297216257196
38.39527302214916 72.93308533403636 65.94700905931523
22.554471170308528 37.83906962566831 57.69370947813545
20.739234968940742 39.41197722671162 57.10802924467806
20.498192716487758 40.815180037787975 54.684351373089875
22.726469971674007 41.32794912497307 53.50255265232633
36.53156581144049 14.516828054177559 30.61405874529918
38.70943795432502 14.124226478839129 31.88376360431047
39.52397563495209 13.62429696989675 34.12090910337434
38.38612029271738 12.785701473458838 35.94413859890351
45.16760428573443 14.821692151882878 30.315134895799986
45.40256468537574 15.827058612889711 32.58645406258081
47.140908943040465 15.468759238442656 34.61698376018591
49.07140798921401 13.881649730608903 34.83802689901591
29.642779184123583 33.51022937770941 34.896086964862654
29.556732130964168 30.826894998812453 35.74151554021329
28.850467150372126 30.04524708223494 38.15127669995285
27.337054104420098 30.994871050382788 39.63767954296817
28.283481226652977 9.324738739020654 54.98538221955396
30.929769607107755 9.290480904233716 55.24747357880928
32.65467226049792 11.320468503372325 55.67957250813414
32.04173642783349 13.768132495370319 56.30627151933325
14.978731981637573 20.264198134433304 16.775212707948224
15.2514294362166 21.852557869854106 17.929917414600887
17.61336335250005 23.65555700508616 18.307018881620987
19.714949480539936 22.84418471653541 18.311814990678062
5.633207312853535 25.04600500090884 57.02666745817843
4.7436310033852696 24.430278008478023 54.83158132417836
3.4786532017406917 25.76531469094879 52.794845411541395
3.283938108432453 28.151243244102144 52.34863225733789
35.85984928794695 36.25849767290078 91.22122699524054
35.111114150145376 34.364822703881195 89.44305195164209
32.51262181843121 35.23106951627438 40.640157263526675
31.36917577630529 34.02674765423349 38.97835811826451
31.21029228660906 31.14280370727598 38.7779757981921
31.24934477054636 29.754390905919454 40.07816627559365
20.58416150505206 82.14405547375233 54.65916980576781
20.288754786361377 82.49402823500219 52.050850881766884
20.67363304402456 84.77861446207767 50.83673793214789
15.897650627098255 75.71738597493983 53.97330903030612
20.865330942495227 71.61445561545696 77.34427192468439
18.908004580559844 72.72966985250925 76.08803702657566
16.26492365103471 72.21636357535876 76.59210957203072
49.15253043216486 1.1263610894679006 20.034799510787213
9.611521983701184 8.331862440556332 42.33491100490249
8.919840061084782 10.64878633013666 42.36588842491094
9.421614549717306 12.486240724899007 40.30656535948012
10.154206771608239 12.131917301786189 38.18455257154684
15.100784643867236 1.1065106772516402 26.563333918868192
17.13675475433317 0.02937259556186687 26.195686322890857
39.313497664216705 10.081718061267837 39.775446510615154
39.31332281041578 11.354796265197974 37.90264402143363
41.60068328746842 13.012480253415944 37.23311528107981
43.58512873512236 13.425914105130882 38.55083772656475
51.495368816536505 17.94265914473761 38.14633763993512
9.368081683838929 16.649426077935438 15.813739298605961
10.97696438984989 17.872676324626333 16.603430922382163
13.230905001602352 16.627493518776696 17.157040132291684
14.05815185370634 14.388637982319391 16.314713509473737
23.561459965648517 16.614965870714368 44.08011559344335
24.202735244377205 19.198924084544128 43.46957033691998
25.64650917206214 19.823779376722975 41.579602072751676
27.185111212462385 19.061107627316332 40.13777883255667
10.698161245296527 30.936895312866707 9.862238670786978
10.149269142999144 35.428424806351615 10.605181880778119
9.883040030561988 35.75885704417528 13.240067376839276
11.225402684112607 25.441108754446393 18.64593060680119
11.45430787703835 22.911360301415783 19.859036490828483
12.461255910677268 20.859020853046342 18.544398690109606
12.226675107925406 20.315312491638885 16.026720118651134
28.404148750874793 28.642054556591244 32.68967330293451
26.747309447001165 29.585412971949115 34.49861975091092
25.831391802357267 27.74053170230998 36.37539609441414
25.15885995198977 25.64828584789688 36.26360548095352
14.08778165160669 16.830199929706854 43.39052261826735
16.192484260847433 16.546839669413504 42.405018039600925
17.567013936873956 14.085547376825021 42.44324834741171
17.824541126102773 12.53357146563387 44.06929123654671
33.4388487648808 75.75686324501599 84.96266408314536
30.90443804623512 76.59981357805636 84.75062105925454
31.25967705657343 22.604940283372695 25.242794216159645
31.67386414629441 24.330136791603177 23.723488412231653
30.138585315255565 25.336782132500115 21.901205004557312
27.701282670775527 24.870387027158014 20.941045550567647
6.468167627902591 17.2009061611002 36.466003410353586
5.579027960105904 15.564055589503713 37.72561253664518
5.650556057604489 12.655537113901122 37.18843422867849
7.466527699689765 12.006624461852066 37.14365841637645
39.25350762229869 8.949227424545963 63.226021386305206
41.44177440312804 9.4709609924854 63.226231475636126
42.971915180134964 61.51727241877353 77.70553861746414
16.093620829182548 75.70355989574311 78.06608500831021
17.41729108310349 75.26134478883364 76.32222725351521
18.188892634120393 76.83842681220179 74.64874416932092
18.146308939921457 79.29092091761768 74.54771580394458
1.6501209222289357 17.749704323339945 31.044877570625882
1.2037496360939899 19.713123799214834 32.54962874645744
2.2420280222000764 19.83284055533983 34.73883648945795
4.160891765724857 18.479348389322425 35.8849013141227
29.86713752604037 50.938137242442345 53.87801955815612
28.534814720586912 49.165085943241955 54.86575550781107
25.932002483284844 48.652863824038484 54.187942042130636
24.567824642220266 48.93408589778228 52.35020004669476
11.09758364209992 11.691897044175226 17.318489631341393
12.261218973274007 13.718913069300049 18.288529626459127
13.395677416557293 13.820686910749629 20.859965104604708
13.788501766097779 11.752483111978496 22.56738222811812
47.98689805406143 21.52884952720612 32.19549032808795
47.57226557683042 19.228867269265898 33.32187872678635
49.04155292583691 17.45858876268134 34.099878255481144
51.46201173716726 17.092137507317645 34.19406776068817
36.669548781059625 20.29693476328395 78.67694431030144
34.83799275412927 22.284101929331253 78.064019690694
35.64667404267782 24.87894288963942 77.78553046674207
25.26774452649969 72.20093973581965 77.50181008932641
23.372329787795593 74.55395369543754 76.55320252892211
21.555088635284143 74.23618482705855 75.29045006784925
41.730298772140436 2.7377629248948145 39.4950979286667
40.216895262103655 4.632247155834667 38.05456081238952
40.477301535169026 7.3084857253924165 38.36460619747101
42.05222204719682 8.493655153832549 39.495244950805635
29.019180682827322 5.190873758343364 50.87364136227194
27.94511914642037 3.686957485189965 52.16224194238755
26.14862440598792 3.8978341434131503 54.06614769776737
24.656948706390935 5.679068485707892 54.737695480970764
25.771875613776942 23.85112193039822 39.54757234025339
23.53596631592207 23.42288545409006 39.713260467418
22.146421854204526 22.887811299342264 41.974145895900286
22.938551950961447 21.779805508280898 44.33010864843988
25.129456048929093 29.456884856560063 65.80034651874308
26.246060973456395 31.309117534343812 66.4071183022484
28.012312905745905 31.983036955700527 67.7308430752561
29.827974411798195 30.561342066065233 68.76896299064084
1.2589510383696152 11.34132500946263 36.06474428509052
3.116085647033529 12.907533290227065 35.95081164304148
2.9927978413283234 15.063626289870287 34.38552843297762
1.5785340966855357 15.5841597066541 32.61330923920602
24.36240287001999 9.83120219116989 76.65782702988206
23.113176591868417 10.882985368929644 75.25175119939118
20.15180343813673 11.14198441985343 75.02197040975263
18.70863303271995 9.33086761658709 75.73863770314942
13.132895201676916 15.620192316006479 39.520698585153156
11.085820321272598 14.713537093312553 39.88583186473635
8.501567603054129 15.61424832689456 40.0254637419264
7.418425047181145 17.455240177187868 39.25288703910267
35.219197017095574 27.892406732314576 20.308051602721726
33.026202538883936 28.344933333836668 20.365407145242976
31.90484571589626 30.507401189511953 19.736305749423614
32.48057016645823 32.29764440362221 18.568986855040954
51.983042016364536 73.66375612537719 51.71748017402491
54.53752369904027 73.7096621007439 52.99794172051401
55.83390653147932 75.92646077290398 52.77255623763476
55.06769112388325 78.14957465598899 52.99904399714777
44.30285634034289 0.09255818258447707 47.31345410441185
40.99032761958595 0.9938774222420416 42.87987501047535
10.962589699536416 2.206203182925539 48.349611526224564
13.001781292884717 2.6586437592390584 47.951562067597536
15.330947531070972 1.6603516723101173 49.266115324336475
15.752045409091899 1.8279140632234798 51.688131843143935
71.87906081803217 3.402515235319259 61.11639504853846
22.798536325792792 17.501986540606907 39.97046682984816
23.56718206294643 19.40368243761032 39.524141809818424
22.529260603312185 21.612914467865124 38.182331484237196
20.2421665815622 21.585035365206387 38.878219238374086
31.590958512335096 0.05401550973922024 35.523210740514
31.920678992303213 2.0785272437073545 36.94808215075361
4.138914216601235 37.72486280729983 53.64214866940679
5.226049162058544 38.31820792225421 50.76224482734312
6.911865423714678 39.94223415996198 50.53759099063392
8.508950387490403 41.168539165526944 52.36939338811306
47.7984052556866 28.491808596719437 52.792495828340115
46.81705912486959 27.050433664646135 54.48270937368524
45.60414848495051 25.348790253066923 54.10761277824001
46.204931937485604 22.83350531824187 54.10287123376921
34.764677233427854 1.4259258967104411 16.760105014109552
35.74045549180992 0.38649903076879827 14.501809838975062
48.94591674173181 18.168068880770612 36.69364332473759
49.293379440331705 15.663848976399162 36.8743934078409
48.520515381354116 13.944969781226659 38.348095696299005
46.19628952556717 13.75551106949053 39.71908679038303
11.71536807769739 18.67415074949895 19.995958629853224
11.111749596214281 16.39997558221274 18.96705792029535
9.291379169979217 14.974984749396812 19.005517651002396
7.137948428090252 14.9738671524718 20.967926435699844
11.816457639731142 25.51972315381541 60.323268763622984
12.715247537357913 23.64740554917773 60.46443002932913
14.326099710486957 22.487894672157537 62.072752588077485
14.476286429373953 22.3420460344697 64.35135442198171
44.6832911384859 82.12857031553662 32.2341219794447
43.753668060778146 86.50009722695981 32.41757649333329
39.569382021138495 80.4945361393608 53.972097131774916
37.79818438126235 82.72686256380354 53.536634210750506
35.49004383803995 15.531313701580851 77.4725062669419
34.29381235849275 14.499171790146706 78.12019900416921
32.39480664797113 12.833661457701773 77.05018820120195
32.00681129878155 12.424252452530142 74.67747290329588
48.334515699717585 73.36654078285302 69.82692532537524
46.23662626532683 73.86916653963493 68.9445459191925
40.55812798297587 77.8093442835557 53.591249869276815
39.20163682553662 76.91521456385298 55.938121560088476
40.25027337096331 76.06458548203175 58.08006886387267
42.7032573082244 74.3287580471339 58.158069768100475
44.43170502725053 15.302558203668859 35.394740668156466
42.4779918857974 14.821675479870384 35.06353865607536
40.63614126111615 16.03862197100484 33.80840054097959
40.83527892714409 18.449918084254158 33.024904181674266
47.384801484157954 70.31744303658876 75.01970463758775
47.26657695829478 70.4703806385776 72.56392418098633
46.68022818266619 72.15937119296237 71.1910575223661
44.53616779811437 72.63693974894926 71.11485560307125
37.23487595029658 14.34393429748038 27.96428050147878
36.5552597893727 16.68068268842465 28.694006570378352
36.00243268975826 18.508087781047184 27.188199764479833
35.33187096343444 18.896106039009645 24.91781114442109
29.397801405448458 33.10064773877431 18.334363533473766
26.827497232275356 33.479089878540776 17.921874354382933
25.522060047073865 33.46948108108933 16.10394769963248
1.6378476919698048 0.32550917647940847 95.02307452752332
16.168686083578176 7.183632551508338 67.75929132488504
13.972269343748616 7.369768431271445 67.92407243617613
12.419069180948227 5.276294289644268 67.98074169498037
12.586800720436354 3.104842115592534 67.41634105609893
31.795272356018337 4.47207208186127 33.19854951943695
33.78896676842411 5.159169662312694 33.76110904975978
35.055122063104314 5.756260034032443 36.110023689121526
34.26283899429006 5.595422255940687 38.14686036914836
46.876997029573474 39.021385020156146 26.478862878635102
45.9498378313636 38.57240186301791 28.69330587075899
46.5930575086398 21.486337967717553 27.54433649860803
46.68655144629848 20.433812530978845 29.96291789137034
47.890278480695116 18.41036964284417 30.823695552692417
48.54873541611586 16.09209463905145 29.556934202763976
22.62201843327594 86.2985966386265 43.990602073031035
13.226824507424702 26.24114147798337 90.63674649955027
31.306955382400133 1.747009159714519 17.354177326171563
32.589659817650755 2.003965700136981 15.64243535522329
33.479267112056064 4.239041681006469 14.120079333599053
31.92614713779591 5.953527317521144 13.483953297594846
43.13799777635078 39.557789214146524 43.747475432570454
44.01692595367551 40.99972865090219 45.43732560589078
43.85167044277486 43.86394989445984 45.57263294857096
43.54670651497234 45.43722669976677 43.54490534496134
15.695543342336162 36.52739039832378 53.332827327156664
16.394635448800454 38.31391345707886 54.16472121660677
18.273546501489676 40.388326604008626 53.55627946869853
19.475731062507343 40.90139531119413 51.5806233424086
34.2176158795404 42.28601759878046 20.79413943075795
13.274103248182385 19.113108493103834 66.24545230781055
14.364377018407243 19.787397591145893 64.20736018731016
13.553392525196752 20.022827105101364 61.62534598877208
11.287607183631897 19.82464992682343 60.616425124207396
7.374243128761127 3.8343071238589013 63.33337408278791
10.2057173653342 5.130688604629858 66.24062945531904
11.004929236206475 6.895129288767598 65.85915459592563
9.510549270772401 8.902102407437702 67.14882214253714
17.51516638756257 17.025728530535577 65.28076464140673
17.37531890893752 19.188169708336297 64.5031640341216
16.754546821741467 20.13178345089687 61.966568774478255
15.566644817250836 18.776471485274136 59.977681453849314
49.65909223488221 5.8865459410202385 21.527101750029644
18.753223759347417 18.427222160843275 67.02282238290988
16.915179101940073 17.77193458328293 68.58099705789104
16.884023027764044 17.20135147084735 71.11331402567582
19.186779170964538 15.994359525279679 72.36542270065135
15.165369767678687 17.011357687417835 66.54211957340968
16.39304881386688 15.29643586724618 67.40663120911712
15.719238376513166 14.127823415763917 69.56080632662025
13.872458101780905 13.791263739228132 70.8005124518551
32.70923366282687 2.1344313605151704 31.893640289126683
31.339308257200756 0.4586287472308164 32.57482680157015
42.50335149074828 86.40025689403942 34.61798390943457
42.211308687007524 83.79525170530509 34.849359634072
40.92773791975999 82.3666037095392 36.55128915735241
39.14732191200004 86.83177499621009 33.044970633714726
37.39618878339008 84.8191109649729 33.724159609031574
35.45804509846444 83.999985520129 32.34470950481287
13.64729298951343 4.513099263358432 95.44310268101546
32.11469626380373 1.436897605877295 83.666428804338
30.255350942463252 2.7190941863963034 83.05504464206163
19.676712589563415 9.736810834076007 68.82900776677658
18.17631822316144 11.44127498236598 69.57031521870555
15.539378571717375 11.761780061687464 68.51647631823882
14.88038913490396 9.893320818772938 67.45141326052376
44.6968210979257 82.07396980196567 35.079437970361894
44.29734653921878 80.04464893995706 34.292889098812694
42.36566112590114 77.90555283290952 35.89514045716359
41.221261470175676 78.72830154615798 37.8267904928873
29.098402205095553 0.7477424571527282 34.00983202536828
1.4498746371864797 5.236580532861094 58.86636334935652
14.997840616628093 3.9591088823558795 70.85379433616541
10.476422069100455 1.592118693716526 66.22955774585338
10.962219968169341 0.2311384183770443 64.58281658037875
17.347679771801836 11.565170330713007 40.794204483366364
15.344568921774494 12.587936154741682 41.11823173754006
13.299638768810313 12.767345470004425 39.454548321870796
12.798521271669681 12.33063822097498 37.267925582178755
39.079435802552055 9.231059799435123 59.49705332620593
38.18562717332962 9.330212694987903 57.116637061413485
35.84999323028807 9.96033564205834 56.645223039640825
33.5001430513989 9.532696752422398 57.75506996395329
39.50860351358458 24.495194009077238 52.15890693056639
41.14351626644552 26.559136123968866 51.900132597176245
40.52761248509233 28.92999327867615 51.94409497582461
38.14689558515164 30.072470261055688 52.37710559122265
50.936832201081415 2.955072475124799 23.490577214787958
51.20914124116505 0.6288699859105966 22.97122257178933
38.809017549822 0.8048548460066098 37.89657971639536
8.270007143194137 22.04695276714782 53.30674015826765
5.904419770535553 21.863475430236083 53.33027761337153
4.228970465538861 23.244940996596018 51.795880216048346
4.128461424725998 23.9436622398584 49.69148716919534
7.022742496050324 0.9858131276469603 95.56810933511689
11.188500811113586 3.7412361715160407 93.89900158245796
16.739469147463712 24.485689214396697 43.08269458842881
19.183045440325447 24.693444307994543 43.240092548018985
20.71635684978055 26.785911347892903 43.548338658963274
19.931176187277096 29.32418611851064 43.946606838694045
33.11320134820285 8.06478200706654 14.327919848725243
0.4733535486282513 14.749600589166572 88.38327420665884
0.11812137321651797 12.208702152019114 88.84826959002886
20.930948175046506 24.088903903761555 62.59229503684023
18.333126776987104 23.861861223189607 62.93581277159103
17.018930688471997 22.15261211709458 64.38845463782056
17.642277890794603 21.472951131394026 66.68383903755239
55.208243301432354 31.820915524107864 30.864554109254264
39.430739095946635 4.536065937667044 35.10046860054507
40.53787601796274 6.985555731649411 35.57995520611873
39.542595923146926 9.045747075388581 35.74905621375844
37.49241277223683 10.1306069697674 35.02061698478093
37.42672319138008 78.88024794496906 36.584113401384016
37.31428455102833 80.29995169835517 34.2834620408798
35.54407641416477 81.0816446888937 33.09361834208909
33.55970706113304 82.74029816330976 33.93846213754206
15.195089971653719 1.924709318990142 22.679770734866533
14.199044727390032 3.7582067993761377 22.250784786584067
55.57772627732575 74.183532207017 50.112739788024925
14.967040261177752 19.375216687418842 71.94005590701133
14.289591199999538 19.36157931768869 69.13992708755221
14.551873490610678 21.15030459394281 67.49740393670069
15.282550060468541 23.710130659979082 67.90381649231334
2.8384674656232374 40.06457595253195 52.35167130790363
2.2681275038470528 37.86777969179746 51.50447497507965
26.204707406188795 12.681540549819148 71.24658399268289
25.710900237555048 11.23775584382822 72.69696812555651
27.645959126568158 9.676816925985875 74.13002172281104
29.76438018892862 9.001801375334772 73.57244870506092
12.69690105714804 26.231973061632427 56.56082808209853
11.140258540540405 24.505774445519023 57.709266472918465
10.335419533360529 22.361511632026716 56.96120433320929
10.472970442215383 21.24859384552575 54.56566189572788
15.882284521410892 79.63306500337478 73.17237127708215
14.293619633685081 78.19735489987877 73.99985483708355
29.64080533350521 20.657059383856375 49.20515863670684
31.157974104691018 19.97718243765549 51.39885670218314
32.94855407838617 20.75523408894406 52.150296239709235
35.127161680885656 22.357053128468927 51.36825947675637
29.188236705078516 30.56587911160734 42.418529780455955
28.846945546484342 28.81745516364699 40.53590588039456
27.144485502486624 26.846288873602933 40.336925661896906
25.229947882305236 25.963635479949556 41.96819971860736
23.713501692855676 49.731784375690935 73.4701922305242
24.866758398692475 49.78070230284565 75.30855467817295
25.69504984779723 47.91976151780077 77.16574097491599
25.46166352511758 45.66640928292706 76.91161762502341
18.17198293619106 31.97748550927549 14.610658320980534
18.146184933757613 34.083555234121604 13.501697717822312
13.76302323187608 34.89626145369 12.0158865211048
2.1013258061570377 82.30320035026705 63.50219266846811
4.146023040974626 82.10426337660009 65.20051247997884
44.9025016086299 51.801550225980115 42.84462757326876
45.690585765372305 53.854434843450804 41.45888792472208
45.711233870950004 54.34326447996607 38.91064897455084
44.076834520798656 53.23701669019281 37.1494794097887
31.208627666952697 26.349231579982543 19.64957614150474
30.30472630042939 28.337052079248416 19.49967432181993
28.67937284879442 29.458137573851296 17.716351183140368
26.8358969610215 28.055677781209575 16.159491998444814
10.002650960657325 41.60152043590851 47.07835872763025
11.586900436110382 43.22057537028361 48.04346718323974
4.932244309502797 41.66962009671421 69.27346112008823
17.711802212268378 39.008152377966454 58.72295592936954
18.535922116038282 37.764216667652384 56.73445042597806
18.068132677426476 35.68479983526575 55.72487305037657
17.13544059549716 33.92456118642183 57.10671320880057
4.516346683651011 22.859861803677433 60.18434669921157
4.359211171153452 22.45956009181555 57.65232243194455
6.36138033415514 21.083952284662253 56.37007337255138
7.657893915760879 19.254545925530802 56.874266479301816
45.454427120041444 23.90483016301082 56.66879684583688
43.86433463160982 21.978002449891505 56.02829374331316
41.33998390506484 22.32766148594758 55.2709724756963
40.156286066579845 24.104771203151003 55.00759291302272
38.31909555340217 24.518794029656124 25.485748505231452
37.884133539876885 24.371448132796402 22.928166999329186
38.02145851871191 26.06641128108614 20.99944527857756
37.652811866467395 28.87415761559766 21.16740025713612
40.13082893613778 52.5487189466853 87.340230005455
39.74188649991798 46.78835790131272 85.82446362727148
37.756627760441006 45.893220805177684 87.29693721336898
20.994149001708287 14.4175053912829 73.74814135716028
22.72846264108072 13.13378330937442 74.13476373902235
25.048860563926954 13.76307279286764 74.03008635007778
26.353673150245882 15.485186061177844 74.2530985725651
38.393212691472876 56.515943567242076 61.88018000799398
39.468737583688586 54.535427122351194 61.585991121973045
41.38200336277857 53.21214365241543 62.66595478200406
42.0800525153904 53.626373525736284 65.25518919346389
10.762681538207785 3.4688048402067726 45.552791807904306
12.162225005751742 5.210403300050553 45.37784111777966
11.816783477608936 7.816994956932891 45.4120139174465
10.010547064375638 8.683994676966385 44.934266603014336
36.622260565133814 81.5105553675435 55.78283302869082
38.094373656379574 79.63870177154818 55.947924926952645
39.218476005144176 78.69746098960412 58.26862706210786
38.29066141198124 78.63692211573586 60.65634116968987
0.1444695626277153 28.676654779208455 30.499767108780336
0.37905766601732327 30.862466963317644 29.130859880497464
39.77587705455993 33.80943553975105 46.11928974042833
40.89306746657857 34.493609544880336 48.24354886401094
42.04151555369838 32.42607794442128 49.279458922641844
41.89302152701581 30.13553904235113 49.170204346008624
46.47906140903298 21.409793871501 36.801967346648325
45.36731879987378 19.614476338904616 35.54310052997327
44.328896799436606 19.654189501672544 33.01927086746644
44.46608762979566 21.55273095096634 31.477670912838636
42.28560139599989 9.88182537711742 59.84473934735816
41.68965943916062 12.275063733596177 58.742149593836515
41.80915074665427 12.977438066419108 56.43401169426913
37.13131676796539 82.64374497493831 29.962294882245622
25.48284381807942 12.200023871813514 76.01549141223879
28.14686678152146 11.931371521043518 75.48613604893035
30.098746882249277 11.391051415647878 77.12305221666139
30.319715645561434 10.968974416652228 79.48041477246807
30.040161031469562 48.40346148744976 65.21067804946836
32.5688591419555 49.13696325780931 64.31548143877204
34.68616803860024 47.96293596911522 64.18956846002672
35.55963249446074 46.041721332372646 65.54125149206754
40.80230709528276 84.68894573618773 32.01222486889586
39.68796660011998 83.5432291387222 33.548608286600604
39.83369527928034 81.20804543816125 34.14272419785909
41.64733164459004 79.6526384405877 33.09208372445322
38.926736182563396 2.3087143778887524 40.32170181302459
37.77668343517082 3.6313015242007527 38.9642554204668
35.320259820989975 3.1946574185896206 38.12823031122631
33.75887456731426 1.4218128170583588 39.22559801606614
17.830799004474603 7.089546280911539 26.988692634735155
17.53248383759406 4.8674951754548035 26.745623867897407
15.033574968670829 3.668096547633907 25.732236044941754
13.982568306485991 5.497842657943023 24.222126150564513
36.14798814974873 23.803947919604738 74.99271471201813
37.86441362430192 25.30884627465622 75.74776450376251
38.67212599407641 27.765659617637773 74.70128842877142
37.55101216233719 29.35696423363125 73.61604825916386
48.12352087340582 47.275701294472405 49.6042736528805
49.653305634383166 48.991901576162476 48.50867822111082
50.13528301131168 50.99665729175542 48.73801650352967
49.51673986886254 52.9525157036336 50.13198946272993
14.504468496387792 16.21418486715749 22.239032666898897
15.903989250902523 17.82487813195443 21.280906076272345
15.61781967873405 20.63857105666079 20.9368833382533
13.811986802841515 21.86578672724812 21.178891211603744
5.108746400323312 16.552019392538792 40.97473113443395
6.04293532026603 14.228353273937367 40.1262871464402
6.726981827411809 12.229260777949946 41.407416900971945
6.614512605918842 11.456445164003531 43.59863065024592
16.367146177706665 16.295753866219123 23.98851384368388
16.241180659897775 13.564601091717574 23.16616761219727
15.430967098538135 11.422459947636797 24.447573261135375
15.834571513086019 10.78590242810909 26.56901441514642
33.776356315615665 5.490902768297261 79.04683834854261
32.472880215247436 4.129349436998636 80.29599740328239
32.64379132039532 1.6339526748302602 80.79097576548227
20.292228684100934 38.31837710140406 59.5977636599543
20.928371307345873 36.104802879424525 60.35960050616562
22.886274893861955 35.46029441832868 61.99666271702707
23.61863051432155 37.359841366750665 63.9007033848768
26.674774697522622 25.118468275056546 18.562875238746578
24.945993853671407 26.687549154335095 17.540739819179603
22.127802905826012 26.689094305087576 18.079813402827302
20.779450437622113 25.272608069874764 19.036427462861525
31.463256125806915 0.7225797245837879 13.063106953999773
30.79520060265517 3.3286625229325506 54.43193594102561
29.250526142113515 1.7526884228928126 55.54532595466372
44.83573567381136 42.528835979289525 25.088710764409942
35.565672876586994 15.210784205566178 80.38724307635853
35.83385788185513 17.425298187795843 81.78115098493049
28.95575780963735 34.32042578346284 87.08595235649675
30.86539051693086 33.93039188205383 88.35294805257666
32.694343881754776 35.11476457738332 89.35383480261778
33.15698796968046 37.69407258155228 89.60913384637429
17.24625592649294 45.98151941060675 54.42152717755203
16.68162759596578 44.14671859790459 52.41173609227589
15.94449295921445 41.8927260548773 52.981658928634076
15.9747602918151 41.3422392514239 54.996173316485155
11.977967736857169 11.209117897309847 69.5334595992475
14.152389129013311 10.976949696441112 70.76362771121102
15.471072577267703 8.450440361862555 71.50039437597042
14.255673765436603 6.6411590010589565 70.5886708536692
21.053327271280615 30.997877715125473 57.82572169269198
20.91648804585731 33.39495163505911 58.58382100501654
20.97088649655479 35.48909779761957 57.49937768637305
20.77483004039036 36.31104488532575 55.24510487067021
50.49882750915048 12.272094259969183 38.12549165897461
34.23261914126088 4.705383265118544 82.57667531438521
33.181015030318584 6.598426246641404 82.96618684116575
37.97482228677417 52.22974584958316 59.04038659778827
38.32107233890068 51.387905512593555 61.46778610087057
40.35154933595814 50.65447363693292 62.647130673845155
41.96225340822867 49.089324032574986 61.979668606764776
37.89224637880945 48.33536841349692 60.752069566967094
35.79389923499754 49.78928766132339 61.09575728853482
33.36233306743092 48.91925323420826 61.73890861672967
32.191398800749106 46.81179488819472 61.16435714442853
31.44065824053022 34.69325722207038 67.05250885650338
29.444585205890483 34.12550973944239 66.41299986454602
29.262890440113697 32.46743074421954 64.75349820993519
30.90930920939193 31.6923176792034 62.60287465307143
40.553812392310995 36.20173413013427 69.28691665901074
38.68105628275225 35.63383187986486 70.04632401775787
37.7546195477543 32.70703059675439 70.44997126693558
38.910114822225935 31.03338273534442 70.15226256789539
2.3553057087948486 13.148164238787892 86.95125299088427
3.4631810254831454 15.70211449253315 87.86289731341347
5.728603579829851 15.73695346037507 89.45727903356862
6.199550013303518 13.861588523077236 90.60828200851043
25.450435084388626 29.676030604124964 38.066220410373376
24.689820054050994 28.010712743835263 39.727891198722446
22.639760626171345 28.082691042069108 41.30191359015702
20.557048935902273 29.489470075264897 41.122122379159784
41.02600979275662 30.22135377952858 71.9376348057292
40.40623690851837 29.749400156685287 73.93139989676429
37.82325663676836 19.724620643153543 56.85794468300862
39.298830567283204 20.839319573148813 55.97383890862968
38.7851961044991 22.232402828621566 53.88210718015005
36.86880733969362 23.5179698684748 53.063762025013965
35.15462754326758 3.1817688325216675 32.49003964254978
36.012819213723645 3.1184491248613035 34.78948217490641
34.67417766292778 1.670923629237004 36.28454221805706
19.426688379597746 22.36816038918988 21.2618625557316
18.480382516272506 20.2234501150819 20.729350769243187
18.583989751297747 17.834832383937123 21.45301318833016
19.061521518069203 16.95770718566136 23.6778786520157
40.09286926378745 18.64277382059287 54.75660696555613
39.48064524036599 16.324421312687996 54.80028958136358
38.71503072712704 14.891226156979785 56.721160125246435
40.03872438801974 14.802199144896074 59.15854197525729
8.176184829238299 14.213580976590809 16.03407244116234
10.387960925534447 13.472006466233395 15.422803919429407
30.545035285327323 34.29619798329375 91.60410572162108
32.47005261070722 35.744081899943204 91.96910092004433
34.079294251366036 35.76944898292812 94.14963193209256
33.922662491647706 33.806586153664426 95.32978930664063
31.314465027647408 31.92998045039282 90.1874201929799
31.409304949738843 31.444799629152648 91.8409051123716
33.50105424773709 31.267581493135026 93.79193208541491
39.33560115120872 78.29383828515965 33.619452562104996
16.132376724698354 26.386333018878503 63.43600155921526
17.315503108164144 28.17304423370184 62.18753058768454
18.609126759252284 30.30630359583162 63.04211460606223
18.802105514254738 31.20949842525034 65.45645993925405
52.132086366761406 38.849964756460395 35.5430998568556
53.39089364116341 38.05403633016297 33.53671518129066
53.63308917008524 35.377336821781 32.834253355755614
54.40157502568324 33.430789158499884 34.44753262233097
33.10441208880558 20.59433859229471 23.703655415093568
33.98640282195222 23.08548568251999 23.786044601952042
35.05511589374059 24.511957289711425 22.195046927935
35.51388255320529 24.717480396932945 19.849190881859688
21.675670034458662 32.77947919537363 83.15615743010783
20.90238501765698 32.68562800371957 81.35887794721334
28.48423285096157 31.97618660192679 20.369700421545883
27.051156316727198 30.381760675427426 19.482779922080223
27.42392276613312 27.96981398001358 20.714699286035895
28.332517601288345 27.591810112697853 23.007668840443525
44.04789246984101 38.521856509363595 26.419783282685227
44.770414992168014 39.636055900519096 24.48048734322081
40.307213047060415 37.03931196849507 47.24679718859503
40.016504326352894 36.522072972764924 45.10544106329007
38.683744843372324 37.24278183198357 43.15963779805044
38.0147219239984 39.30365350508963 42.402097254776265
29.114996649558723 30.394348350613626 89.73652380590897
28.00533763911667 32.199843891713904 88.35681679881506
26.044599765913617 33.16912777290457 88.7164611540817
14.013556395693653 72.33996986357879 75.30042494281096
14.524212547379042 74.59813378774521 75.05863310261309
13.765430396911187 76.90632402567748 76.26983628467117
15.814477294460081 14.96579884603614 72.2756107090193
17.558412278488454 13.576424271196554 71.72903065432037
17.739775634166264 10.806688570236998 72.1351793535476
16.754117650854273 9.416424660968893 73.91350440711366
21.60590919360533 40.49334718519206 79.09894260070246
22.482993545123726 42.011247074999275 77.20413612348877
23.0566628067866 44.53252300202687 77.58542794439542
23.728925391352536 45.77160754685196 79.51738213032048
59.66656170527 8.554492983527108 70.02507293834915
60.91938617548928 8.190440566279337 67.8952066588112
47.33457699530992 44.81502804515415 44.78602429425169
46.034717799728185 45.35164244488719 47.07006813640632
45.54477696870897 44.492074253839604 49.073397123206405
45.29271391930962 42.29145426087786 49.67789531970356
3.564185798312783 40.456845916646685 66.21046853240966
5.267300355369661 39.83643226265264 67.40221585706139
19.353382340870887 9.11184690698884 24.66265546267354
17.39308244448834 8.905289292354594 25.081527179675348
15.217808695820224 8.229264267500634 23.898468796685073
14.70542395889727 7.017731534787106 21.81625237794893
4.577267753982173 18.154943076380913 92.30691475679299
3.6529033083237072 17.239677148549216 90.08817032967018
1.4784436409643094 16.858285987413478 89.53215159920933
20.435809526053777 51.10983856918565 72.07837058297855
21.4330642432104 50.34052489234579 74.61953200488995
21.679983432997595 52.25881478217353 76.49385469676447
46.22449193063924 47.94555676683812 48.24819438144047
46.55214717666948 49.806148186551546 46.59043902223698
45.503459732237346 49.41025721650779 44.47627182029899
43.61668509250023 48.01660215335871 43.825368959332714
37.36177046701327 15.486818344610537 53.24285895627129
35.657078929955496 16.392293998454015 52.5851907085334
35.54372356083447 19.063185022879505 52.124077043682775
37.159983564835436 20.45766026962006 50.975844399102954
47.7889272980536 12.012854176717898 36.270720782734216
45.64079062564546 12.185716658181525 37.20132436031612
43.884995055088815 9.976000024171212 37.523833678261255
44.05711289349434 7.70008507948018 36.78841783189746
21.92192447581563 48.624948911554576 53.81683994606232
23.598207953257145 49.91088200915436 54.82789788622929
24.69054839249241 48.816949349900064 57.14150586655937
23.58777566699939 46.46040550878338 58.172728796973274
27.537478433048737 7.904396875216708 77.9936912608863
30.175616185217713 8.00384089950062 78.997775791489
31.202889663174858 6.9889694439205625 80.73921127601918
30.69209848501879 5.50860690912832 82.52712089542293
30.503872750581337 8.165573159234896 52.8960224696101
30.768976196057217 5.922773948765394 53.30068735930035
32.841160520774885 5.596380484886116 55.40558979196168
34.519277842278456 7.229725174095536 55.82717483474563
32.39400476413841 25.781521178232904 26.602958380703008
34.75439594742109 25.855953102404097 26.63561876070693
36.14620498627683 23.255023903654468 26.27230570431898
36.03600509763766 21.396124433025754 27.49045376855983
21.714849468029932 35.872871882767114 67.75997263282397
23.378259000788088 34.56243299963651 66.41198712135916
26.11374491402819 34.82808251463182 66.36139618962997
27.67487237029631 36.570113682034204 66.9847711225344
41.87351913075164 10.172750308754564 35.28439303970887
43.492894234957596 11.971294509447564 34.86165137542837
43.50189732074726 14.016569447148209 32.777046550613626
42.62824021862748 13.84274221348897 30.60380267950406
42.2978932663869 15.398776074503298 61.144566617889296
42.95734844507786 12.898403334249664 60.9421810032081
0.6684268775148082 21.63106835706307 91.39873924118316
1.1974214883396854 20.133747098496777 89.4425368505754
2.7194240358889537 20.76684248979531 87.38754559799332
4.4230498677626615 22.08616096813291 87.9497289421192
27.90925584415423 51.517870624323265 56.403250604602306
26.454739253132153 50.74629849487954 58.38132900551777
35.385028449093234 15.129080459947097 57.80144533699671
36.35330465520176 15.881508054626785 55.991146941422
36.001875575605695 18.374570224884295 54.66490212057235
34.59099243535207 19.866238710922705 54.70107594190256
45.461646127927004 0.6065926999068715 44.26983321929378
41.8586758746316 70.84753542474154 71.82821267722534
40.796121594262054 71.20315405273158 69.65641142988304
33.93107656606998 72.46600680202809 62.263616732869714
36.47749755379552 73.49486951456198 61.527088135539294
36.99717894383479 75.41997476546526 60.18417224586784
35.63932481772529 77.15143709651215 59.20941568453667
65.7946407271416 16.578629496186135 69.58775219518826
68.19063092420232 17.061951622490692 68.77181082906044
69.75923521774084 18.85808850872994 69.3169634947923
0.6332504982142851 27.6934285282675 52.221956936789056
39.849125557949826 39.86839881597957 34.918032206571176
37.9587550070562 38.70295675672269 35.94404580989602
37.28912512406532 36.21228928134081 36.118925346307485
38.31828090541313 34.563384398996696 35.59941608953365
0.3047297281492006 22.572500467810013 53.45834190550749
1.378264873246437 23.38216447830509 51.66259432119665
1.877576900180033 22.31575176644093 49.35005172948646
71.41751119019727 16.042447561391086 67.83997036603522
71.01183222321225 18.642097883007754 67.15136986192499
72.22072500078787 20.382730504368237 66.65473012275046
36.921427590430284 10.2829134758579 37.62573247033808
35.75348323105408 8.476108898473168 37.20745445253822
36.9958313367305 6.2645517180705905 38.47866040563629
38.302763831380695 6.596812080998539 40.710991180529156
22.42317731740446 43.67448325346473 57.49992446121353
21.06908583875205 43.273562138715164 55.78701543319742
18.339209254665768 42.33748007255655 55.75184935345958
17.05106626553039 41.40389907332698 57.73289181980173
29.23295094338936 46.37854629541346 55.873992578826886
26.53267970209723 46.71045574199709 56.418631215887
24.648612934240457 45.392080186576926 55.80930581781744
24.221759733524532 42.97951083065477 55.41955232951086
23.02073397620519 6.6941334582926135 74.09167573492655
25.055825845442904 6.764214362994939 75.79822605346314
27.430170214611817 7.163759480179874 75.26453347286852
28.850739983946795 6.429234416171564 73.61489502267807
19.339915896654034 28.661749407199995 13.016739038839003
20.952412979525675 28.851141542000786 14.821469644804248
22.9284191873188 27.361806983199752 15.561992224686692
24.090578502645652 25.45403605177557 14.98541491507429
40.159118457146 18.556838841008794 51.78852155613989
39.894174758231046 21.166650745615417 51.80458342700288
41.85004536681039 22.838110892878472 52.68949204958649
43.865254902702645 22.817158853010326 52.306355055776116
9.793693673409607 37.390340961710756 35.34887739612226
10.512002991518372 36.480419929072426 32.87325982840723
8.821109880694486 36.19492080556631 30.720785762456536
6.85726869902741 36.85932134997734 30.45826323840456
43.54468120890889 42.67535994397744 66.65280927842372
43.624743790532314 44.18970913301953 65.07247623808378
24.2742917514296 78.0533828535581 78.14346935483195
22.45631014115863 77.03991248530414 77.63189269180518
20.785363220299477 76.64305988581879 75.37593416039184
20.936062926432832 77.7817841145521 73.31033881647268
0.48596407928951013 28.643074051159644 26.44111481706551
42.86033071700955 34.05654332473137 52.880681589902075
41.461638655225606 32.42345900778179 51.94739718759258
39.05679315348862 32.35633573469127 51.55346094679629
36.90522337382073 33.76282034979803 52.29527684426185
15.3875712412906 20.120775140689886 57.575730851666854
13.305409739254099 21.073623170521746 58.17051991420141
10.989558148171756 19.828738838849663 57.9533133136934
10.150704923715294 19.179794991358182 56.356958860743966
35.02969628249036 73.61142606969779 85.23992808852806
35.613386162578344 72.46933085925191 86.7832004351286
37.045887441076964 73.18357129861117 88.67073791430886
38.786234037420726 72.11987675058295 89.30551579326611
34.29993273098608 41.07238522857887 35.538124445702564
32.116505330362926 41.17270761193548 36.55809928510857
30.55701867072879 43.06402331666972 37.111266834266594
30.847678943682997 45.87414853111267 36.25970414935166
25.05502158491879 46.6567592997514 32.575757056871375
23.58537143980235 44.57431315696345 32.41507897141939
29.5137278666273 41.378925287982725 34.962085610297436
28.498852005745437 43.77284829774062 35.19283712833283
25.880929895820426 44.375983968646786 35.58887636030238
23.849002440515875 43.297708200886994 34.750647245424766
30.95163398382237 56.51441368461171 76.76471768297264
3.8626710612125494 28.41471984090597 32.548411316295045
3.175685022120002 29.907990374580603 30.847489028277703
3.5180625796644995 32.3818541813825 30.2897094099277
5.218626541848327 33.95173556386229 31.047385768318932
36.87372085311135 33.497712579981915 37.82359949992432
34.458509376916055 33.60314451979675 38.17295041370546
32.37226371962807 33.22826340576934 36.58361184237129
31.88886628267686 31.89405846760901 34.549337816251885
47.34795261937591 29.815439385594935 55.23933179122229
45.512927512572986 31.644628434997163 55.04635610129797
35.1714727545621 35.5082973664714 40.5116679731255
34.38406577600042 36.43368935803794 38.7765913824625
34.37886416685818 38.9119745921636 37.70436367579131
36.031155378384774 39.7770905239097 37.48388872274782
31.70461655168997 74.70027977429399 59.703601627065794
18.66041335663564 24.386698506746132 40.36066861111278
20.850487497852424 24.98576967158678 40.54697130820024
22.683396102643734 25.942266344784056 39.38875486751257
22.87547617218189 27.060548220476335 36.97357822779897
6.108591872897923 10.044606714113751 38.485762666801804
4.676022718547258 11.474658836327624 39.76415982934729
2.0999587859993674 11.586356384801112 39.97119668078222
0.3605780118285965 10.167080662524025 38.628957674609225
21.239530890466124 27.525601498790746 66.7382639882682
21.077793694956533 29.895710456321517 65.50307173190467
22.305687928390174 31.92515396218577 65.9697952207343
24.134461383802034 31.98002011256125 68.17357540037072
41.31221675484941 70.95570091420679 65.7324676543537
45.620588819477014 70.02638650718852 69.51721304117939
7.435056945466105 20.47317471487324 16.712412294657494
8.116887537912861 18.573925934751326 17.569656709373344
