20.132231142706036 44.13779288111378 61.186808600578125
28.79917031883533 45.470729257785656 59.998119488165955
27.052323013199832 43.76699999149028 60.032804934266565
24.975564694109277 43.301169581699504 58.382709967417554
24.544974460984665 43.84198273086938 56.1255980015362
24.457626353299133 6.075684273852017 93.87840683117537
24.44649659728758 6.585428946230793 95.91305844711225
27.74879337581525 48.701637607348154 74.74035910539267
29.14012189734014 50.27295467808999 73.35762506200291
30.503368241041464 48.37151250358715 71.6259242540407
30.960380714074226 46.42681389337017 72.13721823347674
21.714664800743364 75.79784081390356 95.82719807293917
17.07247363544004 2.9376856326386576 89.10874263058268
17.169620095884707 4.267326221639961 91.45880779241791
18.34003874719213 3.9128086440277836 93.58478619156465
20.259061339599203 2.5319631584820996 94.01099727983838
44.93704942127656 0.14202836301019992 94.63216326987538
44.537364126728576 2.299653313120223 94.1088020693402
0.07257604536445873 43.79734210378158 89.51795025099534
0.3352969637417216 41.29303119542353 90.14705110930555
34.19331160226718 5.163270603076126 78.30400788595091
33.649716071567234 7.238899933815353 79.10980191087674
33.78997581719341 8.59695009516778 81.43919422109686
36.21953872721899 8.226068410629761 82.84326488427494
38.98163527023186 42.145347194196084 84.33271432930145
39.33138839369366 42.5658587634612 86.38118205969457
38.39415335791893 44.96216389669499 87.79886331862977
37.881514250372256 47.096764940651454 86.5428600709621
61.25580470162471 68.23738794673784 40.71086592709731
61.401908655428315 66.55663946964438 39.3918665889847
46.26996870949474 13.60783487624327 60.039282648126104
46.54079942006078 14.143040699670438 62.42131070194891
48.357434512032754 15.731689026037744 63.91143003401561
50.21794025007501 17.11129006653504 63.20615231468832
21.984330300913154 80.47740555617459 68.57022044719322
67.80087002483039 6.763823698205496 44.75164115807523
66.48736814272723 5.715542492432224 46.169354686186544
66.68927933882158 3.4797067256646743 47.604160666866335
68.54981540170341 1.6760500703277557 47.658151690567216
56.158084857420945 45.981429226563655 76.25012747107971
55.601425470215965 43.59824670526068 75.98271044164794
57.002010197125806 41.43291745274951 75.8410382181998
59.308112524233664 40.719185128446235 76.2100055816157
25.30318378614788 51.28607905563568 20.2203240989769
26.239047399840697 49.801780568561625 21.33835677602599
25.558282698153374 47.084088941388664 21.010548873540397
23.543871161597135 46.4759585072333 19.731604551672607
22.637384713380452 1.4242476392424053 94.61725234204017
66.59804938666811 52.8018635334111 43.65489183283813
66.570241897749 51.79455392518571 41.230571973943405
65.31451981251121 49.89489526671139 40.3268060526619
64.40861884015007 47.48150101431212 41.702880160237825
24.189341174624907 15.030182764906959 93.82403804834087
24.616041266985167 12.711583425969865 95.14470201141236
23.286977149618817 10.553496500047133 95.0131642989024
20.783481704956895 10.251491280607002 94.12875426912713
31.202040481287465 31.783973920248087 68.16628522264229
28.89777063578743 31.909863902615236 66.91270495730892
28.52417745720112 32.17924815836029 64.23957718777787
30.338614744974656 33.56477833347929 62.6030628746803
26.0016045122316 5.25284270045866 29.202645754137446
25.663146402449147 4.865382469251087 26.468663515084494
23.7424956560116 4.56881214442904 25.255508925295214
21.459172207845658 4.6926120675040615 25.376793260263675
54.987499577545094 15.766585349535527 34.80781147467219
56.99558713760064 14.474667510060106 35.32623640268947
57.44047740282225 11.982831648182009 35.77379192819028
55.826098677936166 10.288454058524025 35.80796863282135
22.573597393029793 27.247480625874502 94.71551377708845
22.57613382823358 26.111740206485663 91.9786390032363
23.82225861616016 24.101236342384293 91.58602372411009
57.93839731889582 15.572217542585413 37.582871646490965
59.49623135002984 17.7371623029748 37.06387443506416
60.885382500938555 19.060112354575786 38.88747139833709
61.3549093335716 18.369909666005725 41.278044472172226
43.40665379451477 40.43195746639884 50.055809361828736
44.2628952852485 38.99364979415494 48.31209754000568
42.46664088313798 37.83324625180995 46.14459691754647
40.77668755433192 39.216157025325955 45.59700705019015
51.480407383517104 50.374404259705976 74.498163636123
53.86203042435309 50.94393353713642 73.91198221135681
54.73750353879904 53.30843540349797 72.78752531325009
53.55182725065194 55.50321406814189 72.39282913027728
55.94958077880722 16.39487750193748 80.15192940793429
55.62491806219381 18.368681614112184 78.62281728484375
56.42741654535345 20.69512466992184 78.78017769679029
57.99899072508187 22.00583252728067 80.75845807451398
38.84499210085964 36.691704481717295 90.90641133281017
39.81549645190282 37.578263553094175 89.08840410260609
40.77025860362067 39.98104288095326 88.42719450369076
41.16590013734281 42.05954451593923 89.8097280758178
27.217536477111846 56.77353548773553 67.02277914605683
26.829814713180657 54.89439718672315 67.79037541384884
28.44777800922218 52.79103519405958 67.53506105878782
30.560462532792013 52.48536068921411 65.75188208684784
29.13282283015918 6.462941607308151 78.21882437190602
30.997374669196475 4.736018682585688 78.46465124966328
31.486942010616552 3.3132385348598037 80.24113329564614
30.114869177453198 2.4999318279940033 82.40255989372105
13.809079843179676 8.097031329264546 55.78385155531406
15.166720673758391 6.8177721430280265 57.1526384453161
15.868313582095755 7.188534036702209 59.7647668574961
14.993698907232453 8.375679326832918 61.36847874591201
56.32087676985806 37.742004946868235 31.978450707690087
46.101145231619725 2.266758696677785 60.780195280564286
44.29712022315283 3.2862885115663176 59.33976674498461
44.209079581046026 5.850163713086054 58.332179475940386
23.690067677415314 23.214725036619747 21.040798920090143
25.1379834042907 21.623654302775574 22.014575362899645
26.70439799229379 21.54233429922959 24.12242828678948
27.201930871222142 23.49880019010398 25.659240914629063
29.389507678057257 65.41569868454673 65.83413033167146
28.32869151525726 67.73732902767786 65.77687547446347
26.387442966337055 68.38866341523702 64.974436557426
25.26959854953487 67.63081143705105 62.44178079141496
45.11356964095246 55.42346157705053 86.24766731778818
44.77936771534711 57.38513907656404 85.48436033630257
44.31164190998846 58.2442385133643 82.82968319917191
42.940720463626526 56.608451234682995 81.6254867399872
56.02015677821875 47.61262759521659 72.25259016065445
54.24686879349023 49.51221182945295 71.63048492723917
54.57089286682153 51.73547886509376 70.60950456360425
65.53165318707411 61.41469817304605 39.71882005118417
27.94664158741141 3.3767914372791394 28.27764994773616
28.33411879553224 1.0169443432521816 27.963650563188324
51.3964186914472 39.152031095766844 65.6449677999894
49.401790343167036 38.468564080662496 65.87217173540122
47.58207689734622 37.8373294818798 63.9519657704348
37.51590900768856 29.716526594499477 88.47446583703515
38.95660584901806 30.31103570764507 86.45548053990167
38.28076737513056 30.09767544014579 83.89068533388705
35.81639005848185 30.448988473301792 82.87320973180503
50.197008460954336 34.51965059124318 67.1276795962849
48.42363271325702 34.6945777965548 65.25540066657067
45.92008546081464 36.105975236255105 65.30932952848146
45.07826043064238 37.6164134551823 67.09250854845718
0.09117363752599766 23.994890380187922 63.687687440963266
0.5516310914664445 25.157979293366893 65.4537618443081
60.703380215380975 64.95716078810345 82.87776985171048
62.60184346847704 66.100613428711 81.52084323070613
62.46727283298852 68.4316923084475 80.03323193336631
60.914403745583996 70.39082350349403 80.23642107469645
39.9201937795775 28.127618748974278 88.51840339398062
42.12780019841119 29.47545828082455 88.94305593576775
42.53063633954151 31.122922105407625 90.72229802449287
41.29874585587004 31.220886058717397 93.37564542739251
28.309816775965952 29.640292056378172 63.427414408056435
25.825604084230022 30.339820358053448 63.331879822154505
23.851118928261222 28.55553120770251 63.180742110799464
23.74806868592248 26.215260257532176 62.314130166872786
54.153367509597956 55.4661294534317 76.18284804903172
56.05067042420189 56.53170627490006 74.74651288841768
57.972400857331564 58.35999215814265 75.56092475929955
58.126007563500906 58.88324640326634 77.767364536803
45.06136859419535 40.44231868972016 62.86831527468702
46.35555894533949 20.988771098097057 66.01856194392374
45.78493826621352 22.291870748150462 63.84188120627507
45.93810142950332 25.08246776089997 63.60005606430517
46.45579626313732 26.51088741220966 64.82802088311604
49.003005295234686 57.1164747088287 50.27940525691546
47.82733613214392 58.1481078292418 48.214671019329025
48.980300256846405 59.89402406841917 46.29072463005548
50.59660629400763 61.50584649779083 46.49163673830686
74.09105261498262 28.29562531110902 56.22559128405329
75.31075695255983 29.965808890796826 55.29204752979809
75.25368294140134 30.908319597015144 52.80002887362138
73.97845137186928 30.25152532381902 50.85992983652315
18.131234692533944 65.24102356544877 54.85437759213769
20.35202953046063 66.63836509084868 55.060165937967916
20.376960310136234 69.10435985729843 56.707122907515924
18.52282046159352 70.59945306327175 56.92588954372097
25.08660575790891 3.288874367987547 23.03608983118621
24.908028220915135 2.0752569144165247 25.171856167585993
68.31448600467853 39.43390476786475 40.300862073509855
66.81774408770156 37.41124121148738 41.04684473644621
67.42942910297018 35.31957733718864 42.389176331540355
69.53058184177411 34.44308391539342 43.382885333573824
0.367906644668257 77.6504962158131 60.464826204438154
1.5437419225100182 79.79574935949756 59.11325725452292
3.1818496903431606 81.46413081892042 59.924119907333775
3.7938100899000395 81.89983156766814 62.147892326254805
49.179530851498534 21.43186135256052 67.50596939317347
48.76848706701223 19.40927665050443 65.76216792856152
50.416205122564286 17.036998298995545 65.64795820954018
52.111505951892795 17.019835643639432 66.4434151217186
56.59592243268419 21.33513561088638 32.88750227054761
57.6798314310332 19.661872574693348 33.23556210937964
57.45651613342358 17.602229140842216 34.95456976906825
56.297406637112275 17.3558942791497 37.09785728986817
41.731264024898145 37.398466051201325 38.173594111802636
40.97048891740739 35.217393969434426 37.644072982548145
41.894566739425294 32.91670495871371 38.47013897897222
43.008933785886505 32.69824264520682 39.85174686026617
48.65826568649069 28.12245579116034 95.11080669124183
47.596680005227505 29.84875349576941 93.49145479557613
45.829731428622864 31.73235899201334 94.43910328844609
45.56120546769065 32.1429163188168 96.18715245570377
23.50446907141284 70.05320279577916 62.58477928760426
23.069084356997276 70.7108209606962 60.414669503254075
23.564290572921944 68.69705529730122 58.78940705915735
21.765159453019074 67.26312988139726 58.53796727880559
62.11734265088439 24.322527133440815 43.37248333659808
62.676786157991685 22.238217094584467 42.24470941088543
62.901480643697774 19.918302098238833 42.979725231368086
63.36291984676451 18.88094953036059 45.06154716632779
51.329496752756945 38.83447674094775 68.52556497413053
52.442806777066764 39.96535073769549 70.34942209393893
55.25951015055167 40.1409287543919 70.32699061077298
56.732320413518764 38.99696190677392 68.79498009228315
27.475908946307865 47.489850055978515 61.11005038428536
27.934214922017127 47.80172578325126 63.408964436134795
27.380631259490553 49.69195204294664 65.08116349656528
26.336593865320804 51.84929971488795 64.89078241176841
34.96271425094823 78.4008179407533 67.55347329454223
35.610301162220296 39.307110489158575 77.01166050935936
36.081099521277366 38.05889039960622 78.8264519714049
36.792836205584265 38.24768816709252 81.19382444111152
37.86753219443084 40.378019948053 82.5823644977978
45.81731557181741 6.907843790252417 91.74721475753492
45.37011454607634 4.810290818545699 92.67953666464632
46.80738119144759 2.372526456444421 92.53581593701655
48.186465984590484 1.6022678418519678 90.7445183802261
69.24015245740664 6.316112510310576 49.80930717828821
71.88223340683918 6.440476364676165 50.59807294640866
11.789313453438714 10.759111017111731 45.955928732904766
11.799412279004562 13.075665016950497 45.13166887219187
10.505763440644833 13.944232018614072 43.1762373985615
72.45386864832516 23.15964012865556 57.3273098630975
70.77511888179075 18.580617130099284 54.031152819883765
33.56920296561899 27.361927007070275 32.246407045738756
35.726650806304406 26.727963783364302 33.08133727213606
36.4929559252435 25.008040507885607 34.72421534936662
35.1334060530932 23.503414632219403 36.713584264979765
18.65605814754054 5.569556459072938 55.16354894994006
17.450456197518356 7.37355684486983 55.58176026339481
17.088613549500312 9.599155218646036 54.33976185069831
16.539735073147895 10.01366000449568 52.37679497196564
34.78130418598232 68.0346742981052 72.82386285801927
35.06789401058615 66.19156632705096 74.25854130825415
37.39974348500081 64.74395955028838 74.57657509767304
39.55450815423647 65.35888839659046 74.30160931307036
10.325081463458218 29.527567439695126 47.95365407703038
12.314000520035217 29.825070945722253 49.50238487904321
12.461358490413234 29.250345331739187 51.835880495674985
10.584357640328005 28.759825070385457 53.82707666091937
55.48146755209156 12.646800193851075 76.98333232919289
55.84816777847411 15.159489161162911 76.20060019001221
54.64558106925711 16.638410890572786 74.95392513054958
52.449907456852564 16.472863822004623 73.52911029669137
47.60251026069296 46.3426920778466 52.81677637535564
48.05647639101794 48.57317689777651 53.047604554774146
47.2301675645792 50.34869942741803 51.154731416737484
45.659329605831 49.67935121225559 49.057057161022804
66.05538262693283 79.50384779633195 48.50841875066997
65.90650071913815 79.39504707803744 46.089619529355126
19.445168300147984 54.685693776291856 81.27765862028765
17.454037252145085 56.52010291674483 81.50413574532934
15.123045189034583 56.26684947849099 80.30371625333098
15.174373872631909 55.40448013823796 77.503782146762
4.368216136593877 36.004373839713956 94.98317913215118
19.80229175121017 33.49336588799798 60.532424890473955
21.866105485156865 34.696755929235756 60.14920258889984
22.663706221198357 37.064029132874836 61.2316377534747
21.363478806867604 38.698402214412276 62.59815817600092
13.76688137282172 46.102670254033285 28.047057968433172
13.015041408534435 47.90386308211385 29.32242498378046
14.521935696665397 51.77772047954644 27.47016346524266
33.36476683168911 77.41480629943456 65.52291473536684
32.18714071125278 75.33804587820269 64.81692330112715
31.659702016516885 74.4089193870565 62.35365862711875
66.5962020563793 28.831414948562692 40.85786362824483
66.57517778081909 30.783885273765225 41.5998141643809
66.89648304447262 33.345345101370164 40.85839370139313
67.87069364460635 34.2070736944383 38.888105639760106
59.388800408004535 15.986770207234752 79.29351353771682
58.28276137847034 16.13925149175708 77.74365182946792
57.73048154475682 18.7144124608696 76.72825197670778
58.97470119636666 20.610768912994562 77.3060529733875
4.233410824009173 59.63636883791841 68.75776100454561
3.0518500960833284 59.602255789586714 66.3068091633119
0.9035568192368529 58.38750221722184 65.58009267712441
0.5459939641889979 56.54070649701389 65.9100459994604
64.22795670201887 34.24423702324868 39.81344236255387
65.44169985707332 36.24419463205812 39.03530654936378
64.06215014459126 38.73534765394734 38.269445173988274
62.176281555829895 38.98283870511223 37.09243068179696
72.98905366186057 37.79782125984246 50.9546602027695
71.28516094672499 36.341603303287314 50.74358998223072
70.89694840281199 34.344805492945135 49.422718436437435
72.44850433883128 32.982084150688095 48.37820383029338
62.07217872981109 38.08566852815073 34.64707674947441
7.55431246899707 12.118200425832757 44.850919164876345
66.57407381130103 0.4695323516045237 45.56391756070015
54.985058325708536 36.70695215885448 81.90860060578308
55.14588790894516 36.082057959628955 79.62347881332471
55.25006605409423 37.36478776040775 77.39719434514187
55.24822041968946 39.868990442162 76.95241535353549
61.026504971879596 42.13196628711118 34.65554174374179
60.47255719679467 44.889359938509294 35.12814645943802
59.54641673168843 36.492440356236116 34.01070474887556
59.902878407789935 35.46619090032772 36.20501922280799
49.377982437872326 25.591951531347643 94.98063038787981
51.134502064115885 22.141707333399896 96.06514157165974
51.37444742865216 20.91770272848986 94.06124590155373
56.367990522384424 13.397495044519864 29.827149818821198
55.7513474361129 12.61906292121227 32.09998342043178
55.41142597283215 10.17155316070995 33.05908569888103
47.51059930798513 7.743809245189802 93.72153971066278
46.94341521667596 9.394597684398242 92.46944301224228
45.88949202681443 11.496840852301025 94.14078837219566
78.19075748365339 66.57250076419744 51.65623411376136
76.35852208344053 65.48144331209797 50.24210200119198
76.06064480758675 63.019863943301274 49.372914476255275
77.09359390137347 60.96618015252785 50.32784998919547
63.9881277788299 33.74670026092205 81.57384008142623
64.75533654859909 31.903800290622495 79.74964628293519
61.41499683954251 26.675417784222155 83.29395580905864
59.61280842267187 26.250288920121253 82.04311985174199
59.16625602023711 24.78655805899353 79.94762643498784
60.08979739839338 22.419831135005513 79.2471123294775
59.05603015537921 12.225049380664569 77.4113119521218
59.218647272464366 10.313415302026534 79.38801368188281
58.35547409575168 8.214198347931836 79.50259014863157
56.28479393808448 6.9721718726569915 78.1894961415276
46.818808602670565 42.41810909886436 63.66841944365235
46.70015094285881 40.1109605769567 65.19865303109336
47.04845818866117 39.64878779358001 67.28479027026678
59.56641344524419 54.1937723266954 61.624366405574975
58.68175079174533 53.1088641780198 59.72710988594738
59.05366848167089 50.564914806245845 58.6235918837027
60.96952424222153 49.189154071786916 59.24871279933201
46.93615844971205 34.19000401589998 62.96653178900896
73.8024795745706 57.24430732760789 54.72973845176083
73.8597581191598 58.293139714237824 52.601216269260725
72.53730816158514 57.97781715429224 50.60616736236056
70.07919885269733 57.32723314162995 50.081067475500966
61.38733321133264 68.93217668600529 60.98059587701407
60.93060448770482 66.34269132151519 60.75634960861494
61.86891299180423 64.48310684005426 61.37939891391902
64.33139401046975 64.20493698981862 62.97138077015324
76.76672048425365 42.87908107079088 58.6383928528985
77.12333493427775 41.51184334944377 57.00418316499989
76.28653957098578 38.92247242514664 56.440796613308656
74.24838711883457 37.79835197484327 57.44618692735658
69.65627153308053 36.22664751600717 53.08303008864413
71.37182683715082 35.21578729948372 53.33981102001178
72.1710277289167 32.910304749335765 51.933654867410944
70.98954540476895 30.93189832709568 51.49434030130407
58.07107898810965 1.306440882127401 40.28340197505556
54.134308446127676 32.02199941956293 48.50753396604308
51.837205653412035 31.716476054252972 49.45641277991025
46.81809342135131 11.268121783107768 64.98770288238102
47.02308157886848 13.321106307809382 66.50016954938529
48.96576509501175 14.963306643429837 66.70762378020868
51.51054509605607 14.251575026887668 66.89932027861747
63.506803632388895 23.986107265779868 37.196384201657594
61.81956496420068 22.387644885980592 37.78790786841648
60.238119151005556 20.839994985787392 36.46376759185017
60.28943665744093 19.97230426904027 34.08466229706791
39.29281529358642 19.502334182735364 35.629794093453086
37.271859499363096 20.874822797658265 34.510398148242686
37.36137204457878 22.673615281121396 33.04650554098989
39.11141088146347 24.097846400028295 31.959048423578853
44.68234495327618 27.68979254193459 62.69581179664055
44.90337652693808 29.40656232698938 61.35983156263026
45.07613738915653 31.968080958335214 61.618101383446536
44.471032778209306 33.53802069371544 63.621040896544784
38.38937586247569 56.4796959443688 81.43331484353021
40.530000899277915 56.71853752854673 82.49833043567136
41.28592776145599 58.23042182381773 84.34900430539116
40.283890469357814 60.20616578089085 85.70005774332442
74.96075150300649 69.77873262355726 54.10430179248358
75.72379847139821 67.70024833611468 53.23589114530149
74.57208518099839 65.7699707864168 52.276111080970985
72.22747401742318 65.0488230993092 51.72121403325053
65.89274401746341 34.28519216150654 46.16069607326494
65.6903570429995 36.0417984403319 44.5896493162338
64.27437704854518 35.56674572021332 42.28806116719241
62.99391935634712 33.17298797250232 41.832917186063284
68.75924808895164 36.14480469914155 50.6375312444548
68.73446857201594 35.132909853989936 48.27571593726417
68.1712635163548 36.397291306367705 45.92264326436616
66.74838192994439 38.25008885205848 45.65553940327467
70.24542089124031 31.59992307212784 49.03627540083902
67.89279369485364 32.29055957411893 47.6790623949331
67.39010860063584 32.10101853969375 45.35176436145914
68.99642960723502 31.880425281792547 43.32222659178219
53.48979185089121 36.20276902587312 75.8743462189791
54.90365436596137 37.57857793297484 74.00745818109976
54.358355327328766 39.91790842008112 73.20973690321959
52.219654028812506 41.10789267399379 72.8896223273575
40.16386752207874 12.535440459456153 61.698383093457394
41.93957329914514 12.923763053678265 59.93895522532742
43.74636831371151 14.824930043208393 59.40944001988739
44.22220727694168 16.900205034959107 60.84483642824809
27.07827032347268 16.701973209583787 95.1541153016263
24.046073920505485 20.018763842962706 96.10999739474063
24.70873739139328 22.25953626058402 95.41959267473216
73.9262249628138 35.10971449036577 54.801824440359944
75.28865555359633 33.515059231216036 53.794629211987846
2.501475774275284 49.50424016621441 20.990492596761587
3.68234622530377 49.62021239844093 22.722389978311465
45.03622907540682 54.42062578606111 89.87663721576446
45.82923159947595 52.10789584592792 90.85968477019495
47.493516940498914 51.745982771104536 92.80324278739324
48.763731417493105 53.75511925470475 94.3892775042123
47.78832505244196 0.3122805263290783 66.92827655202414
50.24275223201718 37.69124455762792 49.126416912596405
47.85206365048397 38.625198699591245 48.99939135672233
47.178690124250814 40.42380895636691 49.12504474862351
46.2935862873934 42.00783746079517 51.267137002934774
67.1064651261982 21.499300646747564 44.68446488777862
66.24581686155648 18.889234419430323 44.680814836262826
66.72879033451329 17.331895936001853 46.334220195918284
68.50819745396753 16.697578380173205 47.945681478137345
23.519406241475256 51.312471251867855 94.40089840671261
22.27972243408626 53.33811172520893 94.21082173391675
20.099633205665217 54.551879255476614 95.03060006921125
57.545249531638476 36.091036887223126 82.55515620047952
60.309511281959054 35.6479588850353 82.25960650012206
61.57797963886421 34.04476273647081 84.433679509812
60.96455256885738 34.155888642373554 86.63264123113947
61.05627763484403 45.59057988900838 58.7510059244832
58.98241776158403 46.17457662197309 59.132639026115136
57.3536616301161 47.79612876988479 58.314540726908774
56.71341292222612 48.70351992803981 55.83741422058946
48.9847391047634 27.599004264131786 65.20335228885729
48.01003288038638 29.46667133209356 64.41043474511329
48.627718264295204 32.130196346826125 64.78213648064391
50.87911556766915 33.012486114185364 64.76760638183684
15.010094484635053 38.569854591952826 33.364243613734715
14.605448855300516 38.68869767629247 35.764118610357635
17.8736195624545 40.92686585971988 38.03675088005395
18.749740591032545 25.883116815406638 90.83091864747398
19.7766284095747 28.090562735464527 90.80876788971021
19.3539291691128 30.508739207267258 89.15037107611398
18.23637444499229 30.644477241851646 87.09670725256468
47.631018248663175 19.932524430780575 68.94140366896734
49.60336815686471 19.518687041029626 70.22293090188965
50.10710638974248 18.999553479882877 72.54890421074407
48.41532314845742 18.418556363735256 74.74136722775573
34.16129881008539 19.654207670292767 31.303182394458098
35.48541160524444 19.734951663620652 33.06324886407899
35.260805757592415 17.706432758608656 34.94024440808858
34.66982461343189 15.451518990245157 34.975318044348974
36.10054327189304 58.08811592523075 79.19650517879462
35.90444168837754 59.18770466341879 77.23042739846494
34.68579289087636 58.93957680616324 75.04573878639586
33.462270291331144 57.09452301194524 73.92923491676729
46.6328229639786 35.0887525223165 92.94668090529963
47.904519064602674 33.16121426094895 93.98000750106469
49.8300249190634 33.19876752261741 95.88120388369863
48.99524185889277 40.56415740948199 69.11759223834646
50.609253196138425 42.517489694904455 69.22433318243839
49.8189788950669 45.16233505378743 69.77782313302
48.03572676827521 46.03016124834606 70.36145679175816
41.322812876033325 9.984441785401975 89.56222488690908
42.06396073437853 10.967791468162751 91.41145651057886
43.996822495226674 9.300787693167507 93.16016391070676
43.72253861571135 6.8653761091171726 93.38915035319432
43.754178429000675 38.65869829638092 65.0720422397258
44.4595638480697 37.78819656904387 63.27857028468307
43.14198717379117 36.115233648220986 61.45679104653535
41.65783091487393 34.385350035369626 61.915896563711925
58.4477078398483 40.183665950911795 70.75611049105018
57.20554580565061 39.85160407430463 72.72870096988201
57.401675312459176 38.40372442085244 74.9306337661586
58.62364720488564 36.203726408686656 75.13847711393258
6.452247190247772 22.464056097402374 74.5318913753958
6.440336124510576 24.118439335900288 73.12323424550547
5.724070613267731 24.55144418924959 70.51319624672338
5.067310253267822 23.082297063973034 69.35505498501253
0.9038631983754958 22.696798652691772 59.75412646814171
52.00055410330152 53.166905883228424 58.00773912793146
53.72386124301805 51.439457103986314 57.212508302813205
55.642581793258074 50.38604013411853 58.48696794104313
58.19193853422836 39.14085607242846 33.16638456284188
59.14605837743177 38.981028819774146 35.22626498719701
27.123318030251433 26.91215015493022 19.0279295952682
26.303886513882542 26.034935265165306 20.952910560180925
27.606869473437833 25.541301002174187 23.467976330318145
29.681193714728334 25.54036483723568 24.171250734091657
54.41839260216124 55.2401899629773 69.82338494408401
52.961842641009824 53.19466832279944 69.13425709894122
44.57741829257034 56.62886753745436 45.8597066458477
45.75252024261367 57.15438205004322 43.742178630985485
45.598377869266706 56.3406450187063 41.33901317258641
43.40612465332604 55.21410761604257 40.330385317736415
72.12545762190904 37.58345567360966 55.88356050137216
73.20445999592937 39.309063236615664 54.364667616307955
72.30709278206155 39.88719459313138 52.09507053604095
70.02551804853147 39.96518000833007 50.93032681212178
57.71370638058951 29.054113155008434 82.35310825178928
58.1743419418006 31.326000854722064 82.55190008359473
60.71341553208981 32.1046093665303 82.18406964232845
62.4003553603913 31.651187388308525 83.0859989382777
66.00306075609275 28.678961790407673 45.64001784341339
65.77369266374276 30.664153414532954 44.20628229993107
63.632241119978296 30.80116065810226 42.36554335510591
62.27367246064765 28.7512812419319 42.1588154887497
22.46858409585127 8.809608553322542 26.035337071676796
23.12056153704223 10.735490732509115 24.49714627938484
24.241548383587556 12.472762615351657 24.41088980340953
26.434892685492063 13.454146604833367 25.67951972888241
21.20615237260862 30.557404246871045 54.46641947457368
18.821319296920187 31.227877936758123 54.187821542499414
17.654470822450133 32.427469930873286 52.42171728750005
18.202909754936147 34.409688517617745 51.01281428086631
66.29415503799444 68.30329454973925 80.31760290156038
64.69754093207234 67.7564088089467 82.19422920372284
65.21681954655611 66.49795202475978 84.29762065639972
66.67344217713841 64.6089700664763 84.49570868723333
15.67023309568403 12.152019951925157 55.26970753449456
14.300329541519627 10.271129333079502 54.278237238504126
12.358633273513368 10.380331380328492 52.86304969167804
12.096761086275059 12.197437765150442 51.34247020994815
40.481554304223145 74.70436507852283 94.77701931132447
47.3318438623697 13.789019618556512 92.27491345831493
46.3815352252784 15.550117984756628 94.14981582863012
47.25215496427065 17.9788429271111 94.53133069751688
49.30915361259446 18.789025012536783 94.09878352527913
83.7282993489856 76.0014323841475 51.32671561406252
16.942157451854293 33.425046544447774 55.095726599136604
18.94178122821776 33.24110914076932 56.21771163519193
20.05036066251749 32.21473683780198 57.991427239380165
19.38033625285121 30.112121661743902 59.430238123229245
75.4115450515034 47.01146008961742 52.65078026925864
76.45277457289363 48.86180030623929 51.7439010590692
75.98234636054171 51.57942926844788 51.84214116763395
73.86707896965922 52.66355642488759 52.38607053826435
19.54148867478187 32.46950447512178 92.20583677148703
21.00161127159833 30.427248065168833 92.5622912904322
19.933754382677222 28.02180040049533 93.51539043946717
18.471129195624695 27.763636222374647 95.24910822450666
27.039612975417686 9.053253665376591 73.20259919143363
28.326592828401814 11.149373356613367 71.94390738741667
27.286582788045557 13.850218662045535 72.19075181358201
25.26883183691445 14.395941051120133 72.58980083773814
8.833213604357143 58.83837831763736 75.31196526207867
8.961005159736168 60.85505266903439 73.77654635688498
7.7612988148426885 61.03629840147861 71.41242136232867
6.94112289989684 59.4629108098393 70.044953810659
31.53857333081762 29.21516715163223 67.93264218784037
29.48905535089263 28.89024085284578 67.02151224838835
28.356154530830768 27.35457962630632 65.13934830564848
29.19297157200478 24.813025582515913 64.91286960321423
56.906755138625165 20.067273111595952 74.08898207210873
55.0463517392369 21.790073630322404 75.35919869201574
55.6234797973662 23.559421599245216 77.08509933459281
57.526367501387895 25.058163033398717 77.35622532362079
35.75693449783596 54.419371927836686 36.00009733745893
36.050167744789555 52.851030274772825 33.88922964132247
34.22357080700457 51.785100999588664 32.64465593620023
32.503021180622085 52.509726590486615 31.527444697853973
26.63246264028189 52.94198375821964 94.3801841294168
26.220908285196078 62.22666409027673 95.28310148543251
28.09799806741307 61.1036758135146 95.99402893262547
31.610720463841176 64.01291125593372 95.57830648093025
33.80350327220579 34.244059736764065 73.23993453353152
34.89020990276445 32.245597093903015 74.4628365641836
35.1407217277539 29.95199573196004 73.52962342013434
35.44329439495207 29.23678894625856 71.11180040041246
46.422628424352254 77.47435887969483 38.299704252795436
61.55968863482681 47.14812949594912 38.31384550396422
63.00799796286818 48.3484390855925 37.37846341804824
63.838566685386766 51.021485106720405 37.96294712164859
62.49556619474472 52.90810818050054 38.903374744531014
0.4202998013283069 64.36429492460793 94.61254798891942
1.6560593924047071 66.44042680701851 95.39330286993123
56.91285510577753 66.65434608318047 61.983930382238135
58.91958867759683 66.07637939788346 62.83755120629783
59.690477691589614 63.34946254153877 62.96222331606688
58.512662580312536 61.341207722289084 63.55688763554591
39.40158413114883 39.9235996024045 33.285271171210006
37.46444014744152 40.433631193815714 32.27063819793522
35.80695149097864 42.94887927578846 32.842333156638375
36.929806705708685 44.985631009224754 33.74171196309392
8.132295847251125 5.287066709350314 86.2114288942593
9.05946969580218 6.238225071372137 83.86995979238041
8.097394728834148 6.388122699152118 81.68433528073975
6.065903716405152 6.172160876531145 80.76014326642807
35.75171929386425 28.747945542809198 31.10736221339562
37.21418914208184 30.48335238117365 31.386761100609977
36.92753888111091 32.99056775147802 31.70090120972036
35.136332411449644 34.43859963481198 32.532931721292094
5.19967458178027 2.4117618155188336 77.85614472661828
6.057843311520881 3.6752969839782517 80.27031069651498
6.0542440426474355 3.126489733919942 82.40842831030734
78.4513857544228 69.64108209648018 54.02500913934513
77.93548831677995 67.198093801868 54.36749067277182
77.66292523163563 65.97113078854048 56.659814590784116
78.26384845333858 66.72738484189259 58.93229181470286
18.064714989064445 51.351958450666814 85.06945281567765
18.959314199772752 53.22545425721236 85.12842661853891
20.901334750884164 54.12251720433543 86.8572280969271
21.71265036403026 53.267825086886575 88.73918542517116
38.47892137241478 39.82255329512443 86.86926740896853
38.42134092746238 37.585145990219274 86.61353829789157
36.985013955261124 36.233031962064224 84.5668719912522
35.4314099467767 37.105596879238306 83.11296927892805
46.91907471298188 71.83131064700798 89.91511882723024
11.176394784434237 72.68538346770377 74.93073054967337
12.294813286642276 70.87430022895711 75.92412759049624
13.949411566064898 71.64975550352811 77.68445896283137
14.907146319491023 73.70335615565052 78.1253820285994
64.744782903898 53.64771790676894 40.234046427218004
65.7985774096616 55.60247961357399 39.409792848479015
66.35237702311657 58.15954585923591 40.14200576868085
65.59325474527924 59.46942970520162 41.68706446367557
0.5210267770521303 60.362076047058146 63.17390308598695
58.32765999823685 57.19506888463111 62.220388818772555
58.29884208739535 56.03237378106669 60.0456301923048
56.7137986456847 55.49719188749138 58.37233999012514
54.12846508395977 55.116993663922656 58.304153072175
26.171394277984415 74.32641964889183 87.06473478334371
26.962666152501093 74.39676985742895 89.31350906593654
29.35882692926422 74.58189976740253 90.39373646576878
16.53187994903462 13.756002735139612 60.60109504174611
16.43220202204792 11.403586022586815 60.63526951169982
17.50981554320947 9.423696288660786 59.364771902310146
18.55202134948982 9.882711999813022 56.75335024524874
35.140381412118906 26.185414557695925 29.950098828757476
36.46136533941272 24.701590701669918 31.33786141293265
35.10522998930404 22.43823302005183 31.28960512807412
33.731154803346314 21.501052399638475 29.254098763888607
10.004125243642793 17.378896240368675 48.08997038864726
11.089191980533679 15.112866573078012 47.73251238622045
13.148674199160343 13.828858457220814 48.80403772912839
14.068024126802637 14.081332724923488 50.686796320909515
2.2224531294816643 58.38554413112907 96.12591696699351
2.809773887810714 60.20771368500274 94.4657276273398
3.269026075516807 62.915265172694134 94.74602284479407
41.86820643362728 2.093128523764455 64.61243584129127
44.37810441277774 2.1099284001250176 64.71529915518173
46.06173122273972 2.1978926834135115 67.02811330817629
45.511786850356295 1.0246818066104548 69.2543130627434
36.21249816420606 15.328744220680921 87.77620153681106
38.28221594567754 16.64649711362816 88.73492373693253
40.26457022328263 15.418322554575118 90.30220251868582
39.84748511663613 13.534422504943867 92.01820368351007
13.73730608493415 62.403473047862775 79.76386254233144
13.490598436942532 64.50476126886588 78.6153688360569
12.040886658894415 65.94383336344701 77.96050641971219
10.130003311073162 67.00455053250005 79.39248198593371
31.922301856343086 10.779369758361424 79.87473604521236
31.318814989977014 11.527886117496141 77.61609301896732
29.32499337952842 11.10094545509333 75.85166726467315
27.849721993931688 9.153682387715165 75.77291816813803
18.304188521410566 13.920688781286955 63.358115205493725
19.36854480251421 14.065945126245426 65.916608872494
21.90543757004261 14.640926781795645 66.27648769066639
23.48461896135148 16.10512640879686 64.99394064469296
31.473775415474822 13.479459702077524 81.15463674073419
33.454404867308895 14.473388268291274 81.5738820566878
35.344057021117045 12.51436241401615 82.22492831975954
35.42175420894468 10.73445410109024 83.36663075832189
72.82949855530757 58.811958727818954 43.686290208538175
72.26864658082746 58.77485404376895 46.252009420225015
73.81870092166082 57.78468223162655 48.11523243516242
76.01970644515954 59.04814144853785 48.697156921543616
30.486336923500456 24.08109454709933 67.36399417256126
28.557525688148928 23.104182123717518 67.56633940573082
27.576478623412772 21.16698189425756 69.20572051646397
28.948456046637148 18.86311624632838 69.40417772321436
45.40648733121156 3.9572256510557664 63.01273060005484
44.80116692409362 5.966865878831431 61.95772111158229
43.94598696670548 8.26173657690272 63.17927762434175
44.38711988221683 8.984568537441062 65.2949280098087
55.26282005116517 13.692734118658146 79.45521307640837
57.50402596957483 13.714940838879379 78.91207198468533
59.66389481963895 13.136471772797147 80.10355606136368
55.673761380109106 75.32177749703798 53.189647680146386
0.6003779784247549 5.967869841463453 62.232872389529824
22.751623022342496 49.68579435071297 67.22231809379002
23.857451737449352 49.42147322989656 65.04260953686048
24.371810512379223 47.35664767516204 63.71590734401927
22.49079332863691 45.233132137133474 63.180073052437784
65.91878392945182 54.01209691768269 88.30952393267359
63.74545750221997 68.81461151830135 40.34900658741747
67.92252832290893 65.35451130229666 41.96214280094638
48.146157279868866 67.3581820116591 41.84076700011283
46.38013460885107 68.63135148462776 43.09614670940997
45.11325415078937 70.82371470637251 42.00852652017777
46.29135142814254 72.59214575181936 40.31696427532181
63.06362296617091 38.028941165952574 41.6157231714508
64.58560851720017 39.161446155700574 40.722208584684445
66.61278930069254 40.842029179504394 41.675290252436696
67.28543976269786 41.19494620164932 44.07813587896363
41.7319804038264 43.202545733365945 87.32253464928759
40.91795561925102 44.7788540241916 88.53722718441115
40.87495754655673 47.48750850881128 87.10308126528594
42.22700786846289 48.37667056001431 86.22050010702449
72.44525840436107 62.447894049502594 52.471243627630585
73.03782983423007 60.9724822981947 50.46009658268331
72.18525456782515 61.31944588018056 47.894573280533855
69.95784740741439 61.5791704645599 47.37060203001765
45.742370243619575 33.4289432706848 46.83650572263722
47.22112911954349 34.97562879956466 48.115442571590805
46.710964809697835 36.61204334925781 50.019545748773055
2.564509234812054 58.22687508938341 91.25980651654905
0.8610963921107981 59.65536973965387 91.11815583245803
0.9567940705437977 62.461947332982554 91.37758295246861
3.1051416043353512 63.68404889281025 91.78989791539328
41.09801194663358 56.21766925910718 40.20201521882203
41.222104331686495 56.18630128908498 37.949776472582215
39.41253674567776 56.61053895500123 35.89500683322254
37.086419599081474 56.8222563576739 36.07045378445057
7.4446429816104605 57.35078703218468 93.49572428376837
5.427017820028675 58.27065409608191 94.27791344302616
2.822165149379731 57.332217076179624 93.72626968113151
1.8203482617834859 55.1439054966759 93.44302936869303
74.00675208572946 62.22575760845913 45.93839796163646
73.77399655790805 63.732097739832746 47.76529458904735
74.27550139046267 66.39035324365258 48.26739540307609
75.12615785389573 68.16542270319961 47.03956452914509
51.49813945110247 48.93794417394911 52.44846620903209
53.53377811694873 49.61305813680769 54.33731614176322
54.24385733448926 47.37093477306829 55.8511733863093
53.823550535946495 45.14093093540744 55.50861337472676
15.482645724418221 7.973129145143383 64.65581647700793
16.906265908369036 6.937283180889178 62.60265780751606
16.51092236343015 4.441738356486183 61.53611624506305
15.222754135991938 2.5956628026270394 62.24116963663267
38.62120099137516 57.294945933846776 77.3050046669442
38.979190829709964 58.41591743649959 79.4549420585836
41.20658214447774 59.08271242472133 80.67273664330939
43.89651834123981 59.066776933168384 79.52707892997589
19.94239622593359 30.697011851832777 81.16881935999092
18.722766131044377 30.6212820409721 83.42225207236949
18.691996222867793 29.17271298218976 85.06187982668187
20.06827656762723 27.36396266992519 86.01607436689555
41.13304410176938 3.4328484785834266 57.5993673469581
39.4408534641334 1.8216470987680977 57.99123375867879
28.309887004494705 14.625030003724758 76.46064424326632
30.327095049740862 13.87145961256857 76.23228011231612
32.77297323880746 14.882767975931342 77.17405627061662
33.17680811773944 16.06199040770207 79.3942141288739
66.7559953418584 27.503487797808976 42.99487645723177
64.17955823745913 26.219207070330825 42.81179199229555
63.80199131552528 24.451807991680386 41.113176540645725
64.96896914696094 23.442041612286275 39.28876884203302
31.62949646389669 0.8982385019749936 78.79689047418722
33.4320091730795 2.7094423148473075 78.5886534046255
45.01392127325447 57.98182431620128 48.440552170617885
44.35621273268591 59.179415854800226 46.45120178734281
44.361489715226035 62.05216392692191 46.02619804417686
44.105917202459125 63.82027548876834 47.90084138433928
67.36001411373171 59.432936100327346 85.62026779927085
65.99124063839226 60.9110275144292 87.17636154464175
66.39123700439579 63.54236532682718 87.07060941695299
21.280866276625098 77.59491406342248 80.0036831865977
21.34267836736743 75.9548236059591 81.99953532551196
23.123812435173157 75.3505143525038 83.60624940926694
33.742072187617026 44.41489652032182 34.04319466568376
34.31568342725616 46.607005646360705 32.669874715945404
34.18109757016078 48.69854321560894 33.03630454516671
33.17186901755987 50.42308100715158 34.7310784869917
46.266855878174006 75.51842289889039 45.71306638983553
45.24779175406517 73.34777256551985 44.59299155335336
42.86935850313147 72.29997629185505 44.660593110075
45.70994419943213 4.939805239116433 95.49756600950057
45.870028773757184 7.380037527949472 95.62998021882444
48.01455782262023 69.60519485618028 49.21935684172319
47.326660862454084 69.06373109531033 46.64921144314607
47.357297650151025 70.88714111554205 44.84352392853565
49.27055061866667 73.01329222326449 44.818290133670985
28.23339112917116 74.26269158258417 93.19467187951494
26.626040175525734 72.0701677053289 93.25896163468076
27.392267931197605 60.889936524847705 72.55140770442463
29.118280272601723 59.37797668805784 72.20706884882252
31.42872091432349 58.97256808563421 73.25125750762106
32.54877360350759 60.55288094220752 74.87501745967278
40.499819970237276 9.584138960813245 64.9491884432037
41.729647222121415 11.114080748734336 63.46173616005849
43.574176837905114 13.162753483371617 64.40083185429657
44.59054133579137 13.662165744483062 66.10953510360494
19.68331048724691 11.338586226661352 66.33856083468811
19.20184192346892 11.287079870791754 64.00194810723713
19.240800400022522 9.533579084925677 62.1873233807548
19.903827648073886 6.987826510634725 62.306070139270915
47.28118376126221 55.155521523107204 51.717199857348376
47.26005514521593 53.241531673204065 50.302521888883824
45.55574756697197 52.41341873835547 48.68814793882792
43.56128769381964 53.123295871688164 47.78280817136123
12.45359760484498 15.485755133640552 45.2768961025534
14.686692777732825 14.951083376874527 46.934234499907475
16.66654887579982 13.767368435792372 46.77300444317004
45.03119277693379 45.28821704307477 45.1785526492291
46.43260386170562 46.8070027658941 46.173051139021275
46.57544975668574 49.19351462653913 46.60802087694383
45.362177487158014 50.93045100021241 45.86406806429719
2.0612176073705 73.44856663711633 50.36162390671111
1.301316795899704 74.43604788450342 52.30469012623083
1.6023914509187904 73.96103295122393 55.01088350403793
2.3837832704475703 72.3050793400675 56.224941712450295
26.238770333743506 62.88573274263138 40.741610960087144
24.60073512850394 63.99075689938825 42.79398611939672
23.735545974186415 66.32946295913868 42.940600787695146
24.53703400332851 68.57937328943892 41.948333199415174
46.761030904208425 17.373184983347677 68.25812589355962
47.29909778944833 17.224057695203445 65.86497009534493
45.75612770599099 16.82985358776848 63.667145540775785
43.441519782150685 15.678910067380997 63.73266261323151
56.95645785483162 1.0549076513321392 35.05960208615204
35.782974186501974 28.640270344173278 80.37653725554544
36.200407087355295 30.27894377299214 78.95187325179742
35.29402071193427 29.883576201900443 76.81407350508657
35.19998300593402 28.069591494113276 75.1591589219347
47.74011830230031 58.11189668176804 42.089174797541396
45.58391915857999 59.7497123605491 42.84724552966179
44.261024409047614 61.04811719098812 41.262398101099805
44.01794872768855 60.620804157663656 39.07474953317592
58.20840781107157 1.363456313061242 77.67495563108938
44.34186570997466 44.735920505531816 50.073665129354204
44.762660106033294 42.6656959516197 48.63827712816832
43.26350122088857 41.9311780460526 46.547630540134
42.217999989172625 43.43971044707673 44.86866340476289
37.54388748072818 0.07559464161483384 54.8114855628629
24.068992846695036 27.785752943027926 66.17470122303057
26.071709546066767 26.59391472105129 65.96559638909699
27.61169800205878 25.719051687778194 67.77228080339182
27.954706388876716 27.095022403038538 69.53689417004756
19.16767148777217 72.20985894928202 82.91893403746694
20.71026451290237 73.47435737536372 84.21209225199293
23.142399068427313 72.98706058995023 85.25882223971634
24.544781526645643 71.25861677778825 85.01942704562343
27.441256337107795 46.81948726613917 68.12246125782428
26.37644244513433 46.695391490915895 65.99169070417997
26.62132149963983 45.20004012873046 63.900349705330896
27.991027267956113 42.99556054615249 63.54901437377172
61.06483600055956 17.47094025331869 34.65537848835777
59.4399055691252 16.921544909903655 32.95593079374011
58.066085584437886 14.513175608784413 32.92197024265094
58.75112281129865 12.18836378881029 33.40624415929357
65.62486941336911 62.61925116299407 82.0814009470655
66.18211056222498 60.83860689736016 83.38704192222133
65.44081368499407 58.27991980515508 82.0805493914002
64.90230738750014 58.32605287013265 79.71241161483744
67.3164574337128 70.0628340250018 78.78527565475608
24.227518299895607 69.61141844439582 49.56952428100288
25.698529645645554 69.35132232753239 47.776915468012156
26.66070778768383 67.06608515798732 46.44541605238219
25.978359133128325 64.91515346053956 47.210846794775
1.2789308990336457 2.2402929354940713 2.9313895429982395
0.7258261271663662 3.929692863617427 1.332693999424441
51.21675540252012 44.978791184540476 73.76038944521184
52.62964907929212 46.54262207953099 72.77070718871884
54.443594905179694 48.013345817647256 74.06654566709183
54.75619695502331 48.31948571208811 76.5514808197288
5.125708138768026 48.281266807138394 19.272077862903938
2.8271957799909275 47.05318803249433 19.861185639612003
2.8475057312719114 45.45183052849813 21.977897385081626
65.57852507082917 13.747982234200515 45.12583850615491
65.59987527595808 16.004777813154035 44.34015022907178
63.16775880148454 16.930523916917327 42.697188624301596
61.14363064547118 15.234776347937084 42.28249066901711
51.58405298090717 35.89237876480171 51.815503529360356
49.1032852415495 35.55509380570808 51.16148115274208
72.11213080824297 71.34864137666028 72.39231951153222
70.07642116851855 72.06656921773815 71.5064306725229
15.592980055031225 54.558322379395655 82.70537459128599
17.41341637629014 53.23744676353068 82.62575938803658
17.610139601954074 50.944233504700165 81.54309129892395
16.454770718886547 48.86475730350381 81.9754361752841
63.20036307167497 54.539307982059405 83.15767189736779
63.788537182327275 55.23879203592386 85.44455008790787
65.86766552628221 56.61952661608195 86.3790501255169
68.09744851083983 56.82419861064498 85.54718287936974
41.33996380796378 51.48870064603372 90.12586243643115
43.15802956352527 52.6310036754356 88.93275177987454
42.73072696648605 54.42103705112484 87.03895093081184
41.1998008748018 56.074655270349965 86.62210100773859
0.6352955115865455 69.86331850968897 61.17766552500317
3.1951690845922376 69.76363740407228 62.04179873336217
4.013443505635761 69.3664159463434 64.50357817311202
2.6417279373183 68.29797095598435 65.4720847876521
43.48334073266948 69.72702663034374 44.26458951600647
44.24940168734122 67.66827839983921 44.64147318567068
