47.554976001329656 56.862541921984466 63.525911452446195
47.80836346332579 56.84900192458168 61.04485269715043
17.96935821285555 20.24207727378985 65.4026224478872
19.05127123040456 19.21034886338599 67.33585441824904
18.29683323491006 16.945520772844674 68.6982427298647
17.222411066106186 14.956489864398685 68.22998068093658
43.15990184685852 59.157370329811265 91.83473796463521
43.19519155462577 56.90638657104371 90.95323367922067
41.48432765949013 55.11575147832225 89.76661857199335
39.540447527453104 55.71340824965793 88.51430358435852
26.447898712470145 26.61974568867939 45.34870079782652
28.71995349774172 26.61098276936129 45.83215209677147
30.812181809009537 27.787973604882662 44.47165062865467
30.725794415073526 29.80418043855112 43.05010110398829
15.065193642628207 42.80854699787366 50.3563034333909
15.745097419555398 44.06885619399304 51.98097795886853
17.797606244528584 44.87993835688609 52.87188099587596
20.232834521473695 44.34120205180169 52.31543522167797
36.0848624704656 39.14022047014062 60.61816994310681
35.53685402469282 40.95622287432636 62.079103885700285
34.24782342352402 43.079089070811776 61.73830581469032
32.53920728467299 43.99739235181079 59.76050816504118
51.846366766598436 45.1921833578152 73.96752257602904
52.57934744003668 45.53310960113752 76.3096172153883
55.159435632950206 45.364235322724305 77.31024355290693
56.48931954975634 43.25592793577532 77.16854088541916
30.522813906876138 54.445191191109274 50.3656216902283
29.806564224654377 55.35257342015229 52.484215143324434
28.08352187727431 54.48400987944458 54.3174685364056
26.363209211280175 52.618481014505086 54.113895334396275
9.886211932148809 33.181347906531386 55.4172883128744
8.48029138135113 31.308164564323505 56.565909669720014
5.8981587942878715 30.83016453240621 56.47764281600844
3.9801027781129275 32.25225672005124 55.94730587071747
42.550602600341456 17.9844823338273 57.51229542556136
42.98516285803154 20.60900492106643 57.853069131368606
44.28174358911925 22.315713960625345 56.66400004385617
44.01681476491179 22.81327307180532 54.73914181763052
26.189867545524095 22.004783956517652 69.27551984613864
23.929267630543333 22.44060541952931 69.24093749017396
21.965778477785104 20.91625741340737 68.99487517898433
21.747898243572727 18.75769504239279 67.38728061482075
0.9523820564304587 9.782216110084873 60.03581118976804
61.75752764368007 73.16974694474686 7.073166474960055
62.68513773229027 75.103291070234 6.510406538379092
61.355502029126654 77.49136207520291 6.064215918935899
58.73601749037813 77.93698608351306 5.767264310096432
12.906126255205821 26.07426820232406 60.1437426102236
12.202289953849382 27.637971106922297 58.748323090763215
10.813682899589448 27.427982780889234 56.62333931977006
9.48093515352893 25.66870093177507 55.57629580495244
35.53767362040387 4.293821178585376 35.093924917845385
36.0139609595143 5.1868867956805715 37.24743306836865
38.033950130822284 6.053295202427269 38.54501366021484
40.379232532476614 5.801693004168113 38.31818246626459
28.317577962061513 48.66287680475063 7.028838384111918
30.72441375125766 48.56556540043779 7.802111885340169
31.79757615202764 46.41379550024019 9.172234470969812
30.51083468988633 44.466868829261735 10.0863909959282
45.59356068723004 74.3214786484824 56.54021612667323
46.99572760564338 74.07353457011426 54.315490791327385
47.34853729680441 75.38973876527527 52.6550363042973
45.51088505137223 75.39279296373999 51.126314367963595
42.13975802006658 83.8412140054524 42.6789081254444
41.346782434848244 82.9623329393886 40.44120551656896
40.28007450118386 84.24273965741344 38.363363015027865
40.16162632315277 86.77082811608352 38.194908057566906
26.579398108239644 49.68463074795865 25.990819252571693
27.31921787419531 49.229856000237746 28.478114748136136
28.05752436747219 47.03546819358242 29.586137919983756
28.35506710920823 44.87933346649884 28.7242095622019
46.91877613784166 16.85355615126839 65.53224556678798
45.676856347574976 17.92751199581799 63.62504784722789
43.27932880543019 18.048652504398508 62.87066775268634
41.23729739231064 16.795199493354197 63.49927296819086
25.481722434275053 49.20904918962793 32.57062777975777
24.86497160754647 48.714968549625944 30.374399648137867
22.49616157948704 49.14413221969824 28.96534614330864
20.70174049104325 50.35887724834126 29.094662225683233
76.82397756588293 36.79007964557772 77.12358540647811
77.25114014905287 35.018328954450205 75.4896044316439
76.0411418710276 32.821516343802706 74.83409687622427
73.99997475567426 31.918816588806294 75.24063740290867
18.03909463175029 54.69279919487752 68.02033483088174
16.238761304182106 56.21712934286016 67.64480701829346
16.424020494633428 58.61789728147335 69.26235847741255
18.584223353023177 58.903853590864585 70.98980948911189
81.49531804349168 65.01117333943142 52.66004945679404
80.49961468803878 65.06381888082079 50.81703524886006
78.70374919289306 67.20230953086345 51.245598395875575
78.53457393087089 68.0406813615601 53.670783825861285
33.49514440740639 28.242143531123286 45.32239785445964
34.34242311845193 30.225745573336326 46.0474225925129
34.71509247331145 32.811693866571524 44.407723086555286
34.638667635347474 33.08575360757973 42.1621200937815
45.2134998408253 61.23773934306027 29.868356363786457
44.93156392782781 62.55319164539427 27.57627889266385
43.37568085177022 62.56238266147451 25.8920337729661
41.236339762728015 60.96249092307456 25.51509908144119
26.35650289074468 31.54973576766156 69.08102932991001
25.453257162847816 29.299370484400082 68.65199294690292
23.296863085349642 28.567423088282293 67.18261958113965
21.7564797172967 29.922043271793743 65.8453677505666
15.3941172107789 65.05164962897588 39.177693107929976
13.947594111318105 63.6871920572486 38.938388379349256
13.24196843192757 61.87878810404224 40.583767954678486
13.984676668338063 61.377810616110466 42.74954551616339
32.90840928328005 13.343155124593409 78.87838062922702
32.56526355745059 12.848587366736426 81.37416527619204
34.22675685474364 12.314843321158264 83.20953508487734
36.647568841734845 13.522080197170688 83.17825974177805
37.241743608113644 19.835133009075037 79.4254522876751
37.582259580401654 21.80436851736721 79.87516141258862
39.617732734589545 23.4982147631044 79.62390207526839
40.36422728824934 24.12886095464158 77.75528984590319
26.752672366085704 24.75608485706174 43.12977997263479
25.26202849391354 23.347463331415398 44.67083620338956
23.260393336437065 21.690840864979137 44.1967245918731
22.122790773577922 21.191750873971223 42.42676009642633
1.2122813948372066 77.88595491744036 65.03099559293486
1.3297537617621087 79.48810342463533 66.27320058204734
3.156225497491297 81.43505635962566 66.96481853884065
5.353032074725735 81.47375200467418 66.57635772946404
60.80362502171159 53.8754171955374 52.38397284527247
62.735299965319236 54.41926779943648 51.47974769151628
63.45121199044399 55.677373217914784 49.313581554651904
62.283034215678875 55.827906079623524 47.339699973293335
67.61387469419323 54.308692982613515 48.65777454641442
66.09989230819838 56.24510262331982 49.200393018816875
64.55579697380345 57.72992318515586 47.44062892363065
65.34036390145089 58.12618634697801 45.07078927720283
10.49564457361612 67.4524251952894 31.76728631805445
9.554750926159695 65.31286208471099 30.590896267283377
7.411951395089253 64.18436651127892 30.545921738232458
5.389439695827941 64.42430451914007 31.94709552361379
51.25088951556155 36.358801302045165 79.6349553684343
49.69803737476519 33.97461139882063 79.73814424468853
47.59397610909666 33.52007626016323 80.81110464166697
45.65006248346266 35.44529609544056 81.49690271019684
32.182870425649924 67.19071422566756 14.506223911664192
30.19167768912861 66.0613978199717 13.816817877977183
29.901988049510916 63.54850719493888 15.659009738006027
31.823095807290347 63.11376697409663 17.129167503401067
3.1207593602508243 88.87915517364482 35.50988100684506
3.297163925680616 90.3338249728124 37.3542547478859
0.951158273660505 3.252407255337774 42.8124495943612
2.246653221335988 3.1682942759784702 40.32088061787708
33.67176722172692 54.24685083543122 25.64013874292052
33.666551703504204 53.4331921972948 27.716479214948023
31.852435762056498 51.60555826711501 28.66480295748805
30.726192596501484 49.68257114056599 27.813166308171084
25.80669573991824 18.181778332431456 50.3025619723243
25.949120525592836 20.16719225190235 48.454854930483044
26.80403266766186 22.31565156569849 48.43626670792939
27.276919015305094 23.993119876949955 50.56650666502069
8.368667425614165 56.121488884102874 41.741888208669174
9.79662025409386 54.102031039656076 41.73382257042294
11.100784221724629 52.81847370423955 43.73946418288837
11.191836144135644 52.98941152189243 46.14224712574642
57.968908499457314 89.00699563570555 49.98682962888158
58.18977789746928 88.85655709608557 47.75013602667672
53.529397732895006 1.8830045221936664 51.54799051298109
53.99383393673967 3.985340554613497 51.46103174467027
13.82629676718072 30.955313996643795 54.74562584975488
11.950430904856514 31.01656369606081 55.30989706800915
9.719308656346854 29.22763561268747 54.77615067018646
9.381174269777787 27.752637164188442 53.274256652672626
29.36358878434854 65.94846702495933 77.10428947600876
31.589330647166733 65.1183369056548 77.52734004155097
32.524996342104274 63.50025408702882 79.01460296319745
31.982089726731743 62.022552841481286 80.87670774097369
72.42772152136132 36.86198623482335 40.11054748281197
74.27679574904187 37.21080776534789 41.85849835857925
76.97617731461163 37.21289237148004 41.85283151024058
78.43157455760787 37.95765594657736 39.85945152780781
27.180717621361516 52.09976428157895 29.703606477610773
29.239163792508368 53.16763404914399 28.812268791200136
29.69033560166287 53.10848518231904 26.268422275899006
28.017020079297023 52.460976815743834 24.39081218878544
13.180141121146708 37.96182609851128 78.98855342568002
15.294444792679093 37.69975663238648 80.35399250873964
15.520262729459109 36.13380757857713 82.5912123476155
13.94027040485102 34.17079763476862 83.39137075340072
83.85058361541621 43.88482612306405 41.80864062076359
85.17926192352371 45.83474000854669 40.91261668845913
83.9946224052144 48.28804906086377 40.32189588881147
81.75579806294226 48.81031653265934 40.58418723809028
33.42499893538575 80.71319972452193 37.33695380648183
32.908835583502864 78.69518584297101 36.41292346913222
31.248312054979706 76.79520395020491 37.37598657750406
29.670769772873268 76.63840005425625 39.238545968623555
30.745369079212555 49.82238482970918 61.49326031501653
33.50883651131595 49.541902346181196 61.9767371458585
34.10275975277064 46.92031977117492 62.66495755931005
33.009750815635215 45.15905478076567 63.10463157482599
83.9114139447626 80.45174867143689 68.84129364621656
84.43985155188672 81.17715963486873 71.05120591557993
85.57658440861488 79.42083797427372 73.22780137168891
47.551778117724915 48.907604457485725 39.80372791924781
47.22692370374113 47.70479341736764 42.11774471703151
48.3790010776125 46.1012238217702 43.29432268117801
50.662846198115155 44.932213091790175 43.107125277324364
1.9664523148399455 51.9234123785928 93.43720282879454
18.10199964944382 44.93943732640487 0.07006229648275351
17.945869225434187 44.60581669722361 2.7073326773892004
15.003103034543559 33.223626356303 32.769204662361275
13.785987917321409 34.527178365330954 31.66371155238333
14.749987108040802 35.23511272476234 28.86281856219635
17.180373646629022 35.914674322375866 29.519034617122458
42.3373969481441 47.8794991795611 88.83932151776213
42.77321217720054 50.36657097889403 89.96659930819226
44.630308773259046 51.92033718256613 89.99315931718763
46.68037169425541 50.73517622305271 90.33919587987661
41.31750212811988 21.586265772791272 54.073099490263004
41.382084485737245 23.63003513029794 53.41159312208414
39.179986441554675 25.099914779162937 52.09204838693201
37.23516255688564 23.940023432290534 51.18672489121297
57.051911127151236 23.32835511688529 40.638808241084774
58.692315021904214 21.7336514301395 41.39113782337128
61.44718664480498 21.85734390932343 41.12533786568514
62.3535591843597 23.76188210835021 41.085510306964274
59.30389126253208 5.52881851324855 28.30625381052187
57.690072865685025 4.009949956599791 26.94892238493378
56.96564553986768 1.4771068493383384 27.67249611748326
21.48181419196642 21.0022676368761 48.51487672749834
23.61844061109062 21.587958185323984 47.63274002888478
24.65567910674449 23.89372729095035 47.23430435267888
23.877780222790047 26.04590954253187 46.478220887272315
57.12007323293607 40.329555419378316 22.176112029557675
56.960078198429336 38.81056970863367 23.66796305314871
59.002264209663906 37.70191375724631 25.581117417689224
61.424723975768515 38.69169874756948 25.463595159865896
14.749703670153773 69.46693580792534 62.7728356219559
15.91560659176056 71.58383249288416 62.15175830063901
17.84008689624606 72.7048573592631 62.9525351145926
19.64424389780908 71.77043276193905 65.25265874561289
31.43202165377577 27.41402007170622 52.3187108725282
31.203550425733802 27.01964358493818 49.918061794232194
30.672894774969 24.989614221749008 48.47490720677367
29.80426828188194 22.704097388824195 49.25850845601446
31.537784131125896 75.02081339732332 65.06377634400685
31.144791958555505 76.90777471077989 63.7057832999024
30.15941676447092 76.54254460668827 61.11038035615366
30.835974727887734 74.93407088932348 59.365436164650134
9.382271977249452 12.100726956379026 67.10754070732125
11.28900028579257 13.12366359082434 68.37498350472526
13.763732163126413 14.150058463839907 67.3220244867987
13.519716556345994 14.884574384142118 64.53877413035802
26.5364529969762 68.51957787488989 70.97685264238534
26.665007210959942 70.83155426626436 71.10986984584837
25.423351160716575 72.56832432576026 72.55036016274234
23.233884671728262 72.38020806777297 73.97741823109203
49.09722377228531 60.67175333958042 60.58296212298916
49.28145377794759 62.68504071263998 60.01225296391205
47.351414098780204 64.59299894215395 58.75151343866487
45.015071468957714 64.0936051965505 57.65618555592257
61.15090791495063 66.03834897401156 64.8146093768015
60.312970681461735 68.05053351036726 65.80299455901697
60.92073146040319 69.29344001377363 68.05676926311993
63.193323957052705 68.83860557267352 69.31771662729504
40.17373640084731 65.55088909482699 26.294578193730786
41.92112463494026 66.96961234816341 25.37740261691789
43.45118669910832 68.85485139208649 26.406836886483077
43.45449264442842 69.56996734592545 28.881639399825012
25.667163921974495 46.689577117814586 33.1101247298642
26.757728339400092 44.47471685677624 33.20341072323725
28.86622878172785 43.614418394076786 34.638991185264366
30.02182702845211 44.509616684517546 36.496212676562806
38.062960796190616 38.304167258583306 66.70671953613403
35.55554981399054 38.331302645040026 65.97644758165926
34.67959473299866 38.12630252318141 63.479728418600146
35.480524647608064 36.68976949906855 61.71726188631635
4.449045814155486 5.890947509283328 93.02871067963267
9.117586124198912 91.24355542173204 89.4486176475004
8.401998076391095 89.61992961211682 87.80972069591277
32.82640609837332 39.97293292237516 34.19112046931794
30.798561705547822 40.7864935795697 34.99733629115742
28.13819742989521 40.45551433007288 34.25341897901494
27.74395529944898 39.2738884541281 32.219191938969416
18.167978873099624 9.425383649289607 14.574561987629801
17.509957329456373 11.5819757709698 15.706622872002468
16.830883984348894 13.724804494657377 14.963756918746498
16.684427224090314 15.028175680806791 12.965145427402582
2.1459403788992892 20.831075769566684 1.2103361200399867
18.214369701338207 26.557063421793593 35.01793725596914
16.10352350881347 26.677654639010978 33.71704288260475
14.737648112446434 24.74080029894412 32.2747316869933
14.981438519699324 22.742849047473243 32.70269387252798
41.107504450710266 28.926901905338894 49.96364320800394
41.09668451436998 27.183949134429756 52.14241870365671
42.79424268881178 25.466870769845304 52.58780198201088
45.17711484738569 25.031510762889578 51.527621816936694
80.29718609583956 18.63004090518551 31.95945847937677
81.58754307194263 20.791657135816013 33.03271757757706
83.41540522686317 20.9791042043988 34.56635957151458
84.68329858281665 19.431627983787788 35.850161452010774
10.395619529985764 41.30151764179399 18.718413116168776
11.808499992970779 41.867295649985955 20.22511791242628
12.626100750456853 44.104755757327894 20.802602538184118
12.495729066806893 46.257967772448254 19.584488806691546
32.748579359683376 37.04409462586401 66.80894145429245
32.448263721870084 35.84546051791254 68.59118030491638
33.65987732946643 36.12369564683451 71.1583714917848
35.22949487072476 37.676068218684286 71.28556350362948
30.183347155842135 40.115297814467134 3.983147070897792
29.438024462680012 40.15689410432815 6.29744045620564
27.654840058917383 38.46676729494235 7.563567793793944
26.57532717424129 37.055241864573624 6.883181335819629
41.23165274009394 20.02583129009422 29.94821744838188
39.12547141088721 20.879431981144286 29.181311343178525
36.77757533472198 19.6939491070734 28.51234694019151
36.006228205021124 17.832635314476946 28.985440317368248
59.56304724949474 29.008548297962314 12.428190738216534
58.91024147849213 28.638157582926752 10.345316607294569
57.547174581656755 26.514264203055546 8.945433406290299
57.130596531113945 24.42490574746903 9.639465740420277
11.649508415816927 30.003679789487947 33.31454391022938
12.310722385944471 27.833092284031956 33.18626043157537
14.00980168179825 26.942510182807297 35.39675746409423
14.835062675454902 28.29878876222439 36.963903899813204
52.033885814534784 50.50852105665119 95.75482550719065
40.45525232602124 48.91957329594805 40.985519110026914
42.77202595609531 50.03895834133037 41.385147505270126
44.55499000678001 49.21061104389115 43.21734896631444
44.388256291457296 48.19386126577401 44.95735810068719
62.4344919330799 38.54024678422901 61.416840015032015
62.14308076040247 36.1398489293054 61.73548836378053
60.20127240597325 34.61754253210086 60.70706348000642
59.12347542697285 34.993752361606475 59.266145628815806
67.52003433901119 55.227605907772 58.581498933039725
67.7715578315801 53.374433571359184 56.98837244673872
65.76869059737683 52.08964730894712 55.767415773102194
63.664667066619636 53.41216249572035 54.729472841760476
14.708756636327838 61.98362391082605 10.25456607431122
12.644624579960496 61.455749892352515 10.496599030660684
12.313733785492994 59.7858559989343 12.583351475741738
12.922029015918358 60.21190201675351 14.883625771757913
22.905089725143494 48.53452799631072 73.36717093280384
21.46447490901795 47.38809931824386 75.06064221273999
19.299298853620925 46.1415139019152 74.52542680712283
18.277534035529783 46.267737431985424 72.57388009029215
55.847469567288115 63.06212650128357 61.27571352554359
53.736065801922294 63.32532276681904 62.2384761531889
52.0092610479385 61.73331411241329 63.02336683540779
51.668664206271785 59.27841090363726 62.86648425761821
65.80550094621485 66.14012858656177 46.92305176167492
67.36180139990795 67.21640506326374 45.67840030388774
69.87375915105031 68.41061019261534 46.49049237962084
70.68713932525331 68.6796389680291 48.53348686801881
40.64706450436048 10.899482706581368 87.87695820080047
39.63666223528329 13.200028450644435 87.42339006381835
37.18646916405254 13.819016043218712 86.689789286083
35.340898689093734 12.764332886737156 85.80054146759059
1.075196365085428 26.230924116042672 56.245284578965844
3.3642478263405824 25.91659278911406 55.79584195757076
5.462301241232377 25.02823544413754 57.2390315769299
5.458276700993824 23.40444097115814 59.157774005699885
19.81910088253479 16.81001201164439 73.00444279275274
19.16979056241733 18.54986990084638 71.38429377732537
20.108114843976438 20.918984071848083 70.90787730621088
21.31591819532626 22.604826273126516 72.0513170282746
73.30091245704043 37.87540925126435 69.76357306374757
72.34415634627227 36.24312007219034 67.93571941762016
70.44149464715377 36.11468499030809 66.86204161238281
68.17039668539113 37.46451396955151 66.80078155132024
54.63302674824042 30.900710901924647 34.71439384931284
52.58664613944611 31.084727568213523 33.083938745980305
52.57865745633015 31.267023097083555 30.20955980028319
54.541178196341875 32.46657040755368 28.89011676495797
81.58717595941971 69.05897387197157 53.698773192717816
80.51684989841726 69.03310011591877 51.46842342269431
79.53352302947094 70.86488113773618 49.72646571218666
80.42137200294057 73.34431465399288 50.10104887830914
5.222697110952721 33.92042595801443 75.14738098015523
2.8502940120694817 33.45118727209834 75.4704340788603
1.5968847255528502 32.66474675253796 78.08036769433672
2.3423799802401084 32.079078634437806 79.93451819641966
81.84440053979546 31.404451630707143 30.988964662957144
82.88868913698927 31.100726879714085 28.86656115027109
84.26551542277696 33.08427099677277 27.47860041587676
84.25879902207268 35.41019984729265 27.37784410844088
88.85955838029747 21.259814673628803 39.03306653567967
88.73414356659376 23.761272136543543 39.48169189092313
1.2284578156925263 35.130173467175794 50.35383137073897
1.3193664628768822 32.84194141141451 49.038349978778704
3.013107636184078 31.299139530996676 48.32122598664747
5.321612189501362 31.0367705682884 49.438634595710326
38.72750830520163 81.70525613886966 13.429801746970591
37.38866112082277 83.65166605044934 12.697268358618302
36.26194983729016 84.14440950642707 10.356925839894943
35.28079899186757 82.7277285763996 8.799595132664136
41.886943743394106 77.35531067907537 19.92348127653573
44.137599791031754 77.45298237828898 19.91361861129641
45.96715070623822 79.31297392105337 21.367043966295657
45.591455956919596 81.40840356277428 22.21985755961104
55.332599665930765 47.00499814750864 79.23583107264446
57.294015293441944 46.644338078129124 80.08934379037636
58.07665750802493 44.949968778841615 81.89911862740695
56.31692299179992 43.147447535915276 83.0917818289609
47.33628381743597 59.66059613801145 90.3491689530233
49.05960046921847 58.32193188759765 90.61669840249164
49.49846754460445 56.650022499797196 92.84745277317874
47.88015798278461 56.0518968112491 94.68046256996479
10.167783712704427 62.071534698540354 67.45394302220002
11.532799470510856 61.73807552448344 65.41138644407177
13.200149122229183 63.14086891993541 63.72350363274299
13.290052885232216 65.49418947258839 63.6745139028055
14.841851503464644 78.0722028640505 43.50436715176826
12.544954553252351 78.69856453301333 44.161964499896676
10.365768193252018 77.13422594252255 44.32888571418716
10.084861135499539 74.87945584023694 43.6574613834841
51.49372762288133 71.9991481088606 55.588822562365344
49.31333974597352 72.7126387474652 54.73708710130255
48.63386302567702 73.29920992082589 51.98051451960599
50.35472953042385 73.94524995853972 50.118585487087074
42.22336706969138 68.02693295304405 53.28815133395522
43.9810594473904 69.77014499198305 53.58520413786258
44.50211776995475 71.7477029959763 52.24586590518057
43.03821780972104 73.09704764488838 50.51996316831349
17.186377665874932 4.374244846665979 25.410053050837746
18.450213024359524 2.6242774014689254 26.77086696945326
20.501420654767333 3.2647897092662292 28.630701979754537
20.922447390363587 5.073613340916114 29.7171092020793
17.175429287645393 68.02839009447676 61.290509535126645
16.191362380754548 67.6571528690946 59.29670479890182
14.475909817910091 65.84127724071827 59.350677125850034
14.32210717760845 63.944103640203345 60.78793409068763
63.60268279165444 45.71072723971469 31.846617840476448
65.63952685567588 45.03771801126904 33.28027617890331
65.72161672126676 43.12048122396895 35.2158844079951
64.48566032356466 41.01588668982149 35.599748961616214
40.019326747727845 77.16753839286679 36.96019448722598
38.294003515954294 78.20296692570622 37.904260737381705
35.78499598056434 78.09612915666435 37.765234853835736
34.25112708206187 76.47910598773588 36.4136722251077
79.85072300377695 10.327948310382633 92.8836422643309
78.78545747237385 8.707431010330392 94.50386215932066
79.94282633663767 6.908411408303631 96.02687118200963
48.2363954715069 30.50087325969096 6.84356194888013
50.31802777560012 28.962803670526 6.065700177164278
51.25170192388552 26.97079482036732 7.264776104647537
52.30571441434519 26.93157466350616 9.591726017738731
31.937626091956425 60.874293304886926 56.150202200201136
33.04420315424088 62.76439464627983 54.74239735303138
33.88028098941481 65.13709597739408 55.63905786285017
33.549547627317125 66.2663827016278 57.74760763127853
42.44839909301469 49.98696296173497 65.39807738525454
44.81564386677856 50.34835660622542 64.75580481172557
46.19089923457516 52.362613757778576 63.837622686231214
46.10649052870494 54.71559794348499 64.59701966598108
35.46478084499309 44.27752302400985 95.41432508810496
36.71045713453973 46.05801972795492 93.5151261079287
35.72821325496079 47.59234497920973 91.936909341523
33.68625738129634 48.07467128576976 90.85286928869203
16.816278303327167 77.78638103141924 63.446372975832624
17.327484524267053 76.3966897877265 61.53745942379902
16.178365356537387 74.36244561133108 60.90035326009756
13.944594536886653 73.07280070190598 61.0037190721983
25.437488333399184 80.81306854186538 64.72719453090698
24.14803073911092 80.13642443447364 62.97415400231809
23.481344717170764 81.44380740608814 60.58643427141962
24.93326413945868 83.45260069124245 59.661709901480975
77.33235776032873 9.747528257963795 90.61411434339706
77.03240286074652 9.077333048310322 92.54432426964067
77.4124020956008 6.226682087175411 93.5329110257774
77.58922842649166 4.377974167264807 92.25579030996788
1.5438976174824675 23.815346874220623 3.476987513998624
1.0027249024390088 26.372523658339276 3.3211310134652057
37.026363824242544 85.34422480568676 36.82450170689229
37.21014271195313 83.63628032108299 38.20447042556628
37.311412783192814 80.64067678313361 37.45289501847715
35.900775399336055 79.72822792884686 35.40226041471646
55.61437331101399 63.46942153079647 89.2968689207883
56.681060545059445 65.3588568753011 90.81711408517923
58.79748098970479 67.02569575244326 89.7244171500545
59.76035634684639 67.30446905648279 87.9589766892222
36.37775385149091 36.75196868340409 73.4609077015135
35.97789436496417 34.48615882791289 74.52497682213891
34.044386086826535 33.65873690067708 75.86512320417133
32.38609603734256 34.7315205696079 77.3899435337265
5.1490360304859895 11.236616391358428 69.39950738335301
6.731385698538227 10.447220902213417 70.71285041896833
8.932857634860934 11.34290781353367 70.75913260922168
10.018570606846136 13.494249907382162 70.80171213168286
55.16667471484472 59.39405903082797 90.31869056460091
54.29965526885296 60.822891390685996 89.69345530361217
51.540492479625826 61.460763270057384 89.32337986513767
49.75236073833618 59.885016130275496 88.63059543921348
38.955592460550974 66.21475107218583 74.90893971109139
37.25594429714412 67.85875035113473 74.29528572050681
36.76297780306138 69.16559696229282 72.13184118189484
38.774160931580845 70.33826591948069 70.93199607895916
74.38874104712848 47.38570427904034 95.43738085096423
74.68360849454766 45.137340814930766 95.31347678692218
17.23844161621559 35.13333682532654 79.5457440671337
17.825514452461242 36.5187831539262 80.9216167911312
18.448748203670963 35.1220512923978 82.55038870361282
20.179361038405663 33.439166119652974 82.68499277561934
5.987342883284153 46.7780143989256 12.503719721240302
7.813274300253417 47.85839774944636 14.26380895226796
9.726444745014241 46.58895633580754 15.730857581956366
9.335431102597541 44.4206725085292 16.266185758507923
24.12180285511685 67.61760481253451 76.86466971387208
26.759388840023053 67.93439724575967 75.77194906503372
28.79804872474695 68.93315185680217 77.25213762827893
28.30297193270183 70.79591481704391 79.34984272242752
77.32791408531065 23.853236313593882 29.93175826781312
76.26313272205097 22.47485367302435 28.571107160785186
73.4546515953157 22.48605322780223 27.953698309000707
72.08156362549217 24.746717315447174 28.042444305577305
2.6409973182837074 68.6605313192296 78.89363321384758
0.7089771093383216 67.62822085086015 77.4620108498414
46.74800597093823 52.09802144621012 14.718698133506873
47.78982277610847 52.06589998258736 12.696724293666009
47.38350048309805 51.61490285482017 10.499989507807916
45.2129392708953 50.426945680322106 9.45905693952039
68.66586750168385 3.9468319388708397 9.937148255397288
6.974742933155965 92.90148358005477 91.1380300665026
5.7780335087049455 92.47360758123156 88.6579313301019
3.628800849460454 91.26679785570468 88.0684504218097
20.264782145930177 77.14837764514918 82.27028290744698
18.542974057587596 76.67964800969243 83.92658265706943
16.33548363754208 76.41434242473596 83.4473008308563
15.723358748344326 74.16267978912708 82.66400638081552
50.229543760584505 45.92377831006272 22.5817034687826
49.668639426526916 45.88589767101812 20.655323928093058
51.12072656139396 46.89848324801029 18.457468976127853
52.44764737491676 48.98109729042799 18.471697327543954
11.327018653930558 61.46236635445205 2.870437909252645
8.685353279135493 62.02493691443966 3.3795235097652876
7.5581628005698285 60.712745361171635 5.384638114059534
8.303019652632061 59.02109014433564 6.820779413646094
77.08243189437857 87.82433834854521 91.26157723653586
79.270841629188 89.04757813245266 91.85766677606311
81.28631715076123 88.27077832825951 93.17514646978366
81.6818819042026 86.2447771672896 94.34198652822633
14.266240567901823 40.84943128505876 82.19714747227052
16.567211772924427 40.13627136045619 81.21204894981857
18.53636204756576 38.91604706778016 82.50944981185795
18.493830609042817 37.365144676475 84.42227126374124
35.24819391583958 28.34919313002429 16.905005154236207
33.159282794141106 27.72420976563465 17.761574663597205
32.32641196584776 25.460660341715283 19.29574122992459
34.2725773261661 24.623887960497036 20.54556528060859
52.58086835245767 78.89244444836932 47.37379088824053
50.32546571379484 78.45943614707502 48.254646370248274
48.508928168436405 79.09285253553017 46.20673666277636
49.00816317317783 79.93705713804043 43.99727924044092
50.61717723650211 21.89932134932172 15.452114505060143
50.7337540626792 19.59306235205891 14.250162946608759
49.50020688598879 17.48973292010282 14.25525866083739
48.34240189294735 16.43594007008079 16.227893415433524
30.6300864678106 27.826627823241775 20.92329195471367
31.77719218471054 29.238098837824086 19.748934142651887
34.55530005726101 29.299721389740775 20.427501354566346
35.67557814225123 29.232698675413257 22.10446749472109
19.589430720156894 76.87514442641094 6.78328175710005
21.3788992842728 77.98681547859836 5.438668588210085
23.027824949591807 80.09504757884964 6.259570750972182
22.311172107255423 82.23266804496137 7.022577512264886
34.95556542221044 45.35446325385568 58.85318736045407
33.4729067056078 46.694986398815786 59.88574955017233
32.56155510285782 49.45490608445201 59.093022280296886
33.54718117950562 51.02132707353693 57.60993425273848
30.247090879990818 38.965361861119 8.653092438252365
32.461596559053504 39.57084183153395 7.9988814110481385
34.49989159721033 40.36290288010353 9.617728567085814
34.51288852732671 41.09700819270127 11.899006604874533
35.735424434119416 40.8062934246263 94.75382272713766
34.04106552117034 42.08531759516271 94.25675521061561
33.04148687513767 42.90432319006991 91.6823126774254
34.061201291654264 42.7970094835047 89.70512345061141
12.983046593106529 51.5020236727095 16.849582874490004
10.880505383787018 51.166171832551356 17.219910493224518
8.7111835654062 50.882999734269326 15.574006797860145
8.382816297632072 50.476592340111374 13.154448601082484
45.04192058261559 33.069948402297065 82.79061210870664
47.22880405812273 32.64485257733356 83.49963695637672
48.00090007159129 30.71860530375985 85.51530338143668
45.80543189551053 29.332766239549244 85.71342146591431
0.5076452822813584 47.33923666897806 14.410708680460047
3.412868181326844 47.04975635943232 14.501243666893238
4.701667844908266 45.33929072799641 15.256815595428272
28.29836409409096 31.423160201494944 65.70580177777592
28.402152675655703 32.708655129417664 67.83659426377788
29.9640648674068 32.301135202778106 69.75753134545064
32.032333201263185 31.421238213266566 70.13667823078215
85.44396483090983 82.801008629331 75.05032507425443
14.639024804566048 46.41750803984202 52.41885154082076
15.21939697352308 47.04808116210237 50.10722039221344
14.277314499318075 48.9865027706861 48.679751848090895
12.558869535621119 50.5444118179236 48.73137520223788
1.9590479770098785 50.398071225564344 88.72143528652093
11.411574733921526 77.23073289220939 77.44998783675128
13.448616367619753 77.92553463911244 78.69976852383945
13.612299160990286 78.8057855868959 81.42025702081119
12.875654216217711 78.1099398344686 83.20487768407024
31.72103500790555 41.39721736175701 6.2160714960072
30.272563886010836 43.66499081067094 6.59924722989198
29.178208096840912 44.82058569934364 4.87810450141378
29.442933227669833 45.007011174427035 2.425671055013323
31.69873011832131 0.3252871785814422 10.06867031896629
35.65398923462532 86.48909690555458 7.934619145903949
34.093889976826134 85.00640907555766 7.575723473891561
4.2175866062959875 81.49923868409383 70.05247113515905
5.705385709848652 82.8179738235748 70.56266338961835
5.579489370246657 85.9166099575678 70.35046838331958
3.8028644246588557 86.8926738061613 69.52691987504853
41.73834889835634 54.33735843611829 5.250478174973521
43.096344717690066 54.98459237433156 7.562002530061118
45.68965557536425 53.68611022254209 8.30141491152129
46.539609905875835 51.55005906207132 7.285329193436361
65.71480730686098 54.871605122053104 80.04506281827106
68.10829313072352 54.39119624818542 81.0267287978883
68.77083616923917 52.65830640646457 82.96451437662584
67.34571559767772 51.54553930947538 84.78652570886672
58.11403214330434 32.86069418730176 84.88341722355388
57.43319870926569 31.3915773334208 86.2117754013885
54.92539515374684 30.55208673519907 85.53352678686122
54.00083666328199 30.306700434338474 83.67105383494166
28.474296694281144 89.47375697596509 75.00352806117641
27.3960434521924 91.12871747893816 76.44468014738987
25.740893344204444 91.06899432794228 78.11745050070228
25.06613843914842 89.30777318660907 79.88047986018138
27.249632349528873 56.39373680487234 76.66996180678518
29.23530955474327 57.683538785965496 77.78464791130426
30.151092963930395 59.81401215847485 77.36995603098435
29.553464149794934 61.77690481975636 75.82627958554448
69.56411707654884 43.76364185550713 8.704011082599216
68.7531912211808 41.66470204551044 10.287167167658168
72.49628694892637 20.63233552695807 22.482257951207515
71.63341753956045 22.8967399498918 22.47060600577659
68.76248565756059 23.29770284231943 22.0091245060954
67.54447389885124 22.79739474942859 19.986198854417275
27.406148641120947 35.42303461361012 95.6580695655041
26.932388422131467 35.13239768706782 93.1883643769076
24.647468936131297 34.95518687680418 91.84300406158492
22.173819786366966 35.57860021805106 92.38963924896692
9.484831186475773 25.83854611785591 8.810842412409867
8.117873064892601 26.233413266727243 6.976312309187519
7.399049865730634 24.83341404536522 5.193936728652613
6.590552573816423 22.399435606935214 5.011162806583802
54.90947575025795 22.85391526141337 66.40083434982692
57.27861660060281 22.972458396936837 66.11403175122997
58.799187484111854 24.129142377314356 64.71940707973368
58.60883246188927 25.820609351472925 63.143061545331896
43.433287188462295 10.373508603949746 41.51961961544467
45.26055074419994 9.26440843616763 42.40594353511062
47.01440323119837 9.574065616156888 44.3383150548052
47.015449378465256 10.548076856842755 46.41081698481846
60.33704178343991 72.95622165731656 9.36230761284127
61.03713553490712 70.56192264972641 8.589236770869798
59.45029579774186 68.46386403578028 8.051386148296212
56.96009253134801 68.074574929582 7.9357346203187324
28.727141566270863 10.41582367614782 79.88845170904752
30.445112837263967 11.559739476478947 80.90440027489238
29.703326531100128 13.353351390521073 82.4965026499885
29.154763609623082 15.085709624229402 81.7045226574173
29.800838773702903 54.45721383011767 9.689673308915133
30.383841676699777 52.98138831422152 7.01019049168285
32.21915670058505 51.42808062521851 6.70790584516628
34.312755860751686 50.6558126366748 8.17338401762779
65.05097464051082 82.14006465178278 8.361416179614686
66.62229041429627 80.15570122708198 8.345568500520137
68.47883978463733 79.42579122657908 10.207783311439337
69.6069709728859 81.16583776780091 11.10243389161705
36.9414291494945 25.915563109867133 31.782622092198075
38.58546326126691 23.832467889366306 31.88097192107213
40.41719528882193 23.236912348499935 32.998029515418864
41.6591602361128 23.86945334479849 35.06753066482654
87.85992644722434 22.168769997110978 11.735476925339638
88.0356408687665 16.36214982899778 12.272162265382784
37.384661470634725 40.50466714615498 11.688487229735557
39.355453219788906 39.75076715546602 12.32073941736897
41.490708603080634 40.646316125171786 12.080611120263338
42.575979299065224 42.86690243915185 12.892335067334873
11.79591046967148 56.87114561454503 64.31651463564408
11.572257123060396 58.699287397202326 65.50209378935229
13.21392557602795 60.31464728199621 66.93047426411539
15.569706013687831 60.42627041739653 67.34248853396421
65.53427448092458 89.57761278289169 82.8515041374755
64.64834911010892 91.16276162232245 81.83812636014672
62.6526468335244 90.12174316675042 80.54469810705899
61.82555710017404 87.67127360015269 81.40219450179674
19.297632600385647 35.257955973444034 2.74841058515861
17.34594732857982 36.599414673547095 4.247888641762161
16.25365390542244 36.17938110819703 6.066385693246765
16.3782103752396 34.610595675308446 8.101406422372005
45.6521904291979 48.31623461149755 19.13512664549987
47.009428221747655 45.98440738277316 19.373534267498158
46.505162117158285 44.07580873150497 20.50662016906794
47.599282483574854 44.718260802761236 22.162423078095916
56.37644800247583 64.87124249242835 11.063928128188827
54.60538839188934 65.46335739023603 9.435159695201525
52.09345466587617 65.10661506808664 9.493318105669243
50.61367979189229 63.27864364979032 10.829426713199345
36.67848590304871 59.737512750777576 4.264826592445286
39.12224291196137 59.89381627964251 2.739738076529602
41.33358872281784 58.54165538846339 3.486563964910604
41.730335439823754 57.22102527718298 5.545628314493054
50.20191144731161 24.784881922691564 37.64106370264898
49.47444165944251 25.936039281555328 36.11720832581682
47.406934745580884 25.727668344302895 34.40788699338436
45.20060063750775 24.570126946854458 34.52794943532221
29.251103100737048 67.87167096879556 95.25909081776912
28.20837046980226 65.74472524751987 95.13289927789077
25.69816391651082 65.54892006031452 95.41366845003071
23.818122281997667 66.76140599709558 94.20800255721772
15.225410932389636 80.56060643615695 77.46915192366446
15.242150587125016 79.91829579449785 79.15922116356548
17.61600509742114 78.2706922135209 80.58494655559441
20.021729160216502 78.90735154269116 80.101560559408
2.2428920826312932 48.14779276266121 90.5600798487894
2.8922878555849074 49.68327768025025 92.6405514162666
4.601552301938615 49.32674019927316 94.21566242688014
6.761319445274953 48.086252710826976 94.61736953823821
48.48314341865781 57.92972727435347 6.274286156247707
48.68948961304958 60.37674451951457 6.063340161742913
50.473441468781914 62.202063953511164 7.594664034469873
52.583789876657924 61.85834041246346 8.458754059666497
32.633476552507844 45.774890156528585 87.9599939036304
33.86028441266868 48.00814038729299 88.11062278372266
32.653191912253625 50.3472371786549 87.7509202779373
31.146353944398907 50.695752474449165 85.98529739106831
54.099705939915694 35.86085941762358 26.924504400436234
56.24595527881384 37.39447826791078 26.059763221760047
57.61165777387646 38.27294847911269 28.29170323848432
57.46131805006718 37.54103027688354 30.642691033041427
47.544764018676254 30.844656122886523 26.702429171090316
49.60296467010698 31.81449445581322 28.078162684431017
51.94519392538263 32.513769850169695 27.28796750628524
51.8461582518686 33.8661084796722 26.12479083933817
30.71711189443753 46.21477603234819 59.26939351289928
30.204505081035652 47.770893675035815 57.65036160586316
28.09316230648682 48.0974124024917 55.96751235200507
26.183776505440235 46.54623200936124 55.99993805969783
71.16142768175209 65.32919028990635 49.30488398595869
72.94126063708642 66.82935084921483 48.47775757973222
75.64523456533745 66.79223893009288 49.028958313164544
77.16709887531876 65.23409515437767 49.84627830652799
42.37938768968902 22.317730591499704 29.672475383500927
43.122664182216404 23.2599702825083 31.84147905407863
44.693096607008144 21.901405196636258 33.758066126647726
46.43025235072284 20.654994029537903 33.327719505349485
1.492600823236917 76.18700436929602 66.99611440210852
0.14825388399739373 74.90889738584673 67.87122534500446
16.444115963098373 47.59070298132929 53.6309639818131
17.457476975551216 47.43791133719792 51.58217784152965
19.695921242876747 48.063698715849874 50.5661863743286
21.431617103476846 49.660127981094 51.25682411086924
71.09948289017142 61.873203849541106 20.567814854619826
68.50096017959737 62.070311470192784 21.278144165093504
66.8927667316107 63.691443044046785 21.233988664087207
66.61581048020636 65.72880927101552 19.598362168346235
33.853311494903345 57.17948179045085 82.87699928494997
34.186155680395544 57.67488570457857 80.30869552885102
35.052754044116824 59.921921006913855 79.37964586997498
34.77846649815068 62.24157570306025 80.16720378124198
31.241838366072894 55.926353796642125 85.83666383530941
32.0676899893847 53.56734146141017 84.67519905514638
34.534127509087455 52.641719799541 84.84374732106855
36.07861570855233 52.66844875574806 86.76184944371668
11.897595882578 52.28436261197998 66.41836296590786
11.030409481563938 54.94645841509197 65.86932983053177
9.13668080653932 55.61722797874118 64.59374042688547
7.1451740849780805 54.526999037084785 63.749422089759086
88.50873680782826 24.289261358871443 13.307004245167468
2.1946550864818977 29.128063638835307 0.8189322517904155
46.86301473632826 26.90152573261993 6.2156336183404965
75.08059326540868 45.519615910707564 8.53660849086106
73.06789180315266 44.65995440628524 7.979414121631215
72.14234032603224 43.14761173035166 9.4015387768695
72.18866536956327 42.84657435124923 12.101735548676974
20.35003799906391 38.85205910527354 90.76421953454914
20.012138707917206 37.143826236805886 89.08682188865802
19.12087600574723 34.650262577697426 89.15461954124355
17.5997804490803 33.62417671486356 90.85887214693354
71.12939446521948 55.52740664916907 19.350869860048007
70.16976263307075 55.93129135589432 21.584848486419222
69.37298995208933 54.08530022286404 23.226627371870823
69.52533572329975 51.558562683122894 23.304719059312536
80.21348897545873 44.636935022631405 18.210819063534103
79.47547410605867 42.56641256983278 16.533319997783877
78.22695101118097 43.09504399740555 14.198757001965511
76.86186685086182 44.722272056773846 13.53631816067948
54.138798087871166 64.52000521293499 7.041494610072333
51.901489742898015 64.19410270665131 6.1781510134869295
50.145146877738284 65.93022124392192 4.884611533374552
50.64396940430963 67.80029729006792 3.7565724964712013
33.715947831130194 36.979920747649174 8.44371177362991
34.88693855077671 36.910484093233016 10.509377584396361
37.13019806821108 37.7314566860192 11.413483538639031
39.25597844334321 38.55184649616961 10.105225519446718
24.07200856157294 33.02822421776229 90.12831357406623
21.815036983531492 33.21281947143415 89.35252703762062
19.565057912643468 31.86703785303883 90.32104052729966
19.481583688272142 30.197373807606514 92.14933109598277
14.497823615215541 32.293678294586385 0.5070963109882223
15.351511604481914 33.945251035525615 1.9626369366574337
16.857074784630733 35.93182598610294 1.5561770210499466
4.111407169429402 43.87209539795649 94.70353460206775
70.93399928403622 37.521052895554725 8.781662783294385
69.86798283064961 39.25768487826125 10.34635156556004
67.66159222558548 39.16059165575552 11.66292527708762
67.17942844141355 36.814507034346214 12.27582952229561
62.50375886501166 26.431455799022096 8.182092771373924
60.02830223487765 26.696163231056893 7.966182333034151
46.53026538932853 41.72716849819372 22.859528576208614
48.84284226554476 41.13017581827906 22.01866859981121
51.230669244675276 41.362206292527674 23.50288752228353
51.301884743456384 41.32245469775277 25.67488925249874
34.457324740671545 76.22006437888729 92.32329038060706
34.724577297420666 78.47399713723198 91.37026969706511
32.67393481706681 80.42866258459395 91.15954057874234
30.1076086608384 79.92808703379818 91.64581572377793
12.367871922661433 62.5694586168225 59.52091002587585
11.33782328438149 62.6459547714052 61.78663561478695
10.029878489814102 60.86990606765145 63.11894660714881
9.921568085549245 58.40649171483104 62.78815269047947
12.570612195648545 46.43722847441354 79.20159317393455
13.230375131116723 44.36402045615185 79.42677183522154
15.154895303650525 43.4009244980017 81.10724851518263
16.556250743117698 44.19031826363816 82.84829306636746
33.46405577237805 65.0771871805999 48.68973713176017
31.370906505524818 65.13168146640018 47.420597605622916
30.54152396692134 64.40671157392396 45.15920647884504
31.214751801822228 62.534848227410805 43.75829828515743
80.24471437893419 17.543216270090927 89.49358348009717
78.57015193815194 17.580145206431244 90.40143227938152
36.322997457131635 34.38940759137135 10.910016488999466
35.49716919420137 34.62929924626486 12.753078638167853
35.44870726682367 33.48716803497562 15.097321483486082
35.924364676345064 31.109156925497434 15.578060319113298
42.13852935571357 11.006965829922175 12.51330002474855
40.83370048114651 8.89149834785838 11.535882785116192
38.845908074069506 7.791120643447176 12.17043341990905
36.93163954026822 8.034566858315927 13.404893709692137
28.951044287304327 38.682998064232756 89.64940874039482
29.434259207311314 40.35025299987061 91.60051870014908
29.88115286374495 42.691515782131766 91.73169234650837
31.546313489273746 44.20295317680169 90.01529532422593
16.25152515388343 25.102155449172418 9.688527845726194
15.41458258150252 24.39892469614196 11.740639412728381
16.936896717464627 24.539690489972713 14.020100373194952
19.234353147477805 24.2239452973286 14.294577420808816
60.24988958683245 42.392995746192014 85.46854795458249
60.60107531145234 43.567092479782765 83.2740066817072
60.29332513246899 46.1603975050626 82.76785323107305
60.381360544871015 48.226046155328795 84.27694951096642
86.22601998994884 59.19954466757422 30.832102812767136
85.12879489872944 59.27245673280943 33.17331741059365
85.6668407661247 59.30631291845664 35.35808255784034
88.02847289491098 58.57141443730056 36.56644052509648
61.88955154649039 60.526322126038465 50.79300632926161
62.5436062434299 57.929745477477496 50.97445478197807
63.385565865390426 56.76248356315757 52.620746339569884
62.20456920726876 55.86719202398774 54.281464686154465
48.59093741282552 41.917987294582176 13.936204877490782
46.18256051694987 42.59885982016907 14.247072092802588
44.00147237445467 41.05842751388557 14.917667814568036
43.32378969285655 39.15809721754863 13.990639885362068
45.89931449728703 47.734496671027074 8.50404620440659
45.952309851894 47.191813922435394 10.889434504198128
46.09603146836591 45.314260651795955 12.036711731402047
45.329988758740555 43.24530098716115 11.884230831536676
10.26390349556711 72.03552668989825 22.63968123117578
11.672415539815047 73.58144111800488 23.122619067591845
12.501279045724713 73.74592180808463 25.113706724425928
14.218556668416692 72.42018026775071 26.682671465250998
45.528069112658706 48.33524516982908 13.616565971306027
46.84062833251013 46.58451866541767 14.989680471722588
45.784259457052286 44.466443836015564 16.389089781421845
44.28221383993689 44.603614385258105 17.773117181166896
75.00601858470124 49.749758735423 94.03942807705555
77.07314948499642 48.95324430723364 94.44982545408074
78.62253074901257 49.01579566123638 91.98092202745559
77.96308481602964 50.693671597384224 89.98679542201404
33.727204247636614 37.7356159521592 96.07332571120547
