81.70679454704165 67.41446777013913 91.43866903534177
80.97166723304211 66.50554003653501 93.37656564858496
81.80152532181185 70.19392113171777 89.3220439729821
83.26769127636925 72.39666654533536 89.6163568830555
84.49896925846058 73.79039141659432 88.06979517183736
85.64863477378084 73.20708323480109 85.79950981525808
0.8068388778157605 77.67918457437806 84.08473829191921
86.19919364104162 70.52360822681744 90.56377229384755
84.240431279692 68.67342216180218 90.59491435304531
84.39923757855725 66.53841738955897 92.2614384244088
68.0818713545581 64.93570822570732 70.99140631738378
66.10201575193013 65.54922544543281 70.9015824002154
65.17535573894759 68.45259443604137 71.19279440949154
66.07864106252268 70.37078429988914 71.03568514410412
60.05703820125984 62.54299176389221 92.02614908571933
60.595160627788786 64.45488762949314 90.5050507060652
59.121740355061846 65.7626668614223 88.76137006832727
56.5832181955595 66.10456334534041 88.88395362453706
70.15597107907276 52.90949726725749 74.55746390365219
72.22239243736996 51.615690568553916 74.56016283509862
73.3603328301356 50.07599692213441 72.7648739857094
72.32142605088039 49.38206842503349 70.5589247634993
81.75163726994941 63.429682955297906 92.87863617232975
83.95481957783787 62.33311505487068 91.96889479270772
84.60317520275952 59.59728517407768 92.73713385139837
83.80925377477794 58.87773480320976 95.35259522318877
75.20094891856508 48.48240203076985 71.57492281424335
62.12679429067351 62.438005779502944 68.17522240359285
60.2527416609893 62.71653517049858 69.87334328475043
39.32754555671985 56.11673704489835 92.93063274773664
41.30031980060445 56.06357349415422 94.4972078173855
29.076100014371548 63.83815839185118 84.03345763674905
29.810115561436394 61.6197581997907 83.86428195255208
28.908927116923337 59.47771231915452 84.43996000451908
26.597619228614782 58.68968325068714 84.3721077025556
55.54176139326252 89.31875258388314 88.49533581655258
54.09055663198596 87.46473125498223 88.188071823696
53.18486420867331 87.57687415055535 85.69368135984266
54.08976847607372 89.19553230875849 84.09461092226573
3.47431199978243 94.86827861567814 85.09139205969814
2.680455696409033 92.28807944926054 84.23958610103112
3.356016440987039 91.29785230729642 81.59700101121283
57.650399428116735 93.81584009125132 93.60510426016495
59.177592385727785 94.00765786051622 95.08753788738353
61.70162412797909 89.94338235251719 94.72954649299115
73.67657735733243 61.814219868602166 83.28431899484524
76.08672678640123 63.004631328150374 83.46127539922486
76.79345677611433 64.3437101447671 85.37024063582264
76.18177967177921 66.69945841415603 85.91898240528748
51.79643468814026 46.33852415340793 78.00633901883376
50.334757093144965 47.968943520887436 77.31223342988363
47.954699632457306 48.08523495482181 76.07329197589048
46.56836729980464 46.19114385843872 75.14890341143693
42.31194664863532 82.47827213021078 75.64297723767687
43.860312659512196 80.64567636686672 75.99215384501055
46.1871284453142 80.50260706716121 77.34815946618166
47.559820566385426 81.94916320141596 78.42103654426519
54.81620830549404 93.63040442885688 95.80580368314287
35.03912178254714 18.15533909245545 89.5284751395089
58.738840511180804 48.53343151499477 95.58717066727631
56.49729672151202 73.02815894941894 94.77851161323792
59.20989698379092 72.48639603486004 94.38239566884867
61.06499871964845 74.1281723709739 95.76969743819895
79.91983432904624 95.03445708031012 87.3930106866861
58.65008297286771 36.36171743748071 87.73841306343247
58.20906493682222 38.38218949303217 86.42962720191298
57.84635885440528 40.747910475024966 87.02897555540228
58.279440612637316 41.959318662758314 89.63102476915638
54.62706644065055 72.36186437216229 92.91577294719481
54.50733539156133 71.78958784949351 90.83416603702058
55.66679082182902 69.31263306572718 89.96102344149426
56.52136078807715 67.81440316559436 91.10785129211483
80.6360223463939 61.48402737725239 90.94428696448965
80.12508889589118 63.35627173153544 90.1822736801298
77.57329042764322 63.94409095053574 88.54738002372436
76.36179052150139 62.26365953312276 87.85600953480862
61.55404867325205 46.33124717844498 91.58903240685945
59.67529282847739 46.03302442967233 90.17957380911122
60.441298116614995 44.618664231817206 88.00723279091336
60.79800079623128 42.38386606518525 88.50848974302629
84.84991415136005 61.998145194394226 89.47102618072554
82.8382619142147 62.975388895017076 88.55387442902895
82.49817178389502 65.38495238761618 88.42657397337098
84.13333263198129 67.44366197638684 88.27764889381693
23.343769215363864 55.65309679226038 84.11749320762816
24.48746625093695 53.26870437359031 83.08918949959062
23.018703802994782 51.02025694467729 82.66137308440172
20.92025822773986 51.00503881311292 82.07672988064279
83.7656297652958 92.45585829997138 93.25321912557045
81.93473788724182 93.14644991949925 93.24235430729516
25.027199292540338 50.729798943760215 78.78819894796727
29.56297203761539 51.11033488261339 87.8583870528907
29.584192254747663 53.47740216470862 87.334112151666
31.224368997774494 55.37461527617583 87.37352599907958
33.30528168177287 56.004059893929856 88.0223928343003
23.222068095377328 71.97580698374543 84.24316888110383
25.033381673077418 72.96176183222738 85.43022612054307
26.718722129469526 71.68934995648934 87.01288195654205
26.911746264175445 69.55499748013425 87.3014449450931
11.868726704767278 71.68051523341705 95.50435759882896
10.403471511219223 71.79651064789826 93.38184548906071
8.901520724966494 73.33417700176264 92.48431236424497
76.06945369731787 89.43530224857179 87.8324221475003
73.91712901399022 88.5152873266041 86.49925535428798
74.1456188395151 86.9168661505474 84.24318702849271
76.27977217697223 85.26371495404399 83.5641291689606
77.13899946638843 58.45684812599584 80.91894500575732
78.44873541501559 60.52296424557398 81.69120170518332
78.40939261739379 61.477322131057846 83.88415912189431
77.8782097515281 60.60137664752527 86.1866147705674
36.36949425372733 21.267268792190002 84.4526755819435
35.81377372594553 22.17807547916667 82.42930996031161
12.980410335334732 36.34150579247838 92.07595783790408
13.437022739471068 36.113752647534575 94.55232563355005
3.9930467064272395 61.353917328812834 87.06679286652425
3.522770577589306 63.06511386119034 85.7157930324799
2.073049921140742 65.39680376891653 86.07657938303731
0.6113024520117061 66.02261816976754 87.7584057333593
19.088406364910693 79.74935804025768 78.5217237137837
19.653895176022612 76.97078823198189 78.20462237737993
18.146777524225843 75.24609096379612 78.26046919034306
25.563049490865527 50.09292481189286 83.68897045204952
27.27578357946889 50.830959174516714 85.12722430072618
29.399478468268125 49.15838577099649 85.76110961613192
29.867522221253125 46.9672795396208 85.35980831436508
22.620514744577658 54.90166970430052 79.77607729422566
24.84813898290475 54.01568906837131 80.59297813223758
26.88847726797661 55.23523968687509 81.54060667907444
27.40158641818648 57.40565505757236 82.19217572822109
42.215125917917504 45.12314879806929 75.81894634754131
67.92410197353378 89.5519480782841 76.1413583873811
69.28763051611737 88.41212836974375 78.28762615210786
70.71352292926554 86.3036929659944 77.91395899093835
71.86757697311151 85.54720882034432 75.91605189886735
45.41929784139457 52.852007848895504 79.7694609029673
47.15747914866064 51.081509912077195 79.41325159003705
46.70999988739748 48.368818452022055 78.5834510417272
44.898529448542945 47.44464003246113 77.95722472933973
52.40340186635569 85.43036043198624 87.35026289930609
52.6975384683517 84.5221761692535 85.15640467129906
51.67933691409041 82.06925394018819 84.11142702592537
51.04332545086286 80.16346718678435 85.15638268039103
1.755274005653851 67.79370804614298 89.59012013878555
3.9649100127415036 66.49146513202977 90.23080178059854
6.267070774501793 67.67744594542135 90.98396968268463
6.730699665415436 69.89017594096975 91.83077358677217
20.51610744416385 54.02877683057707 80.57283633544665
26.999720074303617 52.07586830350156 87.4636924853081
26.01314497739783 53.82331687277992 85.61534646933177
25.438649675980116 56.09538367218116 85.50838520753595
26.579601701055747 57.76332377723799 86.89168096216278
44.71648185191567 71.02665655213374 74.01984472677948
45.488367865354235 72.76541263226616 75.41755950347589
46.70290719251968 72.5142726438221 77.97794136992928
47.88762640845395 70.93641002898865 78.71735580301203
33.808283181298094 30.329424249584417 80.98585766832312
31.45360096037543 30.666612898773803 80.4038283174499
30.527714414453577 33.54611130764699 80.33618592914675
31.71651286436988 35.483417862900325 81.0835116195759
51.07585081989692 81.92557793256648 81.28441413705185
49.2478043479653 81.2136517017638 81.08626817605989
47.82225124876949 79.5181508952995 79.5035471377166
48.72788394865542 77.36024737800408 78.35020297420542
64.30040755004232 94.25181646164303 76.2542587507045
63.428835625712864 94.19178119751953 74.44273096976389
63.48396257525167 92.21931553530455 72.48407919483306
64.99677074532552 90.28454056550247 72.48995879648527
36.5514256450626 90.11383248170152 72.1706400210621
37.04770466523594 92.21738238305457 71.30926094994375
37.86544871785893 94.37703225581724 71.97808204837068
38.474122953980874 95.45302536559456 74.16545908962588
62.71784679019464 56.07468811788402 95.68543996636411
62.691377600985824 51.79814532363714 94.3466229263051
60.51058736293701 51.31121676160503 93.71869297364987
40.11263916454804 84.7919263388547 75.66937245524194
40.497545492717514 85.15741998522545 73.10936363083718
53.89753602761658 91.50092024382508 86.7939523000626
52.21255303324875 91.18487842209306 85.04384168061486
50.87638784549556 92.53908293823724 83.56187115903009
50.32712282621068 95.16844012503859 84.10679596843667
54.67726095312214 75.48757866549826 94.06342418740192
53.28763878869145 74.47357226684463 91.76391687599155
53.94869671097644 74.8834309592943 89.54031283540216
55.36982445366511 76.8467520576593 88.54098501840805
69.49269009318346 69.24262131484656 73.30084371364899
69.46998826024324 67.94018561001174 74.99259107490793
71.15780923418014 67.81236052183516 76.89919719673173
72.68075697646 66.30873157084639 76.45391633004624
41.80520590416174 28.45365932468543 95.71855363980414
42.899157966739764 31.113964873728214 95.6013259283835
42.56379419831462 32.781452896494 93.99492648049547
40.264638841777774 33.21145377304561 92.53993642899275
70.63310023655161 49.353801776882655 76.09132388943549
73.05043835368788 48.84320036178977 75.6415953908776
74.70661330805524 47.405346404424684 77.27553247237522
62.942810459862045 64.61215455856973 95.51612946963233
63.17676705666267 62.275727993636664 95.38824205659229
31.84149402637107 84.18771113819622 94.34305708325563
31.576974003279542 81.85821607032327 93.49290348101569
54.41625069141645 73.08501994687353 86.36897683546775
52.82188600658017 74.45744285320599 87.1052909428086
52.15186937853697 76.86261816759816 86.60020539599854
52.4642006583003 78.04314661301571 84.22758797768654
26.962376126409698 74.06940735051013 88.13526130151267
29.035571231926543 74.9254800917642 87.33436704374911
30.921850378193724 76.29190077286755 88.25892943540634
30.79301498466667 77.93324678228682 90.0332744740903
23.959310295197643 91.22497443466223 86.53717984915441
25.885799748442853 90.56423934138559 87.76080920494034
26.667338497874834 90.76991539815367 90.16358332897269
25.392696939589253 90.52755643310243 92.37671462767403
30.780371462312743 87.44610329540318 95.23664207476313
30.19621154363254 85.99949679104597 93.13638127313357
29.21450799560336 87.07443453485728 90.62648786455846
28.655074856230055 89.24477469193107 90.04273418237376
76.08153972354913 77.02188443490664 77.43593724677908
74.64122300408208 78.3664150869469 78.7794800895482
74.77199047467064 79.13366694532532 81.20754216370084
76.21859763420669 77.99777916131501 83.28233065943981
69.95553155689355 83.70197099587327 74.8563962157761
70.36771862667365 82.53081901262185 76.38813655408369
70.77368561121443 79.6446621434882 76.57379636808375
70.09692141242756 78.22003305657316 74.95752515546907
31.396422592817963 69.257279345877 88.50662373062524
29.456747574055775 69.47564571252009 86.91265136805299
28.629980363908818 71.08926610816725 85.26053129798343
29.33806198849754 73.27859203370606 84.9986672172333
76.84695379939296 51.085222424642275 78.17414675517234
77.10536222478454 48.874485655510526 77.86039867620718
26.73576553895273 93.99025324824184 88.00305449575787
27.235021043380893 92.65389466412391 85.91033389997432
20.111720481965122 95.78860673010637 78.27387286928806
17.634344703497458 95.83128429525715 77.39289647197685
28.60655433126908 79.3801644491254 89.59307447674998
30.143436540367112 80.7638911279133 90.53143203678049
29.968203317530556 83.2161269028795 91.60689635318262
28.243818988283206 84.57906132621045 91.85476030787643
82.88466630763496 67.90902481330538 63.59005117537823
84.45224918687937 69.54834017002972 64.02834261832881
84.45626753446942 71.85992133781963 65.42625341389162
83.17801270406616 73.09071439677713 66.70491319940571
70.45415866812446 57.95665368361004 77.64808826526126
72.1924127722961 56.86417123414064 77.74790567412624
73.3134972482076 56.578886250071285 75.33964094095529
72.29104032131606 55.31309568224581 73.69966112773349
83.57484951833486 65.01017805446922 64.13122981866519
85.59368490030116 66.61557835868618 63.79482591928064
18.034300642840257 72.15260339451389 78.28034343584356
49.78781402808238 86.50831554185744 86.09787289627629
51.23409198453805 87.93651912392174 87.64682340146304
50.54284478492854 90.87985793988992 87.74079399283286
48.98326776860615 91.64903949764373 86.73915545204513
27.34293202734019 77.53710402868226 82.70769135618558
26.308765009438993 75.72202744778146 83.42679730527436
26.823789716768307 73.01948407271303 83.14155844045683
26.292228263275646 71.98974379007743 81.06207860632452
71.76076044642201 69.94426290156989 78.60820130750002
72.97653797264053 71.22456921430594 77.49338752481496
73.25747187710715 73.62200685623256 77.51571759910453
73.07592973222015 75.59314741269738 79.39901540128315
67.0468728716811 50.465235309013124 95.63202103157734
34.02153944833107 80.3949721785091 93.05311954998162
32.8710596814007 80.15912794324291 91.6138235468391
33.10542249357587 78.92237008405637 89.03959064198816
34.55886669888038 77.46198693079457 88.2327144803937
70.82311160768957 45.35228076312238 68.34109942741944
75.91631765739614 78.78965300399683 75.26283133841217
73.74003194143837 79.53518056378003 76.47751369285946
72.71795433815495 81.55804384951233 77.22685124755704
73.42178795407484 83.91781025143364 77.39620414176146
58.418320366842934 50.53802020410265 84.9276304995736
57.74788623238666 48.31448997432025 83.91546716763116
54.9847889053307 47.87140806224117 83.01461092489758
53.1838345073737 49.656966248003116 82.8768901083979
39.99571140557011 70.60325628444446 74.18339310533268
33.59409277601084 17.558529442976578 87.4055497639925
27.36308376269801 94.1159103467498 90.6904776870419
28.105992673062943 92.28498235873802 92.56960182258025
84.50117828861316 57.759648035345954 63.404689783981226
45.73868126926081 94.65233769688079 80.75800344202769
46.95826057889187 94.74741969205613 83.01847627358279
47.848379748148375 92.66268457021157 84.63284994499476
48.454280230302686 90.98245530533865 84.16116688263605
11.233248095442484 42.577206578440375 87.67608407276684
9.063428068696838 42.31001696332632 89.06373296069604
7.459866645614651 44.188988685842496 89.63071259424481
6.864122879581149 46.293060931116344 87.9938590993949
53.77305530221169 54.42568935693225 83.03635427557974
52.92264273099485 53.667726739786936 80.97137506928404
50.543250270612845 52.9098068631854 80.29047611736735
48.61800364953139 51.893141567072924 81.4989545859036
53.39737618642472 69.4361466703033 87.97118141510315
53.73027458301393 70.0448428001881 85.5366931448731
53.20479655821298 68.94388281672755 83.30442741387196
51.85328555542897 66.90978259895657 82.6272207384417
62.9544577321224 61.649180558819154 91.52390615180327
63.3140021180109 60.40854316636226 93.38671499185074
62.09962695469301 58.08227730923544 94.23938744669854
60.99606565847279 56.344496402101676 93.12371180488503
49.14402062939684 79.01542262754502 83.03655777335194
48.237700948786525 76.74753941218016 82.73004940918874
49.074205108868966 75.16922785105902 84.68766975839303
49.720929187658946 75.77325090414243 86.9046167004313
26.876952510942683 86.76173555901119 89.42527418814674
27.243803026671863 84.50728989456348 88.96607110503948
28.580535900075542 83.35288349784682 87.12460212475177
30.00192038709512 84.39573271046085 85.18088396765003
5.243003754023444 39.99449473112925 91.29300051737346
7.267376862119268 39.52816126310399 90.01178705156224
9.528001519512573 38.2367086007034 90.62854278013289
10.398404457184713 37.46727171283341 92.61560643005856
5.2682226715155025 91.05766211879819 91.5068108747969
4.400568491952271 90.83692099086589 89.14838885265905
4.560828951639047 92.75795416078033 87.04480202232051
4.871509149440751 94.73569981945502 87.65839545698418
44.19909403729739 53.01554541035733 77.11456999789837
45.43578401319742 55.07820450356433 77.72098987485252
46.52702502373987 56.672991185056574 75.84058405083107
45.70668404299605 57.45014998740196 73.61808409928214
33.94009286815616 62.43975248217711 89.54157304393257
32.93166372751083 60.35101479154508 89.1236681358337
34.17079272654575 57.77637684369948 90.20787251394398
36.2458551762958 58.27129371582512 91.49608433500067
59.4898974426083 92.24948534196362 65.92690311145694
59.37980173647838 94.12954346946287 67.45917634411606
27.206622467013602 80.81162032638507 81.45688733939713
25.475654570707107 79.16050874313322 82.1004553830505
23.019781782599008 78.47413357615686 81.08897051488991
21.914644147623203 79.30556176548463 79.17315356793635
40.73503926183263 66.51937309357591 94.61676905349455
38.613929473080034 65.68021551851263 95.21676638424722
36.934454746782535 64.18595122933274 93.64674051336665
36.351344495575034 64.32814860717407 91.26773714063467
42.585698168003816 64.76745697781003 95.55303538245103
22.684640871762102 74.83906719482371 84.009289284121
23.767273874211696 75.7686804195578 82.33258667207699
23.126117325316606 75.69272672301315 79.39338933407348
21.100886469082976 74.48327836195604 78.32313831589936
33.91041610895872 59.708911445907965 85.85641256959295
32.21576887495045 58.44275468487837 86.72647991300003
30.41667721139491 56.81379478909848 85.38416195844636
29.778442929388202 56.38877202858931 83.29553391390895
61.565508438219155 91.69208083685909 77.44016723754766
61.42146415735882 93.08799157782182 75.5019964295089
60.93372486585812 92.51030778324665 72.97655205362202
60.079476350927585 90.76191237292389 71.68378812966107
16.648190931505138 36.752688211902246 94.43131031088603
18.629651041146612 37.53952545516016 95.24953753676958
19.591769294126696 40.15271957652446 95.48270604308095
18.038046031054154 41.741321630219424 95.08320271192666
57.19705496110658 35.420368165698484 82.55220067215345
56.107553796740774 33.17237558559803 88.05013668450563
59.460714142446854 71.02906630694189 90.43345046199043
58.38276646711523 72.6591236178964 91.83589543356833
56.298392917496344 73.75386884090943 90.27450348287564
56.03997324700734 74.15425244737793 88.19183262737334
1.9909515417404493 67.83687402121951 83.22978277705789
2.028276892179987 68.32255927805609 85.99691457671386
3.5112639397537317 69.38087831071492 87.23375861466799
6.038575161390896 69.80683039820522 87.27879610230453
29.55008848305215 53.57470083185413 84.45951686350683
27.312754403615532 52.98778205588417 83.58839105436195
26.771650625281772 51.776407468508665 81.11320606688646
28.27581371332853 50.20411018346928 79.74522716435676
25.677775659757213 94.45857021143948 81.94993893244859
23.951676882710373 93.21764622164804 82.54909132864371
23.560107558956098 90.6393126114295 83.43427922613286
25.390375238481916 89.35608074319863 84.6793264957598
10.68232088532438 88.84479761313595 92.31724376898462
8.281921249998899 88.72589101595693 91.82725110969928
6.815173903439577 89.28292588865745 90.166737204729
6.973026287075516 89.47231366853806 87.50905482721998
0.4288248073256506 70.26844349608969 87.2266094407313
4.514172419050513 56.10001261952231 84.00924851596955
5.6221368621963785 57.456780212248674 85.58416170364013
32.22091459172472 21.92725328878037 81.11870828361688
34.039915923765335 20.458141617275285 81.03382698202459
86.07361978661166 74.29253074526977 65.98883751542532
85.51539628266302 72.37688938308693 68.15137783666783
35.18196309493696 36.242546279836674 81.79541347246176
34.18115473454792 35.53580825587122 84.04566499924144
34.585414490221766 36.25113607004036 86.22543998178223
36.46779602230007 37.37662785524215 87.38139287619843
41.51739391076873 37.41045243951791 93.98955328462336
1.9514251894261194 86.67643360472036 92.00634685717564
1.7228423694236594 86.20801887430655 89.62687313322613
1.520183113770455 87.80112418485248 87.63105883347015
1.2966547700836009 90.18212466319255 87.21726199225472
13.07464807102386 43.29893633680249 93.05007698561343
11.051125499310208 41.68077224901481 92.9110076481162
8.657137298028674 42.00761001510105 93.46295292470028
7.083539370107737 43.93278625482509 92.69097048904436
61.895689986944035 93.14136994763831 67.37018874485152
62.21658129493778 93.11295439742042 69.41355531227532
63.25813365258912 94.63264611909624 71.21433243004464
15.454077320308105 88.15081243080272 95.18494619124063
11.934157262271409 86.11237490318072 94.44087589397105
11.776989756750437 86.2967533476858 91.94278134437732
20.826216430095943 80.14458480909258 76.56567953557004
21.917137863862273 78.73179994389679 76.35313374907392
6.164804361472513 36.47944819633187 86.4226690151977
6.215664690186174 38.830063678031415 87.53011693483604
8.297073213382536 40.62830755168352 87.28670931182472
10.481830156507394 40.06302741847798 87.17460628672559
5.9020088171077845 62.864121545396614 90.5865866031884
7.02183511324352 64.69317272242941 90.67773404806809
7.889953609600696 66.24944910957723 92.82577900214395
7.547759568398655 65.271901143054 95.39792543812355
62.813577140169166 94.07515353220573 95.70521166587685
13.919024354262396 62.82499267250699 94.02566703070704
11.813663096963605 62.26371345758387 93.64197363490018
10.04536348703409 62.50891145405187 91.81606151099643
9.96310625736803 64.65151083162478 90.06585664399198
9.618813674386518 68.20480940024265 94.07688488944987
8.278981726413475 70.17078159554002 94.02339692907672
34.28253179641278 60.608735377564344 94.15980300688268
36.3086484056508 59.67123178467549 93.59761423743815
37.38264362833307 57.32442421709582 94.19739123721524
17.162037709450598 34.25492931077599 95.12552081635296
61.723828487979 90.56873243075209 66.12385752301658
61.277666016585506 90.47291809208332 68.56703515243122
62.72733472017372 89.66638918286563 70.54679964232679
65.5349403949291 88.69491622873254 70.4289985426473
23.95662326589619 42.56525592685641 94.91207976483363
68.70961544343955 49.6237254022795 67.89117589356651
0.47105795939293466 95.03603176057048 84.29838851549866
13.39031934313463 68.50701166023208 94.05389740376849
52.47420401492062 70.3980411046983 80.89540257115954
50.57271780867626 69.9637270379207 79.9878796817178
49.622642426950954 68.08198646062478 78.34795373960057
51.10460114130306 66.14097025052592 77.19009449010517
29.813639441166202 66.08993416041749 90.2199000366881
29.680588262908852 66.9340289894547 87.80031136225486
29.005972149363476 64.82475114658871 86.42114488439685
27.251818380975877 63.081257810241546 87.11357458250205
0.2630472065514471 92.17911575400444 81.49375536807288
83.35469877957559 59.596801096810985 90.18798460757905
81.2582391174673 59.78520654294469 89.32847911290368
80.49205715236937 59.83185869227472 86.87760395841757
81.36928217764635 58.80521923795663 84.8479252197986
8.667200379923976 62.23821390488036 94.37908451885602
10.306974910998454 63.76029179446841 95.339661801391
84.07858781066297 69.8856396792536 69.25687871438402
75.5962337446998 73.42676523278712 74.37959726247082
74.35022775199788 75.37102783626925 76.14013699274969
72.71082652708478 76.98613404584358 75.56358977693236
72.24831115231646 78.17639563065595 73.32449582087942
43.57871932997951 23.886495150540988 95.52790067927604
10.894765709570988 67.43514768622576 91.7358849413563
8.942203256937958 68.3232518365365 90.5864097403958
8.275439545126558 70.48189609140405 89.56056184386641
9.10114506687641 72.44422516254483 89.97778208119223
30.65693046484301 35.86610074699566 88.41242380726439
32.27392658213269 37.39279948031858 87.89693949852315
34.371173631689366 38.42611769827005 89.22841869883854
35.34308730567614 37.739031284695926 91.47935760845196
64.50611866186527 68.07018255949072 94.22087334439026
62.80648087593392 66.1821421290611 93.3418231515984
60.36055779601604 66.41371954292819 92.62392833019909
58.94424861667068 68.93628625938113 92.37653140363797
7.933104296588487 67.96192936946149 88.19993337975544
6.424083498250951 66.42289618567008 88.57218563493505
6.0713011581015826 63.80990887881519 87.94003457751573
6.864240455291984 62.48762284652584 86.34269181900768
33.79600879134936 33.616762691623165 88.47161973465134
32.72138688484241 34.21458950955282 86.13465671147402
32.75206767484008 32.937998315243476 83.92258788105141
33.17319250331073 30.275167388068407 83.56550917569555
14.94971376168651 90.64909320550511 94.26389578453825
69.06423510729196 76.91078199657574 77.15972146092474
71.20341668821403 75.20748626669017 77.09461024759057
71.25993074388593 73.23442515563005 75.4977009429793
69.88908791877563 72.1769152756632 74.12876251055103
75.21331274403836 81.75087272874651 81.65306401987397
73.50775083301292 83.37766855795904 82.36596083331018
72.96303555162989 85.9333114616985 81.54230081579674
73.04115478044118 86.8319230166371 79.23720517247887
67.63377501528988 43.87637881357718 70.4625243122551
70.09438970400018 76.54451502393124 79.57081192964215
71.80759339209546 78.13218654314964 78.82196419351365
72.82898899820223 80.43300379834315 79.94619436857771
71.60527169139826 81.84664491829044 81.24529551860292
15.267106582547784 41.80537088947627 94.63530522199271
13.778302623355053 39.80331946790423 93.59873523824422
11.313703431920997 39.19484541203071 94.1860642577434
46.54788238071198 75.04638160603078 82.06614041278104
46.94301311380966 75.548251871853 79.6144001607186
45.896877631972906 77.7425276011662 78.46931874430182
43.87903745222077 78.35522153086578 78.14893159392072
77.88191265882939 95.26245249710117 91.39640786540897
80.05683950910726 95.214390293214 92.68940989436412
80.62652371423606 95.15917977886355 94.97631356498168
20.040814328975 92.9559344099461 78.06977385727858
20.573107931481502 93.3587340519719 80.01490198371732
22.63605012837001 94.90944307925989 80.44153953607852
24.90642305622268 94.95210155388531 79.39455999202742
40.79922837856584 74.17252016352835 74.23789378195981
42.01634619373789 75.76422746770358 75.66991992691239
43.41026729866506 74.88977156361291 77.8334478743717
43.83136144802892 72.9190334656609 78.52475752066552
64.79172457349279 48.89256243732601 95.06442026312774
63.09651653527197 49.10506572751787 93.60750216284544
63.09549611694654 50.38417516491935 91.15844192474282
64.7690905301511 50.88859417085426 89.80328846284807
21.055461347849533 42.79285790079556 95.41730338153442
42.8746124681153 68.7888093950468 74.31774504561186
44.02833128176121 67.27199403234044 72.93525797360489
77.64466746229856 57.55945432272478 78.22005893521589
74.93217141638212 57.02294191279683 77.87653478601207
73.68396592675 54.86786467395777 78.50045392349706
74.7151638001087 52.464548099372585 78.76665887313929
70.73921626773397 65.49598993763442 78.44705055167611
71.93646458556078 63.50117747665691 78.5083873958114
73.44983625672104 62.745751770375136 80.56887287451359
75.72888782524588 63.63018705986837 80.89381786060059
72.20587646400892 90.87704667220157 87.11994176162419
73.52626757225721 92.8683688473936 87.42316251267486
74.20159918242904 94.5780482616934 89.47322680986942
74.8166946000598 93.40803010561766 91.63562116793925
63.51193032693656 68.11549616888684 73.60999115224259
65.29803708124447 67.32361394014276 74.02447624929907
66.39335929917193 64.73973736751023 74.00090186217534
65.53112813972257 62.75893458373283 73.38965106959043
70.1332133799342 47.53572696188437 74.0470353361204
70.46194111452476 47.607144844352334 71.5440611756541
69.18794395819103 47.28279064199908 69.73311761050263
66.898674950504 46.19261290364729 69.34185928533894
4.094884554772738 54.64726507665241 86.3571888570575
2.5339775948777485 53.12545717266752 84.97691330591672
64.23585719482459 49.31200329683746 87.36705898848403
62.51706152772948 47.67545641720898 88.19136417334092
60.35143037645665 47.08252674885073 86.81913758460612
59.95059223864687 46.838873165833014 84.53033105431912
74.44445578618493 59.52562078199781 81.16184978364248
73.64653352269791 58.97091043587646 79.29890320252655
71.84739847781348 60.06954637467776 78.12632206816254
69.97822984752182 61.68458221158758 79.07397904207436
51.49621224264846 50.427405280289854 76.50411151265591
51.578718805548014 50.70260112928195 79.02214153292725
53.789589678134895 51.15005568643149 80.76261788801433
55.84364573690489 50.739757014176966 80.42955544981052
0.48207233294464685 77.7834322236239 87.3349838652489
0.38628715111178913 82.11027873310304 86.7512091261693
2.791498891443516 82.88701942548393 86.28716280251051
63.74450647657358 52.057102164411134 87.17997023651905
61.81752870995016 50.808455284614965 88.60291716086735
60.97393457257873 52.664413649076046 90.53494544561332
61.53642112318363 55.096760753151074 90.64710142738619
47.55762507311675 61.11999663932976 78.99410747835627
47.390944033031566 63.58206342474732 78.78494512734176
49.472329321872344 65.45598542775375 79.16302723275848
51.582923943884644 65.2732775346752 80.22537649280119
47.37108878074492 46.580405236479194 81.14878413538385
49.065795883168136 48.24613320240211 80.02137342238183
51.66353230485958 48.24241558401801 80.08183132811943
53.312740403102836 46.8834593732901 81.17395834283545
50.02225624727231 72.57404601623668 78.75999250299323
50.083603801534075 72.64345293148902 80.89892081266603
50.953465381452084 74.80957472660229 82.5048759128736
50.910039548287024 77.10538179294129 82.01172835480529
41.91853733774918 41.647669354144774 78.28492588015726
43.093359857612356 42.6266163182472 76.63764314986673
45.76278866875589 43.723443203307845 76.5304431795873
46.87721600165553 44.992161339791146 78.4713040547237
33.71574228308326 88.03477352775244 93.02543575420404
33.37741140837227 87.9467451082563 95.49617906464651
78.88450879747099 66.05213365633149 85.70835380645904
80.13270414452518 64.33508271154324 87.06537089256409
81.5935313896842 62.339916565118 86.18382538470962
81.19017489758399 61.512608566397134 84.22890218828384
65.16606286546435 70.19122452968398 74.2574108964901
67.37841738453776 70.50913397457312 74.4307224122927
69.14363601864679 70.2437719601497 76.47864603635112
69.07576852079168 69.06212481642164 78.48721440701888
46.51662046745253 58.53829728837999 77.94767615750519
48.615139451113265 57.29517165869722 78.79708961116609
48.60022339971579 55.47353796193645 81.05591110035503
46.86585921510478 54.251151603638796 81.42978751622873
41.207157220587085 80.62848715427577 73.72555034298804
42.005763592665204 78.72192341287278 71.99467380109343
85.21948405366727 90.57157278696351 91.0489021848818
85.47195302812678 90.13182591519515 93.2237746013189
85.69523906945757 87.67030645192614 94.60436519534788
57.68998469788831 90.71366216217797 70.24604202389983
58.80004289161152 90.78681105849132 68.20055930924985
44.85752207678374 64.18149542248948 76.38828053180595
46.33295844812823 62.22414915099388 76.49036604906007
45.50356848667921 59.57943517302486 75.47879257927328
43.933420311845325 59.5386847534729 74.17624916773616
56.44498263536196 68.17300771745943 83.6948191607452
56.47854119025778 70.10322812183745 85.27171774492534
57.766141732854834 70.26599519849671 87.61230452955493
59.3448598892487 68.7419046167325 88.73893124715917
74.99529387432582 91.69471263628907 83.49995110066521
74.0065762995512 89.62604964958344 83.63379705964614
72.19094824578737 88.35897105961133 82.44322354167397
70.99240249932222 88.75845390067018 80.06507871430212
46.53688755980135 38.27472651612141 79.0184677412735
45.76431202914825 39.23415355628164 77.39426000485595
45.44196458165026 38.720029468109296 74.56544987285295
42.81225962295038 39.37439967077398 76.48587543489151
61.0118239155076 37.88461521432039 86.25838893455725
62.43633934856828 39.4237472863602 86.84919131765459
60.62003909829404 38.25308269337534 83.7419965772405
58.97661149389501 39.93830849450821 84.22910666713226
57.08544109965669 41.16438311395316 82.66843742833477
50.343335360705844 90.97749106427192 81.25343337330105
50.29358713123214 89.34441551597203 83.32032679248728
51.29790192853062 87.16016104279895 83.8768447294835
51.83874146751014 85.11586933404365 82.47100051263887
54.59639045878582 43.28784439877702 83.8220771330122
55.71878833544264 45.65470760381053 84.25201316755033
56.69445344129107 46.80828494588685 86.42129674201179
57.73729522832819 45.93110871153079 87.92246033703296
49.47554950508085 59.55101306685256 77.76207557861534
49.149913020892505 61.17727006654121 76.80897213995748
48.1520861565425 61.088820898675614 74.34028363782109
47.92721180125258 58.83138938855144 72.93858025960638
43.83813728227158 76.14217905839661 72.17753295957486
43.67910986634148 74.36675722695446 73.32219339540372
42.23364443083534 72.20262437597273 72.77491372531581
66.82735206977713 62.50630086486121 71.08101575738868
64.70719496523631 63.09977694386487 70.04290745402851
77.12909928437108 61.62577575236844 79.8118849329353
75.14964532757921 61.64080403674952 78.78543571272627
74.13966204217331 60.722524430821885 76.6543238184047
74.9993504536724 58.89521683936136 74.93172117267325
29.127987369803645 56.93584957693643 88.27467952547717
29.4327013888645 59.08083471958548 87.26702466921088
29.45752848508193 61.50332755175435 87.87734039801254
30.030319813271234 62.656233518232725 90.22116502508817
62.68140074535545 88.32567364045025 74.76976683594424
65.41532031062236 89.02172874958411 74.54834936944553
67.30249275359938 87.71916160875504 74.37250983791962
67.85480371720801 85.39503503259289 75.12408254064407
69.18157218052242 82.82339474635909 81.9737123033836
69.77298516375733 83.90126157082304 79.94701673949336
68.52965915960759 84.42418396287802 77.67536844160685
65.9506314878482 84.99161494369335 77.79412162339574
32.90764054389859 85.60716754396671 91.9356855885794
31.3981135056095 85.24898633264885 90.1745259405074
31.006703033697974 83.08399490987267 88.37955540167025
32.34695189842105 81.31371358064332 88.15107593091652
44.84242736834865 79.62300600890833 73.3632927317884
43.951692839897774 77.31903342209 74.68766961403223
45.05404851009715 76.1659678315552 76.24153130224711
47.213159197175266 74.75520267275269 76.20704066525535
37.33635246362299 33.25720051759021 86.47865571808639
36.19799171450494 34.39860640366608 88.25094302451659
37.001489123553675 35.8167369559718 90.1956429047481
39.479786940597606 36.91511086201335 90.75067915582986
70.59669576314106 44.357841372857784 72.23526671729321
72.1926749760121 45.74537581549923 74.19516450938715
62.62762354156635 72.2071442397773 68.09076098530689
63.914988684244484 70.61527022977978 69.08147102127934
62.58135425437315 68.68154692388204 70.94492221853601
61.11340732966671 69.12082794459933 72.29483607668634
4.740568556404124 46.59413125048349 84.3816897996285
5.001365734239542 44.89174182134513 86.25702992155546
5.541155148305851 42.452977002811295 86.23366429131687
6.322426734949695 40.59977914938015 84.44596999703627
0.6247205307181153 73.83146977099982 86.72036447330238
2.5247608695059207 72.02745272873534 87.28136883447374
3.8789439333609006 71.90050278588124 89.24190743093793
2.4555811303695374 46.03317771279812 87.90232715362541
2.6073278917624902 44.02604001999246 87.27317507888762
4.589923549872252 42.457239921784556 89.0631556860304
4.818712882084101 42.62451536415072 91.1131000149527
47.300659759187816 50.44547103266409 74.70498625938649
47.18385552562395 51.43560965427248 76.78831161310363
47.79362308336232 53.96143795938318 77.74443541858207
49.00444066898286 55.689974514855706 76.44425861722634
42.00741469623643 58.577829411041286 95.34677944029804
40.701315068598156 60.26628488612064 95.82518564818398
38.859051521539165 61.73886111784121 94.57491209843529
38.63606824655711 62.24775853518367 92.58772987002655
4.259781797688889 47.892533375431924 88.93640538034039
3.6581293028569983 48.24313566837526 86.56329917550786
3.9419930917224897 50.28254416008674 85.03736245703327
5.224516467796571 52.22757824007544 85.35647579240404
46.692514802848144 61.61781892776378 71.91635763534121
44.6668749245939 61.65154431518469 72.45200875854079
41.06499756196131 93.19235132861873 70.45363156679247
39.96593580632907 88.09306477221018 72.66941047197103
44.5371645601719 28.20951948256977 95.55647605224998
44.08213399392336 26.364628357017462 94.66020412693625
38.003843878172354 36.84714537256799 93.1089557789055
39.53312596622207 35.4455234722489 94.53881504918708
39.822763431919476 22.884701700763635 88.7700910538908
38.88742372579384 21.011555541267175 87.44634655464492
36.5746811918513 20.010381720214475 87.50829673170297
34.511290566968654 20.84709471109585 88.76493715583524
86.05366204583109 79.63366066006112 90.70046784360848
85.57672690749834 78.32709930678438 92.44109484000916
83.84259579233844 75.94721281370614 92.70366734870186
82.93934876714201 74.73396770086998 91.23820654511916
3.812858832575717 88.99241176651492 92.67553816268897
4.918241496334837 86.82745241454894 92.93020386700316
7.19617680076311 86.3976122539145 94.85068121893418
8.379544609151893 88.10209299105728 95.48041160164254
28.953500104987754 45.182772998655764 80.38120891439198
28.002267340847144 46.59312076151136 80.30730047746216
26.22539010812988 47.56574512549223 82.00261929185123
24.759768462200647 46.30278894573522 83.6549803177588
19.936030161441536 17.453725511845754 95.75222692556389
30.62189053340571 30.29494346550517 85.17187831132382
30.441426365383045 31.678721201782242 83.13523673465707
28.46153577128284 32.570504571393016 81.77903471846672
26.629971141034908 32.01609273559259 81.10192158076661
33.74085464186024 22.351483755676703 86.40629714692587
34.114253002894195 20.164042262585482 85.88410973551821
32.87332657209981 18.751527159968102 83.90254154813168
31.575342892467464 19.628022381983474 82.36481771225792
27.624199202349917 47.72812531376052 78.03010822207224
30.063823472788744 47.111203685383884 78.4500366197139
40.20020487411226 38.718099623138 92.35956365542197
38.77085234016509 39.428281312471825 93.60005525946013
36.42641382079768 39.88451573952733 92.88491707632265
35.75246069366648 40.616461258291324 90.29057335849151
76.18842471151291 95.26592566663025 87.26707155800155
76.47146843396557 92.57393256955892 87.40290657539218
76.4540478508841 91.0938767351583 85.86076260434312
60.70604624489233 95.10314855546092 72.2027483198133
59.49046118413189 93.54369265002248 70.37412890380287
57.35197806620521 93.26218161818245 69.82432342476925
84.58718670873805 75.24163871931813 61.43583741084166
84.40470873276176 73.73064244449074 62.69176683505931
83.94033703720234 71.38042422991852 61.90514463660047
8.414885976054897 27.540865733881336 85.0364658009398
79.63462047392407 84.86307926636012 61.83341373896123
5.155427324398184 32.20884367928069 86.55559954849589
27.125333266306672 27.872293334341713 81.5334357343383
29.6502725054942 27.429281045174488 81.98987097819114
30.821409544864224 25.4539031014363 82.6866821280759
30.234865608178865 23.085259016613666 82.98381612696757
2.8717926291163938 40.310461207423515 88.90490664799685
3.6237690740376305 38.531419884459716 87.53400307851173
4.044035499693056 36.05587529311838 87.82286821339339
4.313916227691546 34.70513179385775 89.77018802817155
76.54954684412573 91.59542461087928 89.98465466218332
77.89221793745712 93.16343873653904 90.02901118911076
80.79897652850565 93.27173186707341 90.09672887332478
82.34900734169932 91.4460356677616 90.95476594669364
16.79053724232275 17.15657821934801 91.09871713359915
46.120449497785984 65.17894872110827 74.26345807474462
47.81611453579802 64.34358478220217 76.16286535982218
50.09501191399068 63.892539197197536 76.00197631038857
82.55267958598539 80.06704203909753 62.88072133949603
82.77060831902068 78.24594265907362 62.02989787007658
82.29841172802446 75.72266418221152 63.20258552071726
82.11911320479327 75.26585822917582 65.58034519857078
24.68183678920129 74.7588042607739 87.251285812297
26.402500018584604 76.05530106033127 86.2549787757903
26.67374615163672 78.18431925678254 85.06471050254619
25.115322426686596 80.09685954490801 84.56951070137227
77.66477568869591 85.76771273192699 63.77931376329975
2.134470011537733 35.812566075763044 86.01530785400128
5.199349659387972 62.17158513696504 83.75705951648106
4.741237791218916 59.85039331234007 85.04822313456054
2.6492561160701844 58.47865050041589 84.69189040519235
33.729553541776276 67.95578509318763 90.97357415453924
34.04882927824724 65.79694955273239 90.362584123599
33.69982453195333 63.664974276159676 91.98598038680602
32.02970785706648 62.94667741167552 93.26707527513777
45.81035688951795 31.101161554608822 95.70669109597698
66.03436061821392 65.6246341452662 94.59149976840708
65.50388280964593 63.63103890024808 94.01792841307235
65.77027846846521 62.094658791893316 91.92749355123972
66.65235919466873 62.719692390000255 89.747506122676
73.6464687006477 84.41108535678802 87.0923056582205
74.59775507882225 83.56188466545612 84.8822821635552
76.17141530739529 81.81561657996122 84.38930992212967
76.82198645888542 79.59387173928953 85.82353825431676
11.005860989876751 59.223273972724904 92.81172039008709
12.641131123477294 59.89454944727467 94.65410520191861
15.203288336089667 60.20189972639211 93.85090546641823
16.06078013530509 59.84226339433049 91.65327613964998
27.448246538511118 35.29718535028226 81.13236953548356
29.120867663708523 37.02392817156465 80.77707832540239
75.3485336125881 54.092733019911805 74.9422488554895
74.63573014424637 51.98952971058389 75.90331715320704
75.52483765324463 49.81820565968179 75.6666217891143
8.369976331968493 85.84140287538345 92.1384250314559
6.587543435426039 86.65016049804068 90.69012684994387
4.629284622501901 85.65241904238901 89.50411129282892
4.022391728930734 83.1401899012008 88.97934745704893
22.48030907860285 75.94026369937453 76.47851048147395
70.96581723364135 92.71149081422577 85.55084573953734
73.16794622496937 93.40472575680388 84.74972938082509
73.81748730769215 95.86142657669757 83.80996077847605
66.10257788100755 87.01951514480666 80.27159131663359
66.06541288255178 87.74943906585264 78.26265822743707
65.29103177844412 90.27991135970026 77.07173085317166
63.96551365941454 92.05717841869814 78.09236356521825
30.69087166664762 78.72018055488483 87.03553782120237
28.39448023754375 79.8270881802481 86.953485858327
27.39698922567101 81.60574004105138 85.23924143147347
28.1577039792292 82.52602304229306 83.11396634067971
46.821281471667795 72.6615559231651 81.1451135158143
47.788872170164325 72.58424691898509 82.83064034522029
49.644899550421854 70.7224816874827 83.09571690570993
49.35162878449178 68.45853105847212 81.66076444755008
58.252509046978595 43.876759062727714 81.73273583460237
58.48685565993688 44.556436358346 84.1449460264714
59.75248391037773 43.13687983797141 85.97956261736208
60.99030988984353 41.27351807803369 85.62087795613952
33.364254266004615 38.25440031384088 81.02112765486933
32.642424082961675 39.27589567956381 83.17449719276227
31.111074088688085 40.88429460795255 83.81019379174178
29.618478545450156 42.455153752891064 82.38165725077675
30.783920871237534 39.272888713735284 86.66819274816798
31.902612434218735 37.47336204984413 85.00027681861144
30.773477486371156 35.36664686598684 83.70871378721317
28.42106183823373 34.7187616638418 83.47899521396381
69.8973096061708 62.10309378991183 71.39347788175324
69.88291223095625 63.76535632039237 72.82322006782768
71.40622658984256 64.40267076610644 75.14120279659753
72.98196416352494 63.31997318252104 75.98025611355511
13.289809399418724 36.64374522472118 89.09590724654285
11.662190591957213 38.83643753025962 89.1157553526226
12.25397740324127 41.11064480753466 89.95610351119477
13.995941095755285 41.20051127022222 91.43402266331994
32.97545802642374 40.747672813382735 89.65968140028627
33.00122687258362 40.61222959968766 87.26066946267667
32.5108595140761 42.60344419950591 85.29349681631888
31.402882292367817 44.63793402192764 85.50837645428346
48.39845738610078 72.88140031106978 85.6794104029759
50.822280863556195 71.41330985936594 86.27956492995173
52.12853234825136 71.923526405411 88.34989220965699
51.64950259435108 72.70675706651922 90.47105138756889
24.088986517815776 69.62502864227689 81.67733517710934
25.731693656323458 70.3129188963363 83.19044965896221
26.952264884542146 69.05520430421348 84.91272744619407
29.08568027318592 67.471582318111 84.54046357650351
34.9221994285898 24.226591883761923 84.33463308215786
33.31220233867918 24.104426713638755 82.17890543661537
32.7269985134346 25.93002412533404 80.31742069435286
33.787314364385324 27.710184857204105 79.83424694571787
3.189837939698982 40.963193587924174 86.1056673681833
1.060767095055774 42.49759623151976 85.75762012085512
59.412685235377786 94.81982244615202 76.862477074775
61.50031646643105 95.81899255288334 75.27551447141205
2.7205668035062307 84.80109603227378 93.28964187977243
2.4306469020718438 83.78261163265265 91.27279724286949
0.8532087476028025 82.31048163280965 90.18444500229906
81.93421821835754 95.34292563795913 86.73460136966929
85.44049341233696 93.37713920171267 94.62286146392155
85.91113922995761 94.87884878782607 92.64230508468954
83.6045146847888 94.8736765860533 91.34341659336236
82.94157230246294 94.39836050008678 89.10545194073337
80.2561463232758 94.7111944699584 67.5153750982443
82.28051943137163 94.24486100193315 66.23416163243309
84.54114408876494 92.95340833953256 66.85091736100375
85.41154702643708 92.18397145166256 68.83798101092943
81.17794693072487 91.19614793516102 62.64504359606855
81.22880725943854 93.54676341686057 63.75249151570689
83.3102157826349 95.34500729051268 63.50908389269558
85.49497272575975 94.77972715730714 63.39698086759644
86.32684600117335 93.91154515085987 70.40843883861425
81.33556930420205 95.3164788882093 60.66834457790713
83.42802854530726 82.2575654727105 61.25884038181064
80.16856989365054 86.92554341810984 62.77797412936674
77.88493519836875 95.02716094625266 65.1272812288677
78.63691164328999 93.24811962328887 63.75637765938258
79.05717806894542 90.77257503194754 64.04524279426424
79.3270587969439 89.42183153268691 65.99256260904241
77.1476125807901 90.52926581459221 62.237682434872134
78.20298050895134 95.67989332675333 62.32804194905416
22.80899145055493 0.7366020625367314 73.69490580019345
12.302976607649065 2.641046533304014 49.508302567132425
11.523050990557001 3.1864216320120002 52.87788778571161
13.759906731672903 2.70423900568853 51.90805952691344
10.631050674667891 0.6291111089783861 49.16519075946975
13.551658784074494 0.8734450808820924 53.894619019233126
7.2350660140124665 1.188700160065381 49.74397701618949
9.577324004804396 1.1754098602841045 52.22129651870655
83.28178957830667 53.39913902453431 59.30643209218133
85.88341659358802 52.054345214871255 59.67500487128916
86.05972953333271 49.64229498459124 61.03332958581461
84.46337944860103 47.90452971353205 61.33785871138235
69.5302677692916 1.406107109136389 9.920754116078395
67.60632948764929 2.4195664798230108 8.7912952364454
78.10237724242252 52.8645875108835 21.590037110113585
18.696953707367896 3.0031548885277575 33.682912981007284
16.74694620321513 2.7189965969456598 32.33095239553153
15.03918517574617 0.6246370567368925 32.273640715148865
81.71234591561685 30.677363175392248 21.593798985783938
