25.54934361936152 38.66395948500235 32.40396763560724
24.790855544399093 40.70885582626428 33.86252122447534
23.581198911542543 40.68410993933384 36.12866762266925
81.732337375045 7.044513886879336 67.56687934828635
82.20077055400752 4.592886004910786 67.6572102244156
84.35027786004605 3.281863540327491 66.727939826291
31.20743843301394 53.29336138660643 46.09973065144866
32.466977496298504 54.62938623338429 47.94172838686218
32.39009327984528 56.992395443531755 48.523400051519666
32.46758354494992 58.905263497613895 47.586613428834816
80.01786604918954 0.9216976082526436 61.79152203216917
25.90330315824715 49.9880183542057 53.59649226973295
23.920819532798614 48.30711240459986 53.590891430496754
23.92109364167214 45.91464024287364 52.45501063820379
25.954077968922284 44.59137807921196 51.82838929781916
4.420363363339909 15.70420532765837 15.318049600650188
3.819349051647451 14.5730479754149 17.221963440990752
3.1810399000085794 12.208675998990724 17.475437483579743
2.6367194131604714 10.245816182644052 16.120878450724618
10.227830661812943 36.25930065889379 36.27777390563268
9.282643113413169 38.57916086346969 36.015709963032954
84.71482443897978 2.573991749342422 63.12123951883979
36.3795026381886 55.40928928941181 42.609587241201794
34.36581950954858 55.14189647266975 44.81387214995712
34.177057658272155 52.82498951527573 45.86222538553788
34.928005198829304 50.706269337514655 45.12537251182985
28.211051550620297 54.3707498615815 52.1611434184191
30.174160706230413 54.89956739924193 51.23620726399853
32.26432367843306 53.59432126311174 50.42367717808863
32.5823255778067 51.07830280416266 49.66154032095428
34.97797098079654 65.27368805396304 50.9496917542348
36.63044076477506 67.00809994467211 50.3471431406487
21.07183113774466 27.32664453206759 25.942144930438968
21.113030662599037 25.998346281197698 28.091465302308222
22.523012536024765 23.66334295050182 28.710054862874163
24.94244880690668 23.528378201610202 28.176253975129516
3.9870872249815728 9.33106436474137 21.3891151173029
2.2147685779293504 9.432272286704942 19.466152123398505
36.79961734541457 65.56515001763688 46.836512416248
37.388641001752084 62.87073545666493 47.37060265770052
38.78488381344919 61.438024342612984 46.51369239765832
23.312406596561086 57.30020387872205 50.96119039801031
22.09751111237495 55.022491672252215 51.57229094457146
19.654912332559597 54.91874760789078 53.18260038113864
18.489191945760044 56.44176576528772 54.24525029562586
0.2187803966076698 8.793412983395564 16.125074242740244
5.735421141171452 28.86985565830244 38.768279741582404
3.498234429202901 29.46991290206423 37.320024613119664
1.5574551509133325 13.141837283419981 19.32230498502998
5.459537974760987 10.87270088578412 17.646935512971133
7.7455826765974045 11.770865211472804 18.609392993819686
19.794629687553392 13.834677251841557 27.87099697030479
18.935461725103913 14.20793815788915 30.129419049281918
17.476891911370007 16.21052952852942 30.494825539253103
16.12320109583465 17.626987578773672 29.330599570308976
24.521746960777133 55.23132471151964 49.2662655328754
26.712863294655698 55.014280083228655 49.694615267413596
28.652380080654623 56.70680115349729 49.779077769904625
29.263971584493973 58.6050430988324 48.00065484563892
27.526893471473926 38.67970895822018 28.912829967029865
27.33795668342125 36.83762940541141 30.552985165285964
26.45149856129329 34.56244282212342 30.60885775801482
25.317608654947975 33.00605124150184 28.816200803846435
23.051504065248476 43.02024037182521 33.1793293314486
11.791616539010874 4.199871828269234 31.769434652667936
20.329012394124128 7.960323458799433 33.25503412154446
19.920763542120866 9.869743636936333 32.36825500284656
21.014609735128566 12.044982703205742 32.0933428870536
23.323624495515734 12.912225063545058 33.162817684453806
19.29658947206627 22.01915807301163 27.891145868712186
18.462226141246767 23.11730568372519 30.031745958621183
15.79963228762395 22.99196202703331 31.017819742427115
13.852496899801586 22.387345205940903 29.76263587737962
37.709551787810454 45.566666157060894 44.90188933374949
37.938722121569725 47.29829572845864 46.480669286222266
39.56354606799433 49.81253042178908 46.24775292858644
20.007327646881116 21.401625089595125 31.6347589513167
18.208372656421812 21.987799109138173 32.5460210439685
16.315034745558265 20.504731848292668 32.45192977259713
16.182880721628766 18.27017723600522 31.962649885779932
12.22837301326318 28.284108931505017 34.814950621707005
10.709117808083484 30.306404179242207 35.40588072574576
11.408986145713289 32.74457398436807 36.20469318728708
13.82072017286454 33.79101399212705 36.57782107226624
8.602473074602273 16.28804531362929 16.60469742648762
9.463029119464558 17.879429463082403 18.527707259453813
25.378160785271177 42.88486982119645 36.43388716031309
23.627966831496877 43.99338873122512 35.752382538321754
23.28304532201542 46.68754722906258 35.11591249948051
24.966794193255396 48.55874485454764 35.81881462521672
23.078892647158714 43.17936058967242 52.46275446491722
23.7346180983126 41.60180426634733 53.759764876061446
24.614924498220383 37.613199004417645 51.82221846078595
16.6972517338529 7.435468265391695 32.047158358069375
17.64098668102874 8.43517976657684 33.45088957411593
7.052125736897909 15.790523332245575 14.241554317422652
71.97958877722186 12.365823899691879 52.259705176757365
72.32555816580062 13.932838249184096 50.74986620242578
71.43354573642421 16.27071619771843 50.370006523443735
70.48369905094027 17.975806611490814 51.77980906239721
65.11493894972969 1.8784107112079935 68.54119525191676
65.54743696245974 0.38022598886160053 70.91268151663834
64.0421594059114 0.7721292554486324 73.05058434806959
61.462483238618724 1.746864779879754 72.99253236496195
82.87689498809594 26.212863217681083 62.70055023490155
81.20354993620447 25.267264723070078 64.21235585721371
80.50294742267052 22.669251648930086 64.26788751717085
81.01886526913613 21.143765503703936 63.300631222931955
82.66438713854014 6.028414684792502 47.24303918994829
80.86381110368892 4.698013856613679 46.668026012609005
78.00465721608313 5.280104357570072 47.33882064029638
77.27099313168709 7.071886587820445 48.49775719684879
45.09374745649458 29.345890213223136 63.36143939524424
46.09811953656498 30.846451327801322 61.27228065279137
46.85791586997736 35.09210459918546 63.29317842986343
73.67912352369429 38.044121133518885 49.17932856093377
7.506905734770987 28.983238136094148 79.09995802509911
5.480350002450162 27.096023031978923 79.99595559183612
3.090289784833173 27.359511444999022 80.07225184163512
1.7565786216425003 29.545750309965005 80.24038698538185
42.46541351278876 32.849228050028096 63.28318081917652
41.60454800330973 31.150942316670886 61.51753139015583
39.563480285291945 30.319982690351654 60.943976247963626
37.1139234188101 30.767884894844798 62.28939272980035
3.525365107677489 2.3167639055751827 94.46299343677899
4.874151020504026 3.8215699948689714 93.55751330618583
5.210054251211779 4.903774659712399 91.24029776387542
38.635058322736334 25.65461496604714 45.096390660510345
36.51577978697153 26.625073933395495 44.97552360225411
33.951526362387625 25.576802291573436 45.569091897048686
33.243179101327144 24.042302228184585 47.00847410244127
54.37607232277898 0.06125497903725924 94.97470775175165
55.20049732244529 2.2117531907420056 93.33318884620653
20.274005795881095 19.285898982662005 65.11730776603683
19.465011519684925 16.645712051109125 64.8828605113468
36.58043429945177 68.3547738894427 47.37817840702122
34.35478030007171 67.91105585601785 46.244991984500864
27.014201082996593 72.07711322646045 47.94289534259418
26.6419668877925 73.81812352658352 49.73315148324731
24.60684345617331 75.27063681033192 50.31783144447428
22.13979828408734 74.81896308951548 49.49004451654417
34.5410707952726 29.246977439658792 41.63374909960762
35.58413960163736 27.105561006235455 42.346499695386306
34.46346189212036 25.068409873940617 42.82839162526982
32.039135316034056 24.877478487308544 43.016083258499414
0.6685049785598514 37.24753213502902 62.62310014480121
2.524613738424263 37.44529194653007 60.8387752271924
4.703395546252398 38.32770604811098 60.95152141856393
6.035348840364001 39.511465589475065 62.980732359930215
22.19685371647892 51.34086396179698 36.54319636746508
22.238421930434903 49.26372783287502 36.12278690499909
3.8908608250405523 41.243866378538016 60.2544420192781
5.862181849562921 41.58251115412643 61.27148246549711
70.19589541667975 20.264237203018798 50.536938470775674
70.82820973054675 22.42642589390795 50.55207769922988
72.27780710430544 23.654864723891773 48.757477421985946
73.36861363448062 22.423990140484847 47.621342058156905
71.6417587225798 15.860247984339688 45.91637108668212
71.81872391430748 17.665810649951954 47.35250815618684
74.07474418459738 19.685475393068696 47.540093427608035
75.22973080443008 20.494057706338314 45.7519293723903
73.29518694419126 46.62658118901006 52.32468577828235
82.70492820223157 49.571494513814855 65.59156254136155
66.31180207670273 44.18998783109282 74.46067158187407
76.3364731740157 28.844045788100285 48.67009517829637
78.52860003641003 28.08039064657899 50.03316072458906
48.15082666259175 14.017297150452057 38.03821629879407
47.87568767338409 16.27241908625121 38.10125281790927
48.25891977308648 18.195485133009043 36.30131690603252
50.10157841239564 18.677681821476657 34.71900873213948
72.69530444051944 19.127850838753996 52.94457244186973
71.00540968989702 20.71013809497784 53.06446233945468
71.9225256829705 23.55473735857439 52.72257551458614
73.85678832015135 24.466524419332007 52.765522071300495
1.5095016765795812 48.39476441828182 77.06111781312
3.0851529417790178 46.52866772600409 76.06712774076782
2.6309148049161797 44.310360077597245 74.929624530794
68.89528819460531 46.16744971571594 51.21939230962783
69.56569741690267 44.63481911226559 52.50615766547812
73.2614548347133 23.281970162117805 69.67517220887494
73.61690945504182 25.029716169583285 68.21532807452085
64.98774350416303 54.131830637252094 54.89316752154296
66.43855281062898 53.77446636135631 52.98593194958237
68.45290183383328 52.388161888069384 52.51405747857543
69.63575061468141 51.01853996544469 53.54125760404913
33.07694831238471 38.97364830498074 68.8876882712363
32.05341181705475 41.11824194458737 67.41488426732778
81.28247276146254 13.003500604721214 69.11288040153767
82.53577451367234 14.107091945222107 71.01479737954557
57.03046350284724 50.223816381956134 56.98839904910527
58.242866716392776 50.87812119950274 54.67410249881959
59.870752387606515 52.80266256443784 54.17424006462364
60.07568827417323 54.88529364039336 55.349296177846746
64.78649562990853 48.58629976014139 72.52312705101144
65.04239521433686 45.70706433962071 72.26872553791684
66.59441351710407 44.566297475114695 70.96759808568376
69.3064556886359 45.80402160522244 70.11860415947385
61.38535961660313 3.527375813991767 88.6228188937669
61.87860671889731 1.1769870324453517 89.4548107862428
66.3934167201356 1.0168929564143447 88.14776954779425
42.45273012996956 26.768204829523896 43.46000659101118
42.35921848035662 24.446303601800498 43.06358494806003
43.986286101579324 23.060268772985967 43.71519604822751
44.07156582828019 21.33397630031245 45.977037684404785
52.15315752991738 49.70902104808171 78.70219274432661
50.05100018711602 51.1009014505793 78.31047065966663
49.429852694224884 53.571236182195186 79.19240452474018
12.536460968259185 0.1810249581759398 90.07291825905837
61.787350674336494 57.121420544802945 55.583671292482244
62.309871217096656 56.987723862405986 52.96729494093954
67.02672775456051 56.287768985931486 53.024358177655465
61.890223897496774 15.782440368509395 92.7062779787926
60.21584685842044 14.967922626711688 94.65664079277205
58.20685839539032 15.625395337287143 95.28622945144129
56.45791694230158 17.393360926660936 94.98142789078717
69.65780182030572 45.383552092293 55.09229189665956
69.277725247333 47.83566667027774 53.593129468663
67.43422815407807 49.28779171175752 53.58000336829283
64.55608678600673 48.78266028450696 54.21775841647924
41.144863761363084 5.365403787023187 41.470756013761495
53.61341964338731 0.7785434406961438 55.16610457138885
54.61585752953597 2.678316220812961 57.18881722218197
53.50348790811614 3.4589916386424506 59.16069184839859
53.94118899848131 54.18242470434324 53.02700966931159
55.618374743752554 54.92171700386766 54.88987479219526
55.00876381612231 57.29001226694991 56.492688377443585
53.63876820271872 58.66959430937502 55.73545067581048
76.05951715732307 34.88877201110285 49.10646875105855
74.6562982981518 33.15980902496532 48.72395477031291
73.17078327794586 31.634197009757017 50.36522152014458
72.06928095431209 33.107668557162256 52.614238943005425
40.26034673786117 23.086425533207308 75.22349288382091
39.13551640186541 22.421709449863553 76.95984216359678
37.314283498323945 23.25624209848902 78.21368060601887
35.422863411569715 24.778826799829595 77.92608250644722
58.29494135629839 56.97794476174126 58.06352737724245
57.530740550985094 57.81280473971328 55.58385784901215
58.40393035254306 59.89641667202515 54.24227280110628
59.52952811096845 62.04452863576578 55.48306706731313
50.73333461291381 43.56457655146078 77.24875640613385
52.78950780735243 43.01318469680123 77.98856991533803
53.93508045602797 40.66771613802948 77.4488985273967
53.43314091410077 38.82985552835468 76.19882373813746
2.980464338244936 50.21156658806102 79.59253797143097
5.422064214980417 49.878745612501504 78.96455531658805
34.21098354052941 30.802009005414373 62.05844716934135
33.150894354972834 32.58508195875045 62.28006284897115
32.07045408908116 33.68263235200487 64.30026557597962
31.980482359217742 33.14273691649036 66.6879361183021
60.88069041644094 43.79671167941641 70.32300862736123
62.266071675341635 45.52334919637715 71.46084348045788
62.820329889811646 48.03989580734463 70.99419936128656
61.71861713223192 49.74139385116896 69.58064772267515
0.6404768999676592 45.17792470215364 80.13565453511181
54.486190105921374 13.48403330900098 58.677449398031534
73.56555647985832 3.5181959418147914 66.57157944921933
73.2112144210655 5.640516142205542 67.68895210221551
71.17682387308409 7.660785452407738 66.86530345387233
57.318307351829205 54.19343439682191 72.37935008902711
38.446049959724796 23.217790707449957 60.18036286739262
37.57182815451972 21.899894502290685 58.25271766375596
35.68908815583071 19.707219874576843 58.19024427797262
34.94633232804374 18.533182335934395 60.07404437077703
22.00111386451442 57.97467538893152 36.061319797059355
21.314544777305663 56.13814526964975 34.25669240309021
19.76725430841461 54.173631136703115 34.21829082546385
19.660511102450442 52.69626662265804 36.17717940828287
51.33530344389229 45.05368828250811 81.264296950837
50.84832234521779 42.83012774253188 79.97989857359913
52.2535727523456 40.737763703717576 80.04869059803949
53.95196983416655 39.935528352687044 81.81392944715978
68.68205424482412 7.796155883066115 93.34823208299011
66.9735787128328 7.975858325189274 92.3027499267438
64.25902356462247 8.082893560716203 92.92398945118002
63.40269064892344 7.861700505719228 95.12418545251185
46.04871371148325 17.50114705615062 43.644337947234426
45.17099801406525 20.01283157065005 43.49901996191136
43.075468973263256 20.853316866103853 42.57785733649425
41.136217694363815 19.62745499748558 41.38164279152029
41.49259452814496 47.744607736797505 84.6816788024177
39.78262038907322 48.04136316668961 83.02161259300298
37.36997426300342 46.76227863748212 82.71619338623678
36.31457317186472 45.42166625835458 84.47015998597828
84.5212909911409 30.896718928139016 64.8230016901335
82.16848071301429 29.998193734757745 65.72709850647136
80.39871773725508 28.907209660847148 64.69644303450792
38.806759273383726 52.07533555157444 83.34422271799083
37.08065825427851 50.28020032842129 83.34525344193848
36.19240486162278 48.67828830881059 81.3021984818453
37.67664318161795 48.52419046003739 79.60282481000479
37.841001975957134 0.1027103371666023 47.97152519659788
55.40927379623702 5.59126285417381 56.76494662156477
55.75110273983067 5.0170721860021334 59.07578426606858
47.00085182217039 20.92107878604255 36.25411051653959
46.5121437922824 20.28275206684374 38.35442334665697
44.32391978327512 21.359256688542928 40.27719241806387
42.336673817263545 21.745231095526627 39.91476562318511
83.73842205762371 33.56051046471212 64.76552441849071
55.18344444561687 42.10687157608439 74.31688430725968
56.52523570431996 40.81879083302362 76.32128757247459
59.16739465730629 40.15203029689946 76.51583806328773
60.81600560259022 40.80964532890822 75.28161338808049
31.45454813665079 41.189627078452965 84.38249656985877
33.64257111403432 42.24431294141994 85.17703422043995
36.053414472765624 42.583902339337136 83.68529836407977
35.99051553990461 43.38807605670046 81.5168372254734
31.280129436270794 69.14413261611142 46.097981273453684
29.545851941380008 70.19496156178158 47.408763894256246
29.767392526769008 72.93751843550875 47.76943187343118
30.928721512808735 74.27121322402726 46.855722770266276
28.62932318411303 75.52553030454862 48.37110073811882
2.2170947061868365 0.42805242526356235 6.63906892908611
51.87830094064931 12.482218201144478 76.97705140633741
50.68128569683087 10.80098617891651 77.73322570477605
51.16570360407349 8.465550908510737 79.02319988853047
53.17597853553141 7.54198974609054 79.83383415549682
25.447155692594876 13.787879498784598 61.54345914184652
28.01021839996223 13.207742504219848 61.916270870527235
29.834593172622323 12.550499775584843 60.07018866396485
29.565796885540415 11.092097853841 58.21915013736997
45.521041628490295 0.279768552940691 33.368621188564795
25.831688270985993 17.340936330541137 87.01604888662268
25.171398732814662 18.793892592853442 85.69454043592938
25.724529221170304 21.373716095538803 85.66804254884092
27.54269045120845 22.108043504650016 85.01258455687821
34.94074534605444 17.00443306120182 57.62755776918598
33.82841116658218 15.48839857148572 58.738939412212694
31.345164406532778 14.463904267895716 58.95350197597721
29.56498138313635 15.653256575988628 59.16680526677395
41.25205036148649 50.38281706673952 83.44852439666725
43.356558757842606 50.55050769603874 81.79887458459409
45.34918167058132 48.90856433982119 82.58481584820397
46.08678374762559 48.402028575170284 84.85235272223063
26.79816142680437 33.7895349124986 67.0206554846754
28.680364986531394 34.402421514623946 65.39004233167242
29.557065868708687 32.893939911714305 63.31851922359848
51.26822952117016 11.193204076022319 58.940484796753935
48.837994911775255 12.49964766578994 59.5758023627871
48.504480283971624 14.815265456121745 60.26635704898631
50.04509783495709 16.197911433229464 59.27001911036943
82.74950224086272 19.28926014971151 64.12610559628517
84.32477890673127 20.79753310119241 63.454790606113356
16.725461837211313 25.735462493446974 87.74254425107874
19.375422361164443 25.882639430731984 87.41744365230463
20.62350335438968 27.089302201486753 85.9512099183905
29.118645782635376 35.02839855838595 79.77095983876835
31.2114359158943 33.662660699881584 79.27787986257344
31.833112212311715 31.23098690610844 79.90651340789358
29.939362816328405 29.184642426004622 80.6799816959139
46.33231839704621 18.970812552589972 74.85030223792324
45.37494448146774 17.389601102063175 76.26805742955987
42.9089712164384 16.877427972393363 76.76941542426657
40.90299242452949 18.03989738214986 76.75849951280522
37.20009725546192 35.93897882364591 82.09538720456808
36.00384479920909 37.847547976599756 82.92932585317358
36.670445093742636 39.977870971136916 84.57942544549077
39.00924743271996 40.90956005784242 84.78382456612934
81.36060832626558 2.6120023353167667 48.475711000917364
79.96132408295145 2.1770288858958633 46.51981719538229
77.97198193640224 0.6579079246763897 46.27423474293303
8.769735408434448 0.7218846998019537 72.48858383733888
9.525889436204116 2.310335669471466 73.31562270116743
13.89111919479989 0.8188163304936046 72.23815982439123
47.54516703341245 12.60083074673485 62.32558698728472
47.12109023610618 14.845107882190835 62.42860905680926
44.83322022762958 16.27894438040716 61.86828362819253
42.523787873603716 15.787279013237141 62.226345019974296
46.75802807363998 56.057567025711016 76.5710501681263
48.59991721688787 55.509195132240784 77.25873343272578
80.51692869649055 17.291263619947227 88.90738305751499
78.24883463152219 16.220618767963796 89.73213078864826
76.35448623242299 16.81012955109758 91.35208873787221
76.14718164024194 18.9715200267684 92.48443928704971
21.325813183345545 75.55932109750391 54.52042804176958
20.314764689892364 74.36834270111703 55.906616782970204
40.456874338173066 40.63514827092903 82.12944935208316
38.734590311630875 42.11285492574569 82.41802697655702
38.33294264866362 44.402140157124606 80.9648029648723
39.399040184408754 45.21570331997711 78.88615521668424
62.04725251401835 19.96761516590253 76.98122951535483
59.821835882478915 21.16663595835026 77.73296023174893
59.43022696308831 23.46729189778603 78.38307096802808
60.69986754153416 25.566276952111377 78.6960181890843
32.856434996691966 45.02872676442723 85.14750289554782
33.8102385446962 47.14134022649452 84.23318641765243
34.233118468983086 49.51264774502038 85.37247234928437
33.50909001122206 50.3343473719018 87.40661213038337
73.95631671571847 23.56179675861295 87.25584127207077
73.81069853525909 21.40813200261766 88.23054275470035
71.9876111544766 20.0843788235597 89.53350895896439
69.58566720195654 20.242451327315912 89.6445073483482
71.8576418890749 13.920188407942355 70.89725385389481
69.85751814175023 15.352979192083648 72.07084892150016
70.10075154093037 17.26319351661217 73.74292431738577
72.392933920222 18.670703694647937 74.31174515484996
70.29834611321813 38.15957803349877 92.80612153452813
69.08861554478173 39.684226251520684 93.8461118285602
66.56402990774804 40.30184173747161 93.3730085749044
64.93419260368628 38.90510792257403 92.45991056201068
61.32311479249518 37.91911231945147 92.45197232398479
60.55273413848987 37.03997279704208 95.05939717332379
30.31396088454826 44.94247118149667 83.36280357670907
29.941214244758736 46.45532558897759 85.27878471697136
28.861742707328805 48.90381052841008 85.39461392001837
54.3864159117966 27.07730824460255 77.40129413483663
56.35412481938162 28.029648724972656 78.15577880445119
57.14604517695703 29.9586435077753 79.59268520367306
55.97799795064352 31.833726437342097 80.31333815578905
38.43690208227405 32.38147629083114 84.34433808059917
36.46526508564276 33.38038517177468 84.46288118589783
34.951181967897774 34.390141311673034 86.53811134791158
35.51749243601592 34.618820647326935 88.8961016717253
18.05827624535286 27.402225145499234 89.71235038573273
20.69913740385891 27.508983421115087 89.71395799647829
31.39019670486372 49.9728180184999 84.47496515805094
33.160402805800906 49.60818576696729 82.59143960538935
17.47076339317725 51.46271690181513 35.13308902325393
18.66162522332883 49.52419224168575 34.09796142275217
17.744258562455208 47.5729484874868 32.69829487731367
81.37815580444406 15.269131516963565 84.40297192176463
80.69628460917001 16.41126608322249 86.25367143105947
78.45814095028916 16.89937245119048 87.0643636298434
76.5626338134923 15.757218953322642 87.29734389407365
46.18160769286122 54.790922600404244 79.44890665798178
47.40751887646867 53.082557865966976 80.89092186627583
47.86155743050467 50.66595875104806 80.0825227985624
45.48033911359471 49.072747289743276 79.51229160541068
72.12443068668289 44.88610988700737 54.117867904961926
71.8649481431213 43.528452261875536 52.25572429758053
72.26817721931835 40.96606520793238 51.65138220331825
73.34180220075885 39.29612485458347 52.56139723643164
62.92408806851047 40.17638418417228 93.4139399294784
20.592497550566346 57.439886900541964 32.14794669022959
20.013242812098518 59.35726693882752 33.32184519165624
21.33533420514342 61.53458834885533 33.88614638958673
38.67940523123343 28.3459918346537 82.37836316802336
37.89530965590632 25.848822781291478 82.17375869658423
38.726823297352354 23.980226100295745 80.9792758836877
40.480281252076416 23.55593908412365 79.12434600314185
65.86108407495041 1.428676621021104 91.2746805230096
64.25475981009747 0.05028573550258903 92.13855863030439
58.01918839223748 27.673723771724067 80.52239148865148
58.018649241213716 26.037922262822587 79.06872842655876
56.17525834157583 24.26820714447818 79.08857893870204
54.372081705735646 23.63922497631585 80.88217200584548
33.968949743344105 54.26060798379491 85.05945719745753
35.11511804034929 52.108980808937204 85.01620294941549
37.455743272725606 51.29453021118557 85.77734823645197
16.035313404623384 11.309633930706108 68.74116721549163
69.3441142358768 29.91438472479276 50.05110704691012
71.17366145195784 27.99276455539574 50.01171571128499
70.95148830738631 25.65097053710969 50.1850587356034
68.71291105419341 24.15798405876487 50.03077618075303
41.8963220095763 34.413991785967724 61.086204702993406
40.09817614918097 48.08697145925451 80.46237909100843
42.58556165854889 47.738128740000455 81.86080907578994
44.140232192292636 45.75433798432251 81.53578775737147
44.641530429031256 44.33057215052578 79.51995504505554
36.25423701415097 46.40647355260366 78.99143990104697
35.038638210767274 45.92501518660417 81.05956113136081
32.660007383807894 46.56475865948192 81.9986010166314
31.191966826348718 48.44180393527225 80.85092980017522
51.02551349265723 22.54250987879176 56.413787277314675
50.783574038206076 20.760862783807546 56.24839044344416
49.258294953068905 19.112232076529956 57.718837900625516
53.98199978859093 22.041384828785947 75.69419418371206
55.75772314740478 22.710501915102512 76.81577633935605
57.54995577689837 24.880891634006638 76.65620343388831
57.11363413089477 27.047278648454455 75.74838719334879
52.670695649255734 33.70157464922605 81.18009372427198
53.48688712333156 36.004851002115224 79.98610184024821
52.462275100707465 37.96190550748391 78.88630448585124
50.16605064536256 39.027978604655345 79.5033210358677
45.97386962362796 10.216678486921614 76.43856490177957
46.187971266139044 10.182970358180905 79.0608039609025
44.506884980205484 8.7277822180958 80.68031218032965
42.51854625028755 7.170932730669443 80.11839069337023
7.357042779350207 21.852087925534807 15.993989290986752
7.632085881878945 24.206867079406354 15.874501438652144
9.585179419633114 25.881735570652843 16.3727592198268
62.70660929272691 35.837608923922346 91.5959847882713
64.59047540761307 36.325540448213864 93.00596057708952
70.74527061862582 2.8388067686737837 67.3505588319102
71.16631122248278 1.0529130911103544 68.66637040164767
72.67050125465495 28.96976635526707 92.90883289057456
73.27133807949285 26.71849995637617 91.65766926126555
71.80073537053057 25.751547801784564 89.97664365413479
71.00623408369404 27.3374112645749 88.9841682393072
74.66207740736857 24.883731578040702 47.96929891109564
74.35538435907877 26.91745760375139 49.20493711776514
73.01583501248135 29.069041053190485 48.4882023668361
72.42004767396828 29.8743134489826 46.43124506190593
1.5579928902109923 26.399248026100093 77.38395897997903
2.781373035630219 25.008753870004075 78.51889697893846
3.56843291986718 22.847183264203174 77.90429114307359
55.17919905482616 23.532844640866884 37.29467662643471
11.126183925818669 27.629308208916253 76.0363766784983
8.750310686775224 28.38864963696911 75.4301195599404
33.78056466059231 2.690933050815742 79.48413166130831
32.88889535791725 3.1759861783780416 81.68634566518449
30.854217601895705 2.6154250713764227 83.0626075024588
29.066155820968678 0.8565792709472073 82.47061743649816
76.71772487083463 19.319727224305268 68.90861051371725
77.11613387935085 21.815498815712203 68.78963169906176
75.88499276424378 23.403479164730175 70.38276803132646
56.00983718000099 11.853550708880348 94.63999401022667
65.81130535336004 20.14724741381906 70.06120603711797
64.41817377266695 20.373482543925586 71.8642380207662
62.28913766191003 18.826312043719057 72.63675509611699
62.09657795871146 16.97078423072964 70.92239064189326
25.82603432446102 14.25404423118333 87.43543827043568
24.76482182416647 12.397663053763127 86.53578143116242
25.792407249286455 10.852054023195095 84.23723085326257
28.56183268212283 10.974440018973754 83.79423376797278
7.851394538897861 22.747135624346384 80.77200908026676
5.684868618106196 21.55284699601467 80.73651656860184
3.563554406168921 23.021319526652402 80.92039337398774
3.1037210427741306 25.20611477417665 81.65435063630888
50.87365357008229 44.168143394286496 52.88993521551037
51.58323237866587 42.326816310077206 54.390139645072125
50.16816003633246 40.3434167046955 55.248064677667394
48.056010407327555 40.293030850680836 55.59281100788218
52.79374037929181 65.14506435372623 53.97619181745789
41.12988230418266 41.52470685049089 57.72603617513878
42.799057749560205 39.92441135950393 56.67564536644816
45.35977086989775 40.78601084911104 56.067158257715796
46.25469947009103 42.68092194358471 55.8640373088248
3.7727553386438 40.63109605651303 56.87423309207341
6.053278500571961 41.568808582627554 56.280014681617196
85.25359168762951 17.29183077035596 85.11658795304265
82.77015619774762 17.5037146944801 84.15689988014222
80.89635223973288 19.07005807167119 85.41122590664568
31.541533290664113 69.07329917820002 48.982139441886794
33.58999285048412 70.68320525505273 49.04116624582939
79.44195840552568 8.996122865733776 43.94655995044472
80.85720043887743 7.5495279660361785 43.87150061146126
83.34500029636902 8.034423754982294 44.73749555981021
84.82064556044274 9.59177470995816 44.4063087089564
7.521631314913468 18.76118170726665 81.82593760105378
85.70527765140012 25.11104389003597 62.833063553935375
58.376814866252815 12.335703401810894 93.72531074362915
60.41896185282353 11.585805737392441 95.18804058427776
62.6514307390079 10.875296010662332 94.75886125350699
64.08078140951177 11.00212319993356 92.71067339747965
12.94323747615193 35.95483072184923 71.66882176424417
60.662137299467055 20.545462787815676 74.57011229560743
59.491211680494445 19.100599750990696 75.65229947341935
57.1667870341811 18.568680509873207 76.38656358340981
55.001796334739 19.22378966591695 75.53320702911377
17.183892016302963 25.23670612014613 90.80084000675556
75.85283451268562 45.90568913302538 66.85149404031243
77.89779195604012 46.464668852427266 65.93114126456199
78.81086888019699 49.135818927508296 65.60996181665193
77.61501654021463 51.13513108012195 65.42110249297994
59.88783682392859 1.1850435339442378 93.6975375856741
65.38665384512682 41.54646202043185 70.15329690692764
64.50409354353123 40.145848249627974 71.8978420279643
67.28925910392903 50.379248967544946 51.019054277689996
67.2704883335976 40.209681349252676 68.55012636820878
68.56631809325823 40.97618950214127 69.87403357351855
70.87257352490411 42.671038975220824 69.6403463774424
70.98567555219671 44.636458843124366 68.37883256880464
70.3520108521543 16.176530716621325 93.78214100148664
71.13683096526687 18.123131087606893 92.76991597260569
73.19452233719751 19.610813142153333 93.01609933442485
75.08404349157657 19.665850937779663 94.89384561704452
40.842576208575835 56.34924668817688 61.54047675335006
42.74513346753125 27.533840469604154 40.07587652077542
43.508335515791565 25.044400062913844 40.63756211655526
45.85486948032115 24.08041450188584 41.466425088172905
48.04681554526468 25.07207957270438 41.68701931104812
5.6491391872277275 47.19345135280864 74.96181306307555
7.588322811599781 46.46072256923518 75.53438236013137
8.608984569002871 43.59909340999668 75.22007920553733
7.771139465117696 41.95508172377424 73.9863389454281
68.12123376831602 0.5499440489681615 71.30497153222977
68.70757341758546 2.82993157365588 72.20152934279764
82.58398397571659 0.7778561951551892 83.14139669816731
84.16981275826166 0.2555803122201899 84.81912861827676
74.79424717020873 4.338694505843418 63.683328095088726
30.750519226744746 66.59518413707002 46.36762643758022
66.73337108219712 3.522857071785797 89.32346437993183
67.35503320744003 4.186268788931114 91.20670788167803
69.27110349215259 5.457985905495556 92.33151399950981
70.08218861904209 7.899062458196569 91.00730002720782
54.147126423863504 0.007777082799242293 78.84280229732603
46.41366031617783 6.9403151233224785 35.39992983686089
46.12187976767936 4.632183369181178 35.38262443333918
46.71198745630123 2.656697447285603 33.80766862809614
47.23390481489052 2.51636449353318 31.749532011459273
74.39773563044791 18.43000577968249 87.29459049115535
74.05936084759374 17.72553262366746 89.78019251404825
72.647121757117 16.01689089522577 90.83491284389687
70.76678915629434 14.569344635743757 89.94435889501202
12.493100998771165 38.54783766040622 72.0850249499756
8.72372402344348 40.74319109495693 76.24198479176623
31.18564101443903 26.92124759465664 79.91803318409184
32.34641140704519 27.82490142128823 82.16935940868464
34.33807224832132 28.94830639322718 82.33453225769827
36.5130892261774 29.03580654958397 81.30003907281333
41.934331718886924 4.963173806907275 78.63336276753948
40.45370003069092 4.389643579963971 80.01111577161907
38.00076255861155 3.2117021717759546 79.77241676868003
36.630029694292205 3.3540659768114796 77.60304916932036
74.27026603994167 13.6122125970166 93.27418073496827
75.13513561367016 14.605260885893562 91.09413963380328
76.5541164061029 13.446737257707792 89.2781986907329
78.63650720547807 11.750414295209046 89.5170335268332
50.65914203206092 25.587103809804972 39.84833728146823
50.10082305139451 23.552536854192944 39.27928755690705
51.870217995458766 21.19239414318716 38.98413070046655
54.159642257196886 21.39212285648142 39.3917919775941
52.007401902937225 22.761935372312667 77.91305799610554
51.03512689349752 21.34376068635051 76.10303605503522
48.51277900487505 20.25665725589399 75.95890884866499
47.376481802848055 19.191478111771996 77.69761242759984
44.89809061855712 62.50980400842551 62.06900765272966
42.611689790153854 61.38367587265123 62.30413582353507
41.52257566600646 59.23327056974849 61.1453155153459
41.9647528967215 58.08187361656546 59.09398717155662
42.44596319802888 12.032120345182175 40.72569268766654
43.42693568603318 10.472432622051956 39.03242769288317
42.49737253548693 8.732856442422891 37.678499973130705
40.27310590052211 7.655426658312608 37.4172044162824
14.42599102602242 49.76792524422286 36.35338260930286
16.204812310573683 50.74529638984179 38.14482868441389
68.51262586814605 21.49413448094151 54.399904097237076
68.26220026040195 22.797464882225498 52.7597017302471
67.71123360200446 25.27693858133992 52.7397590575983
68.75340210389659 27.093763540661335 54.245721169637264
64.00916058086048 36.15014890271606 70.63717162930243
67.7808153318747 37.91640969046048 72.83880916666537
69.43594928414481 38.39024915336128 70.97348494312232
45.280981415306854 65.05095902012145 58.69472322300572
59.74074418515419 50.25300666392981 74.02161632741402
61.5601298804936 48.73984818329562 73.73686611925012
63.42109875318035 48.08263519130757 74.88079650002594
48.466773438318626 10.828345647544511 74.11286142357064
48.56142991631662 9.691179340117463 76.15333463410637
49.78859484520507 7.405547612971054 76.93648010208578
50.405600447292485 5.468478947497051 75.5920307056932
9.43895919767538 28.95994383814692 17.625389104659362
10.502921444712243 30.937291300452397 17.07996684030473
14.80304521816104 31.004963460468108 19.01759642132912
25.560557219256008 8.234130840693659 83.07864794288231
27.187252969916873 6.67698155200107 83.82583278164286
28.92215272719912 5.0348326236368175 82.43800031790855
29.692832268297412 4.954297268374879 80.34924529480163
13.46414878730469 29.886302806091777 74.23831976861287
40.352745454595095 29.123285184515698 57.31857314357914
41.823006484461516 32.37783483904255 59.21370477924912
49.7323708924454 14.130234240051315 75.76425708027107
47.94899589445681 15.706332629365965 76.01310843801687
45.35575161743846 14.822281937506004 76.37379405266316
45.02633948738513 12.758422772509292 76.38465825165366
39.868793528558314 16.73847056567246 81.11055386824191
42.351179961842696 17.383916936228186 80.49072018961762
44.02479039085402 16.093844093217296 79.19481256257184
44.17167752302305 13.372548851422918 78.95225220107226
18.270886486057492 1.8719842325727758 50.17708607208923
18.145920883372916 3.649831972407463 51.961391952067814
80.77002915218755 27.942481589979984 67.32390551895642
79.31557532535558 26.102494505476763 67.09581467859947
76.85038106848364 25.43580231296657 67.96839696837615
75.51741262615657 26.450078837437736 69.93074975667193
47.746771031960904 8.166071824433438 79.52085689424372
47.85663618157095 5.872892614894531 78.60144267666462
46.788726039947626 3.6084238889489724 79.96043074306033
45.320001108812576 3.697813092098683 81.25794593159985
37.48673114341869 15.831603150055983 79.23308543609215
39.14738048474037 16.749893098902497 78.4527696486314
38.60732985649422 19.4673497691537 77.75971156952201
36.592123460865736 20.721090439680232 77.56593825063192
6.266947793970241 22.656780951855172 77.80701596194963
5.457353566040918 25.240209879366837 77.99039142369541
6.939492039208586 26.624630960501474 77.29066188929221
7.460424860436656 21.861381455031268 12.585568364973467
77.24177129560064 7.996816409691523 66.89048322043351
76.04901780777374 5.9387260576310394 65.90977429437896
67.24960184237248 45.207328447733204 77.79496364658898
72.8173851160239 30.480491057528983 73.7314424960781
38.0679914405831 0.7276831831969048 60.35662629416625
76.54149045851005 4.3414930091639725 67.79445406545314
76.61387829738023 2.0636223736259574 67.68676271928659
55.340482494356394 35.08098724810605 81.9484199981505
55.207382350337625 37.44214029195618 81.88781117375602
57.206498474117375 38.23590594413814 80.51309938624073
59.284083104222425 36.081314116705634 80.2308887183595
46.429228945627116 46.49236200795693 78.6185121949071
48.45181294761983 45.756753270270046 79.33921826430011
51.11359356462336 46.11409530669802 78.31703624966634
51.8661485743471 47.82806453485831 76.73230907156406
36.72887833843945 31.857459922624887 82.08453130574976
34.502756740782985 31.67886749360741 82.23853784799391
32.70597294543447 34.20783550680196 81.50308987558137
33.98906563671255 36.39507668508464 81.04199950139913
77.7853689362284 2.5148729699150607 43.31294665876534
78.59262026838768 4.2164766256564725 44.552957128753604
78.24655290596756 6.681683612783188 44.67358226874387
76.94578306240386 8.11515687274006 43.4823744020244
17.624783089580355 56.27696282563284 34.16654989290661
17.290108662262178 54.409898131612245 32.84258849060904
50.45012518678707 2.088431710425647 74.33158015810218
38.03937423484059 19.388461581062174 56.51507683391129
39.35937341934035 19.866128456449868 58.4135474896012
40.873866870739334 18.60417294141253 59.82980721437377
42.55776960618912 16.557956294771973 59.48605693047946
74.12396160932516 7.7642784686243775 68.69751700914176
72.2128467020459 8.863130039374274 69.07994269092727
71.80607839019297 10.77308055917879 71.05000493883567
73.18485034811778 11.755717533216039 72.7009778903537
67.35821787009431 18.262516521408223 75.49743944669626
65.3665053049835 18.174622127490633 73.67517605848785
63.18256817097382 16.61577712355721 73.9972697673685
61.51670424430601 16.532013759965643 75.87153923490897
42.69984455822853 21.37625756394637 78.47588067997154
41.160134422412916 19.563598844316367 78.94250382430002
39.25106533706379 19.428213635926152 80.73567910668152
38.92667291918137 21.52348245587041 81.55239882038046
45.06179971801762 41.1432514829977 81.6742604107643
46.46126219058725 42.97356456485687 80.81017975995744
48.27051242230592 42.85862398465179 79.27833932804873
49.21724941212773 41.120202941382196 77.50670804048822
50.71205067862696 18.21547132864315 79.80479221907368
52.677935265376135 17.654831171326887 78.63396803374589
52.93375942945102 14.909677183084522 78.25068617729772
51.89440495818345 13.191580184861145 80.07049942028365
68.31870691099776 21.416040450806914 69.28022627189746
69.16495756632621 19.889908503377878 70.97017975325316
70.59588578864425 20.483082151758115 73.24092576195295
69.0518473319428 19.966961955470982 74.30268261446533
15.614134472958646 6.21523895986429 90.70029582557429
17.039620891017265 6.711981142051396 89.06395055763106
19.882071925847793 6.134191848346853 89.12155822654685
20.797382087773684 5.2961067679665 91.07842205271137
29.53426345375773 39.1370564498922 68.38445930498673
29.9081633498062 37.16995995752183 66.95506356151299
30.200053842134892 34.994014668705496 67.56232823676737
28.67038231245634 34.13602477812958 69.0963097188048
74.79123939883914 28.782730275044976 74.32297415123365
72.60000348263245 24.173853070298634 72.94564010184227
42.08171429476524 59.456825003859294 64.49232531484759
80.55643549118098 0.14955839067082516 44.90550243693949
82.9584054805328 1.3602774648933929 44.85037370810968
21.416801545624132 0.34451164678757695 88.21250438424487
21.667093752860755 2.7034824932536208 87.225971080321
22.823148574471727 4.791872499559885 88.33557391276503
23.657050470651892 4.858012188765623 90.88374578019759
52.46262962926542 26.49283469666879 79.64080256276739
52.33507739379456 25.494461291229797 77.45373938919045
50.71408083798914 25.287898196296265 75.77315100188203
48.13067877993354 25.75502746242084 75.63543718087782
55.99902351775368 38.34709427463445 75.62467357217069
56.656782504818 37.57088826674035 77.81098491516421
56.15877667377968 35.12443099106553 78.97206010268812
56.10966386849584 33.187520335851694 78.17035344141046
35.8104104178934 28.82805156604596 46.65218948367411
33.94461071129574 29.46206904899903 45.211705450904525
31.620580931197225 30.165919039988136 45.45131517292508
20.96391210441699 6.188275557495883 47.34173710257715
20.648986662109625 4.279401580093001 45.937786326312576
19.797456983753857 2.080718842394537 46.62180191826753
20.357810012485455 0.5412539246031137 48.51039977464743
28.389768986120686 67.42631014703075 47.693848783445404
27.060915600324822 69.62426074498471 48.70914975791611
26.131756859518514 70.1521550390956 50.83386015760605
74.14569252491775 42.59414086586628 73.19221861233817
75.14040071635007 42.44873523430448 70.62728219360521
75.28478597018419 43.99967459223604 69.12726343134148
73.61229793518808 45.262890132560806 68.81072143846308
73.65294538401555 38.11133991500096 90.79557428912693
75.18966077920321 36.476241560511966 90.42373973219374
77.10594785906699 35.95993242752721 88.52144333212642
78.29631511459083 37.80646190529394 86.93294849791685
12.966873798333133 45.99303280053203 34.77429510545476
32.234553981350196 35.1892555829177 84.69472112362965
34.39223966264922 36.438727958739335 84.72566080286619
34.905166585370665 38.670562824923515 86.10582385897767
33.10428461454565 40.51707639420217 87.07305150784212
17.655425268030793 46.79045263434982 35.118994217862586
15.250439661998483 47.146353541607596 35.71230013870907
63.594773839563786 30.829809306147826 79.2387062771997
61.72099678681986 32.127392927976 78.36152524305014
59.61212799004402 33.208164354700536 79.02361408945058
58.26338458010634 33.59071068619538 80.93817652737712
84.57348698345226 3.452345674616589 88.66635467846822
85.39059398221438 1.5001272292876644 87.40035938790602
10.817648325976014 19.900831418016104 94.37659881039433
9.12112121128895 9.089747304597385 92.41234443868217
10.78436489605495 7.045428702360984 92.26063474712413
10.924406664601115 5.419681219325298 90.34579487411716
56.58174034443009 40.81796884362776 80.8034504261772
56.895550019573555 42.164675804611235 78.50547949527547
59.067111795450835 42.98700745876423 77.59466695680294
61.35163630794534 43.17760652314208 78.30389198110254
64.5961456324286 16.309602135732106 93.0658896728097
67.21457434280045 15.424439661705078 92.73796116551405
69.15191075370144 16.23160578839292 91.13537218774871
69.24344254614635 17.570536872394037 89.48149298626116
73.41760539250221 23.093722189977576 66.24361128097046
75.62181683459492 22.05296159650066 66.52183707874316
77.97749353689257 23.46607873778048 65.74993594491811
78.46169730357649 25.391044857583935 64.4711518879965
60.89723729870496 13.136749938759133 72.78971865483857
60.2278049100462 15.708512527453882 73.3128583476745
58.54164623328538 16.272322539395876 75.47215643191201
56.582270472264845 15.308261773813935 76.07899916098448
47.50356828835171 12.834109702331148 55.94995898269007
46.484149100839815 13.077710310171035 58.30197594446992
45.39610116042467 15.39244129091775 59.30620626152119
44.642893271422125 17.526517262299397 58.30074700847749
56.24792647022036 16.384294330061774 79.37815486912551
55.047126360882125 18.574990593029256 78.66138404866356
55.397603526911375 21.062865380244343 79.53659419296895
57.72061922518339 21.982644490905983 80.21019786865833
84.2315398876903 9.342539508265784 82.30900229676223
82.59695447429277 10.631388400570101 82.9803868691323
82.94725263770262 12.761926576439029 84.29316668153348
85.10141391387361 14.252404937577335 84.48607141068861
67.24257572202914 3.6895050148472124 70.29975561462483
69.34772732346154 4.858736504707783 69.1638054074473
70.7094012637583 6.8731861834077295 69.97793254330307
70.13213281296085 8.609360015125377 71.72364485203339
70.28493063569587 13.938669791319104 69.00118046689164
69.35467289994268 11.87697113758088 70.32778237959144
68.57468070790382 9.63526015894475 69.67441166010946
68.3746148855736 8.408393333414631 67.36382891903541
22.114771073273147 29.4803704887726 86.14261366704292
20.88899557013078 29.47693461704913 88.03635416067345
20.244152748515543 31.053358534570805 89.80046160896543
20.923123322010696 33.67516450251746 89.80132093734152
41.73920018840025 24.86792685749369 38.044093204700594
39.8090377047505 24.530978911419837 40.10016493073294
38.09273567423427 26.20207978464233 40.713480941321286
37.914245561479234 28.621230397427063 40.18408116692877
41.4543039578655 45.600030379558625 37.83529269010227
41.5919256016573 43.18749155498997 36.28316887988028
70.67955007427332 8.473598705306038 51.13201317539775
72.27166615001512 8.956423579979884 49.1208365442372
74.23000127740022 10.327299090027138 48.991676573519115
74.40159303930619 12.109247355577851 50.36368545781112
43.260169419652854 12.861323146573985 43.16141252824942
44.144452339725326 14.833833633716864 42.270694286069975
46.41854891818725 15.350558601928736 41.029104085888676
48.60243544082388 13.971265202345753 40.673349888685415
46.51356710817586 47.313224049267184 40.332847804767674
45.026770236455576 44.990923152592366 40.42713542906475
45.53755428733913 42.56409866905347 40.22244810883269
47.91442693024981 41.4105100319456 40.46234542496555
53.04405163200909 5.175469223195522 35.72686484168264
52.992382139921325 4.030731151275924 34.02839646292519
51.13379430472259 2.8427128296463517 33.4937781331749
49.291327711491974 1.7932510956492043 35.14971950019004
44.36487411320341 45.313887025235836 37.62814477068568
54.460144939839395 66.45799324940324 52.48323327425155
27.014539708430245 28.382779744123372 83.53517172423739
26.88360018723316 26.205416697203024 83.87634271187204
27.821881749641882 24.182400787199846 82.55233555086333
29.627125460969832 24.868413732960622 81.138878196105
65.5891924948793 47.40129061215728 78.37075829700574
64.10984814532978 46.74734825831637 76.68010273876337
61.47197545493196 46.5594789691203 76.4633978830824
59.89184309282719 46.26667435862694 78.34306274670467
42.045078776474085 41.90521095633749 60.3435712231857
43.7621488850185 42.824872586484666 59.77541471773174
54.17339396149696 31.360357863762555 52.38132536100792
54.52224950916703 31.488965751508275 54.451309933994104
53.09296958007737 31.336189120049415 56.62203977707492
50.82251250608504 31.725631266176666 57.01475305612494
48.29359257966751 44.36112267503486 56.63705813393203
48.70041635437669 42.39989626997871 57.748932585140466
51.356920496610186 41.384486582531316 57.54982574246659
53.23741047339951 42.731829098355696 56.329619175499296
56.040522715126926 64.4629350778772 51.84496556206254
54.89228984498963 63.5376176802673 53.20324742649407
54.373168095589705 60.916323273406775 54.00688924674956
55.40726018621651 58.85366972161854 52.87190030699841
41.715041618804555 11.479036514058947 25.543880298913137
