59.52406796169158 11.934412354687174 3.8747860498881317
60.51571706535003 10.403235839454423 4.873240411266598
29.53180707291162 62.53298631980523 86.79658690740189
31.324410327187245 60.86197747016011 88.18608331360096
34.08137846581336 60.78934252807045 87.37296155223585
34.5233023920216 60.62294345107523 85.00649330820634
39.38721248318084 36.8951674842895 75.25161780452787
38.353367122900345 36.22101683799701 72.90285800564477
37.842696369712115 37.68047315277209 70.85987546824593
37.449063189875716 40.267257021667895 70.49455787609654
62.79509155341513 14.140584981854072 11.73673341507682
62.46143956072018 16.095931114119164 9.604908241401425
60.479041558463415 16.536686373474115 8.332016357342125
59.73544377334282 14.677480406489979 7.402482140350348
30.706993789496 69.40536511218582 39.79144753612773
33.06536704237122 68.8438073197746 39.87903746544229
35.19027038381731 69.8559673057228 39.838785597263474
35.97217270527167 72.21447469200916 40.05734649577117
18.437306537040246 48.10053086178017 43.91349906300334
27.393624332322982 42.054980567210784 68.58574684073271
29.939508364368677 42.589484310149174 68.77219440708038
29.948709688001436 44.654515505048494 70.71830628965864
30.810760021665672 46.663565919991136 70.03909834396512
50.75072076817634 42.75842595814474 95.16334651276304
52.64954750294519 40.51883566613946 95.36855864237825
14.037093834657 71.82399039611612 57.0136272571817
15.432618889511811 70.19019056037266 55.35440346664215
16.59737906964156 68.09644057490941 56.49751912362832
18.256918595292834 68.38604622685764 58.531394013828454
24.424806939327446 25.316266796067257 20.651308301716917
40.67500670968257 70.13282227281333 46.565951062265064
43.15912025360579 72.36072027106826 51.267894677816024
59.35140923436135 29.636153539727978 16.193210401897
61.406959732010336 29.86550446699866 16.96919801862576
62.32344315001911 28.879171266779473 19.285755959918628
61.35004804878483 28.19919445157809 21.42332034202892
45.553016938817954 45.09468915261953 94.64701468051074
44.02187768381477 43.44420999432929 93.20868275133063
22.951302652392258 86.20071707851167 52.85213973568042
20.993142735975766 63.43737856152946 82.9153403689718
64.22037683664591 28.538415440884325 23.323862019223277
65.04913273897004 28.838125417924072 20.860833429365314
27.509936791077862 83.62430895828447 51.671822437872066
22.01882053077531 82.07376462082468 51.23761802635329
41.10920085528859 53.494241311889795 83.41282286590668
38.74043928832556 53.17397822808903 83.67666142651505
36.748857769111076 53.31043513105475 82.19411224475516
36.746157787562844 54.21104175592449 79.54578402673903
43.11421865755067 82.6271129793167 60.86186946276587
42.223710039322995 82.84444391064136 58.52159410400374
41.675464919856196 80.98372433717651 56.531560529943604
42.516082097708384 79.1490107712589 56.17700924484558
51.89627072861715 9.790550965140916 25.021092066061815
51.60926454858097 12.217839706340516 25.517505038829626
50.89728333565887 13.501733467662552 27.09230596040548
48.913338995124036 13.986099841090784 27.78021638664615
49.44880661084824 29.914970679365904 13.285827042360761
49.81730882492309 29.118730727551632 11.133832465211261
48.93386431289938 29.90909470142003 9.002282231563704
46.31197345913456 30.958873070349014 8.50737317726068
30.890328433844623 65.84955870030706 57.92127589287504
31.807674415041603 67.34691219622832 59.73768051996587
29.794983266087627 67.83515396221547 61.78288907631262
27.35073021630891 67.06812182744456 61.20058928311018
13.88733915628929 68.79310102924227 53.510917909737316
34.099576548221386 45.226735853451366 72.40846584812186
35.14537835795589 43.849827480975684 70.5400717261897
34.71838037494501 41.53748111284335 69.74327210736527
33.37558245448991 39.79041855567244 70.377816510934
43.75222943904448 81.21906451043498 54.32630680040202
41.24116702672022 79.7272970839188 53.96258829150057
39.0846889127049 81.01751651454931 53.539565651943676
38.41342160328025 82.90312157017631 52.46494716525697
28.948436795179248 25.82076345280085 21.40578817128741
27.07231627487247 69.85444467556322 40.610522732648604
37.71789904169836 78.8205378245669 52.29984321510734
35.58348851053141 79.61999287415769 53.54710798301787
34.42238293014138 81.45760523764572 53.317771230843704
34.01050382034883 82.97283663488254 50.82165486810933
40.81857198528097 64.04201307900122 41.76816778580943
39.88028615051811 66.43536088181718 40.92941133146865
37.79232344829771 66.58977345644169 39.38334136034085
36.52057047533028 64.8977804841894 38.21887518866139
59.027562740631346 8.319611845466909 25.435965766234048
61.00882722230182 8.121427161016918 25.952889750397915
29.48194086410631 48.89663506218939 69.7279677291481
30.404686418965746 50.01772689391265 71.92917711778018
29.503021243075406 52.50486364944057 72.7127620223877
27.499918956964013 53.07649464652838 71.8299145936695
41.88233450918901 50.473146337027714 84.87256199254524
40.32851033298297 50.053903259376675 82.85435494947055
37.05605356926266 42.15225052783028 52.01124835507052
36.40889954428936 43.23057434042651 49.696839953036424
35.04908423091884 45.5377366064678 49.274116382671984
34.16005401922068 47.100886600469046 50.68763978139588
19.577937028787797 45.57021147262574 42.437573459352855
27.807424201312003 45.06437860943174 47.67225104381681
29.873321866918044 46.13565571335353 48.00009173739212
32.37145596808883 45.167011802962364 48.35454322710823
33.164046175084195 43.01526610702268 49.03277202249646
30.90036017972068 12.452305250987624 8.973571496064196
29.263156507188622 10.496014587661927 9.5360780403285
28.489506672192917 8.543068106948146 7.976060574912798
27.91994789798909 8.6175769604219 5.476441895243611
57.35573130624064 15.486363055937913 35.69705744176662
59.74482499049632 14.617621964701113 36.895163595125275
61.735679391097015 15.77935130521712 37.013839916554915
62.414949044463896 18.192397044359286 37.35423846473069
47.27088090424873 14.802194067001315 24.677065337870612
48.05020114168972 16.542130083583235 26.391715502407845
47.2424261603397 18.822118471540094 26.676749467344013
45.52729065737815 20.35905858266762 25.314053583500613
40.668105632224695 67.3663570580287 38.009034567969834
39.98754536338951 69.76771913201841 39.457391373459494
37.76631583334604 70.94306839809525 38.63278861912675
36.36319552685205 69.90983696648567 37.12747935112358
39.91576220980942 52.63408768577004 88.93206373230024
39.83128119465764 54.94538905133535 89.30756137239675
37.30489932366951 56.284696448929836 89.01186456321875
35.20546373033141 54.902374209990015 88.99669208275641
24.524469633799775 77.2881517916702 45.694377014015934
23.958431488313686 80.52809061822376 48.51758366542522
22.01802584025297 79.60894708558766 49.89876307437854
27.905298881595566 48.67811578152486 75.94346780355616
26.32570095321637 50.04157436910332 74.48399566554669
24.048981543872287 50.18902875253928 74.14536828805471
21.833137194557885 49.7938728212147 75.49930981638457
17.328743112682794 52.5707668191881 41.77992120138323
60.84823992920359 12.380748646899516 6.710144578802814
26.931255995967774 17.22361284293861 15.113454321133803
27.97826417573472 15.406186982964563 14.315626508778973
28.347431381232138 14.841678256079364 11.632031569531811
28.016990664102995 16.21650049103242 10.040495124603355
29.908694597896098 50.0854307660824 78.14004820239964
32.00892927803606 50.26809589039619 77.65192894942258
34.277268568390845 50.87784251162816 78.91292211152371
34.82205321535321 51.29652443303155 81.33602274689706
56.35294179950203 41.69525612649272 94.59127303329927
54.414494055211634 43.401264490205996 94.84742274989173
52.585434980487584 44.43991847691917 93.62003146110176
21.249564995790955 48.954581326321666 71.15854449416105
22.893440858406787 50.57348209056406 71.84661395888757
25.580567550303815 50.46965804564919 71.71322343757097
27.062242404392002 48.670071754708076 70.5187220154987
29.58791489432857 64.89218394327509 38.39898240497794
28.407799267339733 64.84609420391403 36.69881193755601
30.803637982769263 19.947171799288583 16.37346208184197
28.88598107607225 20.885206753808216 17.3813081522508
28.23504353703877 21.917091388053745 19.432726015204548
29.30858067143509 22.91448232403469 21.273085629461427
32.13822383312129 1.0184565132604289 34.79120220187405
31.263020644766478 3.1786389534969746 36.25186413290014
30.83866237607935 5.307966500029749 35.4934594504074
31.59531606203302 67.66140846732301 36.928132541467654
34.19873317090098 67.68039500209714 37.6893279272948
36.29747304858532 66.94321523787796 36.51626645679375
45.44211772623067 23.120942235614432 25.85946823248408
44.31215456964234 24.62453156476353 27.58885494413874
27.080488218002444 26.92785211073499 19.913406479897322
26.89959409892815 24.738885379338843 19.285380451636208
27.027478171845363 23.479615527508557 17.4034333822326
25.96100065404367 23.973389341342518 15.028066688361491
25.782334927437294 22.57604446980344 12.217318216639848
26.415464644392486 20.359899087812575 13.588695567627443
28.3552584489215 19.568951014995463 14.347979759858909
30.95004204752432 20.36598143147797 13.894170981091927
38.438308416961135 24.1762195472514 27.559810002303262
49.51367227410684 22.373942599687467 31.179637190832096
50.16514252722119 20.081248797468145 30.556547776858952
50.95514799513353 18.27846809792696 31.485013826351466
44.92512138658984 12.475297857144074 16.161920400081478
46.370749957823925 10.233679140346368 16.383114904890864
48.74703541030381 10.303425449962925 17.71264902757937
49.0944802727267 12.152752897912826 18.85291111094667
61.85506057838395 15.896031090198303 5.346858902208849
60.213626716044715 17.537084013429475 4.289128437709602
59.81288179648931 20.023826822713794 4.590906806051971
56.963586240914346 19.87873259648954 3.721880773123189
55.497059505401914 20.52008031505109 5.153354935135538
52.80643846797048 20.93516065679982 3.8944336425773023
52.33668989387369 21.110459695214264 1.6874373073632294
48.14927302766562 42.41495894950315 94.18797821031139
34.80994137482098 14.520992022751855 53.7658901280499
32.79046458800455 16.043905174683992 53.027301140089314
32.059351696445816 16.858881700128507 50.51244055180971
36.39261096714612 7.9424804857988525 7.628587200598964
38.37699383593059 7.2050618787955125 8.607500504348858
38.53427518856233 8.440606783298678 11.138368543202548
37.745620430829625 10.68218187796445 11.509294198117372
40.91611236530803 24.109342085338344 26.18829669563065
42.06868728074081 23.206054173535094 28.257989491803862
43.04957884884835 21.004735506871526 28.81605874310639
44.10220801735842 19.19922058634624 27.305459500993226
26.16311206384885 11.776472091317933 10.094526836667924
26.7375162503983 25.5960544162099 49.922726639246406
27.276554230139855 26.693441164010093 51.930410839420006
25.380147828911948 28.402591887638838 53.52891150174332
33.6533807646187 6.473612422539743 33.144667812675294
33.78225670986628 5.555240162607495 35.37240901103537
34.89821523875826 6.395699550809735 37.41561268875721
35.58688563292221 8.750016727953026 38.199487824652046
62.318134117798294 6.137606645917462 30.61088496241417
62.25943199836334 6.083028103379012 27.613491114263077
35.29266816351308 58.3855452039626 90.55961821510458
49.9711488314507 25.123048118928487 2.686968684796134
50.61966630822982 23.395164934985853 1.3772885833153579
44.86269781369594 82.9940666745615 57.70085050660708
45.14382641813245 84.01246900846228 59.766753588246516
14.133738688263703 66.96026101478859 55.613754207800696
49.75030862792748 24.382745622343798 29.522690268117763
47.91942155137584 23.608199700433385 28.478885418508995
47.789294418035865 21.458065643579513 26.799926109199085
49.42750286930543 20.409166785940098 25.561328553805787
28.07606556099732 27.203271503464162 57.02912785744093
26.576857878368827 27.18435898606706 55.64615837921078
26.962660695603464 24.842199715732324 53.985569661280294
28.209259470614118 22.866879725437396 55.09663642444272
36.69303413376026 33.124046793654074 70.76511149833877
39.16124395216119 33.291405175410866 71.97383384941503
18.002535488984563 62.26087015122258 74.16528633076807
19.330966256907583 57.00459514273317 71.44390394158725
28.17867922140746 34.017598950577906 58.36295678647115
29.475984906658557 34.05428927559745 60.55810488586669
29.826304035978577 35.92491249971522 62.35946825180495
28.82756495046407 38.1407003359387 62.48654808482494
37.95646391103176 31.549660261879687 68.16266250600138
35.79222323439868 32.541084293945666 68.11780280415614
34.79642999582919 33.293580069600935 65.6119481351264
35.21642947765913 32.23836848463154 63.4701026795697
15.124796338184877 66.836362064443 50.17034780514202
15.04864239356736 66.09647940913179 52.5895094223287
16.6698633829884 66.16493537589199 54.44851490200039
19.17805056636781 66.27711489287874 54.63875947289841
38.48731969603054 50.74654245756616 84.7351736650668
38.106284885069854 52.05117273607107 86.89689901969527
35.96319709045275 53.76152324572341 86.55919024578978
34.05275399779038 53.76768557069576 84.95282366935545
37.045543358202934 35.16555806194838 62.60109970252746
35.164188977730426 36.331626261631094 64.0395615277089
32.96686975543605 36.95080542407716 63.33502298319617
32.433627625898716 36.38253373292982 61.30925845924135
23.69168956157499 24.637416058000202 12.301898689490178
21.807258510836235 26.026527166913198 12.58917434912448
29.729499762140424 50.881674229918076 55.01414137481485
31.552959357035945 52.586624468122245 55.70455581773963
31.919972960327772 54.91792526736834 54.3497835905577
30.716711678567695 55.99637001921611 53.06727109331791
31.839864572975845 39.69728467800872 44.45521398517597
32.30090187700067 41.53799873602921 45.807876330126845
34.11116249272349 42.684769413813754 46.64455783564068
36.44754231507959 42.735595379861174 46.465974108990316
30.648075130929314 7.16894543451576 37.16255616148361
32.91077833370248 7.28506005339714 38.83871285700385
33.37367734425284 6.376694798719432 41.271494517198825
31.016879392616413 46.43243392805853 72.74938269047533
29.57206181459318 48.06707930266016 73.71554158738081
26.969640441677353 47.821669386191935 73.06086903348543
25.704033661460315 46.47573986464431 72.06215784814036
43.16475820514522 70.93726790818393 70.9894205516894
41.04092258268672 70.39437362558456 70.32200647125073
38.60426739652059 71.63651270448935 71.27711811911992
38.18713988568286 74.1458720812386 71.82936988469983
49.91009669968025 8.167998665130247 16.666532848122102
49.20423385501485 5.867612564782064 17.761087028832634
50.08800108163588 3.65035607630186 17.74347484862237
52.156419969606574 2.4025351670044857 16.610095669944315
29.27936771151374 70.44555624538872 62.064697637335875
30.31274281996343 70.89719979792442 64.28313389216723
32.909196725749254 70.26060848264001 64.53286050002419
34.96677828140917 70.64263543214115 63.11429140219772
38.53756316141352 70.0149280434413 68.75056287122182
37.23360107404805 71.93420613907713 68.99192999760731
34.34371589782692 72.07882471336197 68.36155099385496
33.042074263573994 70.91817978717529 67.23668704741694
32.11120067466124 57.782410278572186 59.60404361554706
33.85098671636292 57.858312395449154 57.788551551295974
35.05114569068983 55.85157783643608 56.173990041124824
34.295895024075236 53.42653504134969 56.485548611787294
42.8954531905465 70.43248934591175 73.75566910099076
38.59218273331034 33.913768067025856 65.9334445792679
36.68748582919122 35.87870042425577 66.28686871882472
36.838992629738954 38.33915419396037 67.07762637401484
50.85511651355786 10.260026147606805 22.447359672414688
49.25826748806299 10.765311358940119 21.35709040542508
47.50465030079623 9.426477360936307 19.769832052450912
47.31497583995395 7.034606904980543 19.45491761679138
28.22044054233497 42.01568141057514 42.71295873575563
30.39615084041229 41.736719267195255 42.99523248558801
29.76681779072985 63.694882647074046 62.51474614175292
31.5407452561105 65.21485871162017 62.11558619566109
32.325428556674396 67.05932028939719 63.15739725386863
32.45788151300049 67.76771647006565 65.4335950254995
23.805794777839505 64.75410881615296 56.39877666609065
23.274101435013378 65.90508092086712 58.38277483938768
20.91457645530365 67.0476221311823 57.97508164605641
19.902950446631966 68.30960665187189 56.13315709089621
17.477700399521957 65.70616763412245 58.679936380222045
19.33808298274958 64.83907823478366 57.788304242640386
21.68804432891136 63.8768525730304 58.86436695195072
22.079591549543498 63.304399473808886 61.220261120486896
50.51526904386779 2.077847458363736 14.574232757948234
35.05102467704159 75.36576748783749 72.12379705167606
36.08776978972816 74.16796434277789 70.10395197359357
36.09010710276824 74.42850795291758 67.78840839003965
26.513364228606527 54.78365149304083 73.90903299109495
27.79792169501042 52.412361329706954 74.58837338811426
29.38271605891529 52.24034730351279 76.67021411464705
30.670981715745313 54.45697119664166 77.98946687341407
37.12174649407609 13.134627221816897 12.978758901341463
35.17196518392888 12.70719775860191 13.765102450137478
33.44140471197324 14.15791566211255 15.238993213128124
33.65099976882967 16.41033722817844 16.18753264926469
37.012848550919976 60.360344496377074 87.36216122594504
36.3953131346504 58.02624709799042 87.18308070077845
36.868033579783585 56.33036666384872 85.44613485864576
38.63888935149914 56.151876626660815 83.558898829978
43.61599320110951 4.69521359828048 16.891448454467568
44.620887924949784 6.763244925741051 16.778899292829877
44.9351895929566 8.716010134946895 18.332411389354625
43.140926027943046 10.308999177178773 19.0083169212347
32.681884731048314 29.091852617109748 54.49569923595088
30.706629988148272 28.014027184515427 54.02437296646541
28.158123868145573 28.55643612385166 53.58873439137192
26.789352796984787 30.641258436165675 54.01201537743116
38.13078659129452 72.8792346119759 74.43641232586275
36.388551901850256 73.99604302755328 73.89469846224856
37.10554767120268 41.07481520539025 48.40182706970312
60.325220673194465 12.57580925782541 29.72894771771858
60.715664324449286 10.249802921641843 30.534329214009848
62.85512306376299 8.78935711018731 29.921988087352563
21.753750312182955 40.993492088965134 44.8598346454762
22.846516140686038 42.86226965337144 43.62117315072918
25.091671364487237 43.67020867744615 43.55169625924998
27.23090577747787 43.48262781286789 45.45661034653189
38.771319065798984 44.80779244352717 52.69772904759974
34.46727311288909 66.14056820172314 59.52459516838285
33.11291158768306 64.12133794254667 59.44647309288827
33.335350249663314 62.148071126347666 58.02387620564406
34.132731111694284 61.736562768872936 55.88518129253269
30.754354132790844 47.327416159780064 50.443333185750376
30.87510146505073 49.79181721526639 50.302293675300675
31.93046501031617 51.50844298693182 51.93536967897415
33.17106541285225 51.05358460854543 54.19284838393527
38.47819810583961 0.9879114858028888 32.0935695621417
37.25296455815788 1.8511081807224277 33.91518914753684
35.141550197540056 3.5054028652530786 34.23597786291606
33.24766502947626 3.9615679254623544 32.47983415708379
48.18343645444179 44.862340122388666 92.93834288391392
35.03778300109571 49.539872776364476 49.550231032030254
33.01038521521487 48.281711136836826 48.63037160272794
32.61107291085731 47.02160265327317 46.36838082112569
35.01301909132446 46.33145093418183 44.7316335673171
36.59719089790984 62.86942028858481 62.87771574393986
34.99990698062524 64.0643963373402 62.89432922826738
34.700577924544405 66.76902583807393 62.24955207622388
36.26930762326426 68.54648804058664 62.18200975861065
32.36451451041044 54.001544112758836 80.16447898947561
34.2717724754858 54.29936725995542 81.51939494444724
35.21159868141696 56.74878868988014 82.80736694666018
33.6814017559707 58.643347758316224 83.6168300278231
27.98798505646904 46.22895207251417 41.8692941277334
28.747074782515906 44.550854215776695 43.33574785242665
31.013026785228504 43.819448051301364 44.581504975907436
33.06266560128741 44.66026765796953 44.54916427237065
47.08493909625998 7.862530965980679 48.6823055098089
31.327084935272175 29.425030661232462 57.890086226592274
31.012060637234367 32.11619877087364 57.87728087546911
32.07324575744383 33.998692045431206 59.14691323749583
33.28704342191295 33.77691545092798 61.2907542144475
25.22704136418975 62.23148829497047 57.23863090558383
25.819872862266706 64.50466485125413 58.66772187622691
25.696270292560623 64.87021082486943 61.004515750353235
26.888898707437594 64.05938545566985 62.53586753747017
31.52482817169452 73.71811619376356 65.36116596078384
32.62936750110646 74.97331340153829 67.22133430440235
32.10516425049503 74.79229177441078 69.80991760297869
30.22279356370846 73.46195852413935 71.07970122087079
32.475419595919426 16.518009301812153 55.89127287305099
34.76806496433819 17.15981656322372 56.48682510349836
30.488640680929915 83.61658209636501 49.56429147226651
28.27236311258807 83.36810606026893 48.79788809868747
27.06464771483984 81.2146451305281 47.63511560819629
27.876743914976455 78.84757945631154 47.38262712228499
30.19027400768505 58.73987089230678 57.61340273090888
30.851797419782603 60.785401861191396 58.99857605558258
30.007107873341095 63.27581549763886 58.627945747044286
28.356160808455996 64.23910758966512 57.49012058715754
44.608464792360415 10.612475507118631 45.717803386501295
43.61222676779116 8.44797191118248 44.7362093767982
41.09577764008544 8.05672322629418 44.05712708354246
52.916004610173125 12.925499573670216 28.80712104731855
52.46256696356624 15.072011236320602 29.370108405725286
53.120637998182055 16.521554912443417 31.26985004589709
53.92172200416886 16.45585391671013 33.478616721776234
26.43662014110346 11.60241244902551 4.716858847095285
41.56610778612496 1.8656936543580274 14.903718349899558
42.3163412480588 4.024736869338753 14.33159372924807
41.758941195747745 5.580671830000123 12.625590354412005
39.90239595255375 5.562516403528802 10.537201900535951
59.817107641934186 6.795362894426021 29.336446461343392
58.83607476693491 8.619169306293951 28.22518600991746
56.61672800250362 9.782385325587532 28.205770953542974
54.22286097752823 8.628115528878768 28.24509848455458
60.503478352473415 6.754650029571373 32.24350586307631
60.95417633693552 9.053711837200332 33.17963838755855
44.38813684608447 8.935891745903366 14.507074433357115
42.32831242708142 7.271709299667967 14.795495108428504
39.70235691015221 7.89154319777183 14.563704870348396
38.74345810180085 9.777478845052125 13.733470306731327
32.36512658454198 59.84863227121522 55.80082032192981
32.71079524041659 57.639678689046676 55.08084697225022
33.96168293729871 56.618002568583336 52.60785135878593
33.9199673481215 57.50578140369192 50.52100123794584
49.77933184816838 14.928277969022686 30.045758761834747
49.67868835683904 17.24643188468391 29.507148436458486
47.644603780706525 18.75445612630998 29.303509216297584
45.39244266108778 18.835506293811875 29.951322431221797
58.68787469052551 24.763800567752565 7.114359427486128
58.52487788101166 25.56295681207518 9.417367034874307
60.09267311060681 25.993568206590655 11.237138883832278
62.46714468927053 25.700541922503785 11.799453747246227
46.173397817870786 23.922670501389792 2.953323820811984
27.702585012459206 18.36919897233445 19.46695544320185
26.951321373981358 18.718985570068373 17.432283932190188
25.036938759440336 20.631578813091295 17.14851217446962
23.558654271596623 21.638962181369294 18.72216033480619
34.29753725436918 9.485705565490827 6.91543485591932
34.8751270196809 9.542130949908449 9.354358269558299
34.37482666072337 11.16743823729348 11.450007630618554
33.76705409190939 13.398151655320234 11.403617197606156
46.91100593824439 21.286039010133603 30.855493339178192
45.54688620567584 22.955178020360524 30.01093498503945
25.095027290243284 65.81200566059428 63.737795207907794
25.55043330588979 67.86263161129207 62.993523748108196
27.25950678166905 69.857826010999 63.76876534046359
28.948309373320296 69.33963310377167 66.10866304184088
33.36069726884042 81.82389778548385 55.65291323373734
32.58933775761738 83.53326383757332 54.435449815218604
31.275057114218885 83.19532450679573 52.28307751136186
29.237546537554344 81.61779620095153 51.69779204180738
44.24656983375982 32.32731761786544 11.723774192905722
39.42862879778976 85.92266522233312 56.70819016661059
41.3088111316675 84.18818610578498 56.14976662109084
43.681290573634584 84.51934093862783 55.75410536346928
44.61704693899559 85.94916984940456 57.01505826773647
54.935197482022 39.071848342717686 94.82097273993068
56.99540142294756 39.17627897278575 95.263236437115
62.589936190649624 30.65554699519391 23.184573765487904
60.03434232206369 29.693958091658324 23.34648403022487
26.207099831690897 47.53190616422365 47.07348012800725
28.202847114296617 47.667633564495915 45.85482377980227
30.510116849964586 48.97707870443293 45.96076289942679
31.18324298050491 50.884215388606556 47.73595593973605
43.45374117356202 76.58357481764916 54.98777094959476
41.80363827275731 74.95365582702324 53.33859331189845
41.65245524183552 74.94692455272005 51.038300223669346
63.49818831610185 32.68327095708904 12.826597655314126
62.92458132743077 30.284721792165158 11.682332653977525
60.671783798125595 28.77517647863244 11.841941550136411
58.51717383830975 29.539062794254203 12.186818302717812
57.110654978006664 18.016142130950374 5.3282314846001055
58.27616165081623 16.28388309208754 5.612659494673975
58.615102231217286 14.791342700772931 3.595146573626514
57.106767578953715 14.264275775551758 1.635085274414158
39.04563895953408 80.96502829175778 56.98846454892101
38.84587925142708 82.5823753900476 55.97039716308077
37.186478522208425 84.08343349964608 54.75933288064661
34.820315511538105 84.52194087757698 55.31201441410494
32.95356951609458 7.389018301534505 10.76539111084966
34.92503060453404 6.68927577471507 9.610703953682462
37.282278334708586 6.206647833302994 11.060386764440816
37.603340054120864 6.3500737048982385 13.085312147414626
47.886321391826954 29.63880805901394 6.066763258672063
49.078947386685506 27.33452677324067 5.81497961301649
51.5273908070359 26.792933307258714 4.756821900760369
53.35271434105171 28.59669232883127 5.1184635691608635
26.288566845838535 24.365791461767394 22.311548228047215
26.077790974208803 22.263556394405672 21.2737745846912
39.943563330598764 68.0014307701721 45.23703973536979
41.25798771498288 67.01585099308826 43.51053988234182
54.000964145132194 27.14857776354106 11.630905561905333
52.46907719068303 28.496081996879145 10.041439644584457
50.61741668620529 27.570081917826446 8.416227415046661
49.996749936995634 25.447947378764542 7.822429226776547
60.53834300743179 26.463461304895304 13.984217157011757
61.2206733460593 28.148526420710095 14.518549630497342
63.563020207330304 29.112061033098037 15.31935951106403
22.49722062479152 28.592924912779004 14.219160431524028
23.232985684743255 27.385360592515777 16.22759041135365
56.71680199838516 26.552291736308234 6.432588229106623
54.90379752430716 25.695417485671936 6.926818024718304
52.90696305130971 24.74585657562384 5.582020266598005
52.394774978298436 23.946705455105487 3.4159384955633385
56.18508926958696 14.431465457124169 29.356926596210336
56.71006724435831 13.900194953620318 31.46685321839306
58.27384907247323 14.753125059046086 33.14282690327363
59.84171656630072 16.79753587461751 33.40467691728533
35.45532899700852 39.49095473794282 64.99339563866947
33.078943388815176 40.14044766824616 64.59068079920267
31.643849799014433 42.16075261732952 65.8961339979645
32.94716854202872 42.571498936369125 67.98765981595757
28.353369121975284 34.74536237838412 64.47468935683231
31.02406942377689 34.67753112359869 65.01839597654241
32.719197458072074 32.608172308792255 63.879210454002326
31.67007041432072 31.160487822526974 62.52047868405278
55.20947815778089 23.37748044623948 8.377733535589494
56.7442853453199 22.586606190183296 7.108233647087852
58.606675094777685 20.744066789310114 6.954381567449058
58.57173378157959 18.514800528730092 7.8317651585635
30.49969498639583 15.15361234646065 9.84121867245985
31.200112423934332 15.304010585614376 12.550265153345068
32.2722882808298 17.052101132136492 13.800545214213853
33.4994130535353 19.164817415797238 13.142997772556578
53.693861932498756 13.493063788679564 22.35593593202949
51.73414987030716 12.672077973776885 22.376543342453584
49.891746483735474 14.4767780030316 23.392277044299025
49.53697013051425 16.9938080456649 22.54825577392989
53.93219436677586 30.67813258477845 6.877409867195945
54.42522105330262 28.648699835273852 7.865791899631129
56.58514639979425 27.684640300283437 9.047876307571704
58.716216508588325 28.531763270620978 9.722808298803782
59.51427990926185 37.660427670359596 93.29024718919419
50.99625161229006 22.962475169427222 6.675261385897818
49.262127341037136 23.643543676095053 4.765613868912663
48.545079225223375 22.355196935700313 2.7317917714332163
49.570858144841594 20.858058938465046 2.122876120832206
46.65088964964275 23.967009451790435 5.6057054692294495
46.43818783384446 26.05291904122245 5.138838952011778
45.7663372141191 28.16346392938907 6.358861696371671
44.77311818157399 28.82097302467786 8.384794612585543
29.85771104422912 12.39409457004101 15.830024289108726
30.622037236021278 14.722966916888804 15.159790355987214
30.989407997082303 17.069726816832965 16.489071202987116
30.3085634036716 17.686506062145494 18.438000584099047
29.908979014836145 16.992575364895288 53.00258933896134
28.90359801504009 18.22819275981434 51.25745981904144
40.163813090830715 76.15940177738447 55.211541054418944
38.819423827241984 78.65561695997498 55.907392034398256
36.70471157758388 79.18784108021157 56.26008670628593
34.663536148055954 77.5451088956428 57.016160798210194
17.410369261341074 61.438496348749354 54.889570116599465
19.03020106948248 63.66869216424359 55.22856653197945
21.51481804655414 63.5368164558315 55.76362689639317
22.42625545964906 63.583131139737475 54.19403624755085
36.07119685759484 55.31847921195477 50.80580287777456
36.25564588184417 53.417301015219834 50.63405108639026
35.39995980932748 51.77597899970373 52.87482005981469
36.047285573999595 51.7891382707035 54.970788949633395
33.62451532136373 51.93949553332769 47.59713243586611
34.04641287008798 52.31414081639002 49.89027581538292
32.603450122194126 54.34175581462876 51.555822671367594
31.347055512410815 56.271909273182196 50.56947186175332
37.186452050565414 45.39672608358404 45.853293347634875
37.403307876373056 46.34365149814258 47.986707640361956
39.46922385986943 46.48906104699028 49.500139016934284
34.03572611999951 48.83913663297849 71.008722407722
32.94159921414652 50.103697133800466 72.79619798867591
32.16782544254083 49.28558634949764 75.1874902702035
32.98704653376257 47.80526639659838 76.56945837156974
20.963042928163652 69.31508895924051 59.23872677459298
22.916018095810735 68.5670871494396 59.56215071441172
23.744939416478285 66.70456238268093 60.838079027514226
22.65347703071291 65.56092204216166 62.979826792506024
39.48647843117331 1.6200851953096622 35.82146150027063
38.41845499340541 1.9753144832799796 37.532817665923275
37.67535264053332 4.120542193577543 39.12374001259372
37.57253691667136 6.480493373088803 38.50469419707112
20.95449962978963 52.396758250799934 72.01482182355426
20.873349079837944 54.88483272239226 71.68905549870759
46.682019719101746 5.5943944308487055 41.28787592772849
46.68683625830769 3.9930146262298605 39.593066475039805
47.549376290391244 1.1412990376812495 40.082522951303126
48.83791966624996 0.30776422769688405 41.27336464156591
28.616211208692636 12.827850409183839 36.49690358965055
30.032957558630653 11.409093377541382 37.35093454937754
31.829002681589138 9.379816169782387 36.15174909993255
31.630024657089265 8.545066739424133 33.92811379177764
39.69073899884245 69.86318134163778 43.52048458337012
38.635347494820465 68.66471266739761 41.847214004804044
35.91500851744948 67.76370776175943 41.56694645699646
34.35482253394806 67.74457121658787 43.28202957435047
35.3592072772402 11.31773278147266 39.999899657657224
33.17941053703873 10.054106689433288 38.99482907373959
30.971702438008755 10.213860758376379 39.497555237630905
29.726460879892713 11.467752462879343 41.58919714434301
36.619845602657 68.0189126604541 70.34446424512595
38.888491856518954 67.55573489952032 69.87359389154842
41.06755547520152 67.84351455209674 71.43592727017278
41.2522922236753 68.12216531104711 74.08893631953782
46.36638730911411 8.471426132276317 41.58921208794429
46.601006778214646 7.627669243346503 44.064997242853245
47.2898467770046 9.028204985027115 46.1849462918366
48.517292693595635 11.219904039651142 46.371062581966854
42.65268378460512 4.893785662200884 38.027544286110626
43.874746094402234 5.18119154902861 40.05326513233788
43.62935101473661 7.426776928610117 41.76178787329297
41.46777567257053 8.25771837374782 41.413599717126125
31.7124469027326 62.897500810411984 39.12143287149249
31.391754037657716 63.76109696691933 36.46252497082511
29.992980353182478 62.42013064542414 34.60921477196426
32.779681633059866 56.22067296316539 85.41688897972543
33.77645421784422 57.828269969352604 86.51815232171941
32.96114636657889 58.79250598958255 89.20448448210848
32.59892779754418 57.62884286506132 91.12722632290537
18.99646047298102 65.67179889026777 76.55296769094865
46.70307062808438 4.925360990179295 44.549522633238354
45.25601194254455 4.131459820726008 43.10361366923124
42.749998964728924 5.100613417683665 42.921154105302094
40.96858484828068 5.453810291191659 44.55699290492479
34.54882615788673 4.282734956058411 39.910105521858576
33.645988844665844 3.7181612965505577 37.54323431564982
34.36107318353314 1.5974203077455225 36.12199599868433
36.10393510379505 0.5168648994172412 36.54112947680363
35.630057697223 19.98328602177063 56.993969773151875
33.81336803197546 20.56637514577553 58.58465028990863
34.606255515681006 18.54854567973701 54.1993217897318
32.88606220155899 18.777744090522685 52.44644151668305
32.90942708204526 19.76575202037002 50.20649403848672
51.84103619209384 19.964123197947686 28.666807595809548
50.367074840638 18.569969763794663 27.419438920378415
50.8310487076827 16.581430823719433 25.79296098084117
53.23836223134138 14.945520008823962 25.84963867365347
36.19448715715753 70.55993900783969 71.82291676361642
34.2539133885585 71.9438780972981 70.95965416211502
32.814316003708555 73.55326706345745 72.08763419824614
36.923929440746505 61.697053713538104 58.453701655998216
36.36865627615906 60.66652853022371 56.05599366164337
36.715452963466035 58.14578064429011 55.19758090596331
37.81937540762636 56.17207514779227 56.53993994541949
26.088857459549672 47.53239337407716 43.613722111027116
24.533030876144263 46.327263464498444 42.463352565018546
21.966992884045542 45.89776598143229 43.53192587551329
20.636483585204957 46.93293556927382 44.70661458313522
63.901934251401435 13.071477295263733 30.524804556236507
62.26957354642861 13.477759474844229 32.26836149751778
62.62358850243733 14.970363940791998 34.56564583582398
64.19534693773993 16.40951782404211 35.18083588199858
44.70050551538858 8.745526397590181 47.85215665133635
43.3423907437123 6.679864743083625 48.2743990874372
59.887182732775 11.170595716016669 36.04878610655418
60.35683786377111 11.747980459079791 33.59594096158749
58.515994390611695 12.066645928040867 31.447572037984468
56.368829805534396 11.13634408440074 30.996583256067993
39.647374307150514 5.3380491763052165 42.10650341074218
39.066775853783504 7.025140616005353 40.76501744714729
36.62861276429993 8.781683492565758 40.76489503053109
34.724969535671185 8.561340940249774 41.71971141626174
17.825742136474982 62.506554807295956 76.93306170655161
19.456835746089265 63.47401616531911 78.64746584000268
45.16083527608046 86.7420671857301 60.08156174969337
59.761128427203175 13.014682915148287 0.9405374911276989
51.57723139502466 38.36654425503883 93.77831879158674
32.13748274781704 85.9425293852881 49.27392435818297
32.064721849552285 87.34380638464995 51.43611731978047
33.44096516613975 87.41708126611246 53.481795158518295
35.841320370956545 86.34445524356049 53.87330576895702
22.829336379064166 24.76833087574523 15.530388241404038
23.836844338457183 23.078750252567215 16.476006912389813
61.377016689661716 33.86190361418969 19.862132336876776
60.115147797660384 31.998670544478006 21.439527722908952
14.708493584954095 63.0881968759452 49.64003862146795
30.549237929325276 20.7596200952368 50.39629330526634
31.364255423868663 22.340096197748498 52.4610714221406
31.07095394368681 24.756080323802454 52.86058741264645
29.886320041761145 26.489385771985262 51.47283757765027
39.297460231726106 2.9471097823976597 41.034585292974114
41.073386743610065 2.9615860383498194 39.337265065746216
43.7604929978813 2.545519807756732 39.94591708742825
44.81676381972909 1.322420357772859 41.702298188765866
63.33188795705944 32.991717052047434 21.630728451806363
65.7039477633174 32.30828101729701 20.918851598275364
47.853167882798104 8.36212200332454 15.21172680944636
47.27093547401203 6.24836419958479 15.870949641902879
45.583024578132466 4.44101055109518 15.02448022546317
44.46830748732911 4.050421961267469 12.744347305816035
30.602400829760008 26.000154684592538 56.33686538517287
30.570636969822726 24.177043899260262 55.36236822170023
32.34261834819158 22.320188381418298 54.96238688624443
34.656070325273326 21.990484787617664 55.29640403156716
31.253769626072085 36.11755179538401 67.55414133672552
33.17971336741794 37.4759067606708 67.4942654837686
35.270201931141735 37.79968132056134 69.18477431934107
36.19961253686126 35.72283011317159 70.68255352830485
42.37495500220819 30.35427292599123 7.6291557771022065
43.672119092869075 32.17212936544211 8.832476180842137
54.3240973648922 10.586346820303318 23.499144656094177
54.368090708287724 10.473004216801035 25.83378081633856
55.50095778645109 12.410108421142159 27.38500748663852
56.00296838262917 14.622159553931196 26.649225070337078
64.08840037153888 30.897735012177726 18.741062071723963
62.44937672902933 32.275909311625206 18.099669108952703
30.136931649366133 20.14397101357856 53.406223497660065
32.06945027534937 19.68563345197558 55.20498598690734
31.86507263515152 18.860501875751186 57.70155325618015
53.544036540248655 30.997325604885674 9.83297395554408
55.47537429120676 31.39416694119429 11.027931617174723
55.916377939099746 29.924101942842015 13.198061402712952
54.142488269823616 28.447041120508807 14.246424008883416
62.451652308178396 10.2436864091626 35.945950300602995
63.556919654581215 12.528908059249385 35.769527169577856
64.22644850230719 14.228356688928963 37.4638967609535
64.40880732771599 14.03587125780263 39.755710000456865
31.49220152644953 85.91090072703489 54.392903376941
30.030599108882626 85.66239760986635 52.27949390055885
27.607199424204875 86.52725785022669 51.650853061117054
36.670395182567226 8.004565699592684 15.030133974168326
34.8928904048515 8.639660848218087 13.701031234005319
33.27491022131091 10.751624279475918 14.053775146406267
32.55418570169157 11.92884743007188 16.30042290253362
28.535500441679496 3.9554491250986423 6.727765691455518
28.9773203328417 5.667301958892578 8.236879561501334
31.168159692376545 7.289550255920586 8.409956910124686
33.40198919199998 7.108290143673751 7.580336858607678
35.64686958901524 59.09652388217448 60.02487479733473
35.25040743043826 61.55828538717434 60.5569916300274
32.77494849339463 62.62187283512504 61.60541045918895
31.071571900639505 61.610773861115405 61.66025733559842
48.64431992052477 1.6328559180521596 17.061999188776838
47.76486051335747 2.523045101497182 15.126814485779892
45.743919263476116 1.2721439760255524 13.467973914042867
43.953035219433836 0.19415504606420603 14.071958305884422
28.246083688748246 6.022506027015803 4.880987627694483
44.11846951844351 12.860516364401079 19.493402641427725
46.64478342222507 12.238808751280144 19.940209340871068
47.945456064742864 12.897136719400574 21.679915827784967
48.03341570394526 12.11381656361909 24.254491805025992
25.882973043297152 73.5910817273165 42.66963238083497
26.643200321885622 29.79453894914514 56.44910950775443
28.77140860794757 29.666250608771044 58.32276462650173
29.0934698291205 31.28306476584199 60.1582307639142
66.17265924151518 48.481799177951295 79.75457577882351
62.28451076486983 42.886366271059025 76.38689058506665
64.46720152432943 42.72423064701142 77.72521638881045
65.29111267971835 44.736421597692434 79.6038624172432
64.03744489992071 46.55023836334308 79.82595611654986
45.614271009070194 9.285722508153862 95.3647145946898
46.45619274139806 7.0445846420719205 94.86895858620642
24.886644166740215 52.91418675633269 30.498614873956093
21.984890775491834 35.25466151264707 28.47258325709597
20.82054313368731 32.36003606608751 25.8530624623835
23.018729456494984 32.059253670788806 24.408383867747723
39.71183392127264 8.215054684224729 84.55108944813811
40.090450464795225 10.315989966485578 86.32161554388082
38.508112371499 11.266485448153231 87.75403941068117
36.16208727014183 11.278414193239499 88.0016671175043
53.825147153197406 5.380179266358839 93.60490829695674
32.06194472614871 51.59281876467493 27.191773503878757
34.77051797385762 51.6697494661163 27.737124215818042
36.714623962777075 52.270158790637836 26.276530782695133
56.33547973261314 23.308306601215335 80.4859161550391
57.77779047516857 21.58170711694749 80.90721511029918
58.45592048929163 19.335372166998507 79.60890521765634
57.05993285683825 18.46046303901348 77.45687659992576
42.62151150081994 22.69169109143423 76.3478480399836
43.811520314001186 22.499671051286576 74.19280950130481
42.84795162918532 21.0670080429142 71.89515056062696
40.97208524658808 19.5749390918293 72.4879541000668
35.013522002382736 16.926057704776174 92.00427480864012
35.76877297677175 15.825953931640719 94.33306638985543
48.70817259639073 4.430351490845975 61.28759644160238
48.42116641635456 6.857640232045571 61.7840094143702
47.70918520343246 8.141533993367592 63.35881033594606
45.72524086289763 8.625900366795832 64.04672076218671
35.11860134045064 14.553831467238608 90.5695525708415
36.881412028331226 13.408128366976975 89.53809792198724
39.08893883449853 12.385464695452558 90.78681015037732
37.85844379773545 11.239111150681895 92.9254783895827
63.74198518517479 24.532858767013302 87.37071787141268
62.58060312770315 26.109140161140914 88.96765195389501
60.768116859946595 28.000090034849414 88.39050803646788
59.563261937247 28.33433511682126 86.48068805760654
36.825188597872675 45.82308109661328 27.057903279061094
36.28052935509358 44.43550885949083 25.919680708518875
55.83946460840494 2.959412371171969 61.7024701417746
57.82072909007541 2.761227686721967 62.219394125938486
34.37404002389065 23.90801283097792 29.30865910552892
35.273587036686806 23.212960532166946 31.256789944279966
34.61701571715623 19.805944614923128 33.11174103863037
32.075707648018906 20.383146113448525 34.023498074951604
33.899701132351325 39.484466445098725 16.20817218937885
21.529470989172403 39.588724582507815 34.67065796147462
21.888964778788566 40.36565237530903 37.005046982936584
19.97575401531694 41.08778683240374 38.848649952868314
20.18230236111497 41.234499308346045 41.38707008967342
20.888732817437134 43.71196452963801 41.494200240894855
54.167633174014234 10.126163581642967 71.96356181730718
56.55672685826991 9.257422490406158 73.16166797066585
58.54758125887059 10.419151830922177 73.28034429209548
59.22685091223748 12.832197570064345 73.62074284027126
44.08278277202232 9.441994592706362 60.94356971341119
44.86210300946331 11.181930609288278 62.65821987794841
44.0543280281133 13.461918997245142 62.94325384288457
29.371580733292422 33.58725938868783 28.564352897008835
29.03670377503535 31.94262565220111 30.324353474562653
30.01394631877996 30.162734422587725 31.30641202376098
31.25085408583963 28.108474233046856 30.19568319327675
44.58848118449372 7.102872137268463 92.33507207806396
43.49459934598143 6.647770401731092 90.24550984578448
41.87344681446657 8.091292246291681 88.80617515592245
40.11516013754379 9.594180005963048 89.39128619684664
51.970678201855755 44.06812787134105 90.98499314390313
38.099620714274515 54.43417633883461 26.929933563377894
35.69492073747793 28.028059286526542 32.2313733651799
33.87294924444786 29.141130018979062 31.32711960576412
36.29251118210338 54.61236803627071 28.921889246836884
34.07291894169524 54.55552604798985 28.614501931956866
32.594284010816615 54.541596236218595 30.71922464141626
33.21182711552249 56.65414248841559 31.689507766246034
35.28545174913468 21.807723307249255 35.407377751392104
63.0081247792303 19.94138350269801 84.13923859821483
37.230508664744384 19.805660035418555 67.70234809282499
35.22404965092612 20.221179546851307 68.40619684204819
46.43510784118561 18.3500551085076 69.16787000563087
46.32557414188042 17.013743125392523 67.44614156637266
46.977044394994785 14.7210493231732 66.82305215239953
47.76704986290712 12.918268623632013 67.75151820189204
29.353397739916893 14.666649260654303 44.7723005825851
28.11601028695954 32.35486583602702 34.665964121308335
29.128701099310476 30.095445460980933 34.515895759664375
31.437397872622878 29.408079939651405 33.2416594343387
33.43508929731163 30.740397802000356 33.579684474186436
47.85206747222357 40.28265691310974 92.44683736531084
45.87611001961779 39.438875717292326 92.28055576621533
32.76009110310346 15.930005540828182 48.36745894070606
44.275904639491664 19.28164840954372 67.56288514411263
44.08331478795628 19.94968224943504 69.59921823194013
39.861480716621934 15.644536032576587 65.08256311864695
40.914109885132014 13.839021112051295 63.571963876533786
35.243673913479356 15.79227768875453 86.75430163907912
37.20099978189696 15.740704995599323 88.41932750219462
39.4677389632643 14.335410421110215 88.25683750176746
40.423555912262636 13.066995137301816 86.63365161300399
59.13003598557189 0.7774071716225206 66.87738933795475
43.530268529515936 7.944653434797694 82.79726962962066
43.39417070875368 7.913824155886003 85.11167483466909
43.164830273018744 9.6205130698642 87.10824108539155
42.836762129175796 12.031712939885159 87.172814255708
46.562210495701066 19.022546148048843 65.78919464365835
44.73132341914944 18.248000226138434 64.74538979404957
44.60119628580946 16.097866169284558 63.066430484739676
46.23940473707902 15.048967311645146 61.82783292934635
43.19616930305879 32.89395152681192 86.45875327663231
41.99700692677328 33.341594520876484 84.31932838023039
41.78630907964494 31.66115846994261 82.10527351469892
42.498876190265555 29.28457145821573 82.03632890267059
37.51776544536191 49.57698995895724 25.901593822076165
22.870815415967 28.58447952398493 26.437137667808905
22.616952883723723 28.45027837754525 28.3333343099128
58.83672752982285 32.03377141624066 89.29954085339737
58.23805797615586 29.84029571341268 88.5581954388743
56.41408020102118 28.766028417122392 87.20814161696718
54.655870306604406 29.672661069266013 85.89188230672815
22.62742976092893 42.86987833157285 37.43616138272786
23.053468802724474 42.423078098532294 39.339580218288994
25.461594450232752 42.493468434145335 41.08299353435681
27.240803128840806 43.41821801518216 40.85131356364235
47.66701838133145 4.899826673311859 58.713864047955255
46.07016935583658 5.405111884645177 57.62359478096564
44.31655216856982 4.066277886641357 56.036336427991486
26.714323609504536 38.09235108741089 40.66238546292495
26.32795325687973 40.03892146416094 41.63404633030256
21.12880750453804 35.070898480463974 31.587768206828898
22.67008565562145 34.770032647973785 33.31688490785639
21.951415323648366 35.278324736709045 35.640621432261604
21.18823868738942 37.327444328423596 35.9937055856024
24.260951340294945 27.3484469817671 24.24280261690019
22.918363386100502 25.56371077792014 24.474618307251497
57.137122540968065 7.215609783530452 65.99545209325916
57.52756619222288 4.889603447346891 66.80083358955042
59.66702493153658 3.429157635892372 66.18849246289312
29.234400701537325 51.486572499136535 27.515018504594956
48.99605287325459 6.482262123009023 93.76344345888016
48.44125929305162 5.000090580273057 91.65238078489276
49.387545899439566 44.85435048388438 91.06010107837398
43.89684096403357 2.50233149168572 84.94880988534948
