22.890712724481983 88.76390208134745 58.53728447688165
24.984313523219612 90.71082415278073 57.723280879574055
26.135419652346993 89.96832376453831 56.14386297132961
57.91986165725893 28.640314440366144 49.28745943953753
59.448058255207705 29.750144745758266 51.06704826546429
60.6264352968696 31.88244582550635 51.268089850259365
60.4482348690048 33.79860153672252 50.33402217207219
3.8474332418764434 11.558660994023432 13.462928652296185
2.4283181433839367 9.912600001620632 13.585632199347707
29.544881023937513 45.91541220842153 63.91356603605001
29.18166905760388 44.65772548297077 65.57379854927966
65.47128024048804 82.40340245960493 5.612938262458881
17.67717809211755 72.53434012938459 57.48472625309124
16.228961112163173 73.51303019754008 59.33872100634067
16.142899110901855 75.7988624829835 60.48935969199656
17.439521019180184 77.86977215618967 60.27064372403927
35.35216239154542 80.01051358497314 71.99469426842363
63.186128554455244 67.91479805056902 31.22005948349715
64.55768660536137 65.64849196855468 31.110038272960765
66.45666771633128 64.97023763960489 29.89193072126153
67.47539249009598 65.9387075626536 27.701037787725596
8.404904518467745 89.43380309783333 81.54143166475211
10.86576815634799 89.9147590921461 82.19592996646114
12.076504196420258 92.41260998360856 82.75253937760151
11.244430252656487 94.31779883518655 83.10531612925045
17.254068046228745 60.072310994605154 38.091342275849705
17.504377949995472 61.690295030636705 35.907652329311595
16.17969164698855 61.95309280443599 33.88051985369537
14.233124316897117 63.56983964230107 34.62255837893032
13.249850771851934 76.27111232497495 79.77561860526005
11.02016500270182 77.43893507977998 80.56307791771195
10.587860296337249 78.91136731657143 82.82463607253942
11.807938098157365 80.38153790913925 83.94793418363078
60.06319708673794 34.27215124162122 53.52018359075676
61.7172437279337 35.919078897947045 53.504356017708936
62.03875299797811 38.65186517829668 52.60398425927026
60.35639583179759 39.974659119806816 51.78304697203282
44.94175847736264 68.65687145598723 56.472789174463855
46.26786478414849 70.14028395355801 58.01764424785024
46.13726135724662 70.85888425787095 60.40757698698327
44.757056533291774 70.26276148463388 62.403256209043604
39.85290017191399 91.2543931890492 41.13226242061736
40.58836799590954 93.23788278455982 42.29513411407386
40.86494204627652 93.90389611258405 44.74674340080547
40.46838636966275 92.1463491074004 46.96911968042121
4.900008725679095 59.008780432605064 71.63221847431304
7.06611333375313 59.48200952648273 72.46922532864714
7.804603478682643 60.254556906469745 74.66568858378348
6.697872106288578 60.01888220974851 76.82922632080333
52.47460414481891 95.85091048945237 31.553881378986336
19.312190764642658 61.52919758966733 84.91808288493705
21.66349312078475 62.07827144035367 84.75140595778244
23.15963552394851 61.33348587628165 82.96506605541136
22.62605821947334 60.79875702511557 80.38854643764839
0.3372985109974733 53.54107506521416 42.941543260043254
33.95738041510527 92.47014483842912 51.1153633510459
32.62887653885674 90.94804351858454 52.01066134223044
32.50104150687496 90.17162333497437 54.934046169604585
33.339760214863006 91.70786817433691 56.694149282947436
47.710439735553884 95.23743686627874 32.169281509160854
12.09907806684237 42.369610126486606 55.90752644636975
53.159720589182626 46.91481785815523 36.628416469056305
53.41118179973702 49.08506781103803 35.09369901341483
55.457856920501705 50.81780662872269 35.096309859023826
56.85728657715949 51.34780798145882 37.184640312770284
7.531775201606817 26.248534188666014 21.85715584433736
6.938455316630469 28.38798178124535 23.3585953179617
7.082071435120776 27.98658810533384 26.06098550536677
6.099261034333954 26.208508539426017 27.24542648644089
1.024824948443581 43.90951842597013 9.062119698104434
0.9344392046282675 45.910868270849825 7.904582022454988
2.5050631472793112 48.334410783728735 8.27990265547654
4.886509447995361 48.27311145342587 9.565032837983509
17.514422062024583 71.02966215647162 55.461614332474845
18.078679359410422 68.74613911635446 56.23462239547233
19.737540043718877 67.00269655035508 55.19299739985068
21.188632309289872 67.09968432632442 53.43420216025702
53.08599268992048 49.67730962558656 62.36689822245382
53.65895230086642 48.842020448787885 64.53035604517981
53.372038140235 46.040021261248896 65.2358451542522
52.43079497836644 44.12442544794852 64.16951173715786
31.696858619389314 79.83570957574061 21.378423351043384
30.28736020388957 81.9109768587953 20.92939140814232
31.130007842672022 84.2712563630044 21.07941944199947
32.08020672746581 85.6470163386406 22.599401801829508
28.53812391218789 62.279993170687995 86.26985567225358
28.00310078605862 64.39893167118993 85.2038141400137
28.088577628717122 64.97971823802237 82.49435977119647
29.801256777443037 64.25972593165196 80.98376466467592
6.417172600758153 44.16022527605977 25.511927301042757
8.367742780146763 42.414350530472106 24.907105179411644
8.428100394629608 40.61177444799015 23.132202515907128
6.856078636574479 39.658993064705975 21.546030880120746
7.158648429483838 8.78250116976848 7.731947210742001
7.989677313790615 9.753922618887588 9.653784647704155
10.184792259199563 10.943727339869103 10.334475278617347
12.36927131239029 11.444943083268464 8.528937348414136
28.468547868904327 86.55967749275784 18.87536130945393
29.956931376864915 87.78708219254892 20.361970599268307
30.296836480675932 87.50682957539195 22.87708964457414
28.79638833510858 87.68343447253807 24.556960891668872
20.372328070672797 62.64594276485193 87.45307514958242
9.158285698075735 76.1444247270869 77.33011462911216
9.769892506995099 74.23304603201254 78.59423654648809
8.123152247804985 72.87705410791717 80.56697870351535
6.023210417811575 72.91237739771523 81.06821608729302
13.22036200790817 19.534106265730955 9.25345094132121
13.302226499594486 17.470831436351652 8.320984283157927
11.334274434691068 16.451547823077135 6.269431918063837
9.086956136025211 16.790613249390976 6.404215795003055
5.402821657907006 94.99424216317628 90.10280651202363
7.491404636695481 95.70768472091869 88.93548617618052
8.749618707715465 94.51638374379075 87.04389816991693
8.364465124852517 92.8827223942183 85.22985879832882
21.477402253008098 70.38848796587872 23.611855120180135
22.355635212977372 72.40594848420342 21.684152081369046
24.407600774533037 72.02842482667816 20.182198369390978
25.48859009118316 69.81816213763231 19.48974764826876
60.99426414856895 59.124732834768984 33.6639575381092
59.44479460131984 57.520478163525716 34.328948963674165
57.899272592409424 55.83695120721111 32.983327932771076
58.81512833513882 54.53199034981944 30.890284167592494
70.19415149324878 90.80940519101912 2.5141302566315846
68.18143647927444 92.14640105760877 2.5684379146591003
67.10149731681976 93.4997978047397 4.52677625694931
67.16343331858465 92.72125985673033 7.068276908103783
1.032584163493733 76.2260164256364 25.26440233403346
1.2852767781234402 44.84875605312855 46.466620384623475
1.5887551020543897 39.08176052956097 45.56853739112542
3.051715122611061 12.924013017922558 15.519814075531986
2.940347954908721 13.122717506855928 17.785909571083653
24.992652607084068 47.86433528792703 40.515164422388104
22.818751676199895 47.862327301628206 42.40416193609844
21.77773920853037 46.01914558227479 43.44349937327515
21.616505376185767 43.525789387580794 43.13584881138085
30.398365271809983 61.042295091435754 74.78189098256735
28.967828130429698 63.21750934050644 75.14335472768926
29.88345631254237 65.3507827320737 76.63676567044571
32.16866431672861 66.09216378950316 76.66282224592982
39.548713831982184 21.40464104729773 38.33710238370008
41.33357318842018 23.132140074808675 37.10812026606013
41.30559080236906 25.712607212433728 37.7274364629296
16.08905093815429 81.65760143106219 81.10276735920404
13.683105476499456 82.21223657103916 81.08774692749257
12.18798094697481 83.14575370903519 83.25908915583469
12.759615889223776 84.58320941323545 84.92371992691402
32.776957037361946 68.72991590293412 71.998206029442
31.177859693274968 66.74081114428334 73.36787438160273
29.237855011396977 67.2338274231093 74.81241444357457
28.345134041129 69.10632345774228 76.05017403663267
32.81170047551692 71.32822996088534 71.15211711858224
35.00091779221114 71.02973666918341 69.78635612370734
37.39990023767048 72.01360688409862 70.15059247320701
38.29355778647589 74.34695819876133 71.37277973455132
15.075110362278508 29.761563108372403 18.904517067297625
12.9077660935433 30.618284734112653 18.8208880460473
11.420151993930105 32.07563282254572 20.361248101985826
11.443020222411079 32.997875219010034 22.671671704462284
67.9592475608486 84.69834081228475 27.782022521394893
68.51411532061003 84.83735892836673 30.213738698671524
67.74021059079459 83.3276622750905 32.330463188274464
66.03595323040815 81.22571410839357 32.52586839155728
7.445106776127605 29.817282696463 28.45744741358944
4.9165270339977685 29.62394723612351 28.563886027922113
3.3111557217061103 27.90683663429936 29.925585022895238
3.9214853322511325 26.026602043613376 31.517383641219745
21.705060534447867 23.434867574274868 30.613996544383745
21.967315797962385 20.881171627174673 29.825866929981167
22.445286593384 20.12398747675686 27.35812328866066
23.68518880383395 21.62391150931091 26.084275112016336
55.47380213606947 42.544875070611 65.88365306330951
54.678207344762235 40.107324371424134 66.5287056497933
9.58298462322828 84.22348751247239 79.9368758370359
10.759289173926007 84.9335243737397 82.21974080769796
10.305382087223801 86.4734222617035 84.14290957849389
8.15534588126817 88.03892241980357 84.1542164298609
53.74604859589481 45.68645653023674 68.58853781163063
18.56837199194235 58.908852315034906 82.3664779300453
12.172086548894644 60.13853825909332 59.26681690844703
12.097596414709402 61.421232891986904 61.27693941910891
11.605738217825898 60.64069375726486 63.871573784286454
10.723459651408092 58.40613295000531 64.86172116281628
49.87739812561761 74.57871621127866 53.945275509279
48.60121977288071 73.27461535424392 55.73069502512479
49.06578617979857 73.14794769145831 58.46985043248337
25.211260266161226 19.744015634142524 30.907617173573772
24.106796867018385 21.674235287083718 31.443283219313145
24.518204842288736 24.21381109460659 30.884031999527195
26.52884543595773 25.461189489402138 29.959244557949738
21.034146674526415 79.50084442469075 2.738161288612896
19.03743555249131 79.82175120056726 4.458130925259978
16.82928138491455 78.0048051958086 4.361987105970631
16.879744884550053 75.64087689747015 3.8347630283603453
0.1485900170548926 26.85213225651131 33.63947954509239
2.060883639296843 25.608738810244823 33.26029402850461
4.1086373315328135 25.422537181554038 34.24182344676176
24.211594856288148 51.912652558089576 50.91335966893289
23.48359506801108 51.50645794632224 48.5086364265507
22.212670632259933 48.959961582806876 47.61939188037045
21.873431032603747 47.224771965134416 48.35911471822122
10.416516892231742 73.86378830812839 44.81799998632452
10.575931534333334 75.72656481934649 46.02521511402544
12.197715904725156 77.61889257247954 44.82707432596022
13.952765105459273 77.29729494657 43.13696912420156
36.686282911602916 65.35777719000578 0.6981369881361723
35.851034508776046 88.26861200441837 15.78594649756899
34.02285062699324 88.66274777466721 17.038882639416183
33.31471486342254 87.56674497577325 19.627504198720477
33.547278543008574 84.7041309521655 19.695756812387827
24.02763927215807 37.762023842217545 1.6362434075847159
21.624310478177076 37.90471737452804 2.114052060610434
20.302803466136833 37.55306887803443 4.221122992246272
20.455215217435367 36.38527242605424 6.1397942568738975
9.083513229915889 52.36021136177415 23.87906992038337
10.635182819129858 53.15478550829959 25.01332725754353
11.455280658985245 55.70652511362956 25.98258951051499
9.698435945781643 57.56828615302648 26.714361233520798
6.521030015800012 9.498793900138683 11.709642045355737
8.088993063977975 11.342752976623173 12.149074029674143
8.483985932222831 11.926761192365861 14.431545158570664
40.04454241647107 47.92530803070645 17.859768277433194
40.397805088122254 50.74339346706812 18.312886464487033
41.66341713304021 51.81218539636185 20.54528835249657
41.74703677873386 50.968948121260425 22.539144379241183
33.47030366122925 50.60754205798824 29.514390743934822
33.006673914574016 51.28791670604184 32.203467876962
30.39698596749622 51.50824927720235 33.016485807410085
28.543925794453497 50.044163955516694 32.345171179144344
10.285200721357011 63.1721407945303 69.54479445132948
10.10080954256388 61.094837695008124 70.5646201719667
8.21559586983055 59.789233744338915 70.15221114965506
5.782959571766506 60.47785801857536 69.44638972370582
27.646416850876957 77.89648504142718 22.41444997171615
27.634828348960497 75.48608518180377 21.87384414578628
25.55274083025641 73.65242856056992 22.201374329367134
23.341044592714283 74.1580423397216 23.274839476451547
27.06751046869497 55.008410905268974 37.959029516167035
27.38571714918764 53.29187480179399 36.75741423978997
29.723642042956406 52.20111319389372 35.71209234118893
31.67149532932295 53.44570290404823 34.76793599914116
18.564418412483974 57.625905939293936 14.499615591041577
19.527316415428043 55.378517800537644 13.443461601214542
18.39459181350756 53.4076575102816 12.476496017732986
16.614443038534045 52.79406450693196 13.270727198586947
35.25275546039166 61.8723694898853 34.25338850794066
33.539680793057784 61.02691765387952 32.90828880766299
32.356779635014185 58.237968449427306 33.01023483949476
32.651075778931904 56.79890866377605 34.54698175266032
37.635599774654374 95.23803279022337 11.83433771401723
39.94539910305985 95.88452699577188 11.269857424971347
19.05967471867413 36.972378810608916 8.837997408095214
20.480801743538574 38.7563989148087 7.283681030062179
21.28126975892684 40.9760804797234 7.926658424159474
21.87535801234391 41.8230547978238 10.499808251819
48.517126624310784 31.5332976215158 35.09792384840059
46.96487942789648 33.19570397099542 35.153146558048675
47.135003273193526 35.81649874303259 36.13341841121921
48.37467602991367 36.654233723114 37.76819168205608
16.482025963694667 32.892926530660915 47.47197669076768
12.527433712247438 93.66896896959656 15.438996279347853
11.943982536820998 92.06209890926145 16.477690764786274
11.496045052865073 89.68313837489193 15.201265813751755
10.304613148401957 89.28481454734518 13.031957456289256
21.434521709659574 25.84041245185081 39.48501615406579
27.14534209851984 28.83028127945002 32.91290238454047
25.011715235601894 29.4514591563829 34.15315518943708
24.362058514175693 32.27267781137898 34.66894398397166
25.884115638267534 33.6025239203843 33.18300749207374
21.25574501459309 40.557881507536635 48.45157525550146
20.23656165760564 42.46441457542548 47.097965447094225
21.065175816293166 44.50941941668295 46.01359658290937
23.070195695819248 45.73415561212844 45.97394893963933
31.106455031446373 54.95082048026327 69.28353998752809
30.56439416671715 56.95827407893442 68.29795828099209
30.50624942119136 59.45261758210953 69.08815350023076
30.477397054093647 59.86760463061426 71.24861130643858
37.0079692434439 69.65309651599516 63.23548150342424
36.64652110345251 67.74195136397161 65.04274623925235
36.85940899695421 65.27809306306669 64.85247165375266
36.6142228728621 63.8421633301046 62.76903531759314
33.85576781952579 76.46077133328572 15.89325568862618
32.52423186012147 74.7532714471299 16.35355977265401
32.61331843496563 72.34923325870963 16.148162560356205
34.23330810523546 70.53350197660015 15.748672242836983
37.411721872835635 40.31823224431761 50.06123365186002
38.28175573618237 38.64920995756387 51.84768896909648
37.23639828050713 36.67728845721753 52.911454451141104
34.93096956590409 35.911396859155616 52.7263394765524
27.803650427321276 70.53978765589844 84.77935830901528
42.9136367251298 95.52115751963058 7.53286914259188
43.69965436080293 93.65446262857935 6.04539099750272
43.13408078178557 30.824673905458422 43.43164301290221
43.89952590068945 29.739597265429534 41.34656070276393
42.373568136498534 28.091230200911582 39.7308331213106
40.96753741086341 26.24937043865745 40.534366475600706
39.43255369720853 39.639995670109585 54.63502586196468
37.12930481273958 39.074859432097384 55.53541175462191
35.98543008409894 39.85084581865017 57.85555442094621
36.5363714181913 41.66468638687625 59.46075357909086
29.807785114300092 48.69729327174328 36.480912797843736
27.145638151881762 48.82651207506647 37.20318894528508
26.120946324818654 50.06682126393323 39.22673788041177
26.59862465470517 52.15988451379504 39.53789865733741
55.93379133796507 45.87738370561653 34.33553764408907
53.84055405845643 44.754602381208244 35.03513360645733
53.12938909519974 42.301126168831985 35.08513984259616
54.358313530512696 40.23842888918263 34.48811819039296
1.5326799209707846 66.01366649425412 48.02055609605621
1.9236267247021699 68.6229737751528 47.56097391040552
0.37377559287996537 70.52788751741761 47.06047279544986
11.841984191586448 30.246077673770575 13.180581382448304
10.701929398724136 29.181504829497335 15.19626284323095
10.129577752588576 30.64868564712942 17.532199931147176
9.880385897483025 33.01970212352306 18.03958829054852
42.73741267077238 24.554986591426594 34.42590558307546
43.56540092064278 48.917719998386374 58.46630607689102
43.063641375115736 48.72934534843137 55.98201672388199
41.45453547385406 46.94296267390624 54.636765143784174
40.51932910140803 44.59966185588614 55.901832520739866
20.723251036672078 89.43526323909738 34.39541483081878
20.48765798005358 87.16115319722466 34.75081210723297
19.198397272239387 85.84286040238837 36.443274488941356
19.035253722603315 87.0362570909443 38.53805618181097
49.972983598855755 41.89671105189658 39.15024660069377
50.81201061559722 42.120289636674805 36.93083924649296
50.81465353098206 44.37402913881137 35.593734335941754
50.3212659388457 46.944173248099005 36.75906855267783
32.91496531104629 37.494290129272066 26.057755236367996
31.987299086680864 35.68357287321953 24.895362164804208
30.754987907840665 33.33134910560416 26.310410889665285
31.145036041861427 32.70145176067648 28.70887444411998
52.5545482448142 83.48834487736976 14.909092558200939
53.66734913292023 81.87140200469075 17.01083344242118
52.40367435204475 79.97019506118082 18.10605642610466
52.35175192223526 77.96400061216076 17.196135201566403
24.468876336860074 34.03768971917716 30.85758485210903
26.552875140384604 34.46288466192352 29.830580286591495
28.106685007448377 32.92125004739497 28.270152198841913
27.890042286205873 30.45215160099075 27.964182930250978
28.149887029693012 26.204678950978785 33.767551244063775
25.768540104980232 25.847034119280337 32.76813993272646
23.76007772819971 24.52360803372094 33.6409455828678
23.102725255289045 23.983001211183563 36.17721705947271
43.21363940889306 49.46078387438439 45.88107901057872
44.071707348040036 50.883019471008225 47.87146792871968
44.941574852936114 53.34677142807467 47.75674567287825
43.66004943663607 55.38416626211057 46.64537460901958
44.2166641425151 33.0833798850223 44.15312213032292
42.80524669962136 34.91855445031662 44.20248190122284
40.66551027011165 34.41991824527408 44.731789642909206
39.32840431803465 32.49654013524629 46.523984997930825
50.68191252375918 61.50808020746433 51.51284003513622
49.53619374138836 62.96146407813736 50.8126691107918
50.536714428898506 65.4925636731862 49.788993638298635
52.2386209742457 66.86497333985791 50.48914595422818
4.593418423074183 68.38576986321478 2.898077119607618
6.038744096988096 69.46766961567835 4.52878555566209
8.937384698683799 69.17460346575491 4.661439783949234
10.573478984069952 69.01047222237618 2.9460510815214507
45.93407728599548 31.859479239232563 39.872178535773195
44.383879910654336 32.858269586543805 41.06024282734751
44.53836457780997 35.303436827091694 42.227112234421355
45.69113749026586 36.81659919274002 41.46316117704199
34.066124123201774 38.28052334357379 20.739907282495654
32.235758291834195 37.39153967654043 22.359332050550883
31.16425017142073 38.41700391346097 24.096557957835298
30.637798919001877 40.548778576461814 25.00452576715577
37.81801168558679 33.44351889706649 17.627018679239917
41.40736514432958 51.01613535336566 58.896302972421424
41.51018518346863 51.43917258890308 56.498184164357234
42.48414606116433 53.66759581836047 55.108148784210705
42.58033894180715 56.144682566703814 55.80930572468512
16.503074281747207 60.31614979787059 29.667114076082004
15.518119241859152 62.57462053424566 29.524302332260444
16.55552018359948 65.01139174372734 29.701834841477282
18.25892680318869 65.874287743053 31.50760852627596
44.45133792924999 51.012208264962446 56.29775798655157
44.38295116333371 51.85685262430745 54.314626140989645
45.6348129155326 54.01551636143778 53.41985991959996
47.85156292063414 55.07096457812936 53.95545152193619
28.911078351270696 43.23034292942755 63.052234557716
33.44192511221797 41.03062788010486 60.249054226035
53.685505143435044 50.13494086521492 39.94558758435893
54.45546423697756 52.56556529938195 39.71294195276958
54.046107663075176 54.78102951302404 41.494700050313405
53.46841357716828 54.55186844580225 43.73135173302251
29.570517706404303 28.43786533053912 26.796013135820797
31.236399990429653 30.442198656639704 26.356425797687727
31.44487007599801 31.76720680861599 24.139045443179754
30.722848460111003 31.18399663645532 21.651457899226024
30.067858791726476 53.58216951611445 29.756085931142923
30.318033429417056 53.98480547743132 31.94433356067621
30.329071316719688 56.14651934121628 33.41709575806103
29.941642433955735 58.93263748184852 32.41119407989281
21.5010642097577 61.53680461302958 10.63472979647093
21.435127111426453 59.29300959445798 12.119295260803066
20.314044868379714 57.32196709427024 11.621772984180623
18.24104785356466 56.81063084019202 9.94323730804232
36.61356003336226 34.82909216344476 19.69833754365619
34.76776997059981 35.74753486124032 20.850557667318117
33.45635301883849 35.042661485758295 22.9323867599364
33.89731612002799 32.838644872610466 24.340147011764405
34.90329238979453 38.73501627814309 60.12570640680075
39.61482273389007 70.07204582113141 63.44936429059534
41.59420186258062 71.87098777401988 63.58246056532648
43.35016137890863 72.14265854909186 65.40338456047293
42.57163052944281 71.80953124869491 67.19691443646774
40.72346778657085 33.62497065131373 41.943901083971795
41.74488945078694 34.93529615462381 40.11847515514166
42.25421517031282 37.58395656596111 40.91370917993804
41.09533501915047 38.23329265326225 43.305606201221465
47.33253559196522 38.27806991776547 34.528804049038825
49.43199904296777 37.314722073557704 33.16422390852842
49.71581094091868 35.084143914455154 31.839949967460175
48.60806241201771 33.48141708303561 32.54625761789923
25.553205056393857 37.30850123299885 35.28474925100903
26.557421690278343 36.45391811933347 33.2732637172052
27.01689375179335 37.29019012692982 30.931918153116136
25.687452706474172 39.40907226526888 29.905450874468556
7.5875401794724135 74.32791692817453 48.27746821749636
5.399646784585351 73.3739925132875 47.722651020630146
4.939172059953717 70.77586642626568 46.16269969314074
6.289689680746707 69.05875828551825 45.85957769477114
17.391889331129182 27.48413917304744 39.33127406642596
17.83354966015864 28.382558457662032 41.48678520943723
18.424539195421463 30.97934770987684 41.97201328627594
17.082370780051622 32.922283755044056 41.174588358105645
14.31435721746385 49.53577720531748 21.7772841456366
15.209609877368642 50.611830422335 19.95351956198989
17.250431173684774 50.32481667897899 18.48520789835039
18.971283554872183 48.81309368597182 17.8842472291088
62.043534150508606 29.383424693545553 54.318730885970886
62.018479096658666 29.1210254009577 51.92529994728164
27.818856722192898 14.94096109120266 23.48693802814631
30.29696480989825 80.19786599309174 18.442145009931288
29.127031501785073 78.4152668847394 18.567911506408997
29.237903902819706 76.06483896835563 17.239594865532098
30.3437371730686 75.44406551450733 15.218019732241737
51.15922173601684 44.89603781960475 68.02592519042915
52.9513448081103 43.404463735387104 66.73486934015395
52.395346159580114 40.938158716839006 65.68074596440485
51.78036554143977 58.11816558698061 40.83296994502088
52.69032020926223 55.963599152219466 39.58910442720784
54.12107740916859 55.71617270054689 37.57668935530699
54.60841051432815 57.33652829819205 35.52599489564386
19.62095620499157 46.09072033797776 50.18530001578508
19.254399580766584 44.1416160392624 48.98831290904633
18.822797883141035 41.42259380843484 49.64198869612673
17.753864876762528 40.76328667623702 51.60064851852323
5.360045295036963 65.99408200301987 42.032261556842556
3.913608660126604 66.97426987675809 43.565150360820695
3.32504189344181 69.61237328379886 44.51258430287192
3.386832603384139 71.52105046427202 43.062130958783676
1.222882742896013 51.40746542921144 47.05471377621729
0.026847981646361367 87.8999665432057 29.331758505461163
14.774813731821023 41.40019521682419 55.237912746074954
15.620736714561513 41.329391792400465 53.10125345774105
15.547148248731608 43.13537964122411 51.19369036281534
14.81620307370319 45.39133756210687 51.22035064966818
26.80484757363915 51.27308757464994 71.22678204597064
27.1721073022092 49.00974503252432 70.68342527444557
28.82989081792945 48.186633668894 68.48915753491235
30.230765348924955 49.46334825630467 67.23585554691809
29.86104359018474 25.5294459370266 29.38410773477031
28.45853653820175 27.298613777383544 29.585285723661805
28.784833779546087 29.665029074732264 30.428771580159566
30.81953676466834 31.048196420647876 30.874000129067877
0.48947973943684775 37.80253767390718 9.286300755610231
13.901016255617316 16.634974304859302 5.126312392911212
13.152504275106304 18.699767762268934 4.720156296843653
29.48078224516868 95.57199074043089 32.6971772526233
29.10657677041711 94.5587477546353 30.62444580388791
28.44649161080128 91.8368227732005 30.12198218838913
27.620063003582267 90.32757879703024 31.727418326174767
10.751739105856348 40.8088430095404 24.974896242797325
9.302545596494651 38.92260779600563 25.984876182846314
9.204334126374352 36.40662656983804 25.034202915104306
10.679074992668195 35.46616976613701 23.04063295388231
66.49672248422762 85.88792027494542 6.714272482337054
66.89349204154081 87.84793057661184 5.567388424186309
65.83598399697088 90.4245859303136 6.654765643251506
65.09524757976082 90.53416292121737 8.554200915506454
15.315873902511962 13.922203847112193 6.448933767469085
15.094373800938335 11.810812024836252 8.153833614647544
38.9139617809727 42.56193369313834 48.68671098713536
41.1347783672304 41.097457449162896 48.406434207701146
41.46862231985585 38.90614299374818 47.43007865734196
40.095582854886246 37.56639168870503 45.64716498684641
62.72686833248589 90.02541609617404 4.736161921792866
64.61056989933219 89.02487935820983 4.498398631939733
66.87025054635112 89.64684793180548 3.101777264036867
66.92396960185762 89.83950203636653 0.4853772955034369
49.984229881272874 66.01276240929197 45.607963505457555
50.36934410272646 64.22825019684551 47.54427143688514
52.35105991723943 62.34483115434461 47.53224945605108
53.31496257752757 61.05121547031796 45.626387765900006
43.80303848344244 36.93869033842237 38.000903767865964
46.02272135649947 37.242254860083214 38.830641012082374
47.43012535144841 39.38224967162706 39.47477926609835
47.21048405680356 41.65965709530579 38.218330591383314
32.12600460194871 49.5900582175049 65.02407305060488
32.20580292731843 51.54848044078824 66.40470219020604
31.695016128652092 54.041363419639616 65.93594115814417
30.564215172576386 55.13146000577247 63.663154314642135
57.57167960748174 62.357771125689474 32.927383065851295
57.88670588664293 60.061103880086065 32.41251419842284
56.27560195808862 58.04492346412899 32.369702247104804
53.88462139587092 57.884201996825794 32.94822177911462
29.47665796645771 90.28301058695618 59.032221396630696
27.407021032407467 89.1569224083612 58.658166622562256
26.798317855070085 86.65390856521056 57.95146441497067
28.129286051269474 85.68491718232562 56.612007412725596
47.57357247166208 90.11351600557896 33.25913483853837
46.17263122901509 91.81618962200545 34.020825121980536
44.6813805853945 93.77427990897182 33.09523629805542
43.94235743707842 94.18043574859277 30.6822384443316
37.241587251704324 75.61425902151065 68.57229852171584
38.325189432237536 76.9070677162013 70.49350146295303
45.171504601480706 56.43665446395756 55.576986237103505
44.10278694435196 58.25966583579515 53.71883790920415
45.470573805985566 59.657503820334234 52.131773691373844
47.950148244799685 60.61803875533527 52.757975876575074
25.75376131031595 62.12270698027251 85.79947284029457
25.506916400776895 63.732234406515715 87.49127053205031
23.590453168655653 63.6118402737232 88.69003666376376
13.933569450686097 94.63580867585651 82.76360578458898
61.856757051510264 45.54387716129862 57.15726182705037
61.688533784093565 43.87901154463803 55.47194524769155
62.222686470752826 41.22408424922591 55.91921368005139
63.54639595756083 40.07928886338484 57.705405226234596
2.6998464839033574 26.04574473011303 28.07045220823553
1.6110814638938873 25.161424471726626 30.307213842304662
2.552671673660805 65.3910478964828 10.044511967707543
1.1001570351436059 63.71516044810557 8.219972135909007
1.9069305004476347 63.70086913712548 5.562468870073778
3.072308217602112 65.25572505906797 4.825228079225699
65.26397068508193 47.37105056251187 52.223904237833864
63.555153423515414 45.51966455310049 52.69158419572396
61.30388141778581 45.82869702730138 53.85708161067616
60.54123960074702 47.80994487476441 55.6463504993413
64.66875495728209 63.38624532743117 27.634505019537475
67.0532480771975 63.36691681978577 26.674439148670423
66.83605533416281 65.02405036772123 22.589654791321344
68.06961250046385 67.59981814229933 22.79579304066696
12.80795118658116 63.61857616979328 56.71450869970641
14.967164929568415 63.74402976894521 57.6118766395302
16.86317406107085 61.74834396956858 57.843369154902355
16.925112795630568 59.70812053784614 56.83723845560005
66.46452478598042 86.70630866356935 31.623620091458285
40.03468073619465 71.10885311263037 70.01703382612575
40.345632778972636 73.07124922267042 67.9841003033105
48.748637003786094 94.49908060009606 34.534083113433105
46.66178936441777 94.18391336487697 35.23355288373193
45.62264566214518 94.01658484950978 37.81175654661437
46.474707325932414 94.48531160468005 39.67357228515042
32.59921848310592 91.24757153393513 48.93460268412249
32.35930070639567 88.8548886243349 48.67584262948579
30.255589461630535 87.41559976089124 49.60130493797445
28.73897876734684 88.4822517880801 50.84609146228599
0.7808599507516173 73.85200858973509 19.24418954578984
0.6785541661651263 71.37251988647142 18.181060059373213
21.634390221625157 89.02355958291382 40.61693404647348
21.32394982247411 88.67090441091166 38.559508494615066
22.648823236571758 89.22684932928998 36.19652305026043
22.772128820246852 90.83876612858896 35.66666948072932
8.988177133529204 30.399635563110877 19.903513886016015
8.898459867713498 30.76269615315628 22.053731007221646
8.721275978581993 33.29559453230608 22.963406187526694
7.735624268756459 35.00103000327229 22.195972740822196
10.256948609115993 48.59383862183666 31.119404796481284
10.240341505883544 46.55746478029042 30.26230775476393
9.863823232436777 43.92651998176301 31.476859637692
9.21787421523547 43.484334035518316 33.87082868021913
68.49987612563787 48.21169461936558 43.46381839592761
11.44333191936934 26.411539660971336 15.358110864111548
13.926795763865705 25.947092772901602 14.548792437095347
14.956925836720352 23.96690002433758 13.719031402128032
14.016296439487501 21.688976196746047 12.698907729254787
12.165962401144595 74.0114737024825 9.469626685701934
9.914470950684244 72.69295834982061 9.646384988021044
8.900126288586517 71.63818612214878 11.399761193316037
9.184078061837987 71.35468049458898 13.822450910835023
16.460003961118428 54.95550047310324 20.421262237495814
16.800268437212587 54.72888541609916 18.07388935929347
18.1576432621809 55.28358165667161 16.649223826865587
20.186514244220845 56.94999842887113 16.366869281969365
16.934118855785457 15.008070307690135 9.806416183807707
15.968911030579445 17.013822723173693 8.834460948769134
15.672036097312104 19.413103787012815 10.211908655375472
16.16384869326282 19.917873782427 12.256135225989423
5.100849680214185 31.593067968807155 23.972218001102366
4.967285998067629 30.102929550078134 25.688140353956523
3.123151864477632 28.489033867679275 26.485928023653965
1.038628134338443 27.56188745827924 25.795400219024668
20.96583363333373 40.61459910988863 2.2651793955037385
20.73473796865222 41.99642534681395 4.188136967454252
22.385309258667903 42.61816422900172 6.151278492590889
24.63622317770938 42.712126748411954 6.198732960340056
51.7767471779181 67.74586063808928 52.85114587171754
51.48429859100459 69.57531510543876 51.5539412775089
51.59520979749071 72.18590187195116 52.05928742842901
52.32045835590037 73.38447990607129 54.09922407296482
73.87066763223017 85.12602722470652 21.505611949918087
62.3847951991052 59.88738401741334 35.910265382713575
63.05978876921892 62.06981898621819 35.08208100745676
65.0775646145517 62.75014834316281 33.67939817108268
67.25618173286753 61.6869204250831 33.28323811197399
44.28278879384145 34.919751509695196 36.400971812781584
45.23476967504861 32.64151418140638 37.25067391724144
43.48914685349851 31.084481729135582 39.030142948994275
41.618987721231264 31.615926786566703 39.72434254225078
11.793974005898939 27.33725783530978 18.05816462656779
11.08988944904346 28.63240979884283 19.382028405901963
10.826346849798206 28.561939976346757 22.50337853805572
10.913730708051537 26.850070575837922 23.8927781651369
11.040411562951405 72.67940088248254 3.688993716538626
11.891167770817267 74.80433571155207 2.994760756254574
14.684536683083312 74.94020548741123 2.6434523042423606
16.252222172935916 73.74768382840098 1.8198902535234436
3.2978355641459887 68.39344930419722 90.00566605527113
1.8906901315218485 68.51213997701267 88.10456729174817
2.0598160098500244 67.90147017707157 85.61536007606459
3.8044770605317497 67.28923195067627 84.05082225553434
63.88431697700811 45.18830071229216 49.08284237923919
66.31570235351866 44.445839477981686 50.21033117289528
68.43894627481717 45.61560790034275 50.25995820415439
68.92035720117559 46.63198449027236 48.17262920389135
62.11070149132542 89.95637051099314 12.84214972198195
60.90680637413111 89.01292599867584 14.765818664815809
58.64367736713539 89.9906835553035 15.872912217399884
58.276171563143 92.72001063095382 16.265697705300173
17.39286063583846 71.34334108336064 31.217807393331718
15.669277885848249 69.60478339255273 30.337515842761814
15.844223231401392 67.89839979620874 28.621679481865122
17.670952327019666 66.68303358229056 27.72604032814941
66.39683743552284 43.130284158168635 46.543684528325066
67.14554594922964 45.498672087935255 45.9447218374239
69.51086114278027 46.10640207140625 44.609357584414724
5.303965482716818 94.82641977602445 92.79500095729293
2.5952291223674444 87.4744568533705 0.1688397344877681
17.416969070121905 22.95807364748963 14.45639137192557
17.09937101756173 24.080976724840653 12.254704690265342
17.81619128966526 23.295199916521202 9.81510175648836
17.399559512869317 21.365537353047998 9.484235768222659
8.46850793293426 50.89670409989584 28.137678872598404
8.955582792932468 48.45210624367458 28.435726965797688
8.118396884110917 46.602362305478295 27.11913583787956
7.322943831180356 46.706153954742234 24.524855363006434
1.6914058586562792 36.18069323432216 6.488157489792559
0.20947132710194752 31.0489074810153 6.5212622909941995
54.263300031899796 46.87624771801647 24.803185552265592
1.8965384477783485 19.655907247829628 26.403200392262487
41.52825015763066 87.17906637215067 0.5192008012204914
42.48357446176552 88.69829526641189 1.957068572472332
43.510838658386355 91.06408063876232 1.4139240619886173
62.201977988955946 87.9641138567494 6.20813419606307
63.05956763388441 88.95818329363695 8.473480372931261
61.77212075699212 90.49369525062315 10.115705450016653
59.4959245215534 90.91258298420253 10.610901390654579
57.005770569867316 50.85397942993485 61.929683650807625
16.428327704732165 33.99325949715785 44.035358118743815
16.68413894992858 35.09944332272906 45.90423203599602
15.745960023372211 37.2990340307195 47.16065754627883
15.266034363500076 39.139805501197216 46.438478306944305
22.03076030775602 64.51364215545019 85.98013949071496
24.485259569112625 64.65499752294576 85.21973319277888
26.225383634866144 66.4347780808182 85.3064308204408
25.953701651051503 68.92624712561155 86.43728152233638
53.473569330859675 86.24669452027737 14.510179818453494
55.85727833758592 87.22020891431802 15.1752876408532
57.534931159145636 87.96307142328222 13.745962370486206
57.73065179423082 88.68602469167715 11.325984220008413
37.74334920650749 72.29473777308077 62.717785476762394
38.7143000394807 72.61734936636364 64.88288199348656
37.56597100758236 72.67161198304788 67.43273962752458
35.21499090665093 73.64438975286158 67.91138865280246
6.3268366745610765 77.38597686796422 80.86158408568716
8.179837347669627 78.55861337532252 80.51911041600795
9.006121779187714 80.86678890750109 81.5139987173222
8.116048736070427 82.46736518035219 82.96956627069896
5.111597321731557 38.7961140118091 23.594077467682435
5.633105576514114 36.1683282523493 23.457611776308806
4.370184037449878 34.40533144969314 24.504750527974114
1.5901330625848082 34.19466188877969 25.317426716392703
6.784891265049082 48.204714772392656 31.568925234457957
7.778192378947669 46.471843407826924 29.96100841825036
6.978987197203287 44.29780067039237 29.109572173240988
5.407177515912918 43.145229257407046 29.8892658251952
45.42323900264199 67.37028364329477 16.051693518917517
47.46213114733881 68.33963070529934 16.510750700774107
48.066676957086294 70.74020654548346 17.67974819702288
46.70310181574316 72.51994031507355 17.95358196567852
49.235331525470194 55.8011903348702 46.75711527699675
48.22805898069026 56.28468522059893 48.7095330316893
47.40456424581958 54.96497390947212 50.826219775923086
47.25817336243355 52.73593453250201 51.5554714825072
13.39871955523811 77.2630914432944 71.69679699768118
13.045572803714167 78.89197759131568 73.73337596329037
12.6841354152284 78.333778269576 76.04862296805098
11.986120658003935 76.19430435791386 77.49793071113642
17.69482903050757 37.673669834332685 6.522699237035468
18.005688096808 39.76925455692663 6.731620725123104
18.218044925679553 41.45653650809021 4.47582943741239
18.452204100668 40.47065602035145 2.004740123481901
0.8397081517809741 65.5022963527932 84.69759557813833
2.6562556879112114 65.28127443619262 82.71540592731952
2.4334949869279847 66.19860316155791 80.15878915226232
60.7599114945744 84.06315501202313 17.36945055006388
59.82806450903896 85.29021210938957 15.22098796599176
60.735907628978374 86.68177328868457 13.598583984680051
62.76068562129316 87.12244122440063 12.734162811602245
43.57462498325684 22.110703581757125 38.062257986799665
43.10091702975808 23.985592200897095 39.48343920303772
29.752953177490024 38.54417562756834 57.05112509621337
55.53923750751354 48.71112485900463 61.20969770246883
56.1844249695261 46.44031401101723 61.5462973244449
58.4425543116949 45.22397184685027 60.83436571532369
60.02015046954743 45.292887817127706 59.20448108520761
70.2982228728267 52.655367451875755 40.55813902790855
71.37438313781092 52.72622294917532 43.06762287417778
22.64139711092599 53.93643227633691 45.76531164676157
21.376961755968292 52.56040792470973 46.832571430993774
20.450620574870275 53.45331161993554 49.44369268439321
21.295878720630125 55.556165410873795 50.216741858464566
57.0409686020889 44.01155728945057 64.24763614642838
55.75380946071413 46.30820329660975 64.09221989645404
21.830803381539265 31.91138417035462 33.37117347469775
22.20351072101156 29.818932043553158 33.887787317750586
21.17838740807553 28.167538862605547 35.91477130332774
19.361539065393018 28.87191127052203 37.72908271197584
7.270761429456422 16.21260874069588 8.312030612583312
8.200546634138352 14.19659125734688 7.849327957521717
7.383774604901043 12.539157921835322 8.991641597196045
5.059161479700955 11.183855335780654 9.092718364931054
19.81223071145449 77.303837989911 67.3820648447513
18.52338013935573 78.94793182607933 68.04470672384379
16.423241960596815 78.97822548422295 69.82496721348559
15.893671498777564 77.2671819051511 71.8706061134874
54.024935843054635 40.70998035722925 63.61041849778567
54.46937756205801 42.75629971779207 63.200507448043155
56.20570611468266 43.864171444843244 61.391125767871394
57.5899150616244 43.04324926370354 59.613567852892146
19.115706257191256 42.053024438154495 10.922625237120148
19.388512055526444 44.61242319643212 10.941701011581163
19.62611277697983 46.269228516961974 13.027886081234398
20.25547961414486 46.20654334692529 15.018819263301966
23.1040929259337 48.91563363929531 45.01539935678709
22.796178987913553 50.998066833903025 44.70209648238383
22.87521734454053 52.14606937949815 42.636083434741046
24.649794341731518 52.93401698252894 41.285953612865875
2.77246229739136 75.10263351102462 92.55460122754467
1.0341921628246855 73.6728025414284 93.64438611828487
16.775631303476473 22.15350964681126 7.014125547218208
15.470288637217653 19.89112144902353 6.938306067986386
16.548174880093484 17.462083239276183 6.1370701906253045
28.708788388279874 56.72277872023227 77.01572751099735
28.665466308556596 58.50459669809829 75.19637462777396
28.870450391727683 58.29154713967839 72.81315129495252
27.534143396798793 56.80972864914247 71.06567086853943
28.30496936891873 64.3239038420097 88.38750782984755
27.782326174286002 66.74767845609485 87.73434999322818
21.075058370577374 80.10379637046171 66.47044972224487
18.855798427506667 80.08796088113976 65.20041089722766
18.264386888987616 78.70849196909576 63.094195702208786
19.712220184212157 76.76491049885344 61.82582992476308
17.894200990835127 29.633134672137505 6.610079928629635
17.733009377217407 28.041426066602703 8.29322286345734
18.28487638456214 25.808626769153946 8.660618629721338
19.147727972811417 24.05318548849672 7.591706377228209
47.16443677311336 67.1775659049227 55.362671830038316
47.99654504665228 66.19023924474125 53.17513456029051
47.522621848730445 64.11856249625131 51.927826935478485
45.932205021081565 62.38293719145654 52.085609775426335
24.710528949756654 95.52894103217957 60.39521775932371
24.22351830748028 92.87178966455973 58.98587986527523
25.78941110348888 91.4989862814893 60.06163846845665
28.052082787286775 91.62068871894486 60.82306735686864
84.04995142668099 90.98538962883981 18.52965415454756
82.39351154489069 87.66242799058433 16.937145879030684
84.28747056524664 87.4315395110045 15.151509024084712
85.48723234742845 51.83206882367258 28.587649298751757
84.63272173902052 51.31465170375602 31.34500162887756
84.96268195040217 93.23876918496511 12.250507629384606
83.78133627317311 92.03552868735902 16.15722411845521
84.34709868736236 89.93481890358538 14.227031373326687
82.72147804769452 88.82970646007477 13.548382791684006
86.20430224474738 65.7543069039206 38.115818660760155
86.1030295571452 68.30996080684815 38.39057605823494
85.67935563767104 69.78516190580503 40.41532047353772
82.17177079740388 31.509291962695485 53.139359092796745
83.7043585316765 32.030354764640336 50.961935386010396
85.91182695154554 33.405235136329836 51.317821377273376
85.64258124869487 70.73480636093502 34.32001768891739
85.5001427074036 68.94587191152117 35.42807032908435
83.73449774716315 67.74480205401323 36.79750964270425
82.68457287600232 69.03978278759605 38.24730100852906
74.09455079075603 52.78875528571357 42.53119508206724
85.71843556058093 54.06710883828932 31.197152705077464
86.0078299121637 72.68297515831468 39.450239367007214
85.14867048420682 21.402659267265186 48.61955746512173
85.32422271879763 56.690193607087984 29.564386628232725
85.94362263481688 48.956558672057916 30.982898398414413
73.48566988870678 47.585230484983704 45.254354283219065
74.64798241781106 49.21114749810291 46.49676811843182
83.26526503240015 43.11156611659942 62.29193492626473
81.71410091216606 85.33623996174784 17.93487323749866
81.58140600333002 83.3593744294157 18.439233368901316
84.1260868105085 43.99392439443683 53.65793587800432
84.50487700858412 43.25758219441844 50.09793521938021
86.27393098399503 41.839904380418034 51.20997759930674
85.81120484434864 37.5123286093175 51.4233690992516
82.62189992865015 64.48851431199236 37.49875281495816
83.35182961178477 65.3837329554767 35.28147377961571
85.41487322706827 64.10985589292241 33.773532384552624
85.74557133466529 62.11555973844528 33.252860600262714
84.58205556472096 95.57337331882908 14.294322475849555
79.28288921268954 27.605401411280482 53.788320939711504
81.39174046305192 28.063690538554823 54.07717399695743
83.54440232326785 28.90560543694068 52.34048386220067
83.95978367376124 28.220970407654672 50.252159611747565
83.8274285416179 49.71671768757597 34.1198490908845
82.47656497282114 47.95993767927881 34.3107864751103
85.31653607305262 24.121554985807723 51.32757468995497
84.78624397734279 27.745973216673264 54.72685786577261
83.08822416125646 25.897611856689643 54.485069870540435
83.55289289465045 24.98811631616946 49.41298586805432
85.21153119313716 26.527891126818087 48.7583239283021
86.12866791623624 28.531569511150437 46.50007984673557
86.03751053599875 34.369395121281855 48.617255513301835
84.26772386772323 45.952183454682284 59.76204335766253
83.97176545128205 45.728665702314224 62.05618785029516
86.17946558608192 45.84704860454994 63.820688969783916
85.61598140862567 42.018075842342 61.60509332446055
85.8856437672592 43.8072417130681 60.202137171380826
85.55821580247827 44.00334397380494 57.38244641646601
85.01932323543514 42.67392410144632 56.02673767705322
79.2801609912333 82.79292974473331 19.789988598699914
85.11814619391849 62.490834827239155 30.818075395244684
84.50622668820392 68.30234137223908 31.67000019188781
82.2861568594296 31.214606383435076 59.88288784358049
81.47479853389659 28.99142609011064 58.43209819331103
80.26518207409342 28.593364309569626 56.443962186028386
79.47405399630657 30.500371969115307 54.59845788156345
77.01499270386483 51.80920483017804 45.46807448598987
44.41223640138513 24.244384918677667 1.5721748986554542
46.32499620587186 25.19929132944375 0.10161351230209005
80.86326347816605 56.983855869565424 2.776929245086046
82.19868596450358 57.06300100804798 0.41616376562420865
84.46550563495222 57.791411036565464 0.10354463251120827
85.84166795169361 59.52028155460191 1.2129644013442524
63.747465419944106 62.6498021558154 2.53616713799824
64.16948278574718 65.16154186803091 3.4152622651491527
66.00285857869926 66.03631827080147 4.699679047909872
68.60013567480644 65.22325727580822 4.215610692539665
66.12468275914766 26.175827288508174 1.1484334669805811
80.35540401151097 73.99659565982948 15.550800022238425
78.49709784802357 72.50082966960514 14.771913230864504
77.53336819806636 70.37600222520754 15.102794658892496
78.00961873504234 68.7888598022973 17.068819651220792
66.45997871673634 45.84775351586154 17.888467176696796
65.23952450338449 44.05254696095515 17.08160088444328
66.44054867973465 42.416835439014044 15.587581369079892
69.29741191609962 42.202489296767496 15.792873947174394
40.39371064916869 41.76400088670984 9.912361031985716
84.2849569858302 79.5273713401395 12.660691881471731
82.41073773642881 77.69845638612445 12.122878448587333
82.22546300663204 75.56050291502667 13.115541018776064
83.33409548389864 74.37368433508247 14.830870725432318
65.23055921990591 8.974418870008797 1.9406788286522243
73.81942819364988 28.99913116869455 27.747621410787307
76.04494303855759 28.94481480881382 28.288695990963138
77.9517988184432 30.74622209497063 28.277259939984702
78.12185912176368 33.09898303730342 27.204891610336723
65.2475229322636 36.29474496677891 19.314838952394354
62.74535406390447 37.423542552442605 19.128006222032553
62.660321273890354 40.213126243554925 18.97892006927433
64.20401734696141 41.90755064800114 19.72690379612224
