78.74818175525851 48.91186749381833 9.454782367301167
82.05135794210486 6.110524787982542 13.34622978482411
84.39811225010942 5.040459216910862 13.33067040012764
85.82331552003352 4.25686282032326 11.23276376614916
85.68763584166722 5.094603564590746 8.83370840028681
63.18498064355956 0.054695836443452 35.693320519628756
62.85538544805902 4.531403616707405 35.78973620545083
64.7931646373944 3.016884781051119 34.799974509434
66.64438341920864 3.454790158047274 33.722010162672106
67.8947549130339 5.626257142737295 32.863582279240944
80.0326770864446 51.89380447348722 13.416375961755577
78.81504090508656 50.58261175054147 15.024564445031048
76.90106743579497 48.64289150532024 14.604700345735614
76.99401558919142 47.6646388618392 12.66739743538207
64.88624456659885 21.51597940665514 27.039789207928344
65.8254457959881 23.305752508681085 25.45875216451883
66.16205930581496 23.44614057215866 23.03033591018266
65.2800628846633 21.874479158157396 21.26088342232464
81.36013106598469 1.9826079793477884 18.502051846533774
78.96996991842732 2.9834743209811867 18.31611759757738
76.91223957621995 2.1520187146767245 18.911483099062682
76.01536360226235 0.6315730283457714 20.90924076457651
69.45411425921422 58.949419203432 4.986672351794783
68.07496655654171 59.898416803780414 3.01473540325161
67.1616334571588 59.01575045418795 0.8763555448524059
66.97059019223715 2.6544765460921953 37.13432562001476
66.00507987241956 3.503615917536679 39.60682126410392
69.9804635611364 4.379212660297845 42.076541668412986
68.91223432720575 4.028382011306317 39.74864950150393
67.93336859755706 5.499122663978066 38.079745354983004
68.04044196944297 8.213723981507819 37.747189063923365
87.13170850704992 36.27045333423022 13.54506497125342
85.93380944944498 33.07267692419388 8.562116179883377
62.479693236399115 60.568696276072345 2.6083521584445313
62.95659357160309 60.498591255499605 0.3186697220811074
80.79416384628136 45.79052777658564 9.693301788039912
81.20860649680549 47.94140868879076 10.098325916718176
81.75545123581256 49.452706158399934 12.011654733171907
81.39763338095989 48.771250216315956 14.60753757008939
74.47932485220784 0.9203857490128103 30.395326271792477
73.24118470506146 0.564352668257145 28.143570583430346
52.71677456805563 15.159425178110206 22.845138229755644
51.886757024872836 12.931034025515157 22.896586427174157
49.70849977721322 11.866226532990222 24.43853702602629
80.91772577830228 7.606445594538206 15.196523233552215
80.69530702545308 6.1280857548844745 17.102567257750287
78.76156063856878 5.453304937618464 18.6800325556546
76.2986520659138 5.623237910420108 18.320771348277024
38.963715539338466 0.538926744038358 24.920983064648844
86.23497012710476 56.147529751776034 22.461673154546254
72.13751654528247 22.04569099838918 8.722901668947387
71.08875689505217 20.266373002891875 9.7939717671357
71.29425628928053 19.65259236031212 12.603098828113223
72.27819644126609 21.19518490734646 14.150369113932738
86.92558908872421 6.456224424200285 17.006795084939526
84.19680427634579 6.386717501338364 16.616548157854208
83.05914718581697 4.2177211845252724 15.616959946689875
83.34201303538805 1.7403286443953359 16.209764316130645
82.59279497928284 15.053834760719297 43.04250017701199
82.31026447069866 15.981032155206131 40.97731738381421
83.8701634100469 16.89088424151835 39.251833039984135
85.76825502440734 16.170904177485287 38.19791099953832
70.66667304801815 23.077195816155587 19.93726197357226
69.80700547929159 21.31826370775626 18.634495494740104
69.23029619270983 20.74325153952058 16.089120374473207
69.8049758325841 22.317136095508598 14.035085697839378
86.82021358151086 3.4249024434490263 7.010171990840134
85.36035221001646 1.3473660742818452 6.2108477771106765
73.38863726391867 3.9290381621368327 21.475406248059368
75.332062577427 4.0021805608568055 20.2143942357912
77.90909604893217 4.766685092835914 21.01300708168038
78.42931241037786 4.5948322519572145 22.896322101231195
86.87636671713659 13.734719301461459 14.272153105388462
84.75596479441381 7.917206135193263 13.91682223193557
86.8605983477475 8.246680933163033 14.838345125505878
87.2650360483023 12.124377686410602 16.90032639970849
54.57582327304833 13.104491989829855 28.40199984464672
52.14051467896342 12.77489685316084 26.974743150885118
58.779887716805725 35.00628161310753 16.92451951341555
86.66074224236908 41.113085236727855 29.416271222705287
87.10806110403209 39.72979712664847 33.56155701499622
17.110747828596047 0.17366423108987536 7.899586933918125
17.740951106673478 0.9871379338641155 5.289065420882051
16.963200526250205 0.3401379672259145 3.449729347323185
85.39606683901968 30.10566213661282 5.070052376920004
87.03084147518537 29.069042135240547 6.5987840055044
20.474357148751572 0.914274774970885 6.698810913825937
20.150390738562237 0.5056666194068423 4.501320198423983
21.025260398142063 1.3724566542843832 2.3686554603570316
22.803500016015693 3.2087398105798495 2.0573539753183985
33.41236349549099 15.99518331415998 10.264822993639159
33.1979579324176 13.554483244296343 9.869432768020737
87.50283531176036 37.59177980653658 35.330581398794415
39.28158937370866 20.049215417433548 9.785966601229797
37.026833470745885 19.394605893601952 9.886078547205358
34.92863802652029 20.37679518707326 10.858637443930057
51.23529553497933 8.805012826961901 28.000091599708256
51.091217337153424 9.9455564291733 26.187018083226267
51.72272589013221 9.554352333042047 23.624277220067597
52.305527849625214 7.571934231621397 22.401407195445124
70.98170922957486 43.37995418610359 16.613721616970544
69.7039472263828 44.27036905499049 18.56079022497165
66.038570052527 41.77592432419276 18.13680548468035
44.7658835743906 26.2210737610848 5.947664804484808
44.02657429348631 23.98291517426158 5.130660755971994
42.234117585260464 22.326208242070237 6.553495747578503
40.7136799726594 22.805512907347733 8.21944599955839
73.01352861174057 46.62665371366551 18.530719164855196
74.32093821096143 45.45220913022721 16.68952501890817
74.75774561634665 45.93862816021625 14.213006578244064
45.837082328974695 25.220101292470137 1.711230679169681
46.49516090741612 23.96584228449385 3.891669172889186
48.44397835926538 24.574567053213528 5.469711275161105
49.58027158723794 27.069870870880163 6.045283310182921
19.688454951062035 67.79258670117883 92.96321334826551
21.883074143715486 68.09512919295581 92.21211723744089
24.62344611897532 66.92238495454649 94.84214711278854
1.8181286043559757 92.53810575097286 64.74822450491534
6.525897878420392 93.44530354684511 83.45313929736814
2.4169461939212757 94.57926662375903 85.03894671560498
1.6555281635866352 92.77387978459689 86.3146625598275
24.665897444915366 84.95845061852476 85.40669870025914
23.891214977107417 87.27368179984153 85.4587921786315
22.991911911750005 88.87625332377749 87.39767926209795
23.08838921014956 88.64478826496786 89.82773292180079
11.209018865351 57.21318834368552 91.48747497895201
12.168252829227955 57.71301351187984 93.19366992169374
13.066926277448905 59.349198033243646 94.6997195196135
13.4719809214364 61.9476397831655 94.36336048246206
6.184713076437777 70.4684483060698 79.3531931895455
7.756464714416305 71.28180333027915 81.6224861073093
8.083430773161759 70.36814021885839 83.53037158678313
15.653350723136407 61.26769909311223 95.6053351277282
15.696782367764673 59.142408629076854 94.32428072812219
5.599454625028206 49.08608961568001 94.02018258877375
1.3809629701820572 45.21393651426058 92.54439824847024
6.5390650481044865 91.49866690324018 65.95767443174923
7.626402580827745 91.09817386725548 68.14331812589937
5.0195537615063825 94.39341423390009 76.72681171079387
4.629520126417687 89.40067763177785 67.22929721162821
3.9825056234448297 87.90015092728693 69.37036464246458
3.486981792527313 76.30625020197708 95.01040465876568
2.040236912423034 74.87001743008271 94.29133527281616
1.4357901395405206 74.20082033525425 91.41299094447471
3.1722508476703877 75.02433247901808 89.45212048387074
7.208516483450398 74.0298054821853 80.2154601089336
5.430342477104019 90.18308385584693 77.16829231615185
4.863547628296043 91.91569551657436 78.00347259784911
4.683458603539413 92.69073408708964 80.88810569644988
4.155291651031204 91.0892353319351 82.63103523550252
8.220904891826308 76.85868332146978 77.9033910472043
29.22041654449543 93.60152050330498 91.98805233312643
28.824449779456547 91.98873030647201 93.96762252300621
26.22653700922349 91.91999433302398 93.44403081312338
24.96814823967645 90.30946215601259 91.7194086512632
25.78383714682161 89.36357357758406 90.08857445379887
4.118520587581321 89.5960567215657 72.02113428845499
4.031802516621929 91.53363825891132 73.15299235388585
4.111808599696446 92.03747532834984 75.30185255734601
2.204356114946425 92.39661978361417 77.0291817792397
1.403212442457736 90.8694913454501 82.82418813340536
19.341081209950143 84.2543769814486 81.92666845906244
21.24081517245737 86.21365185453983 82.36808890282245
21.532438696288075 87.72512559898692 84.20956758682736
20.36012745216318 88.41866155926094 86.17418457345765
2.9147476344711296 50.123781928835 95.116312680279
0.7375823974834544 49.209121407064536 95.1275352028091
7.172074968840823 93.72180954792005 79.55652522451781
34.34224215677676 93.64007353948118 84.11557507145066
0.199968492750373 90.37585746324751 65.5144932274905
2.1529894532973284 90.45008926598746 66.90932627049156
2.377037540335922 90.12264753905025 69.69404360651029
0.734878243203508 89.91967697616528 71.4049858699154
25.794790558784996 70.87102762936806 92.70486127983645
9.522893274041975 72.360733768306 86.23347016744266
8.779666731794453 73.08801238952586 84.16851605330763
9.863610201982809 73.77644936447734 81.86071717219544
12.439236207135545 73.90661922046763 81.52101631597495
10.921819728634683 56.22302481674593 95.30074858519046
3.2908745142470166 51.861500511128654 92.88049286689743
2.317254975259794 49.839867297520705 92.17017362504897
5.813819190379568 75.74695580788732 86.15056335702302
7.898283834290472 75.3776963761494 85.28156709317858
9.015043860368197 76.0877946726713 82.69560727623825
7.590091642650781 76.85373087128518 80.71861631037041
27.162295439934528 94.41366328334222 95.26622613904266
19.09494030432945 65.18181949294984 93.29858059360136
18.166567205984876 63.72395206807274 95.14425442127511
2.650298668030538 73.40439416313883 87.49428488350505
1.8759462186385958 71.17609672258183 87.68205873300636
6.88726763263449 71.5312306313632 85.69578849535596
5.516180194462286 73.37216516683561 86.92043514340656
5.5072923799347775 73.9996681691083 89.44306041524061
5.826627074386007 72.24842548673965 91.33451855875174
29.3007116373876 89.19672522924603 88.48485810339237
27.21450529504934 88.9525544543946 87.16077904464382
26.589263688396745 87.39962176605928 85.14446845126001
24.24311743640558 72.76863057598409 94.19517911472997
24.827783549670684 70.50443903534773 95.41788172263225
20.601292611463514 68.05144358109672 95.57018299852481
1.4783709646130327 81.4758606192914 92.94231078888029
1.6638947748186712 80.1652166488347 94.42723918161343
0.49108421330269064 77.866404257823 95.42621397613817
2.4010078023602395 71.70682047363267 94.01062249534974
0.8461530596377544 71.45017378745348 92.52994565010674
0.16108662706711352 69.73792373954853 90.88053652490308
1.6406406329763303 68.35598698976685 89.31671624722829
4.663259524917845 78.52936468204865 95.49139224164485
4.204177376252701 79.0781641790904 93.07855884080034
29.49495846349641 91.26565725655948 84.99109586484118
12.052567891026575 75.15600305025517 86.99727977673055
9.791307465211421 74.4888970001413 87.96408928589716
7.563502522539909 75.6583751635742 88.5556758195403
7.183759687690661 78.19102321371642 88.86228882176619
22.80989697857807 87.8689548296235 81.01779367194175
25.215339380427626 88.40273606139282 82.28753805646451
25.675227838891708 89.83121916283352 84.1283748925554
24.549963370560995 91.030217786887 85.65906667116501
0.13895419273262147 66.06015916839364 89.14325244440643
0.061542883217425765 64.08803479416211 90.952157179722
27.174041981838535 94.85929720749513 90.54929867280714
27.74158391838434 92.87868817982826 89.51185381292201
27.691731082510127 91.9179454468538 87.09077709547182
26.666532418629412 92.51586535743472 85.12308057469686
5.715645306434238 93.57080760222225 71.84753070542105
3.416083861438841 92.91433776028046 70.69906495012903
2.787948882412496 93.06061992609754 68.23795412963457
4.1730587001912784 92.98497669962255 66.36766739403409
0.40973504372988645 94.39560040148402 88.13658341085264
4.445358539676326 53.90027346362725 89.32041065940803
22.863438938097797 91.36474374718657 88.58648374776541
25.01365853742103 92.26215317594396 90.02928840873959
25.035626471543093 93.97245089672164 92.05964659878508
23.131982361455428 94.4993192978716 93.51512772329943
26.533262701553134 73.05466660309406 95.15604671219167
22.02132332517496 92.69328266847033 95.44866187223136
23.227999952507766 90.83240691244534 93.79375766505858
22.873513316785473 88.97402554135078 92.72027760926663
0.47683277369360116 93.17642034487271 81.86818738384903
2.5841928980251962 94.25618776160546 82.32868187416061
6.873688392952728 88.39354829480571 69.41951599106736
6.395541810459905 90.20942353313457 70.79132497292353
6.560100053668851 91.05187730841413 73.27900642542217
7.170810702042821 89.74994519596419 75.32393882343312
11.163110951775202 53.573682459398846 94.11943593646149
6.024160985219727 52.98355725281646 91.48665263488881
10.787125348481531 77.41453260402206 84.56016157672394
10.80554707078571 77.96572491638848 81.8418012183846
12.43399093414708 76.72093775148858 80.46551674188137
23.27256586941659 84.55354413313505 82.88221759038609
27.519383771353066 89.9370909055612 82.05498079540564
0.48403490583260633 94.48443830616112 74.69038546606731
0.10458018632471051 92.65166715703612 72.86191076548528
0.5973553228831935 93.12079033855342 70.38847098342374
0.8857371046901322 95.00533084582494 68.89407676862679
18.24391226480009 1.1738548727193452 54.34595918963399
12.34724520179802 9.897694573029533 93.18041035719654
13.394462839113437 8.505680409568019 91.53094800833946
15.64431907026883 8.679047084792783 90.26229256686068
17.495694626001 9.755919003486552 90.56554895846968
13.840349885337536 8.749631964766573 88.18704274299789
15.064827057154641 6.789322837397269 87.66105485352641
15.160812213923403 5.490038963414767 85.43957982527925
14.186635747450048 5.958424916667241 82.97233239889817
1.2271979985362627 0.20280457788382883 34.385936671573596
0.6525453458392381 5.418195074070498 39.12699809352893
0.8876022955022991 3.5512785390798505 37.23558900170478
1.462592547182605 7.915643572138983 40.00774036143103
2.091601205417855 7.988160666722762 42.073533904021104
1.138900281796538 8.967675157282878 44.26470865084672
20.29181785374546 1.5905615423199924 59.896444615356515
19.949291383142988 0.9942706585662139 58.0452654417084
16.03160756479651 1.7373550903019133 77.30256823672565
17.461415567247982 3.6832636273577926 77.49385568354658
19.770411686923804 3.9171246737497283 79.1069432908376
21.036687970581674 2.4652350352791954 80.20957901647242
13.198815936879765 3.245576452111505 82.611903624165
14.411986166019323 3.2675390072384656 80.9508076560961
13.854591717768487 1.7779242945636655 79.0119615096773
7.6540328615192355 4.206254201568167 87.94573079764761
10.332576197972761 4.749463990542311 87.3149598039573
11.491071910722672 3.6996930095628673 85.33246932355615
10.90013843652568 2.424939540636549 83.44307784885646
19.640925391773273 1.310935704727469 82.97681964555473
21.56279960949068 2.8310098590001394 82.9993643329485
23.380284537329242 3.20978012603982 85.28957699841375
23.28773402623219 1.0166975325969905 86.51746966157968
20.992425155265227 5.551965214764523 83.22268284073813
19.1889314570362 4.194527234402464 81.95887059744061
17.06623087987498 4.98642436716772 80.67504208202959
15.78281165673561 7.057003793952255 80.95484897901557
10.001470933879082 2.4994219951351107 80.97941658778367
9.856933651171715 0.6198990506548114 79.76431511386178
9.062673153800983 0.025166555206627805 77.3143053535873
7.059858811149049 0.9711502840247425 76.09043305351217
4.068925779446101 15.079459264036398 79.53960809256317
2.4740007369565564 16.667083289030277 79.67389009015054
18.485730046609326 6.230163046990186 77.96396519641893
19.399140140154355 5.304973486039575 76.1901044394206
34.456755887312994 0.8979343387768853 94.15786968765671
9.732327315970965 10.254052008651222 92.79750947781923
9.955168125087186 7.737051565074401 93.25184286234418
8.907328864247487 5.990808558586255 94.7721945203737
5.246665540868953 15.782554959009305 81.9196722013293
10.955120131963886 7.450518740002651 87.78752429927775
11.47055315734104 7.325905409568439 89.8284657329913
10.078479388881417 5.928849972536714 91.45178810521884
7.587284726128775 5.236212133438444 91.2049075127923
14.665224679239977 7.335376258951841 94.08329387107887
13.308420956672798 8.586234212339823 95.41325124512855
0.9107773095682997 11.093291265115017 50.912046190769786
0.8857278738571718 7.353619798013341 56.353422637328094
1.6291316893571748 9.759415332797335 55.907530274415485
3.540337949929512 10.993064559333098 57.14155887113071
5.388679335288544 10.245731471124742 58.387279750896894
1.799543353027155 10.69113187495991 59.26085044869273
2.641290903351106 10.628380943536333 61.494149542829206
1.8560103523810771 1.980455101335686 39.85849071920157
2.5041142490114887 3.9299011459160287 40.385102399335516
3.0517538371925035 5.354854746793436 42.73011502314062
2.6613172160544605 4.255039922259786 45.068030715139535
2.707394946100888 7.910519060075616 61.843811465299275
1.6438247630637808 8.027840991900083 59.511245797028565
23.918915327121457 3.1477746558705806 74.31824309503448
22.38071096245802 4.9340602080473275 78.22994416398683
23.656353754687323 3.6133665686983267 80.14305271062271
15.33842622040167 10.562693178367919 95.37658885760365
14.358363818043381 3.7899123631454663 74.11342620892611
12.354933717579705 2.9768544333163334 75.5230194497363
11.696756073230794 0.9054643262823233 76.59358912627873
0.6356800965896169 6.255052920426267 45.45945465454324
1.4407847582644373 7.6981281668089965 47.09387691108817
1.754162529812744 7.524066280088711 49.46565531236137
1.29657054872203 5.564911131198999 51.292732783455484
15.715678946497873 6.8212247716118 78.09604490574112
14.573951896540015 4.753925743113897 77.02339592031828
12.417632605526105 3.7242556637227846 78.07512459731939
11.613139316216637 4.289294064526982 80.024695769618
18.551456719365863 0.2623034727539663 49.60597728463979
17.17802578920946 0.2371138279160563 51.34583853536119
20.302659647577805 3.79476286956369 72.3328122229372
10.519040363026011 1.8037872089260283 88.90243011934997
8.508562956231573 2.4107490383083148 89.92313107678976
8.05564934184081 3.043135320747127 92.60012704627322
9.3482992571634 2.7304963462837684 94.63075873823551
2.355585344612924 1.1668875180521368 72.91238298976498
6.972048668184004 0.21987330819685408 69.5430905798397
4.310751932071588 7.799063605744732 50.12852918893812
2.6290777427000496 8.056222775311214 52.08657669017272
2.197703903848468 10.246872623537046 53.431850157046625
12.968340987753633 3.2919361785121186 87.8256043827288
12.107168159547353 4.437207563618897 89.38498629698431
13.2391200380393 5.523570663137645 91.89234178401769
15.616180519591534 6.423882862426639 91.73777943797484
6.769812515317785 4.420519942668637 94.8868425893365
6.6825567169450375 3.4138582484280198 33.911024646072164
5.394333276539725 4.427634046013067 35.820299228804
3.6678657992403565 2.9313399681252155 37.73184852914845
2.896425724395764 0.9688328994056041 37.67302614627014
7.393697683425139 4.477784292547278 39.022091240383475
6.145012744985432 6.533109281436917 47.31177931116521
4.979699753496242 5.8007573967698045 45.24196443147553
5.695679769204855 5.333186866762363 42.876907674552896
5.217917837959395 11.313095408297 61.11866032982991
4.970865949614644 9.259249756829213 60.97451431789014
2.74542404485989 5.640144691270946 36.99712433623322
4.380201790520541 5.327449098568482 38.24828418466176
3.4024335261633256 1.2891005819339885 20.718556076900477
6.5774018885014005 68.62396713695523 9.71589842127119
7.065355323869977 70.3204444110336 7.966140920247226
7.551319523723387 72.8815061856552 8.174666928107628
7.787127501314137 74.074517170721 9.96121149353798
1.0018307413770426 76.25134761639521 29.40400793456826
4.853281378572275 66.66328039363589 9.647777693894847
3.0270811747483677 67.24573551723735 8.374262184513594
2.0085296799642136 66.56182449973913 6.111123768874814
1.7637789334110077 64.30184130063388 5.130565289278616
10.284950085011719 90.87219147969309 2.171359462022878
11.134522402118424 92.52759987980748 0.6653082015519107
0.5801713034733942 91.42741213131404 18.51491488108459
16.435253575922278 47.99267579217802 0.47626073233821714
2.385444356878 94.01258060276506 18.0346713195963
0.9909370587737812 93.10051934670784 16.329897636267415
0.03626110053684718 68.42420375297215 5.9092325352860575
0.18670904128923513 92.35903651145172 21.31563175027588
0.7548445713997805 94.3920605619004 21.449964598620443
19.553784873944288 79.9598641441744 8.272984067537672
20.25289820989276 82.01697516870372 7.275856118931536
20.679493583067213 82.62964914565138 4.839809758063746
22.34847265190355 81.27150809687788 3.1971230791717
8.762974623837282 82.2577982203476 19.600101751084203
10.538979462520315 81.41946598366926 17.8065834977444
10.6443480346886 80.83698872595733 15.693672202836895
8.631128087738645 79.56709241557373 14.183784245884432
1.5388442125732407 70.9520401969429 7.0065250786347955
2.810676444660952 69.95058066842792 8.771516830708158
1.7242558852061194 69.2370142098415 11.178047069124645
11.424317988564782 79.05590763930621 18.31327915247083
9.731131660116501 54.83471542003384 11.22494206598351
7.61314461381273 50.6399165433377 10.67812315645102
5.314627355902543 50.7397346667335 12.310469833111753
11.532955783349445 83.6868231938854 14.867907509304805
13.219388273524233 82.49694458291546 13.72490351555366
13.417215186107764 81.54013016561315 11.524957949835418
11.55590220420781 81.37622386838945 9.534904837218553
14.281854550750886 48.98779216200349 3.3062565169399667
12.74641030837994 47.94298142291592 5.453497238472256
19.513186972896808 81.420856686877 10.59447100000755
21.834936388759704 82.38823850869298 9.471536971530565
8.693603903579719 47.66874322535372 8.62915902983461
9.283741484838139 47.68792563184731 6.304593679630265
10.948128487742242 46.314304278872285 4.901802827608166
5.8679478176467255 50.889310432466836 6.6853020966871926
8.318270702487174 50.505589676618385 6.037384922377375
9.601151845888529 51.24524061815623 4.032412361280202
9.314623243682384 52.79792160471588 2.183797356965073
13.044261033791196 82.24806659669136 18.050655615931298
14.035830788539114 83.59440504042114 16.01372824879625
13.674748352519781 79.21378153070546 16.54772263670454
14.711913873953772 78.9283681412394 14.513871058136923
18.539249840017604 78.60421008276282 10.720596870589675
17.304521626308 78.5124179460515 12.419071914036149
14.877278494728692 77.04178506834778 12.252016117736058
14.312545155287228 75.32905536328967 10.48759779553401
1.4810625933386392 68.20581021369455 13.741397052653769
0.737593093238924 70.63575860555613 25.14258734217413
24.88987431669454 80.03251052474418 0.8257171501348397
13.287571119340816 92.74560157439139 2.515882949015434
22.936712022909113 82.44825630079944 0.9308336722665768
25.158194470607903 82.94375949737109 1.2254947659690099
26.354919407918075 84.99412174139785 3.0048453041223158
25.14894111428603 86.42734747602852 4.326075420086433
29.078229056078467 86.71723371605722 2.2625863608122865
31.37675554547854 87.63732608371458 1.0467927783219184
1.0905607641856228 13.76893531586983 1.1146393010489046
31.066580789142257 84.31334106452283 0.06740507879278061
10.424800779197879 68.71423581097996 0.5713187598503133
11.569206856261237 69.29779643738428 3.0253364530477285
13.928441057023178 69.66770852868635 3.283207511802388
1.2824240250306616 66.59377598980919 10.300669894365235
3.1463814886921435 66.5237520326591 12.042032483960355
24.55380306396823 80.6838792180716 4.860294495616544
24.303780902768864 82.74360227764689 6.1458718444187594
0.9595514560778388 48.10663839736732 16.68914830549805
12.842986451418053 51.24030261611204 3.6856632044769664
9.629635659732248 52.013866184924936 8.248404181664355
10.905776737437899 51.21356135932817 0.19177737714121387
5.116915984553852 43.792826906765804 11.646257213544049
4.578720989030445 46.40203924926152 11.251670712963406
5.467626448746884 48.04807443343194 9.493517709780395
6.18757824045437 47.76710730832738 7.253936567380305
0.5969977199592045 44.84331716307913 16.407567751387194
17.386913265217835 82.94553474747389 10.032689040576702
15.95798833255132 81.29785595027366 11.297107837814206
16.553144571509243 81.03076624321297 13.913209293396722
16.469866287836318 82.67923471428756 15.682097210113447
8.788091098494192 48.01261105434463 3.620603362630193
10.665509635866009 49.482682095915465 2.3778527901849156
13.007838994116439 48.52765422866882 1.0615155795664544
27.296087064834353 85.73515638177525 0.3517823290324829
5.967397044534321 19.60907218848838 1.2990309234555826
11.590513079421916 70.45488951893816 5.4603425932104575
9.655477994822723 70.9031770237524 6.342701965227147
7.595264854072407 69.46837942215217 5.314236923911281
7.470697711249541 67.32774837651354 4.770752940210518
6.687609477041472 75.89114319975077 8.182555729583099
6.937733766416395 74.58000566660938 6.240837653588313
9.122822894205118 75.11858662226118 5.000192015675125
10.775091146418642 76.87395834503815 6.03033824041274
0.3665086755632583 46.94365610181279 12.534839827541077
2.6027483774456175 46.16170428998129 13.282705313131634
4.630813616661328 50.13405966167404 14.849471662436924
5.583237797442199 66.9349623386368 2.6315217667638575
5.791855486765614 69.11665807198199 1.2265857839895122
0.8497416148699675 16.399335338875687 0.6720465844651395
15.003627556502256 93.50600609565322 0.3268580606160173
28.98298505589596 82.63623100425092 1.3862548131962966
27.234603655622237 81.79038354469444 3.1217748948360287
26.10811013842072 79.75080229915226 3.060521160569257
22.595497988808262 84.76414189391744 5.31920720926538
24.095189422845912 86.48219992581426 6.871969887444955
12.07763171534235 72.18098990700595 3.471537836413904
10.972940171823723 71.537698756825 1.6201404432058444
8.681138089644401 70.76793021418116 1.4661644448647104
6.89770135703042 70.81377237875418 3.0169221080887914
7.1070233288749405 92.51134983253831 0.6741022899909695
5.0369075573220305 72.78938831107607 6.047496416992311
4.625500075988069 70.45584927310918 6.76426417491081
4.209415940510383 68.54280501490699 5.464493833240574
3.314607689435575 67.93269451106475 3.2885948021557962
27.466880190102817 87.55968935610345 4.425122972687914
2.8380513230212174 42.072447864174286 11.915133447090545
1.2268946555588938 43.90899081294929 12.397534141606936
0.7089672948091753 45.09081179328313 8.317845705840051
11.227457599349458 72.98789018817432 6.580688204016966
10.189792709765323 74.52171449058315 8.034276477312245
10.502566895916955 74.63019640091747 10.619037975789944
12.36554385647725 73.83357676522202 12.196457025032661
17.278343827392327 81.92652506213275 7.5082311992953965
17.11174073699946 79.77851283131697 8.865177804843315
15.167587157245539 77.86075690777409 8.21025199142631
12.849572978811826 78.03134678419015 7.641941743873993
11.90166350783702 78.29599619998505 14.554506246481784
12.51971039539635 78.9033915177133 11.94683836447438
11.106984309437095 78.47315709672372 9.789403378758339
9.090948630471173 76.90222673155345 9.373567927854264
84.50790390923446 36.46822473500009 35.874390209204044
82.22344235855356 36.715421143210165 37.25520177701811
79.74992088845084 37.05964770644925 36.21277415679366
79.00666984260089 36.55432315768826 33.8777979506161
28.349642753823716 28.148603853951606 43.22630998477669
29.573459101530727 29.315848421434783 44.813980655726446
31.942599356586015 30.77335178691088 43.84226671597297
31.97205947651638 31.246690729331213 41.54200022301966
52.845464879572496 35.80715758003302 84.02935827703436
54.006789780816504 37.81581358961178 85.35635486622746
56.03359774795291 38.10490311906558 86.44333012149836
58.58284982305425 36.827145527369694 85.91557564926751
59.06756978581412 36.778749852537274 65.0319277413946
60.22587595169147 38.48708343373243 66.32320034315565
60.183504276664905 38.62983927674865 69.23567715682668
59.11959226212317 36.85308357271052 70.33458703881837
8.104825979439225 15.078488668507712 69.34384974344678
7.333376033858551 16.7968435420758 67.26035899744738
7.133519445761611 16.235632782814417 65.12381803520547
5.058891929158292 15.214461280451532 64.04813238153706
65.00549516533525 64.04866248103585 65.84953883494875
63.209772091385034 63.548804672390624 68.02366220062422
63.56890239852842 63.57707840686589 70.44170167186583
64.79347123006971 64.77129807199829 71.90894637359096
73.95135699141443 43.2243191907853 72.82312641558494
74.43931042678301 44.92079646486367 71.07336891456097
74.92527462663642 47.48185823948526 71.28189492242137
75.16108260422718 48.67486922455105 73.06843948785172
24.313442844347836 40.59570844799658 93.41149231149858
48.04413910400795 44.24945024460808 64.61005904269042
46.04235967272592 45.195319399570906 66.00517947435559
44.257891591593605 43.96625393584508 67.66291838961537
43.60408291509057 41.750490930599284 67.89695914037512
83.72443325918317 74.03767498736147 70.58559566928001
85.42431074265171 74.16809101269399 68.54260694866899
86.00819659215597 75.98701612083126 66.85956224023059
21.875200405613356 44.45662746503321 49.237769173491046
21.27556674539626 45.36152388507166 47.19113196770526
21.593887014361727 44.79798452458267 44.69615918412008
22.479320291094066 43.3563060871929 43.47859733158044
18.728287744841584 24.704748745279257 51.60685971333271
19.700249904790972 23.275959467916792 50.205003353011804
21.538606843960114 23.65252290576244 48.412122008914075
22.24906507260358 25.51145768111622 47.21387991347816
23.667030889897013 63.07617407066461 76.13652769483151
24.696085136787133 61.5125948123687 74.78180835670767
24.68138168484639 60.96065683538666 72.34815971811943
22.75855662695076 61.143999163997506 70.64546192160259
1.361396390258427 33.07051244680764 37.65685526552813
3.005054910293262 32.64595024640804 38.97033627947348
4.1324689277667455 33.92268676693019 41.4969428394587
2.415510905183257 34.6026583208217 43.28809298477594
40.4140407541391 40.76368169512792 59.965241439124185
42.51015601431107 41.21918567400957 61.383529516596035
42.772161654456134 41.594745837446446 63.86296793547534
41.4269561084259 41.876920129781396 65.59626883876453
5.22122186885234 16.489660586025096 74.86863781599061
6.449481331124411 16.474265113239117 73.44493737276035
6.077499992185808 16.44497751620508 70.56231100451633
3.834170508343194 15.875347994919355 69.19912354994953
27.993460032704885 35.29622904773971 83.65237642211612
27.52465971452778 37.42824002041882 82.4454518240403
28.652179991417633 39.467185709355455 81.73160257394909
31.069412939897422 40.37475569384174 82.31842283052359
7.729210216165709 42.08255312427642 65.58454221469829
9.490688359579002 41.509272496648755 63.62797967290206
8.995850483839899 42.13171079942364 61.14944559517248
7.365096184048647 43.45068907601437 59.99556900466523
13.786283422870403 26.56350689097948 87.56628068287847
11.645469373025655 26.80479920766151 88.03277442054822
10.160344848332551 26.82692831622232 90.12788278163454
10.922789823753227 26.581692591002746 92.46494719557558
49.92467361296995 75.86557681036841 80.52820417831083
48.1907202224507 76.25931479718466 79.34879031589443
45.84415557402281 74.64682892316236 79.20841777816338
45.923553255398964 71.94709886998334 79.25078956644276
43.03459452916119 91.8594425212846 69.38226281734913
42.20536481631921 92.02477361882505 67.39839219758846
43.301666718043684 93.27968131714545 65.35546255177725
45.60960485633037 94.18451577022499 65.07019098472836
4.665722993097601 36.261200577682104 34.22538657704835
3.6498854066666984 34.95399218916798 35.80785391394314
2.2348400120615715 32.588241839977904 35.271002522159016
1.649290141439164 31.813492428782748 33.03548195127289
75.64132458443699 12.021180572838935 45.65224813645561
76.99109806415836 14.092241424021747 46.074939792728465
63.64413430777962 26.477050156345303 29.406816119015943
65.83875350043307 26.779592648122282 28.655720008191327
22.767822524202284 67.97898090304083 89.67329473454056
21.888308157434107 67.85377936323869 87.75664768771895
57.90434870725561 77.90786108937561 62.74793331796699
56.15108241329896 78.41133231748026 61.219114284447066
53.64499378026873 78.05320977077312 61.55516894488553
52.461106686849405 75.83188300231085 61.928083768648904
31.41020061361398 6.51395939385878 68.15624476235023
32.1930692290524 7.495324017860316 65.94338311156194
33.793487488952586 9.508073994106576 65.47572832081886
35.189785409775276 10.9741497792597 66.80229766856338
64.81179323140103 70.94949165261887 83.09210827216889
67.24617676958029 70.23912991896987 82.02782855252434
69.4247066200767 71.39018138711123 82.40158442532686
69.92162906941213 74.06860603100786 82.60620022130489
10.799711730574476 26.346549566080906 17.684284076781108
9.323951289029543 25.86809248780971 15.897888405164178
8.05382893496975 23.454515012667915 15.253830804067555
8.700432019220896 21.21479722175253 15.836153602464963
50.567561876404056 15.9498745847919 46.38859830654965
51.62694974328084 18.132358155904992 46.11475889105664
52.35706450159364 19.327007096233604 43.921169130376114
53.01989844384099 17.881700642052518 41.606207047478925
3.4101121084412838 42.79703220330144 73.936284726374
3.713315648955462 40.64374782444055 72.48497117871132
4.597167291473149 40.70005121540689 70.01954774168797
4.34263863508859 42.20377544626947 68.15044157335983
1.4085945798665616 63.56033768968961 65.34713306305368
4.233612013947776 63.0538659126618 65.39523716007524
5.44274644272931 61.39874696145323 64.78846826673315
18.793695047019835 2.6806102562940457 56.302868926255705
66.05977306488958 81.09274967266757 35.4633065290851
64.40372556936465 79.60130283914737 34.90147135842808
62.28050659035587 78.7152057976811 36.43838306247779
17.225741834229012 82.70135214680994 25.605817037968
15.34011213490767 82.15939390090283 24.208687458971173
13.178686090866977 80.78138159507158 25.177250168497803
12.853972327556335 80.30309661174418 27.20208161912808
61.37798814355105 25.97179864165161 66.90750148063505
59.4144591518564 26.68029538089045 66.02097486999428
56.95532205513086 25.89975161494252 65.734838307073
55.67530337793631 24.273514427490866 66.5712741468785
70.02638246640467 24.123310114835792 32.878802435222255
68.5791254756929 25.606848409712953 31.28574988353897
22.75607621731468 65.73144619638472 92.91854606797743
23.444078297338656 63.91236446581649 91.40029223345535
60.16310600188751 89.81658937297775 74.29775769664765
61.21032363920293 88.42457520951622 72.64829534779058
63.460179870358324 88.597941884741 71.3796399063118
65.3115554260905 89.67481380343476 71.68289629792079
86.34758176330705 62.36194451426332 21.858384521655847
84.85447478486437 60.94890903082181 21.69881518687751
40.95597085515939 16.512280878073796 55.67631860014623
41.2065018323768 15.548280574021618 53.54920360092646
40.69564192806915 16.63088409116295 51.11064976981163
38.661275723427046 18.212953701797083 50.70748197381124
23.469340565453056 46.3274983491445 52.456489283830535
21.262808756510207 45.70111372276701 52.80322523746115
20.006115638159613 44.16851494279735 54.321512747398884
21.214901110867846 42.77634972851663 56.46233499778558
60.294708651949804 87.01628130576704 83.90520734520352
57.93873432111086 87.61028222563995 84.35346280388214
56.044224719542264 86.49995094071224 84.89142231516797
55.62989488265701 83.78127083980296 85.03756978374682
19.58818469441416 48.19172528312202 55.44026694546999
20.706124152637283 48.30202718551114 53.72068474431695
19.658368258689855 47.95371575331589 51.027545182816695
17.01264149251803 47.1860090115003 50.63021010057763
51.35708014595161 57.690800069136294 83.34330703616403
50.16898291101514 58.0072153185471 81.67895607153727
49.5138821085848 56.71973409709979 79.24608555316085
48.89875412148036 54.32285190504076 79.08829387142782
36.74315206868579 33.7901132065247 45.87407357163043
36.009097578092735 31.840824452452154 45.47266939594373
34.81227995309899 30.62244063495606 43.41989162129869
34.48306424206593 31.53378955040284 41.134185512198755
3.983216422885366 16.870740282618858 59.32115005052658
5.711727159059163 15.838639460702227 60.950376156192455
7.293247402163348 16.69961102382657 62.535065709044865
8.424515128428887 19.022637200127928 62.73109368086917
25.97968147249506 41.758619995965496 80.53075502953484
25.654146120320497 39.560193748576886 81.26182125900766
24.449644603429398 37.63403112718287 80.52691445115255
24.171640961184455 36.55623061192642 78.10962196733624
39.74308134030423 58.351003864533 40.689422635317996
39.28004452720272 56.03974328976482 39.64361986782477
37.49409423605219 54.114037359857015 40.7798086025602
36.037673091236094 54.378782194326035 42.6005565356044
14.45500967910265 26.404094287019156 81.48417226394496
13.091019454082444 27.180000283071205 83.45293820062572
11.93270541337282 25.558368534003385 85.56315352570289
11.754001210372587 23.582420521237157 85.14678179195346
34.56431001661726 70.10228345393621 92.66549244212868
33.67999445778482 71.88656946707732 93.54943798464043
77.82341204016684 29.63970222481642 34.77486650082085
62.861914527902734 34.84163324379924 66.86931601803674
61.63257662386205 35.883676598291906 68.55414673945694
62.90731540422865 37.737029706158054 70.3514517601919
64.85634300900998 38.19842832470809 70.86865098216259
63.351160132727536 29.977791358516622 65.4984247510053
61.849616410575486 29.914453942788384 63.47121626723519
61.065910438942716 27.993767690143674 62.05866399993798
60.627868034683694 26.100091963227293 63.39206246633727
75.26363120183515 69.74985265025033 62.264350795965775
77.48418042955886 69.69713767299298 63.175320239023314
78.79088043980312 71.28189160164565 64.5709648395432
78.51014409976081 73.00781801378828 66.26323366631955
5.161376550804662 50.38126243533174 85.97749085813825
6.9750161303826115 51.6731757847992 84.10605617388222
6.783498771200465 53.30903679899978 82.66891141187533
5.2060195604617885 55.53778483444633 82.73765415173864
32.868895018204526 25.759963051232486 43.92144670257054
33.096330608130536 28.174628635556086 44.300029120314576
33.60357451294839 29.452842540126774 46.56083285224229
34.74910296063872 28.79545143364036 48.49598735224556
38.26192083699361 73.56028076315721 73.88360525030421
40.18399780430103 72.66720619143068 73.68263581324923
41.33573222768436 70.64410934487472 72.1682563929809
39.97989580854505 69.26221082374995 70.32412141904159
50.53846721654363 76.80095083888406 78.01460292125292
51.03551590677202 79.16392904960215 78.72630674885035
53.07687314093432 80.14004667753512 80.34735680110275
54.20502757399451 78.75246662477299 82.28328746114869
25.817495230180516 56.484463067603635 72.85193970011092
25.645950028714424 58.62542643211451 71.89716931061025
27.71220889392234 60.366816737903775 71.04294961133277
29.70622851374586 59.99213353922821 70.03772668653869
45.48429843346426 61.69706238787577 95.59351962806973
47.778126399274555 60.939392021627015 95.33689977589216
77.25867623747885 38.390230071960524 40.39718327061653
77.93836745638308 37.05095479430939 38.372390963791915
79.82790941363507 35.08255060431963 38.5501427662466
81.73134579766298 34.9449621189296 40.04011134537838
8.78072020899889 41.09134085395312 67.78610963291828
7.130290275363307 41.49112296928773 69.34491619281103
6.857344774562041 43.21092741462095 71.45879490043045
8.65353092123999 44.77392185688899 72.61288215527131
36.74533026715638 51.20223863597509 21.16505222253126
37.59383903150457 50.68788101876415 23.15475168532035
37.59933046462891 52.068093810614165 25.688850746016865
37.02903740760932 54.1848061452845 25.97688449651701
3.0208783694800654 60.862060227712966 52.992317289237626
5.442365590965209 60.73904355086275 53.90320805499613
6.674375903429302 62.67037745132559 55.54995115335316
5.212505682105384 63.824245528478336 57.28529176786821
46.375037487821345 49.0079968481968 67.99775516724796
47.904746531484676 47.81226456668814 66.64952182813694
46.64025760147879 47.54928701852609 64.22667487324567
44.82950543077116 48.76627657691158 63.55921134384224
41.299311546871884 64.24400671850125 62.11365702629924
39.086937300421546 64.89502433658137 62.442166111222875
36.78663764550032 63.90623071285951 62.86451012052352
35.926293308514424 61.707910070490726 63.8722565243942
25.835708030380378 42.2301369194227 62.021964953413466
24.45173145420962 44.59562900780928 61.6144853670256
23.322322917021513 45.2140747635817 59.63583188476992
23.949279593952312 44.49475796440468 56.88064782788168
9.785896874766411 40.05237522674608 54.92820717164798
9.606929998873875 41.57289427598725 53.32655541205254
11.366346287260082 41.99835269783694 51.06262964757342
12.739087651563985 40.69265548488118 50.07439243892215
23.163155570560555 61.367795458408324 85.55563220594696
23.349307676361782 61.5804954991889 83.0120043236983
24.088090198044544 60.02030973409666 80.98693821805642
25.497772476158747 58.147411403289894 81.74273847356356
44.03183817654504 63.36969402331932 40.94043129490356
42.991378552141505 61.219287235814434 41.05070426048912
41.082804237833344 61.13848124890865 43.09221068383635
40.52924537494223 63.10420625289947 44.504712860887636
39.89445339646907 34.91544238450902 61.40983288145275
40.460058442101975 35.96223689043758 58.818046817368526
39.589985808604496 34.97884329084814 56.57928775524862
37.85559759488968 33.37929344675151 55.945308134427464
43.503082227490175 56.49883191168354 25.210975405985042
44.16602283768708 57.30804219941796 23.04775705145692
46.36191041541877 56.334389550976965 21.749792617838136
48.70812078282401 56.12933080288522 22.61093769637605
59.78431448608339 62.35265805336797 18.00297300698234
61.72620652003592 62.91153632051543 16.29278904558119
63.917199637168515 64.44828151425732 17.359209225703665
64.36437115333348 64.72532460551086 19.89564117386663
42.95921664555705 54.75407312125175 37.434538299655706
42.73118641952699 55.6964569042147 39.57747667519752
42.300573790492656 58.35517575084446 40.15299657758211
43.18683521161056 60.2502118632706 38.61167949347137
58.23645240655495 28.492567504608513 46.376317112327705
59.451324556478355 27.811233412359464 48.828593809776095
60.73116632287135 29.34072709981213 50.25950462675165
60.88969884023837 31.845684304397775 50.56897004584366
64.45221606152677 49.14966179232335 95.72828974320728
0.6190895886539501 74.08534443834465 30.062026593995643
68.37578584429008 50.85169967022527 92.511235928882
12.215092954334567 53.496222717498874 82.65147215590817
10.225405430328005 53.85503308008646 84.18427398921177
8.21431593543846 55.51951014532303 83.75604677567453
7.721442666590062 57.005596585162245 82.3209137669975
57.48351706216675 12.877627230962814 33.44612161697376
58.282553386193406 15.239250760267929 33.31145159134111
60.00952700181422 16.521279922036907 35.109065956096096
59.568555133157936 16.308520211980532 37.59094024781913
45.323579552581386 53.73849055667269 82.29677854246106
46.26374409617467 55.587283917775714 81.36050469891713
46.37370574693377 57.93617545516086 81.5406677443563
44.500824588299324 59.918007411557426 82.10608240572547
34.976189742039146 35.47467243155195 47.67385662047415
34.90727779342358 32.96089146724721 47.97671241524103
33.20708285236467 31.306483702271414 48.425053783119225
30.757659689470668 31.35707833145115 47.3130571063864
47.470429056402416 60.750290526297974 82.00158087569625
47.83468995866396 59.31031939969919 83.58802772549423
50.19899193796257 59.32859338385501 85.2540433251834
51.49222979880083 60.98970171867099 86.05303666701639
12.31943046829758 17.34754132205846 61.533765322658496
10.441365335462457 16.726261108442063 62.71375076538422
8.959594567629825 14.544808644783181 62.55140626383435
8.42758410474366 13.127626463892438 60.60095428618072
22.069557550138946 72.38087406724777 49.27141176738783
21.292249598446745 70.61814083191098 48.21144894593645
20.062561610868855 70.18190414923896 45.616465597426874
19.381807025735153 71.4897516227101 44.0583344116807
49.664476133323106 42.772491178615965 62.02931871252256
47.759985662811566 43.28294687983078 60.70572344570301
45.489198898132805 42.36091493997542 60.31782416675089
44.741346940091844 39.806056751653784 60.78584344928758
28.300060045518315 48.827185780569174 44.33938153580584
30.686446104063673 48.46241606431986 42.82974420536146
30.91985549302472 49.8267697793806 40.35327176366349
29.748200105744356 51.43615144080602 39.56802964865811
44.90185693882205 77.34613378947023 83.38543680982205
44.454530547992675 77.10105592114596 80.88327011089187
43.20910267068612 75.6043739631322 79.62303089540693
41.035725128186826 74.07355698085173 80.18631729521957
24.563437724844828 38.91022561447138 19.70757710356559
23.732270617172073 39.10755456569444 21.81982787912564
23.43645310042548 37.15679927569346 23.900850114392004
22.397561128378218 35.22749370346852 22.651067022139333
11.79829001154521 37.47435212162192 27.428072724442735
14.20773596086622 37.90434591113196 28.006988204053922
16.15149083186818 38.86106029572972 27.069381828434494
16.199851721088613 39.496903222044466 25.011580625337853
49.84389060644009 47.288298493859216 55.39739586260226
51.36109166264384 48.02205733192065 57.18161022599822
51.19674981732014 50.13513519390871 59.11632297191303
48.98718961406089 50.396462906566825 60.35913607672542
4.9402941237976465 90.92201825202112 60.12276268965367
4.280485394895372 89.2839355740182 62.59533935778621
2.5450150411908643 89.93255229717919 64.08109595776163
45.77380796107356 51.22256920613933 1.1918272756657737
21.761996696046197 28.58017591131695 82.79719236784045
19.70154945513937 29.561807139738104 82.57466797506443
18.76924243140454 31.84148932125114 83.59696662648544
19.494496045536625 33.129369371734754 85.21776584797949
13.139206917234235 31.118511871232588 94.48716197983704
12.083529409064614 29.959249802887417 92.88098826807031
11.618854912380087 30.540349076427873 90.15789655866806
12.744583311191473 32.25790289923184 88.83414596162432
46.65078048698747 80.9816005859374 84.43492757231317
48.38853816308873 81.59772776548037 83.41632041409808
49.63662385511112 80.81796327895341 81.41953889799612
48.72229022211231 78.89115891531124 79.73587087595547
14.344022772942768 41.00204315937437 33.80843331472559
14.468536583112314 39.141654701146244 31.931456133744526
12.58769320642105 38.17002823126768 30.79627252350124
10.528595205331351 38.52188679853191 31.429395821342567
80.19941530405606 64.30172299675431 31.74573325314419
82.5004660318056 65.40928458158571 31.707194357885914
83.45284663464585 66.68507289621544 33.97273207321011
82.19830677594635 66.71236566840352 36.0998666696344
48.61268621265771 56.60197843241261 90.57159462694324
49.657392561874474 58.76463623281628 91.44483900038449
52.07002478563465 59.63474741647396 92.12314648645696
53.476648687280885 58.05634335417098 93.65463835863505
55.064538319867765 52.026396154777586 49.98149490947894
55.149728977126706 49.92092227739903 51.491824956427585
53.49742325793169 48.69492553597284 52.98390604498395
51.17871053735486 49.480994969168265 53.90662555593183
47.49534480212612 70.02536888566634 70.25118055838887
46.00614398191097 69.98614353528647 69.13231168903916
45.664102843365654 70.17946024942306 66.53792505819624
47.26173976770904 69.55374551342378 64.62898205797309
38.86290120243952 13.651651858466598 39.89930493435378
39.32891797359977 12.652074861456818 42.01710313321597
38.06154492302531 13.330265767981189 44.5063917855171
36.498205023836974 15.089748668861555 45.070583635482926
43.59021954811593 66.05085843625719 46.06698657001036
