3.9705043750033537 11.286414956694024 81.32186201421692
3.4854852619863883 10.628873528182881 78.9199392591327
4.197844239780216 8.107287297433242 77.64009944985183
1.9922478804479 13.023144585300646 76.20192846478155
0.05821602982482115 13.06250981177296 77.47280896714523
8.913656811356631 2.3339270488297355 6.349190054863008
7.447238273733419 2.672854460537321 5.046090061315244
58.77601152396609 15.04835104515758 56.98088725902001
57.811120327995596 16.983465230409163 56.788417058696325
55.796612493172226 18.274033703711577 58.38278862460395
55.65485521020283 17.499477260271913 60.62064307180342
20.73569811371562 9.98011754362523 87.50503509360574
20.85221028325249 12.61043262906641 88.81204566874344
22.774897599848106 13.426549726898195 89.66207245341894
25.026940202562123 12.828144460067248 90.31968727810178
54.24749916400271 35.857070463849325 52.15721136375488
53.75526026001245 37.65555176659744 50.7297948048784
55.37296502034652 39.714246616837904 49.88138758023851
57.05618358697395 40.28853442287278 51.053878430974144
42.18953511604053 20.599032718266752 62.70192547189047
40.44779299565253 19.64004687495769 61.39600277243949
38.049975348787484 20.990466162040246 62.046777901948595
37.54309896439525 21.95193574064806 64.08022930029068
14.840947450593143 3.6454123953750757 13.387167277522869
17.002321435763267 4.293936940204599 14.184404279624799
19.25461054777359 3.599732037956574 12.595092996653802
42.113993402297424 17.238316764181274 56.92717865935374
41.09651381924266 19.227299554846777 57.58786122158725
41.510839507751605 21.001329842361528 59.19150749770745
43.6918491873664 22.0055648088681 60.325862947361045
5.685111473589716 6.920558428304921 64.11688203567229
3.672823769716696 6.32100603768621 65.37086971197641
3.092395610356233 6.583191959581192 67.66338704858566
4.360576293481998 8.333469668256761 69.62861715440256
54.70455546318494 41.14954243888148 58.23723100960837
52.887612344711464 41.253517334179726 57.177742003303884
50.26252695999271 42.133019970990794 57.73611832678253
49.65854240938297 43.19931149127675 60.209093276109584
21.620528030410416 7.965417116927508 62.944438024646246
20.999987421751804 5.806515837629387 62.07336133828846
21.283279481481646 4.356836618296479 60.48907414725977
23.606601122840534 3.898655614657347 58.84510833903183
59.570208807696055 19.467644511993395 56.377020488751576
60.059169637737504 18.61183778971587 58.490492970961874
62.487958756561135 18.335351267290886 59.59803418311153
64.39337509592656 18.901749062783676 58.85162333031109
67.2368941366451 6.222040635178219 41.743616913982116
69.33791554254657 7.346563023482583 41.41419434573286
71.63939217324999 6.665410596326158 40.75498132148785
62.97712542911174 16.60663424045735 63.007632249616385
61.48778136657816 18.354940120916698 62.259201293358764
61.388795640618916 21.038827019925282 63.17328609655482
62.265110862208516 22.064439203118965 64.98876894152176
0.38547893684516693 16.72840865963304 92.65525241201361
0.5101576726594659 15.578612222083414 90.48593090161353
46.715613840035424 44.11835837837714 65.44730180919369
45.810314386120886 43.074327151123185 63.742321303557794
43.81331879462755 41.61512979404355 63.4919389987224
12.986215620479733 8.40037984608474 28.40617495197836
15.054008337446337 9.390303972439442 27.403859057458778
16.75765759910224 8.748805810923868 25.764318987227075
17.2938972788763 7.113655226371111 24.29835324706684
58.44651877165983 38.3739071527875 56.355775280209386
56.924299494866275 38.69066165478851 54.65475427143907
54.22069658181906 37.61237585045313 54.368990661278104
52.886613538452714 36.79995350233265 56.04623935967936
26.141408326576332 2.2851944244711206 15.306679149796654
54.20082765625224 29.33362414029295 33.31118819983313
30.237414266387365 33.4543698745268 77.17838188200089
31.30758463888008 31.72338702287459 78.19765103789635
33.95090278439347 31.43760825674168 78.8673192846924
35.54226452515638 32.95559051890159 79.58859601387257
44.176007682639 40.51408389217952 56.682852828424146
70.83096947196562 16.55939229848712 61.94558383185752
72.24987697394583 18.201081737773976 61.12149437073046
74.4929804523312 19.198870177048203 61.942985380026954
76.24195622378438 17.963852891856483 63.87183331714341
50.328362505991365 36.08540496909263 55.200825245457686
50.127805938244876 37.415492047402196 53.03260139277839
51.48875713756075 36.647950276981 50.862444778329454
51.4321833917503 34.48545412020445 49.66534596038389
50.94683255015042 33.29037112598653 40.789847788304485
50.90946395879086 33.87377520686893 43.273094563122946
49.38351287837584 36.208636826928824 43.486550410828414
48.76014524133871 37.7883054270072 41.96437102736614
43.38925115071105 12.051428370790386 47.796839699618545
41.15973014634699 13.572292742082091 47.79373793302449
40.83374177723371 14.184237149310903 50.48911511654744
41.49037266650688 13.288360999412603 52.09769281775129
30.333430845359175 15.495690155005745 63.08086823620376
30.475368060137015 18.296024972196648 62.85568422820884
30.71570811033365 19.626820638867414 60.31354253451357
31.7934679589173 18.605045231561036 58.168556908019035
64.6554542803833 14.332997387724795 55.33728892387487
63.61721850891869 16.635578253760286 55.95957230656551
61.30891160970058 17.709461583344233 55.08595279311911
59.38355615233955 16.889163001361155 54.55517517271336
17.11404500534342 23.931360997820594 69.23785378005144
15.642528022048923 25.835436200441464 69.43942859198403
71.74329109931314 11.82116605390962 52.85394262671477
72.01481638296384 12.029806863496617 50.69309742089456
70.64344868269201 11.171859603275806 48.65829544364393
68.73396600971826 9.88416344217087 48.33702769743146
9.392581225412425 15.847380998687658 94.04093456398941
7.306078926366154 16.650922597821978 94.55774454270521
3.902533484513369 1.936661697334422 3.8402229640388588
71.41333547358231 35.99549877180884 44.371188931538086
68.96461497593906 35.36721305185526 45.67621144289479
67.90456998341398 36.896819725757034 47.42465569657538
14.208088338440604 11.819061300627142 86.22496083016334
16.088472358406495 13.0848898311591 84.95752372894948
18.057746971249088 12.174523705299347 83.68549547150938
18.70302232716761 9.995759711116838 83.12026572594739
58.05790703465759 9.729589194788334 37.14217240475276
57.28377999616174 7.698739358076611 36.04423004859592
55.02371084725045 7.087065636039138 35.16557760816997
53.11180720905331 8.204148237901771 34.38213835979636
36.195940594643666 9.605574633784105 78.12327594185228
36.07110042319995 8.203622470566676 76.48770912685303
34.00035445331527 6.720764885037287 75.55061725061094
31.89878314493282 6.61243479056304 76.0215117806425
46.90422113281903 28.187915322891367 81.43698302775654
46.4305269298597 30.464321847626906 83.07775658097168
47.94111534933435 31.984676428357936 84.19980167232094
50.40778716767043 32.317972485133296 84.29287785258055
14.680761756829707 5.194660696082122 11.366937096068092
14.993317944216793 3.847757410517192 9.793822988481509
67.10699483164662 6.141390035145408 44.923173406022
66.22555002227415 8.04152169518863 43.96198416685828
64.41341859275305 9.736041540208008 44.44750521603163
62.43205452289917 9.89363977436677 45.99180019400751
34.42199173539359 24.85125225866289 23.585599592179438
34.68118993322648 22.401204101435248 24.55956124303655
62.42394165345873 44.334960539976635 57.41202273691857
61.878825316616584 41.742210972201015 57.242295941639505
59.827838299561975 40.494546265523354 57.12834874307106
57.3288978637175 41.327924697238885 57.89009956486277
22.844429492993658 18.34560583748407 94.3066630959239
22.601931571871578 16.66236262530028 92.05396389066114
20.960239534348794 15.283426717231894 90.92535579435511
51.187347805016486 29.84154793849202 86.04070970171911
50.7398813933173 31.80277482046299 87.30291139303509
51.47880036202531 32.48771605360432 89.61723879725851
53.346108603640054 31.35551623131356 90.81491795799379
5.020417287096236 3.4543283294609473 44.55685275621003
6.677844580023337 1.669982493133435 45.135995432278364
8.842304370172187 1.1968484589655988 44.70585144308498
10.72968918599396 2.1519196629843136 43.42365260774358
19.77017937639224 54.61187698064653 43.64079258685677
18.054063878144724 56.43130890162118 43.831417164974894
16.58650000246673 57.39156809000645 41.79754253364281
16.88767588840482 56.77471249322596 39.81173118330126
25.905074450777665 72.12327794497546 77.73953777515268
27.15412642303883 70.59752436449219 75.81814562934527
29.291521289547575 70.10408018544452 75.64273807637166
30.91653747562425 68.86080592510218 77.07220290692959
8.795208600163235 44.56967721173019 56.539602437305824
8.210436080514876 42.438183241381466 54.700162166337535
9.569192385082573 40.79280555348288 53.64419339795044
11.866162574415531 40.68549569787604 53.483738896616465
19.853808146350723 60.90335301262865 60.7409512799742
21.47786316035257 62.68124757611064 59.9804463563388
23.721462140378488 62.474254317386354 58.6522688494431
24.70583276011811 59.96919967888491 57.70887537202529
33.06990462096794 40.134796960821554 63.6606763746652
31.61038176887827 42.19215653786 63.2591255126929
29.334615293839185 43.02205691391706 64.20893730863986
28.072928831560855 42.248718509419234 66.34211202992928
22.32786579003752 75.6844267119299 83.0931962939897
21.261958558197215 75.84947488867037 80.66963891578425
22.144114620072266 74.98384584248178 78.4611765951805
24.44700508432535 74.31051515482335 77.6028606971958
8.71321066329998 51.00478949237033 83.09696826041572
7.651272440669995 52.41927321773094 81.12701097526387
8.449176656925143 51.621403286928825 79.03081017489207
7.526325798367875 49.82882985131365 77.6506032337983
2.646969150108731 77.52884176068007 81.02786234179308
3.3476733916658343 76.6193787489334 83.18347609034439
2.531337951626668 77.03517853212861 85.54371940219978
1.1092646012109328 78.9496606842109 86.58234535966115
36.77481785284872 37.47284170460116 57.11408373539039
35.81567389914461 39.771876078140124 58.03538996085241
34.16714073527377 40.28689344530945 59.80293146622563
32.5754423775275 39.0652938381607 61.266442480655414
18.129039060872557 85.98176642957672 55.08855440250419
18.323371985031322 84.22325269980126 53.26359572807579
16.33317510999919 83.36172783977477 51.96883309758543
14.211451602723832 84.57578875989454 51.214370648526064
0.030683112991879678 38.02214828618301 92.79370457591673
1.9450731580200666 37.76979701811941 93.89894023068773
3.9594209022017015 37.074975668683635 92.47315245069011
4.814874692321092 37.88135077716599 90.12527400162315
15.310777282069708 69.18750701516916 29.974399301418448
14.159484550553106 69.13183360961686 27.961699771544318
11.934163835459458 67.72274418686708 27.692915511708676
11.21844584022524 65.45496738978429 28.60319046776321
1.4297921818393748 52.79077380113561 82.87754097676567
3.6589413831116864 51.2618078032572 82.17757851909916
4.282325173543363 48.816181342144446 83.6453268407566
29.070578373737128 85.55654873214131 60.49324887521364
29.240811968511977 84.26585393746993 58.97962916800535
31.53486064062303 82.89298352116305 58.015711352676384
33.57738707537729 82.48015260956937 58.78085263101808
8.753868897619114 94.90440530920264 82.38640861826529
31.595211365443983 46.89180592109175 78.47326207035701
29.608944269394296 48.62626725544078 77.36904077940136
28.746942025305437 48.53306162859494 74.96237714894349
29.020547840111895 47.08599570130184 73.26750438958837
14.92334656418329 77.3049120445596 41.0380707982057
15.120110858670213 76.18799287921246 39.00495741552888
16.42185687032179 73.80123217985981 38.2000156871021
17.73394370571144 72.30925479549772 39.52300194394271
8.294984514978403 48.93893881704261 61.25688868038284
5.993428370724147 49.15351230413818 60.78060686696816
4.620409564193718 50.83839291481991 59.168405216953
5.446420754878578 52.073724594853864 57.22566657231327
3.433680044847135 44.62955760811796 63.034377124537905
5.691769869184483 45.34214720663945 62.94325689019053
7.738651926493607 45.110683094404635 64.14215521814933
8.010707086780599 44.23400713442545 66.70957951450282
10.318053091177607 60.27656557952491 39.93706256255576
12.314569478671324 60.96803218707919 40.77190710751152
14.723517961732455 60.15076069392401 40.016188140946376
15.71499600994207 58.4947830985939 38.51453110102749
30.95548741814266 66.30741066987565 76.1310660037811
29.518848131829206 67.53645785772046 73.88057231195178
27.73093224214211 66.51534798998964 72.3887788001053
26.682002329894623 64.24499226968105 72.05632629457412
5.9636059263588 74.25152448624712 76.60495763028528
5.429137871515285 73.64756240672676 78.65500063265819
5.948111260040963 74.58351509023913 81.11142614944691
5.912005018312832 76.7761448455986 81.89361561295146
18.29313561780958 59.29971462504483 38.95281858154142
18.82464908852643 58.69206591400234 40.950208460311806
18.425923853648733 59.89863486574135 43.523967246580916
17.206840143834725 61.94362940091879 43.94303052518423
4.766943371279179 50.720464185060294 77.20369378460488
3.4174691156906425 51.86638867782692 79.05166347857912
0.7879735547240453 51.20996582018121 79.50724515999778
7.248347015067178 33.341322567803026 32.73401054641813
4.968256564145738 33.3957302652293 31.819844779705505
3.6362945528280393 31.908258880975705 30.329563218560107
4.051362546438798 29.806425146227845 29.452994760218598
3.9540128164720327 27.708902752781654 72.04353989299595
2.224166894764267 29.457160856808244 71.10743257450376
1.727459542878614 50.19897090056592 56.3766617575171
3.7590998553307675 50.62806914858878 55.05301474652141
4.380322854455832 50.3415958533264 52.9868363567713
11.383797088523833 50.01074232054282 67.53773470874792
12.060483400802303 48.91181320742232 69.89135851916939
14.21379654208245 48.74861004231953 71.10239828586903
16.45264512874207 49.18575687984428 70.74268274665238
6.326242910831546 61.91844762723982 45.41474950651523
4.470138543138715 60.504244721914276 45.911049590204705
2.3686281050927733 60.64119327109436 46.85808314891263
0.32521347047539184 62.198157348154766 46.328330244750276
1.9023633821799388 33.96229968167145 21.701193382664744
2.5551578703394213 32.530073904013115 19.672160098358805
4.583545272352363 32.37141252636488 18.496639494511754
6.372198986177815 34.09713109596434 18.035766527598287
1.4576735690945408 68.55663781288891 20.19144324684332
14.816240045032533 69.62715629404389 16.310439766242087
14.178853904542887 71.30497084071817 18.639431493015636
9.772845041034667 56.91364894331083 43.54281222799725
11.691834919757362 57.9536381057576 42.42370133123646
14.378654699395945 57.99729966544086 43.15519984169182
15.55398228617975 57.056717051849965 45.0587334720361
24.920108096361293 69.46570528342882 70.31187079023172
25.74407263005853 70.24967796643709 72.67231128883392
28.213371643339084 71.18678149943645 73.13825530349388
30.261758139971224 70.92855491490322 72.06854470755253
0.3420880394013595 80.27094469194142 91.97744501136339
1.8654267365564712 81.7125331521235 93.12440153592642
4.280229845035101 39.56284881435005 48.665757755372525
4.919599400709507 38.292609480046835 46.700722519684895
3.7349228751628614 37.57854593113984 44.80044465816561
1.3787670485916022 36.3917425171599 44.73355641258801
25.633215228457154 38.99980236841052 35.08246162712801
27.45097993580343 37.63255160552303 36.26186280772166
27.99982330310736 37.799528861667675 39.02457092855958
27.292976929403046 39.321082316053385 40.695055813329716
24.642313025768154 35.16300369348849 51.3344950976932
25.792781592270646 36.857809030108704 49.82901225832507
26.1591028053107 37.074360600133694 47.39553706275284
25.553207394750533 35.64313575078202 45.33784642546367
0.07256064214474883 74.06791033015021 72.75177186905358
24.031130634234824 38.20406342546192 55.80712852880833
25.27527830859226 38.87597305513507 53.551254594806586
27.64234830502248 38.005100957557225 52.639333573646496
29.06286861127607 37.43745589313138 53.94635989965444
28.16366516811457 72.27559646052386 31.6596561998437
26.434143156895665 74.56888084611847 32.184221052256106
25.077449483731296 74.84816798214538 34.4760948653428
24.525324052119075 73.38074628094093 36.1330235991719
8.335981963865041 44.652163792710446 69.40134445553323
9.643774124249335 46.07045516245119 71.05436363579614
11.665168994759455 46.5299105425971 71.41334059846075
14.069974262761368 45.51647411095719 70.79016339534826
7.272150609654696 92.7120161767788 66.18385234940591
5.328392355131385 92.24312245131371 65.15894293824498
7.060581538581886 91.03012172254283 63.60653086770754
7.7413884865286215 91.86294014349663 61.26270552816921
0.3996151970578291 16.384811936591166 48.11283402458425
12.981907110926805 91.49802070913567 79.81481377190195
13.761280984584328 92.53349523210653 77.36024278677418
12.623539947132652 26.12296086973315 74.98048146180213
11.5536638999885 26.59404802384403 72.72655479113891
9.171515514313835 27.3100513960839 72.31958723890642
7.0365203530932074 26.865672216636494 74.0342359619373
2.6996608972144287 62.2824293938255 42.239576999111975
0.8429266298094975 60.45111996830392 42.60219780685552
0.21588241234511665 58.55742300776325 41.080546788856985
0.9457048640916054 57.81599691437599 38.77281131516451
10.834947966542574 81.80097286140979 50.52704416696018
12.270389528352 82.598387089031 51.99533506273587
14.552318362338273 81.57908740200081 53.26520502225923
15.532101528918068 79.52593534287 53.03218535181088
13.182195608086461 91.47428637275806 22.52946025297873
11.444381560212959 92.79449216075338 22.88939312351995
10.995127176236258 93.10748983401898 25.669217374031316
12.75497221270925 92.11889983505803 27.284242990649172
8.033482315325355 36.37551257973395 39.643638982536615
7.135187484521972 36.14472098360806 37.25487727726086
7.5659228497405415 34.57763517769844 35.53734504852675
8.33941813128707 32.16861549916963 35.464167957227
14.490439044733892 56.07261720070098 91.5357648083695
13.246998598741705 57.60235957246084 89.77983477868898
12.67290518658049 57.349304376052245 87.34491491377838
11.859047504456242 54.86037885299933 86.34309648794995
0.4864154488852837 52.005140333327425 57.98288229661604
2.599233940575546 52.903019226060394 58.148236531000315
1.2515176219480468 58.700432760127086 44.88333637659149
1.6988077173747818 56.17497197123904 44.4135466855399
0.8283752012114073 72.15712367084834 25.75711419030632
3.182940550865837 71.80261584315775 25.883908178585088
4.989342827543573 72.52831013984591 27.35975750079578
17.990935668243953 31.067448966802317 75.11974300592195
19.19180627866034 65.93626462963009 67.74046495440506
19.090204772009987 66.03829695726755 65.02858534042142
17.259494385874653 66.42250339082204 63.23355754605546
14.525994310084288 65.97849794124724 63.61112683942982
10.89371916396623 72.42257834042846 84.56880826741684
9.984512164954635 73.43341667699704 82.7312737871309
8.180909954921695 72.6935024756676 80.80235970732122
5.990750644136468 71.51781893898969 81.39484010770703
10.781355977614133 54.89113189000052 75.6043133240849
9.07038080710949 52.79772630703192 75.21265692036668
6.658319357815367 52.550032655589824 76.70169499737587
5.201553272598463 54.09866455700853 77.70465309576774
31.362161809781544 39.49786026781821 46.36347292656323
33.27351060603676 38.02214808046911 46.10768652108474
35.014450088210964 37.96262172761761 44.37831454719515
36.3012380770813 39.934937356608295 43.05938039527915
10.335253187323314 31.00130833313861 18.168696237684117
7.788665268087692 31.69224442726782 18.561892435433716
6.520283302603669 31.834958632999797 20.750076707016774
7.118987665401282 31.264350204987156 23.254217816995695
20.717334822832708 68.05803949489295 71.72524527288905
20.231984677240845 68.42760836672612 69.40873790178
17.84887071196214 68.5714280211248 68.19965692152067
15.57397558750418 69.82408277442347 69.27586136117392
1.417552641687596 83.41029008548229 45.191276502209085
1.9260843289423975 78.2235648085293 91.52419576415231
0.5697237084800294 78.4112062030334 89.41435181365598
0.4888420771866282 74.65562481450698 86.98699099766621
22.361692366975543 48.20102948299458 74.69536331593768
24.45750790487509 47.00362430417632 74.02533366527247
24.880926231144063 45.85039600317418 71.64184933673533
23.37823906850988 44.984494942372166 70.00635232741745
1.5901709820125025 67.82360700429216 22.885526529761968
3.195066986500413 69.27281724795854 23.377440691727116
4.775311565385715 69.77242390865895 25.2983417754846
5.685081849638554 68.36524795561355 27.360681874477805
1.749868451033358 89.41623029941093 67.59154253109007
5.294505892740674 46.29547448254552 68.16998343067436
7.7447149641589546 47.03052408662165 68.14363358421065
9.055903340520175 48.903357141633585 68.90356047150641
8.54004504191632 50.70881909080355 70.83616989227274
11.995627721318629 68.6777900597688 14.552888650577168
18.99520967901535 38.15898136288035 90.95224227674188
18.927444181461553 37.30291517618938 93.66600592801352
20.748510496428832 37.19722354196116 95.37221276899183
22.931030517635286 38.34937250974914 95.63440580596078
6.642217243015962 50.60556916053232 54.91636505812665
6.006662135776308 48.602699431735026 56.14374968734237
6.56007336728576 46.07001643566121 55.662877382520605
6.950845320517936 44.87097819285191 53.45144698126473
6.388437256832676 35.74234539451212 29.82455134733127
6.004592912628974 36.053348119621205 32.14929389039677
7.235068082490725 36.80643817888249 34.123773163297344
9.800441101191785 37.26301244524803 34.35454755262172
18.795974513723213 32.796338196847884 79.59738137505923
20.6938532947426 33.56304710308466 85.13584384936648
16.292634934258956 24.039972253469955 52.45707047643565
16.21218669536473 25.61322372038267 54.19980594297639
2.444314604582356 23.06345931684872 48.699255612003114
4.155908382515679 21.933241963364548 47.443794809817156
6.717549161963593 21.202518731359874 48.55837416361318
7.982883889180607 22.17118855503176 49.87334723960327
62.70094933923686 55.270202607030306 42.97645623392225
61.04944088347726 55.5369820423793 41.00490293797024
1.9506887302975864 22.249643370117155 51.36513443214405
1.8809731961402363 20.20052568909663 49.726830254497784
1.2354494632823017 18.044996222828498 49.981350969997536
11.775283304955282 24.538838041302384 67.49741885375954
9.456204629398801 24.08964281234766 66.27226967061792
29.68467458924424 38.30473663485926 51.07131704250852
28.69340939523349 37.84630928935445 49.23645017694849
28.846263985938158 35.90452150090352 47.39752037848201
30.677304465460352 34.353281010288384 47.21776860667577
47.76220720875222 48.56376327470199 74.32576902587691
4.334117402992332 31.272533374720556 50.78545252078028
5.056638584089758 33.46481601737173 49.91436767323498
5.224030941021076 35.8445620879457 50.979222877321746
4.826405997855284 36.69460535748703 53.284564709342916
11.522068384249776 23.86609709597967 9.569648228135817
9.40692887778159 23.237329748238462 11.398088173646599
8.265179350330374 25.157775247866773 10.458433912265557
5.95592619113426 24.91201959487575 8.7662781806699
5.148897341395084 23.36494257494572 7.608339784897871
33.21876138708079 48.81131207769507 85.21333599183912
34.830302134833005 50.33313146575043 84.1923322499641
35.56755248179846 52.727767704248635 85.28281642405564
36.14184853282396 53.34832040010821 87.80568262151108
32.35337229082024 45.08716930945556 64.29321525211749
33.476476919982 43.304012099531 65.11007768882907
32.692439427090456 42.64716666482236 67.37238028864664
32.6321940792437 43.87805558218744 69.60204025473124
27.2772216502979 31.606614412426957 23.48335252868941
26.828708058351616 29.262954296713016 22.185939539504194
26.364154831667985 28.909548942994075 19.794853753670264
22.880481911971007 58.71822566947527 54.20446777707385
24.379493182702397 59.748257714613004 52.639347434786046
27.27589539093013 59.61513758434368 52.48317832180704
28.808782763777867 58.2432476852267 53.572672144329296
13.883921474850268 72.86159337638834 37.69136128564086
15.164132502096214 73.03603061234742 35.66780592294551
14.411362297076565 72.41785052815042 33.18442673025255
13.15277442666233 70.72064568488075 32.321047415962276
18.52103761402351 36.402158640062325 34.07951375784706
19.664222871295976 34.96695690863708 35.12852307072536
22.583546783076613 35.07935898743046 35.744445420115
24.03164158762253 37.02649218499815 35.44657937844363
41.183346490163565 55.5823285569235 37.49856403539342
42.60954921002187 54.97560246560103 39.47323022135628
45.15789350919347 55.31187786165266 39.79977896617638
46.836902553882595 55.72273485527113 38.522888988002585
3.442260434832861 31.530033025421776 68.60755357789354
5.650986571706177 30.258126470285227 68.77173114436101
7.015896419899218 29.317530103906936 70.92088788519087
6.017235201256484 29.171046461962888 73.09583069754447
2.078003252805151 71.23064249197843 80.2375102768759
1.3648061728225116 73.14989149717749 81.29818510532425
1.569850099951878 74.00740214017111 83.85636026768681
2.7304483752808233 73.18618850862377 85.9114744779829
14.527962265205606 21.851758191690898 47.38694633486221
15.164547193751465 23.49622152816876 45.746372318767406
10.31299764341286 22.768297467194916 48.59247106333301
12.304238578466625 22.12915143515079 50.13192244670399
13.463102084183996 23.441123446539766 51.88175669494429
13.080155595568906 25.256256664035412 53.13394609450617
26.50130897091946 48.91931106531675 69.0640779611338
25.5075456242155 48.466478907320116 71.25339935178489
24.579097654047523 49.8422777979834 73.00045893083144
24.6432834247317 52.23040748336131 73.64225762277621
1.7592803961264807 70.03705189196667 73.94312544354972
2.4379469073551294 71.23784756248004 76.14110334014944
3.8939874691309013 70.81297299495294 77.8398501901366
5.2811338252081494 68.68135054780797 78.53529607451227
8.87053547957521 26.63912371377728 67.47242218211333
11.123876048905432 27.191292746038922 67.17899241774727
12.397510052161289 27.983556081660346 69.26063870739621
11.804319251976896 28.83637229042985 71.28179958998176
0.6522868431822738 17.69926371514902 42.19081687858861
15.273191823761094 51.76708446040665 77.07990431339722
12.668331247708727 51.94038941186265 77.4481978110179
11.37390366555028 51.71409989340687 79.1382999350603
11.773660535768125 51.255225211947455 81.745521021209
0.35001529521753416 55.13246212350097 83.38364323697986
2.9008075156889648 54.600104074851494 84.75452343716232
3.60422392731954 55.450145070849814 86.53945148663828
41.993825269680706 51.8942818107601 82.5859647121652
13.928658820730751 70.23447342541316 63.656133860034245
11.949061886703024 69.95692120894785 61.639924426331916
13.019200996216517 68.69983710660618 59.63395822921114
15.503368795591692 68.40792861158782 58.93166778717929
5.665047487487266 89.45241436425378 69.78987693416978
7.854191612393498 90.54295560649454 69.76460755774495
10.021924990335119 90.2306297609899 70.98356967142799
11.091489439794767 88.40607178813602 71.90408534131159
1.5771303263910466 32.28536018053246 71.72686245395559
7.275417039919802 20.00695162168443 51.90394914904872
9.312370230644532 21.163019637199305 52.16085401798223
11.694073273639846 20.01645087907508 51.82371179187963
16.293193483217685 19.442434579692865 31.236557305406986
13.724768382557563 18.21578898086884 36.67225298396286
24.850818972228875 42.13414449353995 62.64896025938371
26.94235715837492 42.02219710700329 62.224465371100024
28.097759551165108 42.59082173753354 59.44740075609073
27.143032307657286 43.268895912385275 58.05699394848013
1.16049897138823 54.691447361632875 52.40113225769647
3.182357973750113 54.64847138479255 51.17255447426934
4.329347044080587 56.60949436369086 50.13433799591516
3.256882578354372 58.65578438476357 48.91842031774842
13.490089867419297 29.026045391633588 66.6790042717334
14.450802337086001 26.976171856948508 66.93134243613142
19.05985978886466 27.876431520766406 66.82740276500063
15.266931930255852 23.646838452381107 57.44890710967945
13.090399586928706 21.69890688775886 53.8752296640286
11.338158106715158 20.75098747275233 55.3841287307504
3.8888642021817987 25.322563532651706 70.51359750903568
6.139331836195541 26.672325640823576 70.66367319630969
8.503878556227926 25.718231909726406 70.10270029263543
9.313993315665707 23.499514225794513 69.36023483461943
13.925286996008253 48.22065263282111 26.291769024754167
15.63227064020963 48.9408593492019 27.15933048285968
17.178140520933074 50.83260365915885 25.501979277222887
17.285008057612387 50.912581913769074 23.532395738038904
3.50398046440488 72.09428219773297 22.785499191754774
1.1199782665962574 71.20730740304796 23.270130549322605
46.82091731734836 61.93674270809798 62.74021599499477
45.10720254136655 61.7074441547446 64.47867107936453
23.28142642481876 32.18387264611815 34.64109226705114
21.093162800213513 33.49600939469156 33.53705136612188
19.20919774655115 32.58972247948512 32.250157495194415
18.85565371822894 30.650809762399042 31.21166588203676
0.9525310813814662 77.53592436186828 40.849512509712596
0.1087744661594927 78.68583347390496 39.07569234400647
13.280046898929436 29.383673463481067 15.79484443430529
10.71665031580842 28.758609291205417 15.436857108044926
9.154459468093487 30.111891387588646 14.133051801071625
9.142913597497238 32.179660409463956 12.968791527489534
2.3198297383866118 70.94813858045757 58.28052134284486
4.415351555493517 71.8821053992393 56.72540624701539
6.596176441786931 70.45308479801167 56.00614106013105
6.496866392184524 68.28443447436608 56.72790117436515
19.31813591895222 91.42646368899167 69.29790343274203
17.382771212875138 92.50952941469075 70.10256628516524
8.907582768782621 54.184877899822666 90.02923022443666
10.551791043990352 56.1424275131571 90.62290667620744
11.84181097380392 56.645578978440874 92.54819018404349
11.592521998366015 55.74001502147678 94.96382131871155
18.011338493325727 33.148485401637124 29.673595201018276
20.448645409554068 33.91588630944374 28.528704625685148
22.095043136375075 32.505537043889014 28.182041566747426
22.163517362764637 30.074401130356275 27.1052074121981
10.451669237578491 63.49668035478791 40.95124244414091
8.64585089715209 63.02755107683092 43.11887659146963
6.6565801658617705 61.72051341371614 42.79970553835481
5.126923405263392 61.31489113516016 41.21277197972668
17.576441260746307 92.95876699815324 37.524797137909104
20.013218397543632 92.57374099480855 36.5649516019687
21.62022072670698 93.94947467956628 38.30953757329937
20.65185212957503 94.56136160149244 40.92369639657645
1.24504008483876 33.35218832942009 26.612364898375127
1.7121720056814385 31.753250931831246 24.7761099824197
1.0344177546253253 31.489068961245902 22.59826937380879
37.75035347070949 57.59033169118819 43.55330110342528
36.8831244649091 57.31600266766249 45.90277833386872
34.547782498554305 56.53994566654082 46.701497518884274
32.58995278023411 56.89949900624092 45.42214593311157
3.7899077725283457 31.51628254168346 39.796038315538084
4.804163235035076 32.85101984700237 38.18690860448587
5.266760159984535 32.92650584082389 35.66053769718826
3.910090964820596 31.414894268685547 33.712414994923535
6.831711230895121 65.43451869372372 24.726505203713252
8.202455686036297 67.1178412164196 25.75805440673701
10.96110584210064 67.5143033314747 25.260750523369122
11.944579032019524 66.44589060131652 23.51297321369397
6.372458925676192 94.92747577512796 29.558814135833646
5.826586785124682 94.51658935771086 27.22106989164458
6.391228485243466 92.12839080451354 25.97510773981219
7.823075887640433 90.72614098510769 26.48256418189976
9.37551563308581 79.13462667746366 39.93479413767564
11.487086523367863 77.88220009189075 40.60496669075148
12.50756436820707 75.91010379485529 39.515327296547646
12.509207260916883 75.02723911341812 36.99496925648585
12.600011705121235 67.81038870687426 63.45911081159477
10.77254138897104 67.39389575164078 61.698757554507786
8.547458676711798 66.00719484451344 61.86380642908925
7.352075443085194 65.29747020801469 64.22737128667222
20.947930874201667 70.81450636112345 67.33572680811272
20.622195723289547 71.47007874221492 69.41770037360105
22.522187433396734 72.28824674602834 71.44262098457843
24.712282972184397 72.7490385083269 71.36712864187835
12.36931435745774 93.41213834350026 74.97039466526412
12.932537344300108 93.79848895572141 72.78425918025951
15.16879540882605 92.54536624152398 71.8943087323838
15.91820549822713 90.22856544014057 71.93365515349274
9.688618951072511 38.07294042548558 51.06281756648878
7.472885628530433 37.09492824058497 50.26772845555164
6.6155077852703315 35.90795617414636 48.10231104450761
7.750374284043577 35.87104328587855 45.905833950473976
25.248978680912202 88.57967811963802 61.903272382171096
26.100731313004637 86.63604102556346 60.99321768866368
27.19738317874181 85.86455423966741 58.46354789748882
27.506285956797473 88.01966750179776 56.563187143018425
21.54742508664777 70.51687090666088 74.84102126866327
22.73731638398388 69.36126116890742 73.21600239004779
24.92170353168588 67.78156472752507 73.4757787370273
26.1572571550724 68.13073658881683 74.7785963370011
39.91796793543007 79.82063906870788 50.851230900802534
40.35531679397588 78.12601954454259 49.024939488411725
1.5745943164622458 95.35896924719195 22.82700916262178
2.737634482177586 95.29669677250573 25.163808162757686
15.355558036151898 74.29254404824881 79.98620432781023
15.970051567077968 74.61836778462035 82.37784202392108
17.854923215606075 76.36548046853078 83.36712751887248
19.340893655032325 77.44830548033799 82.591974979282
34.23708954760684 64.68482288708496 71.50264479270147
33.06911859925811 65.87617950583927 72.48979652582914
31.68370086596036 68.36868327840797 71.92142204358247
32.432862725279165 69.93819717229206 70.76382495868293
1.3342125423051574 34.417070137021035 92.49373692858592
0.4761429635481083 35.936856356482885 90.71408923955225
17.89087161585945 62.414708146028055 57.7409326868518
18.144920634868075 62.833520191039824 60.11590965732784
16.33281845830107 63.995178481419835 61.68295037695566
13.923649336980485 64.39144022559903 61.10499475717292
7.969807020958275 52.351139763342545 65.0887941278707
7.36010204011304 50.52967412296415 63.496177090476365
8.238691556151243 47.81137042776835 63.98782653487855
8.420695542640084 47.35239392990265 65.61124941301934
19.984035240742237 78.14438165234613 85.22633121577292
19.454618067152687 76.66512240950227 86.76833133963018
20.762727862348484 75.28970787650377 88.44122375367385
35.706674623815935 55.342897963016604 82.61928574632539
33.991807303511436 53.864270212497196 83.56733091645717
31.59382817235377 54.23333060391698 84.55028642610066
30.182462347324325 55.99054770939697 84.70953772316811
0.473266441246908 71.97481871147605 71.22932547175466
0.700609124308105 71.10552996772132 68.73395128395296
49.73486974927232 60.7899959944852 48.777233568532225
48.56634675605644 61.71417440493804 50.8008450378194
48.68232491796317 61.15195585439274 53.01561932822398
49.836629652618825 59.43098604687271 54.58591059354088
46.200345052566334 53.282823236967914 36.249965896618214
48.076712556220656 54.049915301035945 37.06113408485015
50.37404091232714 52.80607603128942 37.419434382998745
51.2219365406486 50.67677097382419 36.63977278498455
41.04632089306826 60.55043193408809 69.55888901953563
40.214525462061985 63.021655224058975 69.24646205325998
39.096170458235726 64.56236150422953 70.92151234958374
37.08590205048637 64.62601883543344 71.7297199328235
1.4059779127232432 29.34356740350905 26.153831569180845
3.6735259750053193 29.709291127788962 26.77721504633582
5.987885244955309 29.16757671974371 25.3475553424308
5.471858162308731 28.529067708732327 23.30566956515049
13.475537112473994 30.020590092410096 12.088641416419046
15.064777551020097 30.106560008347465 13.9411980214849
17.22208392509319 31.021661804682996 14.39676024473332
23.45628078545661 76.01341873814135 37.051528316780576
21.486423255690518 75.83207524896821 35.15660211402817
19.456218693642406 76.87176593992467 35.4500570665233
17.618259715883124 76.9757970011428 37.64346750886644
0.03537509499920176 55.522008675958666 55.11303233917546
26.522347434080213 85.24306925313633 52.03098138272987
26.169695614742338 85.30701977885893 54.47473632312145
28.03799435425725 84.5979530793307 56.170552375217675
30.270254896936347 83.80042415627022 56.010050639903824
7.0570115206162845 88.92353096922496 61.65782650525046
9.210760329422648 88.72925809596222 63.47253646042593
11.764410240587402 89.00321555083511 62.41080940101857
12.543574481245223 88.6353802345238 60.300210195717916
31.553770789174987 63.77859359651637 57.394992907388264
33.634695740645235 62.67787986499177 58.44086176591715
35.93941731915835 62.89612264130971 58.3542262780731
37.403126133177864 65.13881744084898 57.724075819176896
20.111736368653983 73.3027419092225 81.71742406031903
19.861545427026325 74.68596058149805 83.55825662863579
18.92536447243786 74.07735127515302 85.92310419849976
18.740918478997063 72.09476258017476 87.34980665665181
13.563923424134286 88.2690291891946 70.48022958205992
15.94309338019052 88.64468907314102 69.78520173245141
17.57339120452434 87.38803503524426 67.94707208415083
16.50478808209048 85.4509862267474 66.32178914549229
20.706401915226028 30.193721089285557 19.26376447802287
22.51179811952011 28.752576741726926 18.864959019391538
24.63159572431027 28.657461338602058 17.54368088317253
20.65111474301855 72.93586525799047 75.33619026572087
21.046242049408274 72.31379430397962 77.74431408110533
19.453404988537034 72.08379237467842 79.6835506509873
17.22629193976747 72.19467931547653 79.94370137786657
13.479777315959481 79.26399356297134 39.91092960598277
12.173511159306239 80.61774487446225 40.87720148959568
12.64784824678115 81.6173313638887 43.56249000820773
14.510365816262466 81.18054987426802 44.89450746776736
7.397844834789521 70.76124058415938 26.019535848822585
7.819464683121231 69.15507942363962 24.252618770036925
9.923048930387786 68.92814824227267 22.87490395963219
11.279847216500189 70.56081112299772 21.466156754496758
2.794906249980487 33.55602687060677 42.44864765395857
2.336604127852081 34.294796968021686 40.186900053024665
0.7800861350315716 36.61508960030296 39.33353814113797
11.287446742179696 71.81528617826135 79.41532604987596
9.654650325819189 70.43716511197499 79.68765825512774
7.125503689290395 70.59770736046154 78.53864776871856
6.340950621387402 71.37017773968296 76.45277871427825
27.69247552378152 40.27583430324229 45.57096152141011
29.01087861446444 38.52081554093619 44.788322655682066
30.715342520326338 38.51419030203914 42.744012200334474
30.09484555303581 39.22301589652248 40.90577006635757
10.020395309259207 38.037274230610436 91.61079493797187
7.914674364118895 37.029374945433126 92.54093637785324
6.181930627571341 35.77934812876053 91.36915260864684
5.793173736846641 34.70897527134291 89.05261283802066
0.9179034086689617 91.7284815556807 70.72477830040677
1.889016952557976 92.08490985030527 68.36115547383568
4.3752587361378605 93.00512259793427 67.59466886639399
6.509751322685909 93.0009659938997 68.9375222008503
15.124410456561762 78.36422367904031 83.46395085889347
16.473617481746373 77.44712153554352 85.4441066485639
15.929520370366957 77.7528560037209 87.9919094966141
14.240094567875449 79.14321858268714 89.14428661189592
12.301412603678664 71.06130108419242 25.474114493211246
11.727392396975937 70.88863070241857 27.864324334432425
12.671668592524675 72.14005923250973 30.021530824573247
14.945562044677107 73.8140563277721 29.84327798655481
32.90407642829899 70.57192027048232 26.523853289086055
31.90982484357604 72.37881685920057 28.567912295982214
30.030926747120485 72.75512226951909 29.465083301522256
8.818120586300234 76.93378966401757 43.896662701479116
10.86221774703614 77.59188679418389 43.3639342044007
13.271494899137544 76.22562167860858 42.83935297393235
13.488041670573876 73.8119703513009 42.237189667545536
12.556180965055301 49.244047261966216 76.07452849971689
11.260584197634177 50.741839165579165 75.70183607838173
9.680233155452335 50.4823740403772 73.63702325212489
8.913674253444375 48.35413251147606 72.44327422269576
30.149210108980252 78.5333419861662 48.60740379586568
31.68914454800471 79.49360522093133 50.847141401995486
31.193540346925325 81.60137477522734 51.77858557359238
28.847181725322383 83.04952985823527 51.60456421482428
32.731503109954296 76.68451441961678 47.280784510752284
34.550021798547526 76.88216671852375 46.1117219033961
37.144158017952364 77.49715775299289 47.17837949539047
37.60416952215252 77.60093391775136 49.27963968341229
20.679951904326582 80.99941802672227 53.442046855143424
19.689829342323733 82.59111057414775 54.86181629034094
17.17260502096414 82.5482016089764 55.76667975424471
15.720815617492494 80.83647823084466 55.77821086363385
12.032070013841043 70.32585616413745 16.602146306295047
12.51617311037538 68.42716265141969 18.135852033468346
11.524609173223547 67.05734112830643 19.61834875416229
9.104000146704179 67.0437131934251 20.77235702624726
20.22721629857439 82.26229532187784 57.735608207653854
18.809647054729748 84.03139892628946 57.28134883220902
16.646768574176086 84.7523267602807 58.11303492199514
15.398390681345537 84.45429492890584 60.40921895867601
4.358740409241303 33.44425473562611 15.454537621292625
4.515374972419931 31.330237653884925 14.883788868794957
5.0905771402322895 30.39635531998007 12.405792193739469
6.341645672775687 31.14271109526634 10.67907837861711
23.322946509478335 41.738163677869764 64.92957466731198
25.16815721483592 42.830063984790634 65.71616966372964
26.061380918686364 42.92782861250472 68.460564123215
24.78837092963746 42.587559824894804 70.35435102098154
10.34296170131979 57.326173805324686 40.11417211450484
8.843775937499434 58.769241720094094 41.6719259048454
6.078449220046136 58.86486068448904 41.73000781493561
4.578261070633717 57.882852269687326 40.47106006167398
15.348301122054371 86.4522287998081 62.47260871305589
14.190492095041225 88.2997223262571 63.33314007008713
13.028291310246379 88.64979074498913 65.68942468652249
11.703506593353042 87.40210480001303 67.18604105239754
7.165815178946454 70.2313124595396 62.524734597660775
7.533974731030708 68.48431421522187 60.71084392110913
8.804567681433891 68.98853534420145 58.55583245331299
10.95628051173324 70.02761303847855 58.05702957642247
13.391261536925889 92.35837099518814 69.58979557750294
12.250113158978127 90.23590856561864 69.079072339072
10.432573110245853 89.7161965722933 67.16164719359855
9.378256324599272 91.06417060714169 65.45941653425407
7.349532745171554 68.59918302632452 64.50885053163535
4.965796601527469 68.55445931737977 64.59702171820416
3.1671126582549083 70.01379089573126 65.65874193743717
3.4826716121611954 71.68653747548643 67.72004875334993
9.798443227674117 76.70815604706583 84.54546621475991
8.235948539647316 75.5845268286717 83.34584965691782
5.6931454091088085 74.30073998386331 84.14399921837156
4.267985730406781 75.3254439900688 85.89356878690988
9.854429321767087 53.26197849641496 87.76881565114614
8.630603464078634 54.18194609283862 86.27677657663465
6.307039860967248 53.34437392261875 85.16094614305688
5.470167366648924 50.79581669529232 84.89704978000906
12.792158898677606 36.68632276422448 94.93418199435003
14.777988240685339 38.2694784991839 95.68615699068769
0.79477406722037 85.03709811392636 47.6421109610381
1.9019031829787467 82.734708338829 47.95022829956502
1.6906672457708878 80.78014576278359 48.992396562389395
0.12113805720098578 79.98776602925747 51.02029563895309
38.71409907290898 51.988877693493386 88.13333379377833
37.71291465476479 49.704615440238996 81.83587158486431
37.980000751015915 50.84084385364872 83.43173611439751
39.661605763596846 50.92920371272943 85.73579239865745
42.05730057813312 50.28494665731788 85.6635983867644
36.36810234930867 68.91485050536443 71.61205287857113
34.74967836806653 70.35862356023327 71.45239941097878
36.42355585517098 45.97592029676463 61.07147176734585
36.45169601474699 43.572849652097744 61.10754784042125
37.36250724192782 41.76518452695265 59.33627704777841
38.404063944612375 41.894288916309804 57.34025732291417
35.235337163349925 65.8244632039844 73.97462586000076
39.5254845110574 53.2862857624598 82.63914719027068
38.26079859825461 53.20128205751163 84.94817609585628
3.639395319679038 28.339827917836196 16.487992996788076
4.800439060027875 29.718808340291076 18.083382848001644
4.423155225008408 30.3203186552896 20.519944996583337
2.7905169557293625 29.57020622741496 22.3547286539624
18.062468290884144 28.018050381162684 13.212343530175522
19.657823686793456 29.823040917300556 14.245528548019879
55.115322692577124 49.50227549093739 37.453197306000675
57.02244738153325 50.708454247516514 37.6347452809841
5.2274964254849605 35.31426131061929 45.19100771041387
5.040153029918245 35.61908206360956 42.79440375626617
5.949976037328918 34.76869966487361 40.7244274982169
6.938678127002064 32.46929058071746 40.22084129658833
3.3415909466176843 36.266849805181984 33.56120168393422
3.402489416107899 34.906212659060955 35.59865173329558
4.199951006632933 35.427974491254716 38.00909006087932
3.7163280697751504 37.1557726238485 39.60010004066989
42.640137869776524 64.23502046316074 62.46196124064977
42.75759295259678 65.38385922725152 64.46531113275688
42.306325070778165 64.27914830853183 66.65516732376264
39.88588327954544 63.569869790910936 66.68121005645874
24.229717332518245 38.45704265565527 59.94824395536884
24.87172544445839 39.468153226814756 61.83369351757684
24.121034262983457 39.25435606731962 64.51662615107665
23.07013067007586 37.38296008323124 65.57276067086839
18.498151518740656 34.98705221283221 95.73383825694808
16.66856793899895 36.07041532592045 95.0426250275616
14.911882200247183 35.75952302034508 92.9369720828203
15.217092438529356 34.50561886429907 91.0142571968255
11.653922809550648 70.4204239329995 81.70475440709352
13.25928225512148 72.0100357237551 82.87391374827045
15.740760513784803 71.9918766883072 83.25725373195543
17.581973177618746 70.63270210136332 82.00841292573105
14.887275214165886 28.744038592155082 69.54675106727231
15.734593568197042 27.460362540319444 71.53865532853922
15.788565153716384 28.114844392926173 74.12123503001999
15.475025842306753 30.358382818810544 75.08399097383518
23.557890451414213 63.103182443211864 52.64239841319901
25.48470312346542 62.57123237065818 52.20563148465627
26.316330274181936 61.070327251063105 50.18636268926064
24.593744889709914 60.63616606553517 48.206650601633456
13.183599168944692 33.9237138887689 89.52621222903002
11.725267931509533 35.80594214910115 90.84417845390452
10.737448991148185 35.95726803635957 93.09968007969627
10.309291243673423 33.83903668511679 94.75473638052569
5.504760644106617 56.321605124625286 84.28623306015388
5.938259681030878 54.25676874045456 82.49701214212956
4.993170374582742 53.80162344120226 80.60996393931805
2.890630510515697 54.78173908261281 78.94499470294944
15.533796481060316 47.790543791770794 79.2950348033281
15.800013270896557 49.2735017933656 77.10819482693934
17.929434727268536 50.488638381648535 76.15728169593501
20.061501991093415 51.090060909162695 77.01586103289523
57.2482866901444 55.431731323439095 43.87798718458112
55.87205545652794 53.3909731766111 42.99755172929604
53.18488283292387 54.244845422396715 42.561150435549465
52.30503668067889 56.19842817750974 42.96814157950107
28.624846002931978 56.11299717639573 94.88346528331051
28.652314478155773 56.074852190318346 92.63024208605393
30.147500609575875 55.59500847415332 90.91843611513725
45.76098152003897 42.57131579841454 56.53887519972439
44.92964898587786 44.05571287851746 61.309415376618205
34.10881384749912 49.22038183946672 81.64645224526072
33.080583329632454 48.381821089075835 80.06676996923272
30.683320389271454 48.11895961947871 80.68140379094608
29.66109657569509 46.599804127705525 81.99553772773075
40.65824926200289 46.75334507575024 32.41369845971797
38.82436361806277 48.27420442743261 32.37640355820026
38.05531669466376 49.89353411281904 34.37986716937192
39.96205982890532 50.199432995373996 36.083676353197944
6.838846088477169 92.14941254097445 20.071483151948954
5.819378150893356 92.99057850934413 22.320886994990335
3.6970478810710987 92.98822276770213 23.156529839611125
