70.27869425566747 63.65794442713155 65.53371252474543
28.43701107691469 69.2206720343025 31.229939177456924
30.175145632006494 70.24489355649403 31.20957785811473
32.677508684555185 68.92982599826702 30.96655931135325
33.17450525202813 66.65160289906352 31.75281358349264
69.92240650891935 90.53723994897689 32.836254355745034
71.06377266258502 88.71203426372655 33.70923371904041
71.00471878240967 87.64426667667786 35.976875825459985
69.70676441844904 88.84093592177996 38.190613866706386
56.9980275965885 35.06357668278015 29.5391346532881
57.38880273956173 36.682797749888806 27.542720050909093
56.33606865401125 38.62931235810737 27.0099113468741
55.170242062922775 40.33839684012746 27.829454165742085
85.10597664790826 22.4491831292241 33.67369000911786
86.5324274991419 21.82173767810706 35.37079423024695
86.68439210684834 19.76670685433628 37.145527247455455
86.6081322463654 21.961498281324445 38.06213192057509
69.30199380973636 75.72296618186543 65.40492017602972
69.78726226704231 77.2115083666773 64.20343233762945
70.54099494017896 79.71586340570812 64.45098143751966
70.05604340398624 81.50256834832078 65.90651093774657
46.65326690087601 61.374903863677396 12.513039311244137
44.80715365946981 61.86837216092689 10.654040685864642
44.8856129877589 63.85752179563017 8.952325825799152
45.89741897917886 66.12933059877004 9.254612071543898
88.35180667324677 42.744648606852486 39.97573204664941
86.63481569160798 44.83014128977984 40.340658715705274
87.0201354982945 47.23443473767355 40.53438808311731
6.803308223165692 38.65760141400401 55.24079338497236
8.20556957433223 39.16914140997439 57.10804180966924
41.892637319750186 58.87009975749012 41.177535823458726
41.83608688014586 56.45466709397429 41.21635924474193
41.23315252942045 54.429671351574676 39.05109215022803
40.01349029813951 55.31742764178722 36.7899185514641
14.081411619198631 70.28098674901902 7.920234370756208
15.869606389120394 69.43411114825156 7.000187679575997
16.350865001037572 68.16984981072123 4.79551653936368
14.87005892652761 66.76584695610825 3.4554789017002574
43.223667141017174 92.14603715977861 33.38554291139946
86.68040018444752 24.53457807258451 33.69480819104111
85.61615334934088 26.174950117500803 32.16359209815759
83.36920766445944 27.270595671652433 32.29444964410617
81.99491168662747 27.958579013900664 34.37174324304417
31.863760338411836 57.22083157092412 74.5144432596224
31.791912493859165 55.78204726294182 72.64180693035166
31.14783073777559 53.305822826423764 72.41552203002816
31.85359111013421 51.55468629754778 74.08008878077761
28.156712760959014 90.08873301539266 25.196566503246274
27.30421190766691 92.05551251683332 24.710169534708655
28.951877222268394 93.61423569085011 20.60937561868886
43.806547872800415 79.35410506963083 22.616746320062706
43.93698553514029 80.37428739816296 20.38685982593425
44.00895370912444 78.98458782110676 17.950732074159852
42.58572877439798 77.15480251489625 17.366687285389
27.497899172933522 87.30853824416975 29.10375820150199
26.727567227266665 89.14809572178703 27.863081537920742
25.4978609651879 89.14802548676742 25.317515578511752
24.399069794814817 87.19128554544396 24.252334276069906
82.42945861816912 55.67303450553181 84.71121492653116
33.156956112263515 86.2398887975644 30.32673877396998
30.34524336140541 86.14982435481141 30.946413276166368
29.002062915621902 84.6401788242571 30.400071940703757
28.59687440528449 83.12097378178137 28.037397316207816
7.099027073440368 60.25393929319409 23.779845683853218
5.24940821687328 61.21649073813928 22.1959766075042
5.332421038462561 61.728984255515165 19.714038384419837
7.4424082112801795 62.22845990752765 18.10505926027179
5.871727374974313 76.73617564569604 23.525592517059255
7.2412995104913325 76.08867161346997 25.56746176842324
6.995384427637985 77.01031274704215 28.051578484034874
6.486056532315147 79.05509618404977 28.92119552508261
26.608150155016343 20.44495510597689 13.340212993665014
28.62024726433842 20.139013497805102 11.443749812218979
28.06883963587839 21.359402985619155 8.918217804552759
26.918338619381945 23.056696056892 9.06614074079866
87.54219453172905 61.25194240869515 11.32004347565567
88.2244106369872 63.74293953537207 10.896423036242131
87.09164945151086 66.21202956699415 11.855906608060439
86.14724225564031 66.67055836757329 13.57997512311735
25.35325547446554 73.09380245440352 24.239721439022997
25.75248661467431 71.42337614395991 21.838397956891132
25.141243513411233 72.70411550779365 19.439983195001833
23.74731176724591 74.36526511337722 18.818534304394007
9.957236295537706 75.96090498490226 25.078370315390334
10.009036511535326 75.9393880300243 27.55192203992556
11.705745826690759 74.695632187104 29.116558643308426
13.677464081335282 73.63457021463314 28.646411902131433
52.397119611260145 8.663479877117425 6.007568704869272
53.07907633450993 9.68042513655667 7.8136666994369905
52.36438923657773 11.306240536702875 9.552642531456563
50.02508051987984 12.651245848821022 9.883851842124804
4.581952470044016 47.0952919315631 21.768911646885623
5.991972419593187 45.457892246291664 20.73410694069282
5.334345427655652 44.115368193530394 18.393458250941766
3.2761471264426545 43.83717117396011 17.114651935887597
4.306449980768772 71.62511318045036 24.005378484391525
6.3005245443004485 72.46447652483347 25.14177665507467
6.647584737799742 73.62275138950946 27.28958034299103
5.194863195741646 75.06294839879361 28.839308466441853
41.01807632453575 66.48742693663557 55.773654691457864
42.622628968802594 65.86969881137821 53.634889207159596
43.164798603693555 63.86061102097929 52.34330679847459
42.3420218217122 61.51589203055175 52.37334803153378
31.136132041705086 8.519436997153036 13.532197957908513
32.895265086401054 10.693813460357097 14.737914464969927
29.582159549647606 91.88675757105624 27.163728101867346
29.389970207113066 89.62620161023169 27.805398130346337
29.360386462479035 88.56806936445702 30.336176530074642
76.63371555272938 31.91698396920088 15.448696165782675
74.69352576454351 30.6457935088001 15.480023231029763
73.36985109997632 29.285474093085373 13.863711892244723
74.03111798622788 28.580014058995776 11.244949713541443
2.6299993815533895 88.62643708361927 19.350214561211928
1.3503743020287904 90.26632529046418 21.195483028367445
2.0931144580172107 92.84932159313179 21.26966876168225
3.5663848904007325 93.6314313086172 19.925028240241012
8.567157660058614 90.8922080720948 35.03673374890376
9.181813170209503 91.49977587807672 32.97320588756572
7.878158439690488 91.37109734500261 30.57901035140071
5.577045637727108 92.19893732662935 30.284240276595288
30.15146038226371 51.17452353531202 54.23495520425459
27.553715011439223 51.79771694921483 53.69976718909923
26.468339545325975 53.92048225793352 53.501055106425106
26.98800814860358 56.32466007190711 53.5538876195942
7.900916349714596 44.346026820257315 63.783687534512744
10.365929129633676 44.26208981708532 64.2307255271102
12.244100787998399 46.227355596850174 64.186879265536
11.818621517761255 48.434102976526674 64.42238409784373
56.041168706904394 91.1807824201934 43.185642526127346
56.90012104001053 91.54246717396774 45.36176690672933
58.082406403138755 93.48034085513373 46.56442175002763
14.499889401829932 48.57810093005654 40.60192547693605
16.63480667868943 48.95046244098939 39.15924610206401
17.579719423826734 50.818445880406884 37.78076793558827
16.546434809180226 52.85208195547952 36.740130627732356
58.21460324381408 14.523794768407912 11.851071844220037
57.048652391412126 12.707038382759317 10.513351005873153
58.025370361134804 10.528096443595569 9.587163425976039
60.37228851449635 10.137860373393128 8.604575179408508
11.79610310701738 71.14176430927591 38.208987792984715
11.537988986823313 70.86192368607757 36.22747924080392
9.925713553249988 72.56368271772784 34.347973506149586
8.659183675200744 74.62025491035234 35.2832920462386
21.786055856770833 87.63783942340908 11.412278580370053
21.01621310090242 87.94831227131627 13.58417398291105
22.05161873875321 87.93005910525292 16.194706565770225
24.194805728687257 88.22154290262841 16.665697285298112
20.846478412234916 56.50333843136357 1.0787679333489077
19.293463736350862 54.09135181510307 1.386185382654582
20.260635724840522 51.81431719545004 1.1404423467105356
22.514655237265266 50.952681033637056 0.3444009885847031
20.01613231462273 26.65015686116114 38.342348430314296
17.525735579294057 27.31054536278932 37.60788620806027
16.635777827083245 27.93490785130691 35.13993307339492
17.772615270372157 27.242621169040145 32.82130087527514
19.743690061648525 68.21733261062667 44.69097737117972
19.831192032438636 66.64597069117437 46.21763035553439
18.233263524602986 64.28370889454764 45.99811938681644
17.035954368531733 63.82037665172732 43.79219976130803
19.103314937539224 48.218601494175196 39.177131811218814
17.66975534778769 46.66769335771121 37.45886017202517
17.394153792641696 46.53061390863619 35.18077645583416
18.078844833200215 48.13921749386026 33.80466054624573
15.541802538569522 59.91367851252534 41.898390765495236
17.173437027042095 61.301125753249664 42.6173856107736
18.185840888902096 61.5663376635059 45.285713401057684
17.963734843801685 60.374411019778606 47.12295592595465
61.89752287901084 16.692272966244445 25.210815163109977
59.81008712146114 17.87188714461163 25.936060557116832
58.53298934462233 19.79340701838444 25.17218633123067
59.29696582897841 21.936350130287508 23.922402593584803
19.0311256071648 39.36230697541832 33.08216135752468
17.414322188903103 37.9084345952342 34.374651414186296
17.456417238781672 35.51629367500703 34.95884438510968
19.201341885947393 33.41892346355578 34.50191186540713
34.08095655629098 73.89412019021616 41.456134662425995
32.85695638629088 75.5805801888644 39.588659354004086
32.19774593722319 74.90095392496092 37.25522725308317
32.059562697414165 72.81749730029694 36.091188617889124
23.536242866583137 91.0159253918053 24.79756604217322
24.76582653059503 91.93717452581274 22.869506247390152
23.86257018152058 92.70667458352652 20.44316517612769
21.42213282675562 92.39032887774832 19.60231859578391
3.5424279978747153 48.20118480726513 18.819222206074713
5.188743058046859 49.22798646475081 19.84652891048726
5.611985418224565 52.01284231813372 20.643996409540676
3.830577393400941 53.56439197517596 20.89190312428334
14.200535960463975 88.51647478646994 38.94171113332965
12.150257714453648 88.68609327790166 38.10823646991169
11.355806532191313 86.71636565565268 36.893482845495726
11.726334945637117 86.94742538204707 34.759248890669575
2.7994346584498646 93.47267370044402 29.134848935607785
2.6308444601247505 93.34893161083258 24.381876069735213
1.2237272060773177 91.05925943331928 23.732023027963116
44.30566485290424 80.52303052496734 43.49503113966967
43.31648499725001 80.60939506260779 45.24759979467077
43.9386239439577 79.93202829493319 47.99782086854435
45.697811178379574 78.4242480650504 48.836934963945865
89.10793504704077 32.80241115904252 8.94628101281238
8.371270608772454 72.47890854223289 29.18294684502992
10.025873306015455 73.31765485513387 30.74236412254187
9.94849045244968 75.42523815114943 32.365019469032184
8.745455645357866 77.28899827965016 31.583722246192174
13.094112978391383 82.00848172475483 31.041570658607036
11.45699509791011 82.00923701372324 32.68609183850825
9.373436595125035 83.50136307866929 32.92188103009809
8.947725358513836 85.99254399048804 31.66802708132007
79.73959082163466 88.93068659473899 42.91257709802264
79.86067483898474 89.15350661478685 45.298215328068174
82.43179941232994 88.7552045930911 46.10981224500245
83.92676333916063 87.14340573002285 45.44710663779431
83.44695980247081 47.56742723960059 75.10514928119451
81.37518293247285 48.079815830318985 73.90477286679236
18.59983128405843 68.59419707032997 42.0152202802534
20.324988827594215 67.39054551921616 42.36262912067489
22.994827214578738 67.36825659926986 41.30377624722015
22.905941122336355 67.84117515600502 38.55592675094559
81.64041207340263 65.60558790769191 77.55736530757125
80.5887082770271 64.09958961384433 76.01580701486898
79.94504832256357 64.64540645372173 73.81644901245001
77.8268240909943 66.50526488606448 73.18782406662015
87.27295214608664 38.20935613857997 47.57266191371812
88.52772407468136 39.96481393172693 49.07339038409611
87.8033603521881 42.27848350069486 50.08561566764723
85.76549400967471 43.1364457000138 50.53420198411954
56.935149803139915 17.766545269127725 27.271085858719132
57.69924446921411 20.216409256426964 27.649218115696172
56.72226136436558 22.409102265834544 27.43868654954397
54.52629481227302 23.29501279821919 26.891634622820003
5.1838714156003745 60.195319940876196 25.671459363577696
5.469286719635557 57.65576450524592 26.377742460676803
7.805600160463666 56.79732415712483 27.45256342318523
9.254102512083033 57.82786526835608 29.077059581118036
85.12439683389512 46.669278497662184 33.94824889111632
85.76461230893594 46.46605675700657 36.43862626690433
86.27442101419835 44.428028263684205 37.646423181536086
87.58203070461536 42.245676419947884 37.224249589874695
26.902436847614062 5.727361939249672 2.058822648600969
27.96686673049774 7.4151272421420265 3.4912242592575193
29.961967514724446 7.072098929513723 5.1788074507037205
31.048259924813685 4.985985125379058 6.030498016699598
88.65828653355372 88.32788415484912 17.571961669566182
88.66763502321562 86.16981417209283 19.17744290670595
88.8549827936146 67.20255545941214 20.462750304079805
88.6928885768913 66.71262465501664 26.24426093949521
16.904901359305697 78.72151847626634 3.1908087340001967
17.35582840521819 77.57845931777287 5.400270209846282
18.109196009571928 78.68769728989442 7.5802382833255315
18.21777709886653 80.86335394902419 8.409946325998199
15.541874608220155 61.432091383306286 34.27514684632542
16.121314545644463 62.323600972880044 36.52234966226549
16.85269994665511 65.08767860078328 36.80383765534876
16.69670513786376 66.59175539333226 35.033761204037155
17.52065943468471 65.1820469228017 5.116043838860745
18.08650148902277 67.31842452276027 6.563733968146542
19.793352162855367 68.73549482968167 6.655007341554541
21.833230986549058 69.09307282641257 5.732079746601784
7.108034623408374 89.04842000521616 36.48879848088241
8.531946995805498 88.23812490791742 35.157032377078075
9.569744141466732 85.5523584576903 34.76499843958623
8.833365182922527 83.58532027671541 35.805009768815104
86.4499707928567 36.4713979824709 33.122823935514255
84.7974792211834 35.491728711380404 31.76544641687816
84.9274810886634 34.691022942156756 29.16846634802634
86.49431209016275 35.35752852041852 27.885375560393122
12.818982785202516 83.53890882562344 0.764830295522234
15.431838552613005 83.10423409676069 1.5564516306083698
11.343586380297456 92.27129290004511 34.7670657773125
10.833174382208233 90.75809743923712 37.01937410537658
11.395575290920279 91.31703250476714 39.12404991428415
38.64128523067672 91.5800243467859 55.24730795911712
37.681296536062085 89.43971260205275 54.13568262224636
32.94936718862722 8.942639118819818 7.953743961134275
32.811737163961936 8.12802145323566 10.246610667827877
33.621525247540525 6.095270271055917 11.378679490771027
27.944262000280848 37.256431953434834 56.323525759352385
26.72382685856665 39.09033679888232 55.89480483657827
32.424987372909975 20.601504190645937 8.600267740668894
30.879971579797147 21.79582373068067 10.450651368264987
29.647682461712105 23.994077312945574 10.209233953475584
30.08258035263547 26.030680080968562 9.445619387301864
25.420093609140626 73.0545156831524 53.676822485149536
24.41502290939684 70.71952850924413 53.532763763576895
24.201215725927753 69.04185261693071 51.42244967318567
25.008157130115933 69.00074306825526 49.36527316203722
86.00071471562877 87.9243684109196 17.333651749981463
85.77599422537664 87.76951684342502 14.840816357457774
85.94547745099253 85.77965565437648 13.208614690374493
86.15547524666607 83.16889091728908 13.486367979242468
87.67395975165192 64.04413816095116 16.455528422375043
88.28936781860858 64.92517620132428 18.72155824172642
87.9917010900226 64.19100603533673 21.081835786097237
86.05683802828511 62.655602767515276 22.075386383943787
13.67275345391306 90.64346625491218 40.917530684372124
13.596824506585987 90.81047752228211 43.26732289953585
15.301949299410465 90.4741353342753 45.15527456155172
16.975406415894355 89.25377692811524 44.56886071348194
10.175865001857547 50.71721523651279 24.073466073035245
10.628701079836969 50.10540378206235 26.56950199164391
12.328963943131766 51.31496479809636 28.116244883170992
14.095757758900344 52.82485347216213 27.66118397470921
28.394440403370965 76.21998543684688 35.07444076290149
30.861795961349188 74.76716004141618 34.28580670034984
30.648615128855027 73.18623716815905 32.08460945883756
28.642533702191965 72.36232505550971 30.967584971006367
0.5076905436702926 57.480849294499706 42.155075501983625
85.98243355071902 69.25619802433418 46.40976368944127
83.78054079817547 69.30851188820888 45.40828102507054
82.43786744798048 67.43818426064995 44.063215487862955
82.93516413658136 65.12194691091801 43.080397052910094
15.289888280972818 80.92455453022203 32.33169226086938
13.183708885799456 79.8744524513152 33.260440491542155
12.934363696829509 78.41798268693846 35.6189514700055
14.492973638701146 76.84839265712156 36.60410452370261
34.52611925508769 20.76891080074582 10.767951007969225
32.824841189523774 19.163553962163004 10.77837001346343
32.7513069348822 16.540863739363875 10.931237156620803
34.553068085454186 15.1740813090004 11.566312434534238
57.00487064976728 71.7702060447717 36.643212281794064
56.15856181532059 69.91001047825017 38.52503933428285
57.22838679971584 69.807503865719 40.939017509867966
58.33516562879982 71.60690251635323 42.416470528705986
31.312633995977528 81.37327418009362 35.68004089487702
31.072905110251703 79.11642691353299 35.08909050478014
30.621222760818917 76.82212872188288 36.63623264912545
29.547909391232526 76.65278195173518 38.734419329031724
67.95668782699923 27.331951139077137 42.20174582998466
69.28552777585006 27.958460040520798 44.49513682504522
70.177787565236 30.09730619336584 45.48214893089442
69.77274996856353 32.45676551810105 44.765904333218195
65.67064958918378 33.6430069903589 46.47794917123692
65.43563517228262 33.97911260932143 43.886280430789824
64.56793501886773 36.51484125299523 43.42280168336017
64.51446883761285 38.22951048576063 45.32730913548465
74.31935952902597 75.68631870906687 35.065478208070424
74.72904303180432 77.3879674090822 33.60669235085831
73.41116264440507 77.50271742389839 31.041479028416482
71.58896145225204 76.31679979899202 30.01435124369195
43.931450493553385 87.95332287344989 50.46228356236634
43.02406025171817 87.76627456542874 53.1580308586214
40.3384992184942 88.99260964408852 53.46032914688653
39.96749652025236 91.44018363166589 52.26231371484578
0.35260205189571114 36.05889020178714 51.842690063274226
43.619641858666995 69.47084761368268 13.543743284653521
41.631722351537995 70.52302724895682 13.83823165036994
40.58637439144695 72.21908667687435 15.520615010771131
41.69875913704838 73.90038160813704 16.795069289382532
24.561997610001065 64.30492291343133 48.67205427825346
22.42843299127196 65.10525112624289 47.18503489925582
22.312192549637174 66.57339052852242 45.158393559144535
23.796817001530464 68.61531414211821 44.61637815575422
14.255688659473375 48.47138055954125 70.96405025030809
85.3864957905023 43.77934038120044 53.12692047600356
87.15092461860407 43.18026148299988 54.47480246857043
12.032960667427536 51.347380333872366 71.48527583730139
12.953474070951438 50.311694802958336 69.41249091624736
12.186893225468719 49.043857641200994 67.71135087289139
9.974250723268282 47.5737925424549 67.52395387200232
37.87178683927267 86.21080859012123 54.74666083735972
39.68192089427129 86.34204584876657 53.28150866177841
40.2200395264302 85.23948490866087 50.95755578676178
38.59016193496341 83.98670189728982 49.3150839835667
27.040586287035378 27.710622854019068 10.767864526645168
26.972893783873786 25.472861739323584 10.835721044172201
27.549149082433235 23.539067726642138 12.7844014702774
27.605755863618892 23.675980562060744 14.907045869822987
0.11766903174218657 65.34748797348591 16.662191250782218
3.2978688431413974 38.04527172494676 47.43980602326696
1.306829520879197 39.059501991115724 48.52238623213166
23.520764577494134 35.500947858777316 2.4745016657346963
21.868396637822634 34.410935009954024 0.9902350267823022
89.13650978103338 38.463257979578884 43.96611004564948
41.55199476736248 81.81193986051947 6.88077512002603
39.98274265717935 83.74829295419677 7.483801809211338
40.34494912187131 85.9479766432187 8.456205632986121
42.168863940968045 87.50090741671711 8.567081897687276
88.78557971100787 91.75369893158594 15.8960796107986
86.63959929213962 92.73236514297611 16.706331402340886
15.222166772245856 74.28017945814976 38.27660052008953
14.041773206431333 73.52196169606896 36.45013248663084
14.017357967153204 70.99889280314065 35.10144444983588
15.124677867671414 68.9591986983723 35.955785643743646
18.240261956656088 83.56390141894924 44.269890828604346
17.618908875758194 85.43594990547857 45.89985365826946
16.812489616738077 84.88767363235553 48.47225604156214
17.37315782682574 82.40618523703267 49.76404196979371
35.55536638049788 72.30327726802382 35.74384922442943
33.710563406981535 70.76792627500089 34.683471583090856
32.624908953662434 71.30385231912281 32.31451736367521
33.827681200288076 72.65328635421051 30.224560694662344
7.53155447539022 92.59892809411551 2.3921910278398952
4.2684841396792566 73.59776099325741 17.155352176957752
2.3645535566576634 74.17208304207904 18.580483351180305
2.3520320057504227 76.35798769388342 20.287124559414167
3.9984344983403743 77.83080570049994 20.990442334288723
88.16273376879258 80.00000841847049 29.01132363456047
14.550998980143103 90.6240797755758 9.397125230536501
14.57097023911945 92.58621475067248 9.750767787914409
16.262063185212767 93.30586326853566 11.929822168191818
16.3268917569193 92.33147673303498 14.239163067592614
54.99270878482838 9.585122039519486 6.071188006323234
56.07192223893266 9.50114131842776 7.734941892151412
57.62994894661226 7.337402446326089 8.697685018896319
58.26673532185687 5.251731849267464 7.809272364704394
2.3482546571199507 76.43985797302395 53.790694620851276
0.029331216202606175 77.31663147407033 53.83395134759743
3.0820216706526056 59.22009368197975 23.768336166690517
3.481033442606033 59.75763395335902 21.216444079363942
1.917248070020803 60.51241955042377 19.55490157363157
22.863594229838153 76.61752843252111 11.761318511276876
21.231614233884912 75.10218409152903 12.4197358670329
20.52055622530858 72.79659674161323 11.797502883607404
21.277782339957778 71.11954857037328 9.783572112414227
19.602339493276364 65.06829714981451 41.08169689143832
17.37267594949396 64.14945526578342 41.080494565037384
16.345115319519266 62.17092392579878 40.154240667261746
17.359779938967197 60.63904838454121 38.217344314786025
1.151156545807377 59.77264681031932 16.84443243314517
2.127268268511188 61.67033698503697 15.935332638495646
0.8997961213250363 63.68577178593173 14.560135686702802
74.1091526011685 89.16783250758874 41.868140140686236
74.5299663285495 88.99630059581284 39.359065850003056
73.5527333596348 87.68853546302326 37.505705309685595
71.85931118004031 85.54914126964348 37.81554194050251
73.2963862686481 82.13627378752021 32.6041139739564
72.68048703798874 84.41858986118828 32.87886848778221
70.73078738829335 85.55428648627732 34.46284487154794
69.5970730853155 84.62534794417923 36.39213493022688
73.70275163683792 91.99696255066316 41.0938522877528
72.79187371902529 90.94075644284035 39.010670695448134
70.82786674306242 91.45092537766013 37.42109262816932
69.12906847482957 92.99021161678328 37.3543467231341
73.11160954790196 82.37130747054745 27.214515205675223
72.19671012801331 82.65889568514956 29.246808001116356
72.09149626054212 85.01401797914244 30.18470226032891
73.54597204461132 87.07799833910475 29.57238467868931
65.44611594031771 91.13659393534766 13.38264880774327
64.6142725256229 91.95986650765748 11.187484695457337
62.40140158303194 92.36203931791769 10.39831288997557
59.9656930498969 91.87031471077614 11.870967432722201
1.3024810684484407 93.8114422908415 18.55589511318189
87.87992987183087 83.18752032379851 11.49594891395177
86.12533799653436 82.03730668112179 9.918066116474542
85.48696123579998 79.43759305532058 9.555242649823263
86.72876182641205 77.3426806706278 10.666099158808947
40.040971863736914 75.99838160062725 8.272574315557014
41.768965335385374 76.05797336085803 10.303888041112115
43.362017515247125 77.99987773209644 10.916010285002033
43.43678146993444 80.60949672274964 10.224287860650568
76.35016051775202 87.7841348904441 36.650189268562464
76.6604808178434 89.99108484758968 37.52129229901289
78.26923292538669 90.88962508986889 39.32707281431336
79.9686064086994 90.04135566918933 40.62185409104708
87.18377137639243 36.464278960723604 50.19239664782539
87.69033318443029 34.52232921112299 48.79819684706156
88.44652532311667 32.32841550352262 49.56785476299629
72.38283537885904 78.7876523706775 16.462880212261144
70.21950659833193 79.98873990621661 16.876659149935527
70.01755378506583 82.34898889710624 17.69453954595252
71.7967724914576 83.28364072826423 19.644294001289637
79.58528756447045 48.354693770951194 28.70474252652431
80.69023378581167 48.79191040448421 30.821733891688996
82.44067944898167 47.554568061151436 32.302630525230626
82.98874013595774 45.49684936363333 32.50975394735767
75.04248590079649 66.44343315041178 70.30371248379384
74.25723401569186 65.50431552362396 67.80345032047153
71.779278048952 65.23420605151239 66.97263343553354
69.79643906374292 66.2509938653608 67.55932351746131
77.34937076876523 49.162066543761874 30.623000579003282
78.4662933154749 51.13402505187913 29.29459553525543
77.53147885403932 53.70965441986804 29.272572637291123
75.29934889429714 54.52315366217177 29.05833813677717
48.04179696047463 55.147168262622806 67.98721315223106
50.01507063961257 54.01892728842697 67.06401837613242
50.16500767900439 51.725685396425405 65.58438762056922
48.72506307042261 49.72606943314476 65.38816856466308
86.19364109472892 76.26276420410149 7.454688503346434
84.04114556297009 77.44440954887813 7.496505717252611
83.11975697002477 79.39083785635604 5.464195192444491
84.12135131046479 80.76834403437657 4.3177266625537065
58.48753049595641 65.11684828457203 32.60938075611909
56.89516144783496 66.99642862217293 33.35187604608433
57.35449728713671 68.8239086932308 35.12370345483115
59.245642194919 68.9841691018838 36.92339184563775
79.95715947317181 68.02782472710446 37.08797287041339
80.1228513755156 66.73561362029925 39.49803587941913
82.72895565295099 66.62343608039284 40.910108584938456
84.58246475760384 67.2724298348957 40.57430534150689
70.85606668061438 74.44130118739069 58.31711449046989
69.33063429684658 76.37238807424481 59.16142143704851
67.45103668397164 77.59080456271356 58.19931444458125
66.56584428746876 77.64045772085697 56.169362780376595
57.67631587018067 68.1947631600105 48.39876038954191
59.32916515026723 67.05590405257571 46.91162597976104
59.382600737383406 66.79566488674834 44.36183391978197
58.11978715771225 67.44562818711164 42.6979669279536
0.4090563675173306 76.47572730125505 16.977679034201437
9.174473815608783 80.2240456305118 29.381371209179164
9.554743180713393 78.25220419055252 29.00322952683015
11.529389541063788 77.03605447732852 30.45849208789627
13.571973473654205 78.05538748773151 31.33499936045625
54.12226609539487 70.96865563217551 25.714370618660908
54.757915719749164 68.63073280673237 26.07015356964808
57.54541525475893 67.55975764487832 26.0210738518831
59.45197128058814 68.46421988994504 24.858312371807294
41.359782241021044 68.81668823465878 50.51563940169587
42.51869372373273 67.31359489709865 51.47707504771776
44.42056051335079 65.63283916225787 50.6602010249601
43.52466820952011 64.41701632113615 48.488005248751506
54.95517700275154 76.49493103966778 30.559069160998693
53.937350500778265 75.87880549194715 28.8246890166598
54.71574856993483 74.26749942276896 26.721261494035115
57.1347191257669 73.01256123695177 26.85888402780124
50.55348481155168 82.13838963731175 63.51223851552894
51.597696371591674 80.86264666636353 65.54152942043534
66.89621029802265 84.19443398051214 62.718406942300454
68.5257530980506 83.43680049477997 64.55644312889504
67.07817173814281 80.66624305518319 57.62784506849397
68.77462957547509 79.87050027544961 58.929733106618265
68.98037619779755 79.54554954334468 61.82265579558464
68.10428568725554 80.99099967668293 63.237133880892394
53.53383446822773 45.97208273797931 66.73871918416744
53.70279195914958 46.789603843836694 68.67530845074113
54.888736644383826 46.163784116629 70.97946270251748
11.955080402645322 88.8463963705555 43.76715613439003
12.101458533384529 87.48235828217122 41.77279990514438
10.55712183125697 87.11185446859871 39.81900027622263
8.548309255387712 88.71493716292272 38.77773976003236
53.85339341868751 78.6930945951083 32.10951005829743
52.51259641559882 80.2812503025122 30.459254163287373
52.755013914270236 82.59699918342643 29.87867667119632
54.213581672246164 84.33625943294079 30.8655703217332
81.61855424311707 70.13645469318358 32.180875708116815
80.97748683538124 69.19604175284582 34.39934043704197
81.01130409569514 70.21190758696338 36.75975961768974
82.10684042859803 72.24902225912821 37.80884025323096
69.07891093813207 67.28120656978304 30.106909836110535
70.6855821092508 66.13960461143006 30.006126103201975
71.43867565588062 63.986350988374504 28.814788289303113
70.19423059202899 62.44218946780412 26.93809122446741
65.30474704478512 50.7648531003923 6.908736426269189
64.60580603271544 49.1127944187618 5.64844301812387
62.453482728745314 48.92377734427575 4.145790782616957
61.310449507379076 50.36743962035807 3.0094736527502173
65.4525841671856 72.92200300556392 7.73603076600389
63.71674313636241 71.28225844210296 6.947990549919038
61.665771919991975 71.56235864373541 5.640203696234142
61.05405118249341 73.12713043755632 3.6884860447151864
74.28863545459572 71.09213417485593 30.38338937144931
73.88959353715843 72.99758968468628 31.830187710648847
75.8335791666589 73.54053962062049 33.6812583745434
77.66202796578817 71.99982963992124 33.774473848244845
62.2868723990549 73.39384311798153 52.57512872105616
60.867206193613946 73.16390315306053 50.54782036342949
59.329443831988826 71.1542582654351 49.64345069406532
60.16172144671489 68.50258701262698 50.06345661255092
61.18483047999005 49.341816241957154 30.245899565444464
58.97839117042127 50.265166117518014 31.02556790720464
57.740116650850894 51.98872555080044 30.5422563951144
57.80654653850299 53.98770679172147 29.407091137924994
73.62263105268892 67.43161475036695 63.70585651904558
73.18242913272059 65.26958973404496 64.45800559048747
72.96888590279504 63.02045438902131 62.98800739385937
73.00141004635796 62.52290110802818 60.65135246293921
79.3567097666657 60.34744128427191 72.17748560409042
80.16094318769262 60.34483198770793 74.42429156648831
81.90293417617166 62.41770979801145 74.58729416704176
83.25148915618898 63.59212763853101 72.86384336597455
66.5871813229667 78.91874836214416 53.52282019456867
64.6456255699921 78.01235129572665 51.944555116389964
63.13133586879105 79.50689258333288 50.46783162986768
63.674147145868034 81.61454825455749 49.186382644163
82.14956259225599 79.51535350910659 49.145234312128224
83.8994060312967 81.31039220690289 49.759231206573425
84.44513639467935 83.52523852317208 48.53851412377021
82.87270237451331 85.04674483870939 46.89292622474393
79.62478586164055 91.6051043821622 49.37923448726408
81.38248693615454 92.72748159222695 48.39841817253133
39.578364470607205 91.31638395634366 28.42940331688857
41.040175293923916 93.01272228717343 28.896140973867464
62.80116575771541 86.61502404453283 44.23536336370094
62.04092307736177 84.52553429869846 45.30331709204016
62.237971531961485 83.78288342240619 48.121827970154
63.465402110048615 84.62805447222222 49.903137716931276
48.782704140948574 84.88544996728542 28.24025752910736
49.14775337780866 82.56832660408597 27.634101825213726
49.49551288187057 80.49540830830821 29.204706640791127
47.56521625376608 80.36307937282736 31.489718641143675
61.99357244801635 68.83921990722916 47.99217662514612
61.966688934666784 67.0065169759695 46.52076350769203
61.132882149544 64.50955171820019 47.38932415915037
62.15104207785697 63.58808125973277 49.09093190698121
44.546523622455055 40.882225494001084 55.80611345823084
45.68102463393225 38.890204974815965 54.07100772958572
46.59687203234492 39.66342384723692 51.9316931723427
45.77682065074522 41.239818814501696 50.055098170429915
48.89299968837186 85.47538800082307 25.24612325895989
49.25817087918749 83.31389582814343 24.146516587403866
47.84132543180767 81.76940977490327 22.89575828791023
45.38481485524966 81.96303691915126 22.113998226609638
52.68260939489982 45.29367823776748 22.843846170433025
54.013306473271086 43.460819918949916 22.414387177859997
54.351433719405705 41.16710141671008 23.95104599264964
53.41932252618056 40.29158542854437 25.846015704854718
49.53303892132229 59.670738085026315 12.73464184875424
48.58096599659115 57.77862728782348 13.843769078223259
47.24031283014643 57.90083379376432 16.368186783270506
47.9670854514411 59.08765000638458 18.2158830936651
9.704262156009614 73.44201214899799 23.547659132312074
7.565870407744172 74.39114638091544 22.881426293314206
6.31747722982442 74.48465604837075 20.644997130828315
6.5387831742962925 72.93567203085824 18.886931892368167
61.496012988189136 88.82828958698002 45.270508862162735
59.338372911373355 90.36141828377569 46.28639713214942
59.24757892439356 91.99690170749457 48.533196583941596
61.3072898853344 93.26846137598461 49.32571292353471
53.42715630507022 19.242948870149977 9.105246159663713
53.13597325383839 16.921710997983745 9.423046936029785
54.06173869643267 15.10466855139385 10.993176394054998
55.746774962293905 15.045002195234566 12.756058605045451
79.76320730200676 9.653298161464773 18.78687602594353
78.63600796448063 10.883353532558887 16.5952428531737
76.67411966054189 10.08382621405675 15.166633468320546
74.93918531070607 7.7613568602897685 15.626499935582586
73.13648167986862 92.74343355111033 35.82214870982141
72.29515557803927 92.09025701478582 33.68029659079683
70.57071203319249 93.52791195708001 32.00551530287426
76.18798962065274 91.68185273936679 33.31696490671587
74.44382795876797 90.59981404114919 32.49558282124828
73.41349608207032 88.57253584154849 32.47440340653283
73.92077091757773 86.24590528994501 34.158836785850745
79.22250138299539 62.98235626506421 29.934470017026676
77.36878133637813 64.81822232938036 29.700039145130308
74.88023732393087 64.3073770928828 30.461624121739508
73.40026953645979 62.24198870772248 30.020259618314544
61.5399884528567 84.17006059989905 51.7662868246159
61.02864558680206 81.52235176840964 51.085995784165284
59.7550630570542 79.94617561007499 52.778142042656306
59.462327493271225 80.2657204119072 55.52735499167366
34.214311340719384 51.60885318292037 77.3021782579548
34.578466815918915 52.39560208487138 74.79584553268369
35.874953338061125 51.53296527292342 72.80075010039529
39.27122494937645 79.79335894256316 10.31133490774125
41.229673390004315 80.9555699436915 11.68876413884798
41.2137164549283 82.39480000226179 13.856498624012687
39.440537720636115 83.35109731150125 15.161989959620543
28.20158902614068 40.172676166469024 48.82365767467997
28.934864005030626 39.32405144295597 50.96039224579199
27.253672956597917 39.4585958911562 53.36765315436259
24.733438537386622 40.06507261578952 52.66642497978697
68.45077448243306 40.10632543033539 40.34983709357807
68.06830216149649 39.830846550709 42.66573615850754
69.24702152643763 40.37890444988477 44.81950402171834
70.44249125874444 42.79854214860125 44.45343561219118
61.852612298156366 81.41775593934248 46.350844424864725
62.5783733842435 79.26248219338764 47.67031268871742
61.44691721010204 77.15562038460418 48.32511090872135
59.25690740457421 75.98968956520184 47.26851585299156
48.670460583017245 32.35809645468787 48.27444137591566
47.529428703116245 33.67686189558816 47.206045634551664
46.093732155552644 35.95126991261349 48.11754143272991
46.78351704454362 37.31408713839886 50.05795691449179
49.55112256815263 93.39106426928033 32.36727487976107
8.627241743543154 81.1659173671022 31.999402727943245
9.612358065149873 79.51186264804879 32.86344779018589
10.323453773014787 79.42122842584104 35.005470902229106
9.321121900228418 80.19273101018902 37.371138449887965
47.380288330510915 23.79428100776867 5.625251687916235
48.13799847564787 21.156883487839686 6.197465197913338
46.54919566132325 19.10677794804428 5.523937312788809
44.00348735873016 19.15322103848304 5.022251642860218
50.551505199341996 59.18685298017037 62.69526200754191
51.107014315146365 57.51495341083675 64.35580472029669
51.04169433815507 54.8531802492651 64.43150984794677
50.14072097728308 53.23943194319508 63.04180350103026
70.00971447832313 20.67529250724999 8.092309867026735
70.75578840340927 22.541368182811613 6.625296820802879
69.65076724969849 24.307517593948926 5.479442917543221
67.35646484232898 25.59302108059255 6.4931538087432745
27.470685530591084 45.422311440896756 17.58322751793318
27.46656648139476 46.56741188852123 15.34676573221097
25.93620397087968 48.20221541976221 14.44193054587504
24.49874120440469 50.07609827542554 15.373739496822251
53.77222303514764 74.31067582685989 23.775159467945528
52.31503824794252 76.04466823189668 24.99476185632437
49.52823683141422 75.9607977973566 24.715362400298172
48.26032999928777 75.71455203543053 22.70240953189438
75.20629570561033 59.02437893137814 67.53881193997202
76.33129589031878 58.173823245952775 65.9472566019058
74.54827959791149 56.98144685176893 64.49415074349238
73.39452734088663 54.66803692846124 64.63733473338326
74.3349150417085 72.4842873817916 66.2087353988502
73.48818548338213 70.03028174587389 66.70857483857111
74.42117653523252 67.79145922210662 66.44209590884518
76.87921066820302 67.19845396848898 66.53345339999552
48.21668585563418 48.93056874837543 62.535062932120574
48.97911479820604 47.34090791329732 60.56038314934747
47.5425997413465 46.63628484952033 58.47392258305452
45.73393978339004 47.93780526183798 57.1594976119587
38.509693094998624 35.03553576349327 40.00414638508575
38.43686335991564 36.08598795446 37.935434628464755
37.43330314600643 38.16285807727606 37.15907254459546
36.25091420101053 40.092447334277175 38.322275762663374
84.01907387179358 61.86657354176071 52.79693034006282
85.8018905091967 60.563046379644334 53.18586408539498
11.699134327697395 81.294409209294 1.6699525569810179
13.847325568743825 80.29788425221797 2.8095519347753113
14.01830279589429 78.26980164091455 4.397443385788008
12.464920062753421 76.71021968501331 5.30621241012996
53.51029536116928 78.79709668566211 28.49261913804093
51.184668679843355 78.63203526393602 27.870435277427607
49.94344448724366 78.45158082947819 26.244429371781564
49.80308752825958 79.44771589141662 23.73901540572362
88.06256235174602 90.27126059952754 19.618040133798033
85.56712503768836 91.07886682346724 20.24500930772196
85.21781452767246 93.68698152081203 19.155580387610712
45.198936484789876 45.03206138248325 43.943594372385895
45.299640211763744 42.902604801946154 45.30547860997519
46.22189172843569 40.70659658873509 45.03820120642129
47.10351155784775 39.60797694584753 43.31701870079482
87.69721286583123 89.85485310612994 32.54610772431783
88.37292445892479 85.03047177630816 29.356831930871756
33.82580163553815 60.01988666702468 73.39523987836058
33.21842364947947 58.30902056356405 71.67224695582871
33.66417736312551 58.204997403585914 69.10496034756783
36.05380647665883 58.76902851222297 68.77940474116299
34.73507595031692 55.14513220554614 34.45680373850326
33.443334864502376 55.75427797892393 32.20507031944038
32.55795983101916 57.80482739660524 31.438915708212175
32.5503870089787 60.237291063515755 32.804367243555056
55.341992313171886 54.06175694541129 30.530433998402014
55.033303050541676 56.37586171946734 29.10805117445664
54.730483663056994 56.53038264039853 26.518875915458796
53.89490529668503 54.756523118532655 24.974273798449385
75.07524396524656 65.12129255586056 33.14575943266395
74.87371959496491 67.21621812280986 33.58129210258026
76.31191353288354 69.40368091702679 32.953995521834415
78.84304598761057 69.5283563147128 32.56573874030349
65.9546526811755 76.11343124909357 19.524425806198977
68.5373911034637 76.78356910558091 19.24200012916661
69.59703500967753 78.94874583973099 20.197464113964276
68.60525780337116 80.19494726950097 22.439436339559546
39.50845742348392 74.1773370258838 13.634920699854876
40.45500465324037 76.12808471600965 12.868692825056005
40.75773087469561 78.4633257042757 14.28812870274847
40.31822513250138 78.49309937678642 17.23272031797174
70.97702349905698 60.28959048885159 22.148279824849148
71.88188789538934 59.20471064846575 19.952678700543927
70.73543034109247 57.16624759666863 18.64129497261695
68.29320644577835 56.745943287970235 18.269832126728268
83.14662602476602 70.17995253457288 49.05325357837831
82.04525579920968 68.8184524376923 47.25827819351895
80.95266712818129 70.02392336560212 45.42206522122564
79.62843011118474 72.22252811306923 45.35843467674793
81.76843655445751 80.03084660553003 51.89550611057176
82.1731872051194 82.50040546387986 51.59913550800861
83.75714591297107 83.23460076009634 53.21617562250223
84.08443752328881 82.71892410233875 55.68776311934393
2.3937716173675314 67.85610432903125 17.240644025086898
0.4397719272988649 69.50836938317282 18.088097807668035
0.6640775746803077 73.15717743077825 15.245778956650335
73.63717825602883 81.67687746752117 21.01699514072384
71.30560204742638 80.31215500024611 21.77435309157707
70.90958814310275 78.54398160109861 22.9645661967031
72.23440466269356 77.22286172875381 24.86705822805999
34.78994198214503 74.9237752483739 36.39662958165233
33.35048874178605 75.48380418093592 34.04289924957162
33.215565498734726 77.699427725047 33.28185234531385
33.5263633284079 80.00527993371489 34.203127766311475
76.85909230254845 92.03300190806411 30.379129657990905
70.82191264500784 81.13814285479052 31.406272207865612
72.52062196245588 80.00937759128676 30.4978146173993
72.59435938177859 79.26018073802861 27.707731573388767
71.18756212458014 79.39796834207495 26.35822473860081
85.75544777956094 72.60179884612077 49.83781551761075
84.60315169336408 71.97837249518484 47.94346426542666
85.50425127727608 71.69057298327276 45.24432257925372
15.084072810546123 58.74573296400049 75.71611842236979
13.663452755120488 58.680055686225856 73.76314725431996
12.06635725027387 56.66017422295453 72.73295159138895
12.275809152802546 54.29199715701754 73.23439672508519
50.04481532506887 29.812942324751866 15.696235300679916
49.869691098181825 31.03769818317416 13.363861448302657
51.17038309719545 30.760702150590504 11.306701156258033
52.11349196135239 28.455298898011105 10.16275707433377
1.5501022644013462 76.15048525943624 24.26655411274002
3.36074518217292 75.34719854154172 23.272683193122948
4.120735997620705 73.37955486498741 21.844495046583216
2.909169985849713 71.85932283462553 20.336993394554636
70.65041562180484 23.42990888236595 13.40121466551906
70.57149772490781 22.441099699590634 10.938964073495514
72.04193091471596 20.281956266657303 10.26796588455632
72.76435911923508 18.437375222369766 11.28377313841141
68.29542176355861 72.620046257007 62.95691624409215
69.09557840741124 75.07888112749588 62.78967234829039
68.13342474856286 76.8917512352343 61.50833108761356
66.10347081616791 77.31908575877355 60.411730834572865
34.49016441036326 73.9693607974486 0.028454801440944633
36.02366926249943 71.87611413060854 0.4896643804921106
37.192539877802695 71.13929421004381 2.71890273251516
37.4781753421797 72.14132389216164 4.752884615811904
85.81580121419603 13.690470013850591 28.42477778705606
84.52384220798844 13.649574482366438 26.302829809570948
83.76226114097096 12.04597532429384 24.62322962396509
10.806378812731525 36.93611189476337 11.651837966278691
9.654477411059176 38.06498546485264 13.03503999041636
9.91642648702274 39.25011341553527 15.580342388405139
11.600053034989545 38.80351768418844 17.17464661140701
43.74970422951492 58.94463985389292 18.942011426778624
45.25984761080449 57.82936569312921 18.074679582970354
46.996232756492496 55.82668226666858 19.107551476463893
47.11452558344886 55.35714916161631 21.61774321895499
68.97865470522025 67.06490219490696 64.86395261513275
71.03537702934214 68.13471063169696 63.82926159019037
71.85449213408207 70.59427560727534 64.46815350925026
70.87159459396428 72.44539785466186 64.82484622063492
62.08064943110578 38.18438941050987 35.691856164268884
62.369607809069926 40.10672701512174 35.92904720925577
61.86603268326706 42.00909331389152 34.383118168529336
60.41905826776797 42.1829053646439 32.584556790406374
39.71016967186653 67.53001294118886 53.5103456710754
41.39903570533638 69.15624971647455 54.67323728403198
41.88434208112168 71.60883640949324 53.745639011256735
40.451324351890854 73.35647913709634 52.948521686860914
74.9466839580358 63.847588561019094 70.97775377167338
77.21931561691555 63.78920722254969 71.82439881720477
78.33326622049 62.62839226384755 73.48386571636583
77.66948116026678 60.652266726433645 75.0793835421104
52.433509681430714 93.4421304171621 38.30813643379549
5.205726594249311 70.95516636185067 61.75792775948017
6.041286343522313 69.7753371971423 63.81690222215946
5.968554434730457 67.11467317444479 64.49297556688012
5.569732719543175 65.18724871840466 63.16259983167102
71.87320749754142 49.306127787868824 51.20754061114035
69.78822450406821 49.70518590627472 50.5465431237156
67.66599930925709 51.14955332855619 51.49208696043047
67.44822882643228 51.781947757478655 53.815054873168904
55.12659644370207 91.97872276500448 40.96388743428067
54.13080157806326 89.89030060310593 39.605412701033806
53.587314376584565 89.82773911216708 36.99563943245748
28.52185375556684 42.66296039665274 23.178627356348564
28.766114594407533 44.48599379479083 22.205226341781653
28.616067975818105 46.94507484381052 23.02937369743388
29.483404646720142 48.02902566249039 25.132153550465542
62.80075000522989 14.05515759240942 25.146965121278086
63.93153266869956 15.181941528493928 27.236960579871972
65.56895644963116 14.769575028611886 28.684919172213675
50.77136466991603 38.034068699089644 60.060599293995146
50.43980704893339 40.04980235650455 61.67883478841447
65.55550782456137 21.560212480306834 37.57749631939194
65.3642479073971 19.625062885979766 35.59394045458619
66.05984124454078 19.41305839629635 33.465068229314554
66.35783818700558 21.14491887826005 31.51252802237355
12.552307303378385 67.79305812145468 67.16599921264364
15.497651362606302 60.02813679611326 0.6436607180731213
14.400554032790085 58.599866393203605 2.1407660281553373
21.080103652633706 48.4746617621458 0.7758517089752738
30.82223819239489 37.71202573019474 14.72398441534449
31.21733565914703 40.084090090435765 15.197347364095041
30.779971771185313 41.5499135834891 17.128810782900086
30.55401693115131 40.815342433251935 19.629112317477098
32.88629027403222 65.53820605479156 73.41890747892508
27.435757133976 47.23013122957371 10.569849036338491
25.19384516974369 48.540924004054524 11.558944667824175
24.484355259927156 50.45849191909818 11.273296446357532
25.385214647768784 52.7957859716236 10.126873145542318
2.4831113148371604 56.894619826867306 22.454017214937135
4.544030416390655 55.24536856934466 22.83964790655498
5.191845177260994 54.327053520802956 24.968100880495225
4.801261221228978 55.13467298207647 26.81222175338731
38.19172338440147 26.311496540397954 33.8956376633166
36.51647090467222 27.22723274380632 34.903622545034494
37.57842284002685 29.03707684642893 36.75917553426157
39.634601746201916 29.291494901503995 37.76792070216626
39.2368163523898 28.18748644366021 26.637958827824672
38.02759618900554 26.419685410696047 25.152645052115414
38.42490340741858 23.778842679661327 25.393309291889828
40.25535945312827 22.44302487909738 25.65212746328368
20.68108075465205 32.47335711119081 2.4598746028229326
