4.350385418902962 23.274148887632744 1.3481724759652507
56.6245367121375 64.5515496873627 18.79798606817271
55.55085786983753 62.1923866559721 19.880735458139394
56.914180746957165 60.014747605960714 20.436216522434684
59.369237352106886 59.53014812600907 20.351972579785617
20.882261738438952 33.68440043068078 12.64806671067945
21.462657702197937 33.42440119067636 10.165447523633636
23.90366402392656 32.69991157181009 10.060078853155172
25.958908149899358 34.462647440980625 9.874498362088955
33.30798111226007 94.84158579683373 9.383672422967475
31.755467646105572 95.01631603679331 11.541252322411598
32.372943713757444 95.2948147143454 14.05576131166993
34.55228083459981 94.64439933428577 14.662696254452168
10.048537726429899 88.36240198613044 33.84714068769967
12.021665576323208 89.94148336377467 33.231578819884824
14.36644289538366 89.55327376215453 33.00680168856797
15.754460359357752 87.36713967895597 32.620839532406244
16.40364463006835 38.29929440758639 15.514624575654107
51.239793693444334 59.160254014547476 1.8086201711189611
19.7959153517657 80.5222348907366 26.796090034262463
20.93740082856211 82.50357900397542 26.899417076290007
19.833356057850327 85.09732415345056 26.85659525204576
17.641554321341886 85.69857003310959 27.443553855896948
33.17377954610698 54.96342271728922 14.35776421096615
32.18243259627758 53.634505686077624 16.055307556549057
33.397391668158306 52.172547186101546 18.121942546762483
35.15623775669702 50.964728494477285 18.0191843963513
35.0162026039351 47.53615948325051 16.11098319266934
42.55617492579632 48.586810865688406 16.930616281807097
41.217422050683254 47.171587046213155 17.585273031133493
38.40329728534686 47.081379679065826 17.37688287973587
36.94427335982027 49.38400139284244 17.029248930384473
35.4798092200707 36.78432371239356 4.107324619225767
33.87660800172621 34.93401813941199 4.228010696005174
31.11303386935972 35.03256539062155 3.981453902770523
29.736275415481664 36.80768958751523 4.277898364912332
17.111461693500495 78.40866050115464 8.25032955709657
15.470612067620381 79.97462490707822 9.551943889807522
14.223599030840596 78.43271957257038 11.677719100326769
15.645276518723573 77.8888094031516 13.996085087068487
17.809269556714273 50.56984231119828 1.9502922053142873
23.215566240905858 51.502341887202405 0.17698718347837805
32.34262378500408 47.35679091728294 16.76236272537165
32.27081520127671 49.29417600448872 18.3423768319088
30.26554314260475 50.895820941852925 18.89532336408559
28.62027859784087 51.63207411013449 17.021202700953754
9.436839012276462 38.99389377802009 13.383722876942205
10.592894417126859 41.44600764205867 13.266686091253524
10.017202385038777 43.50748090742433 14.601369748096387
7.342845045789757 44.06054034034035 15.098924261563898
11.070183116757152 35.08779916417942 13.085299523966087
13.245903180216494 36.46091813747176 13.143713453139997
14.074591655726966 38.249284665456685 11.295696699321455
13.04970481317096 39.14217303050318 9.03273497548908
6.280582518336416 64.06001490797775 5.390196508509077
6.934391715312943 64.3412315048669 3.1584234575312613
8.516571848745286 62.6663771090438 1.729216642424724
9.51788119847044 60.63131844552773 2.0066231326942714
32.226993623431106 29.330021653813976 6.610653845234447
32.53426836574212 31.36041912911083 5.617524201015465
32.79053350298646 33.7263915811341 6.348449924440952
32.811928295748544 35.04186174961767 8.191149942278045
16.64756285981369 15.191917526469297 0.901613101985806
17.782435084049776 13.136258061399271 1.5189595458145868
20.25166842134808 12.146931547483389 0.907596886153204
2.3725121774325295 56.85835105630716 11.98504842404352
0.0975192443726439 57.11171334894309 12.993577272188267
0.632872346949772 55.3449635450712 17.295726122929924
15.503949727122746 68.73917330084318 22.431037734180645
14.327127996392601 68.58654921472412 20.211716640341844
14.605076571027967 69.4755313620594 18.21224155783183
16.094109712832054 70.89386105452066 16.965814503515702
1.8637708374663777 59.65286777030323 11.660245833930722
2.041179982605638 58.62731675306695 9.317855935938784
3.5014199454705204 59.1570050435041 7.2637760324494
4.913701965485289 61.30819828869138 6.911486379131874
49.07342930338867 51.12701143007539 0.08379730416782638
50.722027848522174 52.75708331418193 1.1143793268455744
53.02627929930122 53.794300167787014 0.445443228515339
50.50955015943428 45.21685040164693 7.116369790318357
49.6991924077422 47.61834973328838 6.732138747301082
47.0356248670531 48.26460824604946 7.815536492405701
46.0173179076064 46.47675235340842 9.211617965701988
3.84345121297772 91.927940358289 35.137490244115725
4.245560580655396 93.4052632961781 37.19692451170888
3.601670719826599 92.9864882902035 39.686035228629265
1.9017769394337702 91.1913974003979 40.592865923916236
8.8115211696177 38.046671597204394 16.002627751903045
9.317759228735378 35.92977347140993 15.204811833359837
31.178004216864903 76.63323206503169 0.3724905808601953
32.48641310993436 75.17128434620804 2.02813721445792
34.10242079757444 72.96857319698799 1.3879653186107772
36.54820723572174 25.897518841263608 0.0322083157120424
37.55700847584109 28.071740337069798 0.6710875156752664
13.401791500998204 44.45911027689973 13.021982797265597
12.895028708463943 45.81574385380082 11.64680830613395
14.083973125308598 46.08593518326104 9.240900558596264
16.33858764815281 46.87605158768451 9.142791823987663
28.399743363583767 70.2759302571979 4.058540246727928
28.32298188652732 67.57909296892504 5.0411907791441815
29.937779774399324 67.01035803142068 6.853776632248839
30.43349545355139 68.0632135202643 9.053604550126884
53.12696930777167 83.24937606411761 29.636854461534796
52.44239507247161 84.03932650731687 32.08701186339005
51.197923681809115 86.15663279935963 32.560287634918716
49.37349358439799 87.36065308924692 31.514851184198974
0.11404361054457114 74.9907055989018 29.256812247094963
0.18467164606654118 73.01715716546389 28.036961866494277
16.421756475116055 37.725508329533184 12.902451033192374
17.11201267800289 35.36881243796064 13.403273340803434
18.051502935061325 33.605262260669555 12.073051155652609
18.72544048891123 33.312687656317244 9.77331556685818
33.69022541203674 92.31247709714775 9.867907476908442
34.737768992293674 92.68716713177595 12.357205428020167
34.79802606905083 91.27034606804148 14.213271735400344
34.506272293686905 89.00912309608917 14.635419465221982
6.96815158974255 44.48507779048391 12.278191250025706
6.651134468585614 46.53378420678502 13.082560111186465
5.142627567863221 48.759286691618236 12.169641460370723
3.7092424322611266 49.172053914677896 10.74290652789063
13.080987317791857 47.028128091506225 1.8247446970551755
15.582537929891583 47.02035190555281 2.178177683661895
17.511441738665308 45.61331487468806 1.2464974796927522
54.53470522844154 44.56005989540961 9.119927381973003
51.80234142054534 44.99808342683433 9.429822065676644
51.05807217292355 47.57800837403552 9.71894435643816
51.80957326953464 49.40764921215092 9.393021137712699
49.54466801985654 49.51572272314112 14.201230825301193
48.46022639029773 48.52019881972431 12.128493742254653
48.7245289951899 49.466305608110346 9.679452256414436
48.816410739752094 51.81951223144085 8.659340374548325
49.35051174448279 47.65925150317308 4.034339028043644
49.90102586064615 49.536828194827365 2.74071944520879
48.57615151295089 52.22847520315967 2.8241782580874113
46.35968059988218 52.73309841392635 2.924010815658613
56.58026982688881 74.38172598115649 10.698375841914716
55.154056387985676 74.69861310076085 12.71528346555186
54.95808411389178 73.64981945093704 15.071287989133538
56.020422458645385 72.1293960925861 16.164219797248546
32.33087636321105 72.24009171364253 6.43144802009473
33.7312290481084 72.05325037944483 4.508478412231286
36.29142754816158 71.62595135174554 4.1172929137418
38.102851883529 71.62962216005876 5.627113261819117
62.4226310339695 84.34790124738215 3.804806740882974
60.0295002926836 85.24616482936536 5.117867338005694
58.747919120351945 82.94150994430996 5.843977284915713
59.45653196251892 80.70537273618584 5.507247894417882
61.59467186276618 41.58144760546938 3.303504977216987
63.1876589090423 39.90518156199561 2.416360861819145
65.16992341445676 40.89177435163516 1.9509679421042516
67.16803658205946 41.42502415124847 3.0449377342710946
58.63250901584923 70.26093726931832 19.085838390372455
57.09172958574521 68.84442638887818 19.332860497999974
56.99204333067687 66.3788934453787 20.80372422574382
58.55921808054264 64.88400559601821 20.72479419913126
59.01845267118495 38.68098264728728 2.1787238907472863
58.746603447462896 39.38944960705787 4.608699034510321
57.22836196422824 38.496914060687196 6.34024591159491
55.99202913834451 36.55065231479309 6.100402092831607
55.29087987547991 67.44880449613889 22.903779125388947
55.08667144200156 68.7171410849064 21.122149337871587
52.573565511269884 70.23596742980148 20.574129907553804
50.91964940215392 70.5410477596318 22.534185797409304
0.7219422523118854 24.163665944494824 9.649505182807506
2.2000216183976566 23.116837670014153 7.925012125247899
3.9798883516704735 24.096674441990018 6.324316324254999
5.047027678663603 26.613303317438238 6.6062582661316185
8.526863512860618 20.195079509296203 3.6050832489367504
7.404109580776001 22.28156429008613 4.4422442743391946
7.3962056170666 24.702933740211957 3.518868542299052
8.16443495449422 25.79881410532648 1.264799584833201
38.50336200620735 78.53442884217644 23.301098846196233
36.50105542766512 80.36346625866219 22.990085042504184
36.243280922591254 81.80345035802489 20.64787658572337
37.686980992678876 82.07528426557532 18.88504658603505
44.05441317654372 90.7619770155156 9.947529733969143
43.51055905526773 88.19991688901602 10.752471355456908
43.53254442253866 87.27935684424581 13.15926503193555
42.78331183943584 88.40126275182203 15.213461928942774
51.03975490890079 46.90106841486766 14.349945529379468
52.1334965260499 48.66350160847487 14.841854571333153
80.9733746133356 46.68991947407492 12.739120462601146
80.50648645530106 48.90701970171217 10.905533978486472
44.65284857721399 67.96041033188736 1.030806472771487
42.5046642268235 66.67607523651634 1.8387094346070223
42.002595515628606 64.33731362650815 2.14860899787112
65.80433178296308 42.994353635141856 0.1406734692352768
67.0097750181866 44.120659882877604 1.6003606424848091
71.40378719762637 66.35473704522268 3.3978163945010253
69.99156131641875 64.58261475137714 3.203540750287752
67.93129878997028 60.76588244191807 12.210427421922198
66.1606045343242 59.753278765632494 12.473827122440868
64.10422619357381 60.83304197208637 13.993233841241306
64.21310003251014 62.69220163959132 15.534212243383328
29.920964776680012 65.97105513628948 3.8707378649977855
32.02946324168199 65.74766692860437 5.626235916444615
33.22178107475836 64.08354683918445 6.344698315457548
32.58455461797129 61.520892289543056 6.634827302342636
49.54984570481246 56.94201717247867 0.5450142176393571
48.867947233623234 54.5340950272526 0.9308600818876518
47.18753133380473 53.079932602918724 0.26634628674824845
56.0977642902638 57.20752478624028 20.599859033381065
54.378925969449156 57.11171287873023 19.1735137225615
2.142059296146987 61.36770525258925 5.5288108192813175
3.6075203054913505 62.09154429898888 3.4704941634133037
2.614244136168869 62.249745406964266 1.0748026750230395
78.49517353270457 53.94703245232606 5.569191939665977
77.09424862290794 55.89978291410255 6.08873483587722
64.33242892627155 57.25851530735563 18.236672499621182
63.69990646252342 58.604893774624536 16.083247969683285
62.15758096546172 60.656821524731726 15.767428788204409
60.3619462371419 60.626042030402644 17.020592190424534
56.7841564895311 80.47105233659715 1.7624959330008168
59.28006227247824 80.89466003983256 2.1338029339963143
60.871201042923104 79.1356233092746 3.1673064601897685
60.80382507126787 76.89772438157922 3.465811331441692
31.91376583870351 71.70420793697032 1.9597119591957508
32.45234235737155 70.03856455578119 3.888248529300338
33.848594483133844 67.64508831304366 3.5158987248016444
34.961080115081735 67.66471401944348 1.8676051499583608
63.236533884203546 80.17649649752474 2.263543248130906
61.87207571102494 80.82567628000983 0.45865035160764883
20.658307769995677 80.45088095485929 7.25530319360323
21.198352661189208 79.22698325866234 5.221902377615577
23.14569796709988 77.74903763629347 4.493232025251062
25.486021671881943 77.82382439194409 5.572672949864865
76.7487824107253 56.195796445473185 8.817883081134184
75.01862444333167 57.39927403741233 8.416527933619983
74.94433004004017 60.16922977284029 9.082471510003172
2.554442902104484 25.865566176585723 3.3107800011359054
4.714424438003893 25.984317190395974 2.3690405417262355
5.477389560970613 27.116590543772496 0.33873964832409925
13.477893306685575 16.428241543312136 1.7508364070105311
11.79877676040825 15.847751618030564 3.926678072779405
10.667126057751736 17.731847482001815 5.424989286792769
10.882296700489032 20.24040055278129 4.76345434320287
39.390904237930506 24.97384281885533 0.3365779670823829
38.13641185938039 25.37718410247936 2.727357970178979
26.584088610624654 76.26478791973634 27.29286811323629
25.06204971152645 77.8679219252058 28.706460339540993
22.659209492187458 77.88917036619802 29.226438699616526
21.092443490987506 76.0369265374794 29.129558819479808
31.86117546773026 56.777808480501754 18.468546850436038
30.589711726636548 54.85485527018029 18.168565477926734
29.708934113563576 53.26342129904313 19.959205475094002
26.289946099122314 28.56310763826512 9.147959397089712
22.4010880149095 29.844714620905588 11.4399121006483
20.756152178762775 30.608339897029538 9.914864451206425
30.937975347879053 59.66046858933894 17.649840089496287
30.466435861807184 58.7872809732915 19.610714971743793
28.796128305473548 59.48181093020271 21.593778189004613
26.903992101603308 61.366607875523684 20.939472299085804
11.628373559858625 90.10702230073372 30.465145872490428
10.28609404002043 91.66390094018914 31.137750603467598
10.199570281705148 93.7176274592516 29.677990214950434
10.363442160802432 94.0920629376665 27.230860677305323
60.73682621681836 40.17224309241506 7.724200228453045
60.22680450199937 37.70057406435638 6.595922797976245
58.94534849423159 36.02724594090223 7.805951276011784
58.67788009776295 35.48870454465837 10.5876515724561
20.160293067180824 74.19004361807309 31.230991971917284
31.639882599045166 62.571173422569885 13.802273421648481
31.708428554358186 63.117179190247825 11.843682428262445
30.559839016031763 64.84043556140773 10.270944697874684
28.93360083340028 66.26059238514986 11.00037095362806
1.814965681557776 71.34415004193865 24.50458642073282
0.18281745977183134 73.28998115319001 25.41439762345971
17.371708833083137 68.42334109674766 16.382053979145006
17.929342049235053 66.87914812885039 18.353789062376844
19.62302839942555 65.37676225421552 18.817220738584215
21.79787296509509 64.31364394741207 17.283907792536347
3.8748007238708397 95.57122326517768 41.73791431225068
2.400447697452383 95.29699670260872 39.65276217379357
0.3322162403948525 95.78688430067558 39.18377116260622
8.204301239461874 46.825358683239756 19.98005799404434
8.231379091356823 46.24985531691869 17.807629143923343
6.374637990470869 46.4441609207821 15.85842983320861
4.212060434382957 46.83727123591005 15.631406168394026
39.5357782949266 75.84870252244279 0.7647149508869361
38.15849492465214 74.11859389712951 1.3973920747708315
35.97886906235169 73.86326268531799 2.902154134935665
34.65953036350541 75.24800796769652 4.198341215320281
3.3401717672678455 67.00408710432458 0.6208285800434475
4.327309660979854 65.8423226567115 2.562238718896483
5.312271694695854 66.55126790848797 4.633320291883326
33.6714026824046 32.3637413429335 0.7515154349294251
32.79633001007305 29.826126826514802 1.5646575613362894
30.547729125942904 29.290522972248024 3.1240534663040025
30.06178495746108 30.97394207376924 4.391504214857516
15.56196924469929 52.00913569162072 3.2777598500052356
13.718471153114905 50.671815510878034 4.28921600641306
13.551972479364455 49.592177178309754 6.4768489356147425
15.02174904655573 49.15014976879894 8.354911942265671
14.233788503934049 41.954746277236985 12.14734876856915
13.065338569740662 40.2482620535404 12.869183847717915
12.94973895646337 38.823831201966165 14.733960993867381
17.927524407300893 62.64730070526378 25.69953765338348
19.392692936817053 62.05238554189023 24.046841522730993
21.177102170343616 60.058106747073225 23.79623391154367
54.92575321788786 85.3739728548635 29.340970193646978
54.18931386087988 87.77161138389043 29.3490900081279
55.4672383828054 89.81083395734748 28.868958779102368
48.654978104328166 82.03222176773369 9.183950369869375
50.11399844088032 84.2310567499654 9.99137705153579
49.5367560994545 85.94694236122811 11.524695780384153
47.25483690223642 86.70468034928926 12.641356122851203
13.831930513717879 10.023405026858393 2.4484507009822627
26.80292577295838 55.99975537209536 16.472072303937804
27.528571295395647 56.096650267797266 18.38453116361644
27.384286843590644 54.50424432916707 20.64489014887419
25.697950239344884 52.52759009687761 21.066957599437586
5.597444160726125 62.26160387697807 0.8830454023336057
5.83169572277006 64.75938395722305 0.5627356424093055
13.71333960399372 87.14673293603408 11.12956877360059
12.233021165342906 86.43718488699709 9.436279069434105
10.14171694781862 87.24834265799663 8.226098857547985
8.994595278622857 89.54500751373318 8.422848504170972
29.3543857449948 61.970774395051656 7.403189139790988
31.203820805200458 61.38581097496721 8.83017394689966
30.93766511978354 60.25695237991822 11.529303318959457
29.20820175539061 59.067485988595294 12.424648993809182
16.31155266891178 58.14739842700339 24.577920181011432
17.22644036918182 59.66180735380175 22.65820190764744
19.218705103230718 58.939316597574305 20.688168653335243
1.7370996832641676 64.80678570045086 1.3278530780283058
0.5100520890566163 64.16459164867459 3.6947861742836685
25.687900447887063 50.06889289160856 0.7615947186370461
23.873543715732268 49.00203255710768 1.5447080516230218
23.003295351487864 46.80172425889789 0.3657590321459958
13.28197593171859 75.86662121327308 11.289804731776893
12.078984797990746 75.32169235193706 12.940235968178039
9.98341072844174 76.48168621163549 14.140507413226493
9.101963729889992 78.46295167278832 13.401311439969293
28.453975059622696 29.470253052280494 6.198636213146996
29.928606292926833 28.32459032405689 7.490403313374268
31.45197604913918 26.511199096968404 7.329992007615848
31.18847151138595 24.02799041202669 6.236484943878451
33.588676866893 76.40905389144865 22.317507528152515
34.56982668857804 78.69329118283672 22.213855308634503
33.39701202787168 81.05900200719759 20.880180359009593
32.68317842882929 81.24270995363098 18.51986831603598
7.699995301746435 91.08292043771411 32.08343370929435
8.316060302346687 92.73132116384737 33.01048555206321
7.248353373813496 95.31429496903905 33.60891247637077
4.612314513271909 95.69772953370968 33.843912501916925
21.387310733254935 62.51438419478953 21.985730173630373
21.939609108529652 61.624977802962235 19.727942789035488
23.79782236607472 62.11857167625454 18.19599802440376
25.813397724805732 63.98113649285824 18.034711388340405
29.966920472471504 82.18110681866044 26.167744151050805
30.62831755725559 80.80719879064227 24.38948428527578
33.27877972219381 79.47221837184091 24.427284942309335
35.23752295935822 79.79576704499902 25.27166407278917
15.287101033267408 15.113181412748029 3.4397413126414556
77.31051041832893 47.764276603934015 8.842922049157819
79.09673331223918 46.03078023886405 10.469490682808772
80.91940908101223 44.771064897823585 8.988484784496352
81.47008961989482 45.12653515025313 7.1019108815033825
13.910795639805047 12.994279127039896 2.158173029683092
11.459227655844408 13.483657782206178 2.773615831096534
50.03186131843339 87.68186666033264 35.068510713057414
71.43771499567092 58.03388097609004 8.874220143116883
69.6217625584695 59.733085681379045 9.47984431117041
66.98066234085545 59.37534771424424 9.838823820653435
65.81466957001723 57.31437549003911 10.099021329452757
53.523856543825225 80.74670958523252 30.692988869334094
53.81249475565008 77.91034165886897 29.702045235449873
2.522645774873238 93.98178873453787 34.42230121777618
55.0003247974066 93.13389630951119 27.470350204659038
56.10986187946358 89.46835723702725 25.250861601195027
55.86296308262002 93.40472097684642 21.792951199527515
34.944858041005354 95.09142254016648 39.112639182209755
33.711968179505654 95.29111179382137 37.13968460808419
60.78977934702468 42.11186080651838 0.1567103001176054
58.29769776784972 41.70024977983305 0.0028821240560736945
54.69845115765005 87.62273886023107 33.23208391957255
52.700666111318434 88.1731351590914 31.660575867690003
51.48312806251752 90.17687215249252 31.00835763908159
53.06470700610128 92.35342571172905 30.420420131526495
14.92879531173792 46.1370992062694 5.041938613688292
14.095582880792536 46.44588776182651 6.604720569281594
11.711041397929584 47.42094193698517 6.8533513700001425
9.723689247910404 47.248647627466994 5.74514608242224
52.777030481886584 48.6316113438857 2.737938450344516
52.40453188106368 47.4190866341077 4.809996570042111
53.013755104149745 45.1338946845635 5.778285363464012
53.75791090104184 43.09294960501742 4.732997681839163
53.7536918587965 93.23472953151177 0.38542942611025083
51.51252513485196 94.61162346996058 0.8566265853095013
50.27979737662596 95.04173969810951 2.9428247627302064
50.27139113525485 92.88138598731732 4.235172544198597
13.199498915081415 48.656289354825674 10.068462938063924
11.12603057827992 47.40705082705233 10.847110048747686
8.235504158161724 48.12735278338688 10.111861019806053
7.5739082326155485 50.58688025797994 9.987256755992023
6.077333254531157 93.06652368920847 40.151774111411235
7.006335301335908 94.09382466287185 38.17620237820824
9.432545836417912 95.00283095152525 37.95156334449305
18.898583603634144 79.43719895419689 4.256431717090831
18.004078308045283 81.14160863067265 5.3744437043185265
15.074747800670176 81.51447224097063 6.225811915009075
13.963846179897223 79.8723507868388 7.124591788723512
21.48384575814751 83.40479819858703 31.47834677103174
21.549002373628632 81.2436979302893 30.38788834284861
23.0721838987466 80.82861236346189 28.00562410056481
25.08448251205912 81.5852151503474 27.37773551677846
53.97173398080128 65.09986913917662 18.176689318566247
53.67454164451376 67.63839014926697 19.043958893342598
54.91749734103137 69.68637952880425 17.5880892251641
54.836838045055956 69.80757873198432 15.22651170616137
28.739121354752502 28.11734613342204 10.032589956991943
52.00453039004138 93.69642873980291 23.47289459401623
53.91382410008637 92.80626969719232 24.46864703150291
54.12328880804497 90.92555734043842 26.543688547621443
52.37644285099115 89.7622580540691 27.819933715011427
46.40749720639409 53.339682956243664 7.375341148366463
46.13288003326418 54.33094254727411 4.89715944575754
48.01436665257954 55.22977559165538 3.4490880573603806
50.01991878492568 56.344842726294964 3.7384213518158025
29.06992368370944 78.90871605461751 24.855376671920563
26.97960079600305 78.84798858503738 26.5325103631605
24.77905429878677 78.9686473142042 26.237663326148756
23.027067056343654 79.47818317588171 24.53919315956822
30.665498230906 82.17823462598699 21.956148635181574
31.141248568188434 84.70051746965164 21.95583865439032
32.084761252916174 85.35129832411702 19.352462764381542
31.896911657201077 84.02285553516441 17.411783065893573
53.57614663452239 86.67462608073404 6.929853369404873
53.71106876225259 84.30359122939404 7.074602831840627
55.80206885196043 82.84042061581081 7.496611345176047
57.94277752236125 83.31520318191593 8.578100927451121
29.930562083691235 52.52028100109615 14.855864097180055
29.20196648295622 55.06524415505982 14.714040742989848
29.851217423742483 56.82097893620193 13.12678916499679
31.124169976110274 57.04964121047106 11.147086400332066
13.657701325587336 93.23032497685685 2.323952546951988
13.211118056023341 91.99432792448894 4.742995661628022
13.231484863587509 89.62435694267866 5.191026607503135
14.25311746077586 87.56213811363484 3.7805182462820026
33.32080395938385 35.22057563405185 0.8778267437565269
11.906420727870564 41.36028917530924 10.362466056100642
10.455150361947192 43.35172119573495 11.249441457143663
9.357553237421634 45.229262468972415 10.3448865167428
9.016018711412359 46.15659129283283 8.277356456891198
33.96649381594814 25.76905384717802 6.092091832698568
33.221191698026 27.732552883272003 4.629696573712571
34.86181175215629 29.450234769770077 3.317881167100954
37.04091897900284 29.380173542370542 2.814238253172269
17.641845943225814 80.40877398056381 33.04967611633474
18.572147742206923 82.05593873143518 31.436100712906832
18.808504941995768 84.54310648808327 31.610450996964612
18.57067437497485 86.24439245104264 33.276850128715424
56.86330898111433 31.66634729366383 7.3811428308149365
57.07985031883093 34.2164425959456 6.2154732309184135
57.19285823493582 34.96427279735858 3.958824502202816
13.24371237819575 49.65083486405162 1.609987125230182
15.415366496487612 49.345123496067195 0.1676333887749293
12.120084715532002 85.94191761642377 4.623786536688175
13.123163055228988 85.79198789374159 6.483094337534065
13.183049017922084 83.6946838973078 8.479096699535999
12.22928903393593 81.68904847279475 8.275692796669226
77.08447432851241 48.64499522872492 11.41809693469128
78.28578304523313 50.80854449699223 11.026074795062872
77.76843662538634 53.06671074468555 10.935547428309919
75.46374170730017 54.405680214344684 10.991331428057752
40.6933842441231 86.18774514830308 14.958874274390519
38.73164074002643 87.23142813757758 14.18554190169814
38.58169423058234 88.50109968561348 11.535849646343786
40.88711731512689 88.42180374922738 10.361039978009332
14.698874651860228 64.90516645875395 22.907554046256884
16.55421475053179 63.40675973530741 22.87656087836785
18.965858143100956 63.902000152765886 21.88992468668272
20.288131187150405 65.41290214058647 21.21713928023249
53.74540673651032 29.4036256302936 8.235734510936467
11.091897824838652 91.48885320621548 35.65529406192504
8.933844819704992 92.84592035010516 35.515974731376275
6.759766137012049 92.270419571149 36.184724195423684
5.893407648516244 90.31086416203702 37.650699008816055
19.52445316008566 44.36648046936414 2.9702863898639604
21.16660901082676 45.515545344277655 1.5053322469426824
52.12561297686008 90.67376419046808 6.2670193111837476
50.11629450020531 89.23451369203704 5.791092337274033
48.17657962757723 88.15714678120769 7.409166891680259
48.21997743804373 87.52808536355356 9.619800373421771
2.4245850120867565 63.13248711515721 8.36449665341497
3.1872028926382088 63.75337030602451 6.029846501925378
2.1471470725050414 66.0889458199223 4.913024658008846
0.40177094047283785 66.98447255368679 5.8058863217020225
11.377134558617044 90.90684376133592 7.347586685642469
9.295475878821417 91.30995262539015 6.357512426472125
8.150259248180927 92.91085950901146 4.762311190350377
9.144555961682276 95.20009724946746 3.948832379144835
7.268513048626311 28.138888210470768 2.2668361203458542
6.632197815117406 29.579787015441724 0.40729655230810813
43.081811227230865 68.1415690844613 26.76810641030502
40.734630631431216 68.26399270557543 2.95907144712478
38.28159542177199 69.06034359580369 3.7185913187913533
36.39498130596388 67.84488492963492 4.661139348191248
36.2790904928378 65.08237146122318 4.8362428817653145
56.6593257922399 39.333007821892544 9.487786643275971
55.895999797891896 40.786618542155445 7.712273073425419
53.32125731631473 41.963514756960805 7.410529560638435
51.58597668851501 42.2803991872232 9.835370395769276
38.97741143438104 67.84297291719277 24.312002721601388
40.9845157584528 69.47328565678198 25.02286744876451
43.30775616347397 69.514254151168 24.282620161816524
44.577366196574616 68.42992247214072 22.46928119663794
35.148555933403564 31.821365123209173 4.704362416603465
35.71482350723128 31.614713465057136 2.260252019230448
36.830781160776716 32.82175633772211 0.6574668227912082
39.19745546670024 33.734378695820745 0.9019016460673029
9.461437995822859 86.99259501843873 5.617317752459859
10.627359456831352 89.15111385779937 4.43266878486952
9.965159220979382 90.0908675075474 2.2283225282970016
7.811256474682812 90.02818688618554 0.9673844498643749
51.56882532326693 77.3617640929947 10.076881809718435
53.075470613316796 78.08356191818557 8.680940932869323
54.14468367562598 80.82196986891753 8.88994811869301
52.713996064609326 82.92181285732251 9.144997463748345
16.966067821017603 87.53775823343143 4.270768440958468
16.35336041009015 86.46267928567879 6.236630898186162
14.802075132411307 87.57768390788061 8.240408463899541
14.140553240005953 89.78354240564529 7.730660937059381
38.67091791089455 65.19147295218757 25.713858583134996
50.240714480274306 78.06943443184791 16.527016838784753
50.33352577883383 77.19254845206027 14.094029167441217
52.29362991874268 77.17494665524158 12.582299451525707
54.87347706901145 77.31008987382165 12.82493528258221
17.0138466088884 46.91459218956318 6.395799806347832
17.650636279970527 48.41857758520404 3.9840734300797256
19.402347469644997 48.457078000049066 2.7316509682079997
21.977035718727027 48.18883505598183 3.1625780435762563
45.91625112405421 89.26820314632369 3.2720559702607055
48.25890945496294 87.91665904796592 3.6287618379740763
50.130052789209635 89.36474379080985 2.1376879008943908
49.71268522551715 91.37749324166317 0.5520469059162352
14.56981500766742 84.49173883594545 11.263354776999256
14.299018923609443 82.15096987021863 10.487843713236977
12.43410076215784 80.34557731602001 11.068866824963957
11.076636666851117 80.10004612612867 13.218962958582257
8.391298397173228 93.70802420001593 1.2213611022101856
10.909495110781743 92.78645110209676 1.505657354686335
1.5252858303672303 54.97697605815525 10.277706789328553
1.7677025148262184 56.17341375292064 8.358390926997167
23.86730914574864 77.5337379125854 1.8973075872728788
23.628850802719775 80.13316645701956 1.415650862011912
21.497180454137904 81.58034965442441 1.3652744775677303
19.44079252325163 81.00178315664728 2.0256074773012314
14.270029031430404 82.62566760592223 3.7415401877052163
16.041790548310082 84.23907078248527 4.766989120826354
18.44049846591456 85.23049122447676 3.8346907266688683
19.608651637255495 84.50348155162833 2.025246266900797
51.4380363306788 42.36115049408018 13.104880351169275
51.00953026994264 44.63062218527832 12.177455967441565
48.78398559472943 45.80325058985241 11.26425232680541
46.4403684185125 44.90458891572886 11.571037025839047
64.89242975038361 55.085369906228664 11.507807589583122
64.85397387349376 57.08058448124102 13.375103103196267
66.46317420429463 57.102992923542345 15.636371580643129
66.227580485665 54.890435609577125 17.204662564675726
38.04423068643175 70.20909700938729 0.9009806791813
40.05836513796949 69.40369616763844 0.6909696862095184
60.25929932193779 57.12602453007832 19.26873438863833
59.32385258634056 58.33293042796519 17.449893105848002
72.9788121768369 63.67075234433023 7.754013003014957
72.2881983450819 61.872784792340276 9.308243325287835
45.13814714122273 93.05833011832186 8.11473015470262
46.57865563025809 90.73002551697245 6.90948750303082
47.80986793181737 91.12176833231739 4.682353349022172
47.78024340161274 92.9064022974892 3.0158953575539202
78.45754190438122 47.927600873620186 13.429182458886752
36.575871123948886 90.98660743792604 15.871544291072642
36.91348405414556 89.06942742353316 16.7875633467273
35.681695916002745 87.80063917981832 19.06379516571033
34.23450047123552 88.53243660150808 20.8360769771879
25.039908352165526 74.76160614988042 0.6298788862823915
27.076860531049014 76.22600389548035 1.0607996231162393
29.351586659882017 75.66204146960372 2.13525019039754
30.340268614540992 73.95641024404465 3.410837480104468
0.25242759512174623 62.04880830004082 7.8057194630289235
44.85373513655364 65.38251248231778 25.052242295465227
66.96845704098153 61.67401311519178 7.856814083225429
68.87731078076176 62.69028415965467 8.905753173488833
70.19435012153748 64.99101355375852 8.284807822026108
70.17126679814218 66.05112888718337 5.916837141860614
26.03598297523848 64.2779545361788 12.040078801237438
27.914795147008736 63.76384764370921 10.930043435886208
28.40972055635981 64.8021094335827 8.326229982610013
26.96006473960021 65.47449356705528 6.61632171533372
56.54321771116274 34.3069623003959 9.008496555001322
55.33166407412542 36.4902694333488 8.67665561745141
78.38607132809412 50.698992337749154 8.220981825793247
79.83742971394683 48.93399691848265 8.239494429740517
81.02515449165372 47.99551734221574 6.079845962323171
36.372300592298885 62.365229986720585 7.339933845820768
34.56085898628396 61.810068681282175 8.331559376118179
33.47656126207563 59.652030272568716 9.392602103546025
34.14018400063079 57.16214434663422 9.348165212467709
4.807716354318117 76.01120538867565 21.659527310017914
4.414582392790326 74.1076524704576 22.709707906823546
6.495371739693645 72.21765075784299 23.499166624014762
8.364503644081763 72.67954471298441 22.924822098114852
6.110564795843529 17.197175067803247 7.155617507824173
5.8283964211282875 19.491793816715223 6.6283656718173685
4.833719799950135 21.537195983802594 8.371182168316354
38.86671035604199 68.78360654406221 26.71808402577263
38.40585973565177 71.45583881416451 26.98762111403941
36.08632637213666 72.52921199294005 26.732336225945005
29.902596919462496 31.58426252063237 10.893141682059806
27.472830522449208 32.13546003244376 10.817015708941092
62.76576836286616 55.13879038128465 19.240707397994903
62.37024558459582 54.18181013790477 16.870619272607914
50.866050077217736 71.81613474952674 10.346926958982747
52.93119984777431 73.54177095142914 10.851371264601172
53.989867829917806 75.07243649981365 9.427082603731796
53.23731512533649 75.80034537425466 6.778564402194941
7.687303262251785 25.711249676106632 5.953196382352523
6.786876584659683 23.619433141527264 6.921205340499849
7.9626935755960675 21.58966084857114 8.04186661440911
10.617643506111579 21.02621699470472 7.728426874405895
35.55678592929829 95.13973174984858 29.83747468341522
46.798605949062434 68.05723980453708 24.21137073457933
47.1480837043779 69.91676947043831 22.995506610105352
48.48253359435976 72.07834219188209 23.5835613331249
5.92652738011303 18.969894979013628 2.1914109330464786
6.203189959079376 18.753762139855468 4.036250092260922
8.222708310616012 16.918738630710354 5.031972743388561
8.733504765698111 14.891959707864507 4.115913842827467
53.25165101244412 62.1935530080924 21.119903645585563
54.245218999701954 64.7551289242052 21.5958581032733
52.713148520381296 66.47541303749351 22.948710127513557
50.498349746845136 67.00183357556963 23.385084217070492
3.188746877954174 70.20312726458796 22.632322443441506
3.0425418418965755 72.33053079398469 21.139506032900467
5.401321793981013 72.73745729142354 19.58062490176223
7.074233778012041 71.32636588796686 19.691979372554943
0.7927706192803807 95.53334660415462 15.932507540746693
54.57798297050068 75.74327077112756 17.49822730130023
54.10384353205949 73.54154566075738 17.92910739665553
54.810926963134364 71.59253491753947 19.476229875129967
56.99966095433045 71.41589646071843 21.085085992490523
86.28632253020879 92.6266766872535 26.55805304830798
85.2187654253384 94.69179169768337 26.70940567660748
83.30784755552718 95.73671260607271 24.983533976465267
84.45347298504417 95.71153240959144 23.07550675033647
85.73681238390616 94.14291096171283 29.258974007061752
85.1355644002323 95.76811016777164 30.480580515011358
81.90600777512607 95.23205156098054 27.51038481688033
87.37294220594127 95.77858795045981 22.68863911408703
66.74774686972744 84.44338330778547 17.682182886562817
67.39899289156911 86.79515988396788 16.822492714131318
65.998610456539 88.85584251548109 16.53116816975945
63.502749843762565 89.29669462096163 16.90851617705569
71.83271427259727 80.8366139211429 15.02335774843263
73.99234365810379 81.79049598884924 15.014052297934102
75.93715816019198 81.52167613730649 13.653392079378804
76.54114742590059 80.10657975873046 11.584270234762466
71.67619062789753 69.28178714041871 1.1360681792453418
73.50248046243766 70.00974875320699 2.3604711431299354
63.739626124740504 94.84243498127742 21.473282179280368
61.348064829978725 94.94389431293982 22.567703415251902
63.03036968962426 95.26588060566665 18.387608967350356
61.08107414975306 93.91636849662923 18.723838096044528
84.7522436729626 86.43768568190175 2.79364551064249
86.01077138373785 85.03119388103472 4.275088567434677
72.42693038992965 89.45137785369606 14.708708460032113
70.46175203600811 88.74059660175803 15.711887493635972
68.59103022961514 89.88485166503972 15.942167896457288
66.48640267818831 89.97385338685594 14.334828244136391
83.69537157388532 62.94386093913194 20.582431779360547
79.93933022242508 66.95020772472279 22.408920867278674
70.73298821555953 85.26221702913259 21.447578192570234
68.61012525813305 86.12269909482706 19.75948073665643
66.9147461719014 87.63204264571534 20.302997988894486
65.94840408311201 88.32977514324388 22.567943785693444
75.19579003118066 83.2419314438003 10.444482819400031
77.50888983201445 82.49736420644709 10.769393378993154
79.54725645724783 82.35767639146393 9.21994157606333
79.7265797019284 82.56412624634068 6.497598356881838
87.07082395130845 75.73426279687678 9.05496225555836
75.0883360433088 68.59873618470778 0.8144229926157278
58.871499139767074 95.56149783557112 21.747574744656042
80.14597808675988 85.96969505504211 8.482037005082221
81.56864130128234 84.45118780249395 6.810507383416908
82.61154097427685 84.96219675573353 4.66030431230209
82.39479383842944 87.49479892074862 3.1858519004839
84.60987290369914 64.71436306289098 18.299520113599872
87.1863341798128 64.36950308165389 17.544602198586173
86.7170586241954 80.48050716501626 5.294892841188197
86.14533497462845 84.7979381288812 7.764444481712375
85.51532564960597 86.79784041488482 6.371077269201442
86.57582354465342 88.56427371695456 5.266466313095521
79.04256681984329 84.38905914791185 16.043981506028256
78.32810217175583 84.19524553918139 13.556379157842628
79.23757483915622 85.03330448083337 11.518078771806392
81.80623498350171 85.65886326613622 11.019932500278692
75.60017043192377 84.31426365252445 12.825096413801559
74.61241916968991 84.45477349031087 15.207070371946966
73.7869256471943 86.16244061192097 16.710067149969536
74.31520173997488 88.88429001553149 16.72801425386164
72.23605300158698 78.61822339949123 16.945579361107285
73.8076018121959 80.22416785788153 17.109249081173655
75.25027187589723 80.3718492863347 19.471359364459474
74.91306115570949 78.2584971703227 21.19346110743814
87.06004040279537 92.60039324750261 23.008319919589812
86.00971014037212 90.89916326055139 0.3054307290666316
86.35750267834399 89.3918707226588 2.4520043049518216
82.63831179389886 92.66162185910692 1.9918379238472992
81.55469367745334 91.22488748862014 2.7893646201561366
72.86999318330491 87.00351350143735 20.635461427800028
71.02604084746805 87.53442213864955 19.478550573408647
70.09312301486847 89.57484378179943 18.47782076295135
71.0983848535329 91.9565341850414 18.03523344937395
65.95472564952915 95.71567481441552 18.38972354143105
65.15394131717687 93.4200535702075 17.671228585253466
65.70274707765117 90.9744737359427 18.559279907697803
67.86838795511478 90.02742461754615 19.81499104095073
83.6402179742184 88.79446656082727 7.824765870540129
83.89045458088485 88.97994944840131 5.112047872371516
84.02691090955042 91.00751408816426 3.7210524612442355
84.93744364461126 93.44736744522825 4.272663142652853
76.26400729001811 70.90126849696985 24.060329811841626
84.07274022284612 67.59200527731954 21.914918574506686
85.55081958893189 66.54517700283887 20.19042551694708
87.33068632220471 67.52501377481474 18.58972971595418
85.9058677846574 80.15394540063224 7.798458242691814
84.85001800690944 82.24927247551794 7.044589574558668
83.56056362010283 84.0371198797865 8.912837626190838
82.11805647339636 83.15985405795723 10.794290520213671
82.32169442765117 49.686238723683694 10.022330052854622
74.42232866690519 65.7393765088393 1.075612246952174
73.35031118594762 66.99648005785936 1.6608111202244988
78.5174853700333 79.48249587844795 16.035281113146688
78.45322081851366 81.74589612081182 14.46233919605407
79.38733410487943 82.07373785086381 12.502110028983646
80.90611320676636 80.67804276561886 10.901734129079614
77.84610033542238 58.45841827451168 6.123481393976166
79.44563400965646 59.65525248836288 4.9490363795782955
85.7543319303887 80.2491821533669 2.0693295538066505
84.94419856945437 82.05306374596903 4.039170907023252
83.06224373961338 82.32680167744509 4.9706365283487175
81.47761409012631 80.66033557518608 5.36519854247817
84.44964984382611 94.74979978564164 1.5463567493156913
72.2205248010979 67.01283452811641 7.92038852651746
73.29906907727283 65.99240939163413 5.842321389507912
74.9106442709505 67.14356384859641 4.284145102028541
75.75914162207425 69.74220515626449 4.293231875533166
77.07562134683897 61.42503061755094 9.39451024107723
85.90524087263871 69.29390550941044 15.576193392835087
73.36656705329872 95.63046760146896 32.98087811525707
73.61285512848059 94.84838296214521 35.28956835815421
87.5628584049172 90.26561056873477 27.89681956009321
57.422706820085985 90.3485861416135 27.57839412707899
84.80238209987134 47.93968975946584 9.641806600158302
83.70993270025433 47.95446330540398 7.10649508139103
84.52169859905507 48.83143046569679 5.084426010993289
86.58741566698929 50.13270512892983 4.351935324365422
71.18492651382216 92.79273790934047 15.38276007803209
68.8471829364475 92.5420739303842 16.245405377289686
66.54473838556598 93.46599037377928 15.367647828416507
66.09893332353046 95.7060978202546 13.989400724237944
68.29419012409893 74.79691482748193 25.97371412085491
69.9187065500799 74.06578387280497 24.477792655041178
70.94888114447421 75.7256270761131 22.38023413110151
70.06051935165824 77.4733502502415 21.378943926577723
69.49571142882165 74.94976001033665 17.545699038458913
71.06329648917118 76.25377714576074 19.060334311776366
73.02086877972236 75.39011279442228 20.461072372639737
72.87037808651179 72.81814169474059 21.33263758252953
58.707170193635875 94.15727640178645 25.031102402167438
56.250554092235035 93.86515806603353 25.47280037796029
55.516466653712015 92.29744723460682 29.405060352660758
74.06553625853128 84.3122553572354 22.874613699813956
74.07055210893978 82.45368170368218 21.021253027803102
72.48785530534437 80.1697812782077 21.2241171360657
71.47903812766035 79.08235359143937 23.058524600601825
58.2363776019648 90.68913701128695 24.606590960164414
57.75629133445075 93.06469620128036 22.749888505698888
74.98475111408881 73.06780015434238 23.019234016719803
72.99641822815296 74.46174216544989 24.1384218044215
72.72570275200931 77.10223695139084 24.549721767582177
74.19043787489467 78.39560542647186 23.79492663391806
64.09333559085266 88.71878060593662 20.42027412109891
63.244205029121986 91.14816825779405 19.791205779351447
61.745065859579604 92.67257873085794 20.98018757606209
60.551451921899336 92.42767858024047 23.421018622912296
77.69912325367692 61.015915191345044 6.752808241344061
75.59276556292703 62.437709472227176 6.334398273174419
75.07580438875006 63.93475689842852 4.222278205804095
76.87910117549458 64.94632635459128 2.6668418791605784
68.05669690251356 76.68803487512686 28.240743986354882
70.04243435297022 76.85185182066378 27.063906502888987
73.1805170603029 73.403809321101 26.579076789196126
77.35902775143464 81.47755644101218 18.072421778959036
75.51151437392004 83.34542642426202 17.391154910218223
74.718579331386 85.27331760304017 19.02913784654831
75.25773589424426 86.01135228466764 20.951105365740023
76.74956511158962 63.94791939366278 9.593658993562396
75.37936040992965 64.7143786741502 7.883987216245676
72.46827364696085 82.09706469873784 18.845250198078624
72.34221184859912 84.35578556387918 18.898880880181082
71.0320205360434 86.2503378059474 17.23050948747734
69.65466882520305 86.0371195325289 15.506617158555065
78.9088115839165 53.27927196962289 8.33733579501959
77.65310416582088 64.51955976827246 22.1319756456272
83.75880449028269 45.42438381827867 10.045112393662862
46.67251928786884 24.718440795404256 0.4731993133332874
44.347871381961234 24.61486828636324 0.8650936954075282
75.3372506180654 20.64576564578342 0.5480843685968132
68.17919184145369 37.61418865764533 1.4134674944747652
59.95265479080789 33.06532964701096 4.840887306043399
48.569904618856434 17.42122755799673 1.6551610084580521
46.870010838463614 15.626136668191139 2.561991703745029
61.03650624693186 31.029556500457357 6.499569715745933
59.14667368341333 30.842528777718837 8.296914175377504
65.5605679755476 37.372824989952996 0.17218969405587134
63.73800978420326 36.03906072366967 0.8587525981662437
69.88640615979142 35.2588331236628 0.431218843305053
41.40952577741128 20.66313938925074 0.5217565664251276
78.79699269521815 22.088349133023105 1.959011877482126
77.46920453430337 22.39965910818649 0.042527218741176945
76.05398392886896 26.70807206596852 0.16978513695108643
48.84303462290068 20.005962532970905 3.707040092079471
47.368681596482226 19.731735970401953 1.6218879536223545
45.30045013942469 20.22162356846882 1.1528969424350022
43.55950920381464 22.10511296057237 1.8790686827326628
22.252687907887342 6.0621820228889405 0.06749563395927631
17.639770041399284 8.058118703168331 1.8372923986951195
18.66094937871394 9.637775334904964 0.5484503176039102
21.378470644823064 9.339357304194928 0.888293686712154
79.9130919400352 19.52616180795971 1.0817649620385428
51.045567153561 17.501262957001707 2.120899891240023
51.97456920036575 18.528563930665083 0.14532815803702884
73.09433919803683 24.26721355809688 3.9334462100514167
71.10324872519084 23.84355990019359 2.4965032085674075
56.6283966872094 29.450998701641964 6.4895594522236415
59.28584032016711 28.778168134896028 6.368679968918044
72.0129992655638 25.35531597893473 0.2888040755001988
72.09926311842464 21.511325180686526 1.6828950669954665
69.28854986224944 20.569477388594798 1.5534171817767333
87.49451192982463 40.66761611683141 0.8056523590566058
85.41118346335944 48.91264032068218 1.619226433745624
87.06894190594682 46.97456898202181 1.6362005989606818
86.97947185490848 44.6993400201924 2.904761012700696
85.15530404023772 43.25231080912473 3.7792041366569564
84.30523688332401 43.635925416748336 11.798706199474788
84.43687633215346 45.240101020785964 7.318434013156296
86.06502914155224 43.44520366023726 6.295461287607559
0.26009902212576413 87.57058305753424 80.30283887286926
14.481261730547324 90.03199906888682 90.32044399917352
14.952049398227583 88.29738909274528 91.7869229928845
15.777782014547322 85.7860692393692 91.53589836560849
14.914318809191895 90.61949769266718 94.65558757100385
3.3786008752906516 94.16060906718798 94.29896803260937
13.29239055876816 94.64226432297804 93.33504847329667
14.501887626444013 93.4442600544998 91.35907275482973
16.045504763213327 94.387684363272 89.35991712073053
17.473321939921505 85.25514503108293 93.46959468579526
14.166313554629527 84.95300351588371 93.51265585740636
14.079061427195324 87.42865968417203 94.10312502639445
12.520914385936251 89.2041579046397 94.11633215112866
9.907617705456502 89.08779877882611 93.42399282163862
2.577548789618747 84.85976410175307 80.35794976366596
0.4865536016302178 84.84807867251983 80.73774046543039
11.082934097044026 95.77143979106873 88.36305320910003
19.869063990438704 88.1283653457213 92.78759649131977
17.584039582879832 89.08837162794045 92.05774608867623
16.4278152098075 91.10356800184744 92.46290606401445
16.593952279379792 93.24311991774793 93.34064818941005
7.478583585503607 92.37324441615783 67.05495873741894
12.00312075871794 89.53466141603685 91.09407590126756
12.096410931627917 91.26939743629194 92.37010212981386
10.933740937392201 93.80279512955465 92.15114535510916
9.59551765299435 94.80152957566547 90.60725192768831
1.5121544219190288 86.1871530040802 78.28461680526611
2.184868748262725 84.62456349336055 75.89201503332495
3.152006845411187 87.58100625927644 72.73070837651831
