52.577575410411775 1.1422153166245284 55.33128460229633
78.42342494893418 43.75693248679334 29.947874621562924
77.1267725599475 26.94426386423617 42.15694800225221
75.97599104726027 27.825237056116343 40.24863494872548
73.31992210194699 26.79671214603818 39.6080927872247
71.63581012015148 26.464245204152018 41.00110392333284
25.987985043366667 23.355527320830156 60.41027560710478
24.344438638526213 21.383218088486203 60.46370980121012
21.893904684049662 21.287622466605946 59.6801808993674
20.616822089515082 23.080716819449254 58.63452537726968
75.26873869999612 46.85211319394213 48.04484169407232
76.8063285225313 45.43716838052574 49.12822394969274
85.26018322401367 37.56945938607738 53.184172677044636
84.90632204709334 39.286271666803934 54.85818020115723
85.38805271100125 41.92387419928202 55.00128664704653
77.45892354031096 28.618331354209957 17.442993717810875
79.01167395248112 28.558082000454306 15.817894988206502
79.86298670108373 29.88239204290881 13.747241745863946
79.28412669034117 32.07024477209748 12.982874254076833
79.48091422409976 18.749915393683253 46.21153300552231
79.76803029429189 20.397590653210337 44.48541193202756
78.3400476769051 22.47737003276526 43.73188153856046
27.19813332272112 2.002543380154504 53.551414689959984
29.793560245570326 15.016519225776435 66.36115629852019
27.291825504604255 14.37520536876119 65.1295993590534
25.6828140028258 15.867498395466573 64.51478200884402
7.8651763965487405 13.473929193422041 46.37721394639526
8.90216458210095 12.455165735775028 44.21588327632778
10.231912438400059 13.21162913334006 42.520200097929916
12.260953832642057 14.622332555025817 42.46802198418292
32.70608656269751 6.80928950278318 43.24558448000516
28.817977457255434 8.598229894685709 43.07122438471915
27.586804991973203 6.95110404735136 43.52486276261525
77.24807166447485 23.28248519372399 25.322187407279607
76.73124362197134 25.10342604537093 17.633836444226336
24.042649838070012 16.541527716019157 58.88320269385441
24.15820481141243 19.133234288491177 58.740245775079806
22.858414774260535 20.897763888433115 57.239781344678335
20.829164761545048 20.626458934387358 57.04807542049843
64.392607134348 37.816390823625895 32.61336704191005
65.03613016099291 36.03662748337486 34.62492731706385
81.12369139459396 35.815874324756315 56.230412066348876
81.04383870656936 33.699084116996254 57.34655199754547
17.375551609780942 17.031570657951782 37.73363472643084
31.654155158821396 20.132048398620274 58.41496176424571
29.70409772617553 21.3236655068033 58.73190444128676
27.048838251944115 20.847489966605245 58.22122649296631
26.471708923976216 18.500749404164115 57.65698048166636
59.88268663164329 23.950197091998557 39.820960998311534
80.49151949250398 27.932310405841804 20.494202870183564
81.03425501950923 28.426163033355984 17.957510981350723
82.28675279116514 29.922400756245796 16.92032403883434
82.60523325744943 32.51718813959794 17.153378267260063
79.6479067049175 44.75592996290808 48.24755751439587
81.22411095815083 45.425818124897205 49.5206983087049
83.07207377811442 44.16630875351552 51.10562930129823
83.10913982072397 42.00244761536424 51.79178783006991
5.058628147037999 11.405794008423259 48.01831248077723
81.62146851292849 43.199573660976135 30.266963660603185
4.164747453668392 12.163867198634932 43.55815012274242
80.77906421196809 27.382316944622747 39.632123549843094
78.94709286360194 27.40101269821798 40.19609007534389
78.61774999235195 29.5022479299916 38.41146226121162
78.19146511692752 31.878114262957922 38.823050696394496
19.224049823825027 3.6147739867003907 71.31903964792524
24.042582288276215 6.779603433456539 70.0103649907557
80.70779510660518 20.333404396618725 42.03991963542503
82.49693946198963 21.82738961193991 42.4280342515122
84.89314570499181 21.83376881005133 42.55220110598176
84.83631421157737 45.11939520477499 49.68825278635286
83.8461648394863 46.855151822750095 49.768424563643414
6.64546905832709 15.929815760831364 63.180868592121115
8.426893640434415 17.65564647487405 62.68067115747544
18.988422662860415 22.44525094660169 60.94878380942133
17.054765934374423 21.722304585467477 59.98045950813781
45.55781299311381 9.719041320089772 67.66013108516448
44.820707808174504 11.274167620385578 66.37326877354236
42.13686375501183 11.342864291033926 66.23679054785022
40.52766743230141 9.634359881015873 66.19746896478978
40.12999386815828 11.70405409941664 63.780004934520306
38.549533357914214 12.822121960855213 65.56542045335992
36.325841154198145 12.779077493971666 66.07174316584941
34.22270204092309 11.781106058703882 65.26951058976756
82.37958474366465 38.87170768916388 56.501836830446585
68.12103961417473 28.813575189922286 38.350485032299375
70.24004806499684 29.872918108953034 39.81392360203108
72.72353379249164 29.364394948956114 38.36912832506345
73.35945765737993 29.592130235887666 36.21292661670814
22.021997702296122 4.221248394311744 55.52507967381978
20.20998469453149 2.8582624879667997 54.38553286212989
18.338418581632205 1.3102418737718549 55.137926390755915
17.36295984232896 0.9645830681738079 57.449723364107236
13.897455336665342 14.605758431634202 38.101700460897014
80.69412198019756 27.854509992445802 34.74097460340516
81.58705262645238 27.94484033472764 37.137789328023615
84.05137812956652 29.153718495645084 38.08593288865794
80.58588984798295 25.245615242900595 20.131831444770945
79.90181518534408 24.840092416358868 22.705774625881265
16.313818778381613 21.633278046822976 62.525861124815236
12.530616670104763 18.796981737295546 59.398421357887834
67.03057706434736 38.128884414692415 34.136445739001516
82.14536436341032 46.901146416950226 53.67013598255873
83.89998160035137 47.86166278492465 52.7354438649433
67.63612139244339 35.70875848146865 33.25756544887312
69.05947930002091 36.975726362953104 32.01048921379205
67.95619074831612 38.45286809199238 30.18179541015014
65.8848289267951 37.79311608003461 28.939633754658466
10.053964151218505 10.146343496595494 39.44648728559419
10.452323881710162 12.496262873993555 39.25686172852717
11.49761834660021 13.855739503125907 37.744528803194804
81.39029698293847 36.303856800247104 53.55066821578178
82.38681266351148 38.61264020674361 53.428350101116415
81.24121706892956 41.00360218525387 53.50250370348549
79.06764900805175 41.685596067917245 53.1770290245612
6.9776993551465285 2.215312387739866 26.0258050959635
7.05160602082269 0.1881972821255341 26.657431644324557
82.48783334222443 31.772886364589116 12.880623752000004
81.36112975952526 33.17277532524728 14.632679028754755
31.44392796754534 5.497075487583601 54.51708805023569
29.415550296052363 3.5411830337243693 55.13898582466487
29.376337779988717 2.3023030033771086 57.23174698220299
30.19348092500581 2.633042182642089 59.571818896548564
29.79627281334072 3.3350618007767228 50.48323604441456
30.53096709849387 4.159489577677097 48.57043622246555
29.428531334007037 5.181387641152896 46.23039377378328
27.183808287183897 5.985466212304632 45.831756428226626
62.282894448791744 21.826789331490623 40.87730587075535
61.50873968718408 23.759641464531313 42.32167932692383
61.979682667501564 24.4952908692856 44.695756057839425
63.996495209969346 23.884415623239175 46.14083329837148
23.026997232498267 22.23846613065909 54.48341161407525
24.793500765246655 22.53763025582441 56.12082384053777
25.962367082431097 24.516704177076168 57.17192379342708
79.61989457422925 29.02780321109062 10.97186753024841
80.87540250350153 31.356593080407702 10.762989557823834
81.02300242198746 33.14559348602505 9.492791110687154
80.65968182852197 33.73305433422295 7.07798832148988
84.8426476960546 23.31865007110683 44.67868878997391
82.1987034497162 22.53027728280845 44.85426127541483
80.7959895541509 23.65081202089839 44.228156524575816
28.277455610601802 14.331619683946283 42.72068667784813
13.764154095577787 4.960382023813764 50.35500697306114
14.321824214756377 3.1476074152816094 51.62407211237789
16.82605103184353 1.666814912456575 51.3079946128508
19.203581041011475 2.6530959827030913 50.687066802128136
8.827161815586248 5.373629771488703 46.183279260794485
10.692855937829181 6.525289191124776 47.6990221414262
13.315553124458756 5.898073155883695 47.73588829167667
14.484655164388638 3.735498119525555 47.23130130516333
47.73058979217292 1.231058611257491 54.99674674077078
14.63631878515047 0.9104490067098767 72.70058653199608
13.589541495138837 19.083091943766 56.81951160101287
16.00581446581282 20.50207538264831 57.02241635186326
18.262328322692255 19.792461604372203 58.32800757080776
19.05643606209716 17.57919502229423 58.93552149923496
82.70708344552074 36.404754902113176 33.08128103569391
83.92442557772543 38.67716565394672 33.4171744728237
6.654541185673823 7.836366471901023 46.97153862005315
82.72400209930323 41.035940597846164 29.40600921739333
29.75544529242783 0.3837630302797589 50.85426631137558
74.74912068423556 31.982519976336032 36.32428486761055
76.65655640013232 30.06436955699847 36.47630023915826
79.00477055382608 30.010413759933453 34.99161422828702
79.93018370749806 31.79954063873545 33.60869890792272
11.776927279339093 8.95195092749635 47.33119490173949
10.118975591534438 10.730754229967387 46.17769354769247
7.7195826967646415 10.792062016114722 47.37628079315634
7.619138648030139 11.675182549571893 49.15446645448097
25.196663277005364 7.957686609652338 44.25073580796006
26.590633477499374 9.86107623895105 43.79808477665609
27.01647778432541 11.496444409902171 41.760231583679484
13.7240570051209 0.7385561718999623 53.67475366509416
15.478629353326777 2.2503892656715454 53.926970035081354
51.06441222606611 19.348095169747864 64.22965500026083
68.39396383255287 17.21128832934671 51.88881736175234
32.5849106419679 14.707548925564689 66.62982606458182
34.58619451902683 14.917803528709266 65.97391598729502
51.66394160071066 17.43226696860208 59.69054656918159
50.4405071371912 16.595488766475135 61.719641358464294
48.369270073856214 15.468722699028353 62.13546485937543
44.81725709688111 17.038496312750848 65.06270205507373
47.095843487486604 16.834187669716414 64.02609217853413
48.617958673726 18.755170799156016 62.96626888965195
47.54567969502751 20.676198529501193 62.02154205616208
13.862474272852774 8.46299848408342 45.645497695095294
11.601843047934125 9.170831485471831 44.3639897229628
11.330948109995479 10.795727317414345 42.14531366026873
12.764245099585615 12.36384277864574 41.05338927189174
29.972293423612467 22.72449094739526 62.37860187601571
29.280615354637796 21.018150776099226 61.234190460609575
27.12524180473299 19.30652873854383 61.14338894820632
25.02812527313505 19.478207967140726 62.495059115804295
53.97031782343876 19.698113476133997 62.56332154928262
52.047934176815396 19.18671062633461 61.61371172907589
50.038496246748906 20.68944313939021 60.858380359476016
49.68659655830239 22.946179311354392 60.79168671404059
66.24011679507743 25.19229740702998 20.018571906495662
67.00682844773436 27.099785119041876 20.484958785064382
15.04129099871675 0.3439687409828989 50.17233647928345
13.44250821466361 1.7799919016939807 48.816028147397596
31.919743627256363 1.8523833180736653 48.33831812429313
33.8299501628471 3.324451170673992 46.97307617117313
33.21479632741475 4.220465705888062 44.358454885003894
30.6662360317327 4.072538903227936 43.95129572289714
65.87819724673949 43.163849731758845 56.15841472815476
80.31429373442916 25.504251503680624 16.95987516951774
81.43987542841742 26.940449458649486 15.24401804599633
81.09945823354205 27.11569300571536 12.750122068242266
84.17481967236593 27.37446334093503 18.433099058098666
83.25798490737205 26.321873735986408 20.02800255076842
41.43040669715559 27.838283987020638 55.337590105637744
39.88631004361432 28.229540157407573 57.241249305601464
73.44673706100029 23.889721413299053 24.241899651126747
70.80782890422131 24.10508137600889 20.343451937825517
70.72160293955632 26.553599036503268 19.84315882344803
9.506420939125393 5.459065002198587 49.8011321826761
11.04625223037973 3.9237774030025605 50.11075974704282
11.84324623780793 2.3104508073020713 51.975716455530005
11.026978292835306 1.7405699121084708 54.092191844184576
44.05479720121719 14.754200267020758 64.00097297548128
43.50488721448447 14.319976683531314 66.4074527038488
45.010935549320585 2.232538513445339 51.0035915511726
47.06462129390806 0.8869518912496993 52.393089572207174
69.46116658832622 6.7152973170313075 39.38852707524002
68.37094653268151 4.538496508426628 39.29536521874891
69.4195767562838 2.1041391624622032 39.617031084544806
71.34743837115651 1.1858421529114247 40.74614809367436
68.08095543485373 10.197117414029957 53.5780726425089
77.84595112160581 11.417910951870066 7.533137916809835
79.40855736347272 10.696836708003907 5.681463006992924
82.03488971117383 9.750203515682415 6.353645418807664
83.70411773445736 10.798984556283413 7.941990453803382
70.66526482865548 2.020920287555826 43.40271118760129
72.60721132338477 0.7026347726753078 43.844515845641
80.2673526106653 13.960572982726303 52.89968752962506
78.29207922700361 14.59554892754348 53.336661189536954
75.78798930416623 13.124205900102282 53.69035731510586
75.17943783883277 11.070282034822744 54.1139900170476
78.6474672646702 12.284340479097022 3.818998025175812
76.89879361069336 11.162840975503029 3.0763664965905653
74.36349915474682 10.865816186194008 4.159072373670841
73.01402243953811 12.464439401648525 5.559587019095291
79.78729998024535 7.710701815785275 5.396833066376211
77.84343892038571 8.717401030758207 6.311452363275409
75.31708803412134 8.671722016568875 5.967047220786314
84.27837000102535 12.09769666017396 2.8710605972643966
83.57574387786022 10.103325413383072 3.9345613633379446
81.63039238184156 8.526930143331553 3.331030034423553
79.32517868204606 9.312326166909473 2.66246173915527
71.69391741260729 13.601094331037817 54.84167019624707
73.88771302060381 13.199530340090798 55.94534218875579
75.60610771736505 14.376142593596002 56.95056400116758
84.893412075894 0.3259673915804659 61.70010940387968
83.27267933967556 14.556334054517764 53.365905167435486
84.28732580099611 14.093788167155312 51.49654767610548
78.06109649756098 2.013001199044691 10.993804698068544
78.37093882852407 3.827192230289413 9.748873546113334
77.14368148056737 4.6865496967860025 7.51643748354942
75.80603951072324 3.5838754525029377 5.761030492365594
85.01373720945568 3.6973578953426802 9.82098895970873
74.92478861148862 1.5388650828728518 44.783668536615
70.98523566847943 7.055934888191473 59.003709611798406
70.99831776351185 8.309276632908242 57.115096833444866
72.48393569841217 10.328104043189795 56.27826002386082
74.75089268551524 10.89637211526597 56.81432435416425
82.64774737789901 17.157857294801897 46.72629670725472
83.06266605670835 16.45785603792609 49.17607413975608
81.92124079549025 14.995773148185243 50.64446733035534
79.99500093024216 14.402671357522845 50.13772631539661
70.75638641666373 18.655594339117318 21.94286456221638
70.0376723110309 20.73218913842165 22.153727403629226
68.60868379999853 22.358573052494524 20.504294897160072
67.65703726411685 21.936275078887704 18.574240532674153
73.91701478560617 12.010084475605161 51.821434209805695
71.8680482483238 11.899810270343158 52.811609525479
70.62078552535081 9.866480032996252 54.17721514935366
70.81035977958805 7.52121289956236 54.15465156995574
68.15381043584347 9.249132135566184 35.78668881605347
66.14448505819627 8.329145721498614 35.735116074245944
84.38575549048318 2.540705142568217 14.67188704816057
73.97958823695484 4.816475317248138 11.203722643865452
75.01038697518192 5.7914959199561835 9.043609229456568
77.03942886877077 7.283140979730757 8.510801289810534
78.45300195555551 8.763102338247588 9.994769056852359
70.30472961108343 6.417083608624612 36.88447933391207
71.97885960236118 5.082684890319847 35.67706709599262
72.95138317075522 5.271615263422237 33.37894545706522
73.08201346876764 7.339245805070051 31.821610155186164
73.49887345511608 6.509296341879885 29.08860023775391
74.65489123464486 8.564721046202676 28.01159273127469
73.3672097561787 10.610856320823894 26.781905873253823
71.3552930492476 11.052726254165613 27.506898973329214
84.92061779759824 9.251316529827537 33.916646343355666
82.93824164901008 8.842892353555236 33.350991990583616
81.59844122475694 6.393213209697218 34.2528698158986
82.27711034666768 5.061342627984373 36.15923732274082
75.10183814072526 4.978631169262045 36.80729445851303
76.09506457476404 5.001070155169591 34.60739057363176
78.17222155813592 4.163725002033901 33.66020315065837
80.34566256409718 3.868844848807347 34.418540760340086
67.55557360587977 4.779229042310177 36.79090486832967
67.47864804539728 6.269874164698934 34.96073676673522
73.35995324932092 18.63816692214959 22.298965843291345
73.82935710291663 20.70499734226644 22.23304396693806
76.18896379690686 22.11457673824364 21.446043407224117
78.13867588587146 20.840652379141748 21.075795709549638
84.23158035567363 4.354627516323937 32.7507539875569
84.19965083504975 3.6537546884010546 35.151997049238645
84.61667131796256 1.5417091485620211 36.279912640967886
76.25000069061738 7.424325086648105 33.342579182774635
77.2412719944069 8.147624485370288 30.898752279549143
76.51713156559943 10.184096229822421 29.325155484462904
74.55606533071484 11.582098238532595 29.163031372162948
76.87081160124735 13.581837722624057 22.981196408755675
76.153124698544 15.779054504652958 22.510219723797157
77.33341044971836 18.05157776478262 22.617543043776426
79.8259361840067 18.606465100445238 23.24897727783665
76.37998418963988 5.95811826321883 29.222508296193737
76.72749939386426 5.446321992035765 31.373590945868855
75.53507521939564 3.0885433851847273 32.947282191777276
74.33047488574678 1.7171541342864631 32.45385248295984
77.09200700049955 17.4568270789344 47.077206682078355
84.08379378915457 7.708671920299993 29.644368691805333
85.14770282620763 6.235691489410137 31.018484406880397
77.17251297831447 6.8168155626658935 23.800351310275293
75.98473654198226 8.684572825224116 25.451437009781962
74.85059387543552 11.114258906990415 24.774291329021903
74.63499850223434 12.27220417023431 22.88091052006179
78.40328345749326 18.57907466856277 26.029243139179613
76.27785833916484 18.795351383976147 25.12356389942241
75.92175446251612 21.339568603145846 24.554223620967218
71.315142482434 22.559195157501023 17.04374797359661
73.00695478425219 22.6160785242665 18.868113807796263
75.18463218923303 23.66650442718366 19.26414055461561
72.25583409359552 16.105490928911205 22.957097665150524
74.48125307642923 16.758520881478113 24.111482593878872
75.6256005019586 15.880206034777187 26.165649337369917
75.1989889191825 13.841354929517093 27.57975319745662
81.69996326933757 24.147795940095858 18.962019307552502
78.73089360647917 23.173849086509986 23.060911467063242
70.6359810352502 4.311213334545965 12.775643860955665
69.48113233822339 2.9509890047072016 13.514573250729189
70.06346871175147 0.3969640456010437 14.504733319733027
85.00540634256522 11.690923822654831 32.21067578015607
84.15486860328743 10.536682771088667 29.95849278742248
81.49544113684603 10.845893879136838 29.016826994692135
79.56596044028379 11.713771154540964 30.107863751519112
72.86625794146893 3.149158141865659 9.43997737192363
77.0082581532577 0.20466668039212213 65.82755670211853
75.2220749694153 1.3607390423305863 35.19127721447406
73.9065552416241 2.5680537696559886 36.846431869610186
71.49556631683664 2.7713198820216607 37.095083601535926
69.53203089774672 1.021479642137916 36.38660968732154
70.7660224846835 7.116505059947113 11.891579269893306
72.17751041460947 6.334620527496466 9.949947837271377
73.09733561821754 7.716602069400154 8.006224407331997
72.39765058670677 9.876528843182061 6.860519168626785
84.0525746913145 7.782862842458414 9.276647056205427
81.28974478338712 8.063698722507013 9.655184442589274
80.18371042834093 6.893310976586783 10.982062740222426
81.64963754962452 4.505646315585751 32.19418861094163
82.23960067220952 6.794368546911928 31.706729532159876
81.35158317042139 8.450578368710453 29.996819844077596
78.934056709583 8.183663256357182 28.76535317343168
82.89144495919928 1.5321983650644633 10.340539839593069
81.51907772104838 3.873646219085695 10.584888538813484
79.8201254718427 4.381376206491949 12.073360417539853
68.51625198590672 14.973390535345262 53.49873511295439
68.95868571324708 12.498186017910067 52.27156227971835
68.1880930883368 11.830393455757578 49.80634699182193
78.2483467583807 4.046685292531982 65.11691355845534
79.0319176034775 1.84534415691471 64.92677694937552
81.7685472720121 1.1297579093864254 64.47138282069606
82.5681517496411 2.026561122023531 62.92641677936061
70.72869622092428 12.030990405886547 56.70868470107076
69.04952022568662 10.685968109450354 56.71355361990441
73.3805517333271 21.662958892124458 26.011861618717884
72.86575076349446 19.504556354366933 25.174677593271287
70.7415276119793 18.189227163061336 24.548965620496546
68.4204747167323 20.089682161468613 24.417640579381693
66.1785291327404 21.946084066389297 23.43366224365494
65.8888951900017 22.669275030085984 21.386893848775898
73.20888666461087 14.708006451119951 51.69610861728777
75.40458322256549 14.952709418606865 51.99985299827522
77.36443810476798 15.029882242041435 50.45680986547603
77.65501105340377 14.839418824156803 47.98886926905275
78.94437671379602 23.676678279660862 16.965694567386592
78.69088621201507 9.391486548747727 26.50318392185622
77.07342320468825 11.059871527703118 26.774469948026347
76.79354460335915 12.990884269283534 25.564106352696882
78.14784399487688 15.305573197091713 25.804277045307558
80.53919961125352 4.082396432132573 8.070387264698152
81.27921822456433 6.417246321470909 7.797603016253299
83.20728418526252 7.42790698543775 6.8418558272373415
84.98635062015143 6.282841861358878 6.1885926140428085
71.96554964358428 22.712250920377105 22.32180313610612
12.262198355809563 2.38333844686463 0.3604772749592214
10.614905898966212 4.245018373419799 0.8313754853438419
9.360650774898422 0.47741939290930224 2.337003332113305
22.87178581924503 32.07742452380116 89.79267913893176
17.705886952370715 29.235718317650743 88.84119086924352
6.373258310006303 1.6519120838684191 2.4287839844828936
82.71011740827727 48.217058003680684 66.00825285181085
81.72879389288157 45.99250310206441 66.45881047272519
79.31369490544668 45.014199555291306 65.95460469259119
77.4146255280292 45.94180428942575 65.37376499560932
80.41351456144187 41.06967718899384 65.5636684874491
81.81713939298169 42.39483732271366 66.6483091647971
83.59133035371126 44.421809865206114 65.16997917170451
83.60114945757574 44.6849790443328 62.652745272040676
84.9809680066168 27.915310966194536 77.80715197197436
82.99008527720648 26.519295861315214 78.13519500517293
82.72579138358539 24.019391440351445 78.07703925886226
66.07669249106961 37.55218197385161 74.20333908980865
66.95152746084281 39.47350198128839 72.97111210900556
69.05484406720448 40.35521640233533 72.13206151867837
71.27854609560295 38.8601090347182 71.49556812231559
70.68116289366377 21.762852536360683 66.0176480508967
69.74594277739796 20.843646333921875 68.36515255502201
71.45485190368287 19.367412742456892 70.06504233193468
73.0784030398017 18.61171384189486 68.99569121957784
70.223709403622 14.68103762622858 68.52427554097629
69.69912515490202 16.46014968896439 67.31710158730368
67.97198341781811 18.60686259096727 67.64880597623622
11.927318503356867 20.862022553182 78.56905476057229
12.6569234441949 18.448100490323405 78.84268362249385
11.209910357972413 16.759623704623515 80.39469932125195
9.554909831856383 16.981080516142796 81.87519172839541
16.429984063812213 17.5976414021654 74.10310015915398
14.925548067693837 16.848607616962017 76.12053888624257
12.123579333389193 17.508013875956173 75.90831845093409
11.278979213677577 15.46370743069376 76.11242510261101
78.71561010154566 22.001764695769772 81.0050299149981
76.41530629734011 21.655457693421358 81.84927689745845
74.23067803334007 23.037762493334306 81.29713134695919
73.39499335378798 24.166595001877507 79.37509568531672
84.98532732819315 22.754601569364542 82.24768222953334
85.01261505224862 24.886450420312197 81.33387274362317
20.537271385326328 10.117526717836666 82.9481575103116
22.4179406533177 10.881816683940418 81.5727028754792
24.687250121369733 11.4779789656739 81.9674645149445
82.60949910215736 36.73625992467315 75.44222374575425
83.7119014859564 34.73718484822483 75.13464927145972
12.841416021599896 14.281361792644955 80.4459054451071
14.336960726713562 15.013195652937116 78.54834462000596
16.51392516613241 16.3010063811841 78.60946664039474
17.468845434257823 18.092241596528446 80.52213649560173
77.85704011059842 25.56946687482829 82.13376558531965
79.85103423805546 24.121911579157903 81.89962479089755
82.62766001065745 24.987428249128648 82.52116020386319
83.3715210547592 27.057543810460686 81.81264447549384
32.1322091877567 23.42368668173919 73.05014960843437
31.115086675038974 23.835236098140804 70.52847047703021
32.35839316132234 25.270403610061987 68.71140182500353
33.92444742642971 27.478455381073232 69.44357550381136
85.37475401741808 29.10092509293674 80.39560356504852
83.23963198273185 30.098151354338793 81.06255606420898
83.37260932266373 7.736832349688787 72.72384767973806
81.2326666943119 6.695823607135481 67.81323872437574
83.25767702099489 6.502817114907551 68.69001216263528
18.057718545241954 1.6097412293547393 91.67053590600884
27.14744710929715 8.723599741365744 76.73435424889045
29.439552283210194 12.603811560103729 75.14093696698623
35.779524163923746 30.79531690738787 63.746091776461654
72.72814787827079 17.5132947445069 66.43058518739134
71.22101073219666 19.124936213372028 64.89145116854277
71.25097686312807 39.619525883741716 68.01942162273114
69.96423231991645 40.85360396428157 69.67449457092818
68.37626558905521 42.7388735337248 69.30564798346066
67.55060989649353 43.79337634216487 67.5203656104649
59.683865587429004 39.802710671168995 70.5463823139983
62.30225564263362 39.06755919916849 70.0726552435066
14.789016056197736 12.500433471979493 74.78269703295494
16.440701287482504 14.70177674574015 73.95076240518515
18.16585981956079 15.485740468677449 75.4469788899062
19.458084738304226 14.556995314178424 77.68340337814557
84.1174307971883 43.988638292612286 67.95329638408822
83.18034614754136 45.184046149042906 69.60257289549801
64.62992596829258 44.74252474445114 72.68857732931467
66.32672378322586 45.2740084083602 71.138516087937
68.82399327666087 44.11139891544602 71.5539322170499
69.74097225704774 42.7988845468434 73.13129976717859
66.15359710326153 22.480972689972283 70.2730868121756
84.36651198824735 36.948939357482935 68.81344218996384
82.9584573861225 39.078819440565354 69.77491628918985
80.74443616578502 39.563623739293035 69.34242411921078
79.24291474205829 39.336331910560034 67.26459409918297
9.705311850433562 22.477648406232696 78.5552966515062
11.122105764018539 23.167610520897313 76.6278993280739
76.89331105944513 5.110443340224575 69.18098024072103
78.4996753079588 6.901320384298879 69.4758074279161
80.94412116045363 6.917502228930183 70.39977021485811
82.21390942257494 5.60440336719896 71.31757929410121
66.91928862855764 47.24805402315402 66.06343753572263
67.38669624746119 46.360969847366185 68.09917071710522
73.99768113488936 42.217188132138496 68.1758803465194
76.51226087923051 42.607614484426065 68.00363210232011
78.06052665881018 42.479685713722986 66.03989462848502
77.54736434454125 42.90128967570981 63.748195527549996
27.469578592957006 27.55432095718393 65.01590151416852
80.72187886675201 45.69036593703575 69.1312993297736
79.74406682317367 43.492529847774314 68.25599911301369
78.73084906417299 41.35306313545435 69.73782157578076
78.0455286045091 41.17005514389516 71.79287609937472
84.53203351259617 40.81809346769189 67.9193070535802
66.13961929707334 21.57559821940752 63.7470760969925
66.59790118328893 21.34241398057789 67.74248557062792
67.9330418222728 23.26268981903771 68.38927859706305
73.94920104145302 39.55905761049129 68.49208524706438
76.67882917604145 39.58671551719542 68.33454292278977
77.7071358664364 38.3789788392397 70.67219903133862
76.12417327224875 37.0652563898872 72.43428537664667
68.7342124679542 22.59707803990231 64.15143610608025
85.30348173076197 8.804587931964292 69.51077412441192
83.32982875403711 10.292585426605948 68.77218699379794
25.359540013161357 7.6377159274285775 82.96648466964778
26.29990665546645 9.910202927705617 78.9486721362662
24.01967066079481 10.82763930914128 79.17556188888845
82.07040930348572 31.285644310524656 73.58435022945909
83.72472176936478 31.570463575930283 75.31996652766772
83.71257368706107 30.412359072048492 77.97619960374136
82.01863328603726 28.839487765981943 78.86749715874308
68.44129181466614 17.905413392815575 65.03416175438525
9.692444493627136 21.535025659659684 75.00766346877867
7.009866379431704 21.207532657960954 78.27323209720416
63.663997292461424 42.766003543350955 67.384168174833
65.71931492644818 42.78393434741894 69.40282872403053
66.0097963785443 40.877381289306236 70.92269100257555
65.07654347179195 38.8193877851689 70.80026614103035
84.60046338861763 38.73897233217705 74.39531538254673
83.0565806284882 38.787962963236026 73.09880166547657
81.82852283706951 40.56446966880697 71.79436805585561
82.70901136483029 42.94959316821597 71.1227444749074
32.55129296592128 21.233636449605527 71.32893244120802
61.093697148630625 44.307729624973554 65.88754899195236
71.50670765838012 43.51278825271993 71.18533066305376
72.49109690440206 41.56501937354596 70.29387232506714
73.90712441996662 39.81555045084101 71.33152808038574
75.55076451935689 39.92118233841871 73.18381297166263
28.426131945907862 28.70202753896924 68.12920512179545
30.074803591938657 26.843348769431742 67.99529665338638
29.675627745197332 24.368385500553412 68.42579157187834
27.521145662930078 23.247500173616 69.01652077933176
29.595630725531073 25.508780200133568 64.98591682127261
30.444644156421653 27.662845149353117 65.21823013005675
32.83693661742859 28.29465377036431 66.09891666785417
34.61213708175412 26.7896110231383 66.83695732218145
76.46216323397222 12.858545838124401 71.11265581933908
74.68878742317592 13.515343392173687 69.24366248230595
73.19430083746155 14.851384827639844 68.84434899249378
71.69536886946224 16.427109941587197 70.1118998539598
72.37317224561764 6.628219590288076 68.0019532137453
21.870333689100363 1.3049262741202805 85.8008887188262
21.36441242544184 1.055791378457815 88.02681417778919
19.25415855317906 1.090673127952649 89.27236874650691
81.96835132688136 17.73856552949631 82.9017288839907
80.39841611098907 19.27923116366047 83.3118183689671
81.04398102152798 21.578075033929654 81.9396291767204
82.59380741955785 21.983494369777 80.04610327152223
19.53792574378778 13.020841606171786 81.17874006092059
21.697984767184632 13.54728521066974 80.618908528439
22.848104389994003 15.812340544928947 79.44856607196618
20.904751792354013 17.499865532607537 78.58263925208095
16.980440466782227 19.03783617064737 77.92768838126555
14.837272410210444 18.863345656130356 77.79823127017369
13.286865611084583 20.2250374439825 76.30724966044649
13.542856978540255 22.563985097043346 75.27640346916814
24.79992038550128 16.5577624527119 71.99603007211206
26.36476885658712 15.615670822881954 73.95274785164663
28.830668182916938 15.29720069524211 74.12314479513232
29.63635708815514 17.415254531490618 73.51054453959554
17.658848002940456 19.68395969489509 74.94157045116056
18.969716041924578 18.143012171372323 76.51507918495011
20.956175341674722 16.33193491830695 75.37718629408776
22.75672135726962 17.099742901067604 73.98870900283306
75.00196171063067 6.880389959422443 66.60086753382217
13.82525013823625 12.694876051223302 77.53244619677186
11.61917839203727 13.910029166672148 78.18326170941346
26.69385438322902 20.122167096858796 76.22152853598494
25.642537086944927 17.98303185376173 75.65982802439643
25.838869302246643 15.74764868415995 77.19305611522813
25.55129189739583 15.557730928638605 79.69555011577454
82.73839691312658 36.029855285331564 70.81629114486974
84.47446317821202 35.455722498522405 72.57073343054626
84.79777274224533 30.77063502278232 72.51612758793611
28.603407468228088 23.310732572465756 71.46370973418982
29.031696367663404 21.374340485253537 72.50801791212476
27.38749918001189 19.710158779703814 73.249590894304
24.872861717174857 19.45487891190193 72.90284447217061
31.368748861654577 30.01885122599161 64.27808549662532
33.63115294328807 29.150803833498962 63.52823032156118
84.22542588304732 4.120750561533006 70.02741599610121
31.267307297760993 28.642694817183322 69.79959074187072
32.32394052715607 30.02284736530408 67.84356901136199
29.86382142832197 22.598806675796283 66.45471318269945
31.161082735040484 21.58231318203528 68.67613720219435
30.463021661324035 20.234159404183444 70.23245962223598
28.238589663409517 18.57404158019375 70.56719834175999
83.16059804869823 10.536532716164277 72.6707339385069
81.85129474576091 9.760141064520084 70.92822804343595
78.94951841737321 9.480331947337197 70.6882437080965
77.49916136217642 10.413652715953186 71.7149336867493
80.81852939500946 33.98558100203206 74.1470976031612
79.69242893397546 34.600626499375686 72.25691904329308
79.77666964283053 37.03165842554584 71.23349900659909
79.68473805116179 39.25337464011085 72.69280267256713
66.07983514480297 41.6035456317938 74.17958009346216
64.26984806650206 42.144801782051985 72.5394749742764
62.106026734149225 40.85413821662419 72.23363633719369
60.978461829413966 39.14910382765121 72.96780531823063
63.58604731391634 45.33289213730859 69.65553373595178
61.88905054713518 44.34966937491758 68.78551803976394
60.26370136418091 42.91102245681313 69.86397357649446
59.511039063571495 42.86906439852403 72.15039480394229
22.054638447184292 14.23154962953236 76.77790810011595
23.138260378189397 12.989729762322082 77.97396350869653
25.889790665088082 12.10058537929076 77.18090739092463
26.7299859420873 13.070010852053441 75.19460845980812
72.64267560547862 11.67327073138513 68.38885238650778
74.71914972597808 10.404026566028081 68.09468337492468
75.52982889929035 8.038777524600764 68.96239632414672
74.68618046584935 6.606573828626013 69.93757318123338
75.41165083278815 28.165610080993616 81.69029093311933
73.87068925726712 26.426832893676483 80.89065979669118
71.65330665782508 26.263195327230864 79.63907343961115
70.15624207289451 27.77015849315839 78.80511265421643
82.21921204790075 22.56762139822135 83.98134250376155
84.14006216175345 21.942294718584872 84.87533305794605
85.02426869441528 19.447708565000305 85.23761840727532
84.78953573466033 19.543073376442653 83.02199576610816
81.43271696621683 9.353107967471608 66.97182227456193
78.92472194352851 9.09670766527294 67.50781639512607
77.42065081556694 11.033289823720443 68.78867358526502
77.19878010010895 13.194850611013582 68.16660146579189
84.0297106164393 47.06751490774667 63.716727833800284
9.686825269988494 17.41871886214029 77.47742071219207
8.490208313794776 19.41732773620727 76.94871339179653
71.52271447219772 14.98162880297622 65.69097564622625
73.65382714398984 14.834232028091048 66.02806435214264
75.72606636609635 13.306219179549979 65.79645637713382
75.78428353086144 10.836303528527838 65.5175799740693
53.98172396020578 36.13509254642329 48.144205589379816
54.26479785555593 35.80434249349416 50.523713490194076
57.054509014534034 19.88806007372629 29.797750374143085
54.55289352459687 19.597253402106315 28.630046524601493
36.9480904156219 28.354237203936677 52.2079215639588
38.04459925224424 26.487628194768565 51.02394351645982
26.426969647765674 4.721528714539882 26.119494647408512
26.25799576955395 2.302659759343392 26.458766289627057
28.165068020233175 1.1341786613933522 28.22338591702281
29.44981701002487 1.6185303777289024 29.895450613111436
12.989214836177934 2.6701793660665043 2.9900262948580507
13.106404706327028 0.060107375112818585 3.508519417359843
47.94359109509988 1.6302505297003502 23.50812609615024
57.12509901612646 38.61895959189298 78.0442597393361
54.49237068560431 39.00430277644621 78.37600915149056
52.87778659603416 40.32731302118025 76.59820787269148
52.94230216515419 40.552251289762786 74.11158489671519
50.36792942086286 43.068745574705915 82.371688281748
52.01067589656133 43.41091565044036 80.34486089140748
40.088019806313945 8.062411032840714 45.51274355332116
38.61544172746671 6.086335651727505 45.254097468925295
39.3368795636948 28.53343677323143 49.5034223956413
58.70272419860844 6.864878747155866 20.529720773889366
56.747283416490674 5.284265208949834 20.41898313344406
54.43851004936249 5.246610319183802 20.977937868604567
52.71624344314223 7.052831377077171 21.938630514345483
45.022102780091664 25.527414553457977 31.48560549564834
44.128808957566676 23.297455761170923 31.384637232822296
43.86934998067522 21.444103542235784 33.08310912393248
45.49147914839698 20.89283459421505 34.881472418005174
23.262902262926456 8.405329021425414 22.122010363982387
25.458516500717927 7.572829078650312 23.154229458947768
26.142156165320753 7.378609496052428 25.591103365357302
25.8983635546135 8.61656486574787 27.530035163641493
45.95602647882668 4.0855517397956325 0.19166319651410538
45.139996482646055 25.948886064665068 50.580878386927324
46.07869681582357 26.71437174314096 52.43414372906846
46.53360925639237 25.39756974893724 54.791399856200464
46.926269932336695 23.431788126427076 54.849668956420636
65.30848663213854 2.1147799797497377 24.971623893737767
8.09463859809648 2.368702606062098 4.429337821795096
8.026265632605348 4.20892983608235 2.952671673110356
12.02514714657894 5.289847141572473 3.538817597468988
34.68023839810168 14.189903634564299 16.23737672060355
35.917045687612216 13.549190679437235 14.48942756688365
37.44716534334332 15.221912022596266 12.955269604049436
38.279920982056346 17.6279697085785 13.307136211499097
37.600257084783564 11.253582912325198 15.116086947596225
39.35763352191066 12.147176414594618 13.487836615486955
38.065147024586864 12.999097683046514 11.497511516944039
36.30257212711216 12.035161575248873 10.281266214613902
60.099649007703576 33.059722581958404 86.5770727168068
62.435999940935 32.15824754071229 86.99763388050532
38.059868681537914 19.15271321716197 10.300257696633478
36.121530306233026 17.25355986283973 10.811918676386554
35.18681236878324 15.653216742157705 9.305818156359038
63.618951826582474 9.562086548422306 38.33625344566102
62.099937034659696 7.945082368407011 40.09435378662822
62.245331057354484 5.840340460519699 40.74085352073719
51.01259732096094 6.26868043271384 16.291528262733873
49.82635232549161 8.114425253460997 16.675192616509264
48.384260572280795 9.697264402012973 14.806362201138981
46.49227145324649 9.016015426711874 14.693386989126097
55.344279992568296 34.59435652659641 43.43323970098892
56.472659334997964 33.32087929011057 45.168306663314105
50.82440010028507 5.258645865899153 48.29440999908988
51.556546187183784 6.650142963853337 46.190576754369445
49.6780638329475 8.374468880859444 45.02700418155906
47.87159746662468 9.486864969367353 45.76810164115028
49.22666132332403 22.186280523905957 53.73434903070864
49.575231271792774 22.886126199566416 55.85339953531705
51.200643083885986 22.088217605806687 57.65562307775964
53.16087066291419 20.35536775652715 57.53600444588447
48.915710933847485 5.6427587157374814 18.07676812573068
50.8628453698174 5.340141848383101 19.241677267700037
51.38849801509935 4.442695437616212 21.76440664982847
49.941626802911536 3.2878202026991175 23.07545504731673
33.45022475878268 11.993322899019478 14.580805023921751
31.670499974525335 12.81377775874323 15.76652532601529
30.45010742295478 12.42698636791119 18.273276559748385
30.72830530568128 10.346279387506799 19.356855395304812
52.88658853134676 33.74152579695627 43.48705841966884
40.99433473270256 38.3606519015583 81.26675636303932
39.962558321126856 36.94577484704266 79.62396431824884
48.02033172356202 15.065285756048814 32.58497016364266
48.159210849133764 17.703841408325736 31.969081030014568
46.27306787443643 19.36111856719201 31.63991040022916
44.027441386952454 19.251773930436592 31.50439574494045
34.010350977602315 18.769882803769246 13.824590620031902
60.071006222210656 37.31347895710892 80.7368382071826
58.027565498690294 37.9860608509385 82.03092794611406
55.53223424281888 37.44885076380827 81.86234090898688
54.28117253326702 36.62296244010019 79.81950452518008
33.85333398800158 20.84700329218456 38.3667165910707
34.72051047403695 18.173638389958768 38.315566571653626
33.397365808465125 16.416208026624403 39.94960652499138
32.35481148835446 16.685703395206282 41.923607154973176
54.89472557028611 28.5298815679888 28.50622715021319
25.380141067420247 20.60752635591681 36.324321773929476
26.098697828004244 18.343039431234217 37.79250839946448
27.53968477831611 16.46107966460698 36.95214286737935
49.6851260662782 23.656749458801198 31.78762499679727
49.91547682187718 21.114871048453242 32.702239561781134
51.71968377414855 20.081417507656845 33.691424169525924
54.214241515429286 20.994261793690242 34.178298625197
26.773549036314108 2.2457315155776754 23.87917832939336
26.988146201572004 4.011562420351485 22.193735774608804
25.403312641326945 5.54490094504933 21.170983885479266
22.877945254278494 5.751105438459415 21.296905350825956
23.31151356148042 0.6354522524866948 30.624785885973775
32.03771473006195 17.07938323860516 13.238702883295947
33.952917790207664 16.65506827529774 12.214100228168988
34.94114253107751 14.306008204466261 11.748136040592376
33.76604112165066 12.21420166055993 11.998053395273963
40.716850117514014 17.87378457720066 10.167300103318526
40.05323456191638 15.701604192391938 10.724109518357658
41.10930353382912 13.988165408547836 12.403952946519013
42.99525508859277 14.113221754287954 13.530016187658434
41.83396509641152 17.015730330295057 7.454649801974622
43.39200770226329 17.227861031914095 9.539688730875405
44.9625422602152 15.342082180597894 10.546850723506507
46.85400810262843 14.114235059710168 9.248576517800993
33.99383986413097 22.67429131063694 31.45768324284332
32.36086926248738 22.85725294255267 32.959943380252845
30.70189285813736 20.8389145167643 33.786041963326525
29.777708129197524 18.745718480915382 32.397672453210916
57.7711336223658 1.5242942574669065 20.61836102158312
55.63815798692782 2.416521018127606 19.861627209503855
53.30651249876129 2.312090245276976 20.528100377355614
52.30438313810164 1.7155919402208162 22.839407671597716
46.94408416781591 10.795226892778162 12.589284415978955
45.4591312415967 12.59425986018764 11.97671073625075
43.34327305374141 12.830022530090067 10.60087118882826
41.298156494325774 11.477651559228438 10.392989631163124
64.69607626002764 9.982416724195552 42.02058987785552
62.678636771064525 10.760368856573026 40.684411822488364
61.87635870771637 12.826466819847726 39.96381311829604
25.6663896082654 5.729053050649074 18.269959255299415
25.62545819491597 7.916056520022916 17.29731959704658
24.010348452298263 10.040035294150291 18.145809552050057
21.345408240435045 9.961097859568277 18.844319995953626
60.837787581252805 7.079882579607133 17.823951282242817
58.71565690242699 8.170963630989247 17.954310781807965
56.74780200687836 7.718241117825322 16.40676815497643
39.84571704515695 30.00051635653655 51.83283334975497
41.80503700060016 29.21108273236731 52.62112584274925
43.78731970947947 30.065792796635943 53.94036014556606
44.95649303207518 9.132204012268199 17.609427383851244
44.094006031906154 10.023427184994668 15.594590050030133
41.911305123221815 11.515021596493744 14.993538701441173
40.28686272513412 12.511822254535128 16.38434337177891
48.48757658996575 2.8789812014515905 16.74501853438942
48.2001105232238 2.0564470434657096 18.733071787094204
46.41929012828324 1.074948785026409 19.869364784867233
27.289705397735972 30.855700766642844 89.64143449033178
26.746083544911173 32.967368956323874 88.89233257036801
29.157506504738297 9.236200670431188 13.952404500748807
29.064519870127278 11.076851061312693 15.071946767157765
27.895616647194856 13.598134844873798 14.91503701953862
27.390157058201773 14.826130122570158 13.149701461512448
36.19004682107079 12.836830853701287 7.628318353969295
37.50018076477848 14.410833934538275 8.707459108258805
40.24006806535269 14.956086352054033 8.31888363732203
41.83049644753361 13.236880633501254 7.806595245133079
29.309460938685294 7.431668424529824 22.13572684825266
28.345697957308094 6.193033303210265 23.79051261373802
29.397283187368057 4.57569222501736 24.99838161526822
29.816663115497132 5.053062651860596 27.57330308902381
60.77866766639753 14.892628893227437 36.2774070652106
58.44805113676803 16.121833139676937 35.53809956228749
57.772887324138615 17.04933794580269 33.238702175046974
59.35972036182219 18.27307060057353 31.417813843077965
48.38201843507873 21.18234513190511 35.00555432410712
48.9240274628415 19.016081730255443 34.12201812313574
49.57444357276451 16.73087081405578 34.853387229892526
50.44850629074322 16.05937368192365 37.48880755047868
23.20026614797773 17.122413368341626 33.484478182702055
48.75867485445122 3.8880488218343063 0.4845247387006406
40.947423588441836 3.0154401121100287 0.5648292580792144
63.980540787996055 0.7353337907678996 22.66150005782847
62.31616291970476 1.0864972235442123 20.564659940658782
60.22781888560199 0.33139924216381017 20.067753870236565
44.05057027704551 35.075774196656816 80.95975881262342
43.8272958625064 37.30503701412931 80.5239993581765
45.45426904496476 39.09507289726854 79.30258680477647
47.63078329827135 39.14016553327445 78.64474882106106
9.187370742057308 3.557794312956011 22.371636280564307
6.862196521895219 2.1838511393738576 22.272757730169243
6.483744978720244 0.40161907875424796 23.965443141999337
52.082857827506494 29.002815120187357 53.608572439898566
53.512278393756375 29.663138736086403 51.85223260968219
53.869305067338416 32.37862467554191 51.13147503906526
52.66592593742409 34.11060385429251 51.521168925310754
47.87785803522847 11.429327089758075 42.786560934158594
49.71587633358609 10.19069278230421 42.088959202431845
52.38278037152721 11.040396181146985 41.475431606087994
53.00455191749622 12.998618071593745 40.65764016680702
53.63282569770397 22.114543999485793 9.208175431165415
51.32713253768908 20.83906260544311 9.342311995398495
49.58044808233801 21.003036280126818 10.603978887416664
13.033531349244623 6.12053900545085 1.120791246827537
57.16507160517893 6.259586700813367 43.78545546714684
57.6910300090894 7.975730865908152 42.06351939934194
59.82196056643153 9.493646963415518 41.92222772661301
62.28760566555797 8.69059019937493 42.75104230339532
57.4013199796595 12.698584999400598 36.10466367554638
59.71505437690645 12.473698988643347 37.12253489265573
60.05770609566265 10.414512211655238 39.27456815730227
59.500642494358004 8.421197866546132 39.329516963394
33.05226658422679 35.444094514183114 85.80183198971108
31.272611470746014 33.460573262491366 86.69798914338598
63.49270643022527 1.8256348805275981 17.06526093459228
62.025166602097705 3.9078848969176265 17.78423635810681
59.747281048302426 4.161592066553876 18.148646806130373
57.73306336069157 2.9870559296762726 17.990901294368825
51.8468515918731 16.3739920625397 33.39575497181967
52.326528447902625 17.984050301513044 32.146676692835605
54.74947632390087 18.57200581298141 31.12836899701768
56.65208483445945 17.3843980904499 30.571815764217042
51.449823280368726 2.256470993420324 16.967009219951734
52.895245050019376 4.016949572880658 18.298894321254373
55.02503481163431 5.503558525074842 17.54864811896685
56.8315951380038 4.488404406710315 15.854322591934835
48.43195510637145 23.153080262472614 58.31188679322737
56.220151000901794 4.587508608113265 45.47325090896871
54.12834611594658 5.739310105188005 45.042207697499535
51.78520375983223 4.687022667231284 44.54176832926259
50.899018977943335 2.9718541262351663 44.81364525539161
51.33792443192053 28.867752285973655 50.307879379476425
49.27085880346943 27.26530138546395 51.0886187043
49.63939453976395 24.750537149931258 52.380084609175064
51.676731499581614 24.034612776560063 53.02219635146997
53.59873471668433 25.892529180213433 53.868340535199025
52.3432315693174 25.17064121816736 55.34073959992906
52.68963659612339 24.489459559531554 57.962995277412624
