68.6088469424501 5.173622242158265 16.65296010296997
66.82148167436513 6.570033864708536 17.781832606075817
28.940213457721995 16.99701143405358 7.876885490006001
31.44190730094508 17.793540576608418 7.077178006755387
32.52689546751881 19.821462948166364 6.9624905591473345
31.910675770695722 22.080030153992247 7.460052562509701
29.75349178565778 18.746580727205778 4.471714329547354
28.561510873065565 17.24857476710605 5.210127920989073
28.705088855247 14.991964526862915 5.521471102491759
30.270489811579676 13.0479169285414 4.765866125186087
69.08178033623074 27.258879118853173 17.720116591307068
70.96266824423064 25.758907393160804 19.12448413937413
70.63904070255256 24.408281883340674 21.160092726319597
68.89073840981112 23.248326318658837 22.09540698303389
74.82709455182673 48.714287655777305 5.254234537165859
74.60137224870574 50.880792278870295 3.9317113366401943
77.02026097442736 52.142696604862415 4.368711641698814
78.4658739865384 52.360483028946305 6.3765134114969655
61.854227181615514 48.952059176814885 36.951663138215736
59.71338686187992 48.16871379853179 36.35146745084621
58.87611304668642 46.42169714938612 34.96936765995923
59.820137194005945 44.69462224257575 33.657150183520315
82.47999179648113 0.9103692375062725 4.583459404090373
84.17600732390805 2.4311865209308348 3.5750582381267217
83.78056148505856 4.856007159364333 2.6656118519011938
81.98456758716252 6.629912078613785 3.060213146603674
59.91719206467115 47.24471952808827 20.05887493243817
59.33043485951975 49.340894162045856 19.306757786765534
58.77274474126076 51.548097454024244 20.632486509359396
59.85741555460087 52.19912880677394 22.56497312684783
67.35009228076048 33.01202551328157 9.19295299259724
68.35185240657528 34.929878781457774 10.397055257737204
70.69018294695469 34.61310406226826 12.238344702931311
70.95772100977476 32.385368515176424 13.083278663640838
64.13502897348083 33.98523054382015 16.204899685095373
66.3993416211095 34.33967721491848 15.569965919277848
68.1522271171918 32.75360836842797 14.138175899553264
68.24874626240346 30.771057420761267 13.22997047759715
48.16664282495787 55.16763486093972 13.48698872835868
61.614956556685385 49.92644897218601 18.0654185022839
62.25325551071681 47.827631324016075 18.890871307468682
64.70292693828719 46.69349412395855 19.490453597767306
66.91969681068885 47.54500851222658 18.640444267307206
53.316564938872794 57.1117154921571 17.8891139580891
55.04477599784536 58.252317736219894 17.06408666668499
55.76777827639292 60.79404317090373 16.841917767961377
54.28951810044941 62.23060940272175 16.503626276683857
46.69311660172796 4.4027829767473134 9.562646152366417
45.4290948874703 3.0719631882125102 11.024057858056976
45.78806036055277 0.8599819728424934 12.355254897041085
58.75191113822548 53.19586634256666 16.084679341131487
56.722267203203785 54.471172516515274 16.936744894416677
54.813436134759776 56.00904080102199 15.594477143255645
54.878101858150195 57.071181577599035 13.536026693092694
66.48291765762734 6.173558455610925 11.722250657697735
67.24353501156848 4.91360428027316 14.118910546509719
66.46362740205299 2.8817991854740606 14.955517090256995
65.61213077118282 0.7081505843869265 14.051844635715698
48.57856284163067 62.401930507027984 34.003550181952235
50.450799674876215 61.40008630366692 32.877830816592315
86.96616644220555 33.22165593782778 28.902731515239125
86.42049888861445 31.4424995569588 27.04482832851341
84.18696097511001 31.17858834849917 25.979500437338206
82.16497609106679 31.397499050859984 26.419018766400793
72.31759740849797 15.156524496781799 21.29767347956319
73.08846197551284 17.396817399768885 20.800895605970897
74.74311924987528 18.848560673926922 21.86148992257024
76.10705309767212 55.54981286861909 0.9330807243171543
77.94968244310049 56.13773963172446 3.0852139295008936
78.73826678369258 58.175659025202485 3.609611809049468
79.91770476147452 59.89844091480247 2.5363566986810557
87.10455881165953 55.40896337964648 1.5258969283672994
85.05608160694148 57.107225046358565 2.1645619557678932
82.54564657689352 56.99213254367907 1.8130448781207351
81.26967229745578 55.34720652990319 0.11281155176114765
83.00068710745987 22.86649607988017 26.198653923478044
85.43728932678547 21.779620899917283 25.583489403660554
85.55349166487572 21.449194850833273 23.297925699430667
87.93498889666917 24.924012702704427 26.609891602653903
85.47681306235832 24.445564039327397 26.105383829559784
83.87643786895468 25.498790515357904 24.605525439138347
85.19825694134578 50.94493041106644 4.374111983867774
85.34208871208499 49.09293422111438 6.242204775202366
86.25828308197036 47.06264190866702 6.425589535775171
86.09952015618643 45.03125865387611 4.822716493430805
55.59002135831731 42.4909184762991 13.107549295680174
54.48581477158935 40.502814952114484 12.263136301970578
52.14708749779181 40.65843352259335 10.422553897675108
51.637071908521236 42.80415741790917 10.414676562875444
84.82809190769635 31.92263340317083 5.478938814402948
83.80610399281761 31.613392188130128 3.301268959339774
82.34999682758745 33.440036066935285 2.6358767438999755
81.22703072271716 35.14260902416898 3.6800243526167873
68.70997151331579 43.06250315248742 15.030532631745718
66.4706612154989 42.13362817005404 15.898468411988068
67.52744726024773 38.85056781930939 18.242734307445552
68.02826243555549 12.032393313351273 17.897152111663406
67.55983504374834 10.722661935971225 15.888294761042077
68.42014707343985 8.486310588505512 15.170284221281719
70.45520660382316 6.909881064582468 16.012950700826945
44.338159152300555 52.08174545042418 12.360843271368417
46.41058551298491 51.38313471094854 11.50419559107875
48.83071727230363 51.46397214042742 12.149833854643967
49.930425073779546 52.16501447947114 14.43546562300898
78.69983360024824 40.53425112224491 3.802518387432685
78.03989772619255 42.25858077576987 5.229846878871782
76.66401740434769 42.308891597912556 6.774656537180587
82.14741171084846 28.89289093503923 23.123042858762616
79.39977969385554 28.56503249059762 23.1671159692031
61.111361654018886 51.88634501602375 39.11923155713318
59.17364143445884 50.340661305035695 38.06432196993122
75.59455003478215 54.39212350734123 4.007478660125977
73.66470012448703 53.42488705299487 3.2961141680407287
71.38148558207665 54.820174051788 2.0990469678536434
71.26671520005775 57.39888039194106 2.2594306484903957
23.070172533258667 14.472204622218102 0.6554438374837294
24.23398373811544 15.427584513482719 2.255074559115847
26.704571149174203 14.930113011360612 3.2983996727660267
27.926032678415588 12.74921913761786 3.2664572746828533
80.53139767330262 45.14039955845442 20.986206454657975
79.19017793131529 47.327398843762616 21.31295670931064
76.4304803032129 47.05343148180541 20.113298624354464
76.00633515648907 45.07646123339081 19.757391686441306
73.34847687640654 42.09149534234799 24.032081052840166
75.11170938171189 43.23335147270114 22.839038536328026
75.64301824104177 45.754564998194105 22.629866645295536
73.48069826392889 47.651027161628576 22.131198182297698
68.09412280791109 45.530435352983076 15.621071496318278
65.86962256557794 45.92836185493235 16.793827905637407
63.752002297580326 46.09941371894436 16.153478995324743
62.64344919680699 45.61285618813878 13.77388372512481
80.9271627444456 40.31478966369893 2.5927259965952185
80.35747712691779 38.23365854492308 3.2607317306362122
82.5004924208717 59.67892090811184 1.4737559162895357
82.25209073447884 60.458036636712876 3.8063964458620316
83.01670075493398 44.74259932733499 5.373814372680121
82.62633124309038 42.89479931972542 6.716344257284947
82.66056922048688 40.12779725518547 6.291838478023168
82.87361544010572 39.01255735334391 4.283477383979945
82.09686197649789 47.38547215159144 24.51836759813295
82.54407307114113 45.52635607019449 22.921701242383627
54.335528100722655 65.38400334325574 14.656921933569091
56.11908569378857 64.74850906089753 16.642918781457293
72.23392781421303 50.68670610956115 21.970699037769023
74.55445960585584 51.59656893469307 21.7663728487107
76.13044188365585 52.288792610563995 23.73182606596073
84.44061350693474 27.06275618163128 27.131304594478905
83.3189467184937 28.52045250890724 25.8529325695164
80.73719795280729 29.403384975305496 25.822530634865508
78.82245948720742 28.486295567761484 26.61337017398308
71.95952603124016 66.89371626602572 2.2636647813284148
69.97237210221567 67.91248818905011 1.1823979598643233
67.46496914768584 67.79887085791299 2.333748914530835
67.30807856324554 66.72215899316737 4.325415948241452
78.84915783774359 49.982095308762275 21.863017734348215
77.17906356111692 50.718604882272665 20.73515556854614
79.48538807182177 37.06199300981396 7.51645994742254
79.96577156968883 39.22374747631983 6.087108605414276
80.13066439737537 41.83478518272949 7.168233624999548
80.5440510526281 42.56473262975323 9.30460879730164
87.40277018505842 47.10929585634076 10.693135991559796
88.96167364232858 48.190868034539626 9.062379599400797
88.71926289637797 50.236495470749425 7.766557229321047
86.73435158957722 51.40908898006242 7.428211816670731
84.22409968113467 57.16385754096677 6.925769553651093
84.3146940766434 56.0725960751154 4.88927571139663
86.43580395012935 54.569830904913424 4.017462929951266
87.74652054696993 53.14996951672904 5.629977268686297
68.39447365761006 37.89384085571269 20.869517978630228
69.70792101561028 39.330956533946924 20.86761776631389
71.50383080548393 40.50105255180526 22.591383104909326
72.1942501671107 39.122474120829516 24.66724407442902
75.98733882013622 40.292672542262736 40.60445067598065
62.88948510150789 63.89974892112913 20.02709456888661
63.02219438551563 61.41035880667406 19.143055898069235
58.412160032455795 58.0592735951801 14.050397019344926
58.53626024162321 59.31622351525429 16.069599474602022
60.558339027701834 60.067880815289115 17.455109362037682
62.7378006990348 61.28314544819147 16.528506427355186
82.22059994595286 58.55136891551136 5.738385109697883
80.7212099013777 56.70983042892791 4.739428396752599
78.5341651004426 55.61007914118943 5.745545233504575
84.59484807433324 7.714913425797399 1.603534311311692
83.9492928778764 9.724844089568807 1.8331040767700322
83.24288831415818 11.470624652772075 0.35959158652006373
46.432338221758904 49.67172549248967 8.397774569892892
47.12890766489051 51.894553844043635 8.911363255464584
45.106623057179284 54.033386525586295 9.34868843145388
42.65176228666523 53.8469692263215 8.613517669713895
64.89870124578252 23.519609146117855 0.10093251178004002
35.840052061495044 7.096016350184878 4.936121958141872
33.44822745808361 6.9070632401785454 4.6695198588233335
31.432521785425763 8.920378863980083 5.818126736091589
31.466676483383186 10.960688959632828 5.913314094164345
73.04526095631121 46.355214594937316 19.94781607052536
71.6629659062622 45.134465913995065 19.231537317653785
70.36665707071509 44.340340592516725 17.02836136390779
70.99787802500047 44.89284848999431 14.757206636136846
59.38269818485432 38.86908940327604 34.54847800739374
59.27855795506585 43.05868340759512 35.954674717097696
82.96988474053595 42.24533125036497 10.855873313705828
83.63031343859404 43.238923343041066 8.86214191739392
85.79231801850587 43.2218712729217 7.436516151146181
88.12032036040112 42.65788801491735 8.35768865078476
32.99208810668255 41.64664615011461 7.8919698606336
47.680453966188644 45.08297046963169 32.966862767703475
34.35338854100825 25.37493278324935 3.918907910937045
31.95226338691887 23.938612930683302 4.31519370852729
31.638805571007353 21.650518359558507 4.67319802594615
33.16863703397358 19.62716234281287 4.188835426143096
46.22244190560346 48.51884614364874 11.146379972870147
44.34134756053243 49.91557798562227 10.514773008513307
42.215313085999014 49.393320910075786 9.738790912326678
40.81157458393224 46.92801082162831 9.591778945417909
52.25707051282023 36.34405600636317 14.232915481883374
54.4019089984193 37.20853439073537 14.682236731282032
56.33064615336564 36.597035277925684 16.325155485002384
56.22041325429957 35.23698486890168 18.04855098370111
55.45144006059714 47.43777135577067 36.06780279714804
56.693107361756105 45.06471317855474 35.912366567371066
57.60594869606521 52.498436361864044 38.33083079142338
59.41826546625415 54.069118591351916 38.43742084054695
23.0945934931727 11.464443644752729 5.124273858816456
25.89462548010386 11.80502146767268 5.2624116966606795
27.328082979724922 9.637250956755613 4.695235187391383
27.025655434978365 7.34280831489627 4.664329240123338
84.55337013822528 45.57223192973732 9.978081081094357
84.70363317729483 47.68516948511616 8.828316083613805
82.78845144616048 47.91286361252462 6.704296615273549
81.03591182623688 46.27607601467444 6.331189685651292
58.65427436684571 51.527805049648784 35.782170015629994
57.38627943768481 49.29651170311796 35.644016330988926
57.495678836359986 48.38547597140995 33.35438688146042
58.300276904344265 49.367530472909046 31.250108350135942
80.80202721634078 15.549273387831022 4.632082201299516
81.46786535055863 17.092556865324905 3.088754536948399
81.8658488479188 19.747673774397857 2.9077688044639296
80.41405035317614 20.972627055019256 3.541712570939844
61.00113918405236 55.42557106116382 36.74973279931824
51.48695367724047 59.56220888062093 12.03026736202977
52.178778616029035 58.951246406188915 13.94026056191301
52.20381815157301 56.673917838957124 15.486750914514742
50.303531155276694 55.96271516921316 15.85663439980183
29.047466875902238 33.43008280704088 22.160169739914878
60.83923919101923 63.20067930520977 13.854684215808467
61.4512780129701 63.74630608756286 15.914083365785261
62.93980983840381 66.05765482046117 16.822362171671344
76.10434598745225 52.96703783957544 0.33474138333201636
74.1313806708052 53.3761295779643 0.689828427791892
72.07945413714842 51.6850344690989 1.2357106245280605
72.7214819007627 49.303868553041696 1.8572058301154408
50.57519837110434 60.63471109056915 37.619208290425995
31.37067016546654 30.69003710199929 4.350626679861832
31.728116171427214 29.39094024806795 5.907886111469538
34.27668567881236 28.561029967476763 6.535447079357606
36.11447444780661 28.471956622879542 5.136001884604721
82.67930671524411 18.629213467514713 0.5172445684081421
43.03897839486482 14.872702555904105 10.306653947701909
45.22402725858242 14.964623430914651 10.87995686689667
47.16688721637373 16.7902762018225 10.022477271905133
46.93779832468524 18.829537420212162 9.271657787160384
13.625440228416641 0.6626841696660264 2.614612814208108
24.082290241389053 19.58794281712443 3.546837500288059
25.664991844694626 19.97086720016288 5.372419135403708
27.861393446054482 21.075122805703515 5.448837644867228
29.068502097642316 22.607185785860445 4.072034354457074
16.485407236747257 0.0374899341039041 1.6418954555310914
86.56151245648967 4.876007909401872 26.307024808658507
87.23363264302614 6.85242160975942 25.1068033304835
89.33680095686044 7.607910811343123 23.895594682868875
85.6400229069136 15.842228403969617 22.6220397208455
87.49763943352858 14.6431376266983 23.31213307194939
87.68937414128496 12.316324454582968 24.580783938639538
86.07498475418883 10.783780531605526 25.797354713474068
89.06136000237049 16.935718617967872 19.314346360434076
89.31943735690479 15.580551020032958 21.320481532593515
89.09633882569749 12.917057586803669 21.90917147029592
89.29781857401221 11.006236225504498 20.443287067902276
81.37834384650891 1.4747498604002434 17.675953410166603
82.60010905357318 2.174901082312483 20.269110067334246
83.03180972207562 4.536939427682465 21.034265071756252
86.3012566568122 17.964404145627004 24.138919678601766
85.0544028623147 19.135652141749866 22.720793931898775
84.90858743617866 21.9116500560719 22.462717892747875
88.0399012258359 9.22797578015364 26.815219291010667
83.34209987593296 8.898407997710859 27.61648240089938
82.29375306481903 9.085943399635518 24.90280431339847
82.38463136359401 6.6563484843251155 23.643362042295383
82.09052057825868 4.30056834021662 24.567160391400158
80.41393859729628 0.14383923153640854 20.656370882499647
78.52766146377397 1.7421971626900812 20.08797412597604
88.66931906831185 15.98724439760268 25.052192323960465
79.60881492490255 23.96211904943911 23.17794437477018
81.74094750082912 22.888899440282447 22.681347885914327
82.9954071458884 22.32459227546553 20.398269948674383
83.80662395010144 1.009861936626189 16.840966859692024
84.63690375986565 3.4144740573079058 24.046683129243796
83.51897800023542 1.5630664381514352 22.788764152254824
85.46322755625955 22.454150064185516 18.540208830853793
86.969676801886 21.341527478378023 20.24133756719867
87.35407206427212 18.994761306179743 20.679872875736464
86.07823767069775 16.91787979241631 20.296940789324992
76.4142824463634 18.317085411964843 24.044663223859644
86.98149761407655 10.960977476939508 22.127479379257732
85.1519194284277 9.461280478855873 23.612081772495838
85.13982565485699 6.71483894675605 23.78561463388019
85.69159728593804 5.1837359558516045 21.93647484037833
81.50012918567481 20.620960872438538 24.422728363893814
79.2713395223613 20.44485525275119 23.15480319473556
76.89913029798727 21.018726239779106 23.786014658615944
75.50230794056434 22.000633879371236 25.318803661458308
39.28879162982609 70.84826275437042 9.975246843166904
41.29525110459384 72.15657522621409 10.454358166858086
42.79902437507053 73.93266766656687 12.22746382719181
44.52127249039877 72.0936233993579 12.33917134623705
44.97008976490076 70.33227080682674 14.04060706181195
44.209105053839465 69.51253686428396 16.21502193928225
36.16064919044258 69.63738857639916 8.087797533651885
36.88495852793741 67.88902896413416 9.6749244320718
39.38729027942215 66.8486702737304 10.22912608842455
41.08689850214111 67.6953112046746 9.818673863055276
35.83423055559209 66.50866039900163 13.226840906372992
37.029620985197354 68.76337976395226 12.307651207676864
39.55124904290793 68.91302903165824 11.96447973156051
41.45949382897196 68.41675580284442 13.570693223476312
47.0139333791529 76.08037344098595 14.78458765031473
46.74325636396065 71.6220756022543 9.809479126159825
44.77803601816164 70.39581031301805 10.389723853952725
42.6806282489225 69.9491889729295 9.707284458578107
41.410184321224826 70.23533116362344 7.547205275329756
49.189661535547735 70.31608525241087 11.131938267466635
48.572443262807276 69.47631094247491 8.77558786213691
38.96312266956453 64.63196108717204 11.664498640990624
50.42757060735249 72.78791892914441 11.271599200205165
46.37904051860023 74.52076262648414 12.941721050255381
45.27220146552051 74.45122946178583 11.280435038871476
47.68173623026275 66.92055222641771 10.484094521154288
46.344968229461685 68.44861259551082 11.370944074538837
43.56889696389092 68.06684500567017 11.942374796327504
42.17375471626307 65.9325742735325 11.233300503816501
25.31411723732631 66.01793942071174 25.78724626951008
42.66240985130037 82.40001809329075 11.825113178359366
35.354905013801066 69.94423884909531 7.28033548200648
29.164710491187577 77.80678936693607 3.014588129041867
30.527381142509196 77.92900394912583 1.4283481723722802
31.806658130025287 78.63806579153709 3.8902259167589737
31.68222778160054 77.2829482429998 5.873289799558484
32.26465798355017 74.90472124191379 6.231276064637532
18.2143480586362 31.882014842226123 1.460221560961092
20.464782663126417 31.647659173531267 0.9267219625256431
22.678903262354556 32.42044973204519 2.474416063931152
23.148748862865652 32.67174237382676 4.757151417293571
14.980060749650965 92.88269528687027 27.59753433861612
15.468583486926006 90.45621843477487 28.65575486703208
18.185941006873772 90.45037817935463 29.210050040423585
19.590769151372953 91.79848908057926 30.143236052644838
0.9577944971345084 57.562870664323455 13.64119885359489
2.5993213469578476 59.04847570706051 14.815796350652501
4.714763037157425 58.586110717042445 15.503075422638712
6.771318500079427 57.18615046870204 14.421091360928614
15.465888267617222 64.5167148821451 2.4348314536764026
16.566547792872253 62.39983509704807 3.419220048479173
18.3200156385713 60.92757333890388 2.3690201392811967
20.303801496590886 61.61509975323452 1.0289166288218705
0.22920985523738233 78.08244771701857 22.980063342039507
12.958697228498181 58.4001995054981 3.7692155562935
13.13024572206105 57.98743462295929 1.4756859857495759
11.11982397201075 54.64197597712357 0.8333959495799219
24.591238120086178 43.54257322684039 22.639241590403476
8.108001817666327 67.21239838296144 2.3502271147870966
8.166790531565507 69.41301559158762 1.3942817615039256
14.462234565306384 18.6354621964648 0.42498869300974274
10.464727553264666 20.41014051616892 0.9203416546697478
13.227118987895524 62.60497902784139 0.13517152634339202
1.789062829620798 84.77432015297454 1.9441560989014992
3.840420000102948 84.07263213451314 0.6916746035237934
3.678384569169472 79.53362099485776 0.12976996714380376
12.673923999542906 89.10360168643811 1.8938479844361122
27.249678209229785 37.43219045516693 23.469344958505026
25.488325759315522 39.114324797295545 22.279675570916332
9.584392377075906 70.52189850629222 3.7777788627788733
8.575416203117264 72.79162381216584 3.5810080145283423
9.709023369443464 75.18347876177017 4.16159856736536
12.286803925816645 74.81650760214791 4.764368382550261
7.9052963182294365 86.23941170497652 1.01197240603407
5.779469918697477 72.3277398300246 0.10845653915930997
41.84927133296316 55.96459483936436 9.663146620970435
34.15350997588057 43.89026464119294 9.15207105166416
34.937114212330286 46.02606635501479 8.507116213150631
29.647979891009648 38.08387997445109 8.820362789982934
41.247595835447164 85.17771247587467 10.85181025138998
5.47929762154296 61.4537645442285 14.435604975907287
34.488258047675856 48.21769242041746 10.842467443932078
35.93942044922702 49.99955682828808 10.35190549271316
38.45957719424118 49.238183014471 10.497870203510054
33.11384374465896 78.92352220240726 23.34128513807956
35.09107923292797 78.83469978610123 24.686655581133664
36.06936658850779 80.19734567323255 26.545496253393797
26.28429570435666 43.69772422640269 3.4222314776238636
27.175519511817598 45.11373004459463 4.6492675208867125
29.489265564443045 46.44848449675452 4.9226905074971645
30.725030336188492 47.65455906378883 3.132634718321899
25.671559583212705 32.97473691920648 2.3577478919136827
22.542959474080174 69.89290462075259 25.74122880986852
23.780598487605115 71.4967077069596 26.845821156274344
31.52160238711139 43.38400918586876 9.580370859936684
30.685547893751608 43.221599736725544 7.481624144880291
28.056181901339468 43.7472965434696 6.584584528316914
26.71154346952264 45.77505070559601 7.522303970643384
2.4719415796254673 81.15851890020498 19.726528856392495
4.085244504006417 79.69576135674922 18.200048412241312
11.802878887947815 82.33944751196871 0.928624650213263
9.826213173110903 80.67501820194919 1.9600068540938174
10.392134373792155 78.2925906555756 1.9734382713073504
11.579237244048679 77.35697673295068 4.157833110512267
36.37910238215965 72.51007314388137 25.6772513055096
35.64660917485617 74.98387386790502 26.303366861952256
33.71599503354234 76.47217564954047 24.934211841274163
32.524497201844625 76.20733267958374 23.069715684494884
21.527668096119136 73.2355413869701 23.728449518141236
22.050058267237382 74.1977585097282 25.66216991356942
26.99799401279556 43.61247830370141 21.837493809063616
26.975152827766394 41.27057831009073 22.97070572712446
29.16175909660601 39.632623982010884 23.19293462041905
31.81362208200315 87.78012757355185 9.34843344277901
29.431811927298323 87.98178884732049 9.768237742672685
27.397744641383763 87.08774341020406 8.3890217365861
27.50291047028191 85.23722290434117 6.572055324270757
25.560651357929544 35.68773804229915 5.543715097944066
26.847501033205305 37.15786736243979 4.621095243266385
27.420615330602587 39.764776308439465 5.5143022073394
26.534852758895685 40.75730408982741 7.759309809098871
13.34957558930949 61.62420223851711 3.8078997629446403
11.718851090524325 62.765631185391875 2.5801579892802553
10.656721756068825 64.93209358109341 2.4151699124657457
10.695737002527682 66.99457794175166 4.069976451242506
22.463681195690185 90.05673781532904 28.871718051920098
20.625029908579858 88.35325490474563 28.731221984817438
20.672148672630247 85.75427455873105 29.502126815658173
22.390171420720495 84.17822636047177 29.75983409704395
14.052440715916365 83.36902385515651 27.800330762023265
13.657363844774471 85.2252779024705 26.16759696342367
12.706715803870019 87.5692646393125 26.220690015636805
12.640605013405944 89.18806510845425 27.710187140948626
22.467685675015403 83.82336445152434 27.249212781037322
23.652533037415477 81.64205834311822 27.42449809504975
24.966145333799155 80.1648259392168 25.79391454203061
25.562713455898912 80.39315765271046 23.35880130366915
2.237291795907119 61.73855012097791 14.370665093884346
3.456624864601336 62.58570129698225 16.071136581032224
13.98828097695936 88.31581141515699 22.963680345807184
15.28946430688189 88.28816500684019 25.19017747063521
16.747819842109195 90.00726131956145 26.14715873550709
17.24643559692335 92.43079652987198 25.292202067371488
37.06383951271676 74.83805141083623 29.54390652810113
34.858514503085864 75.77433707207437 28.57716640671523
34.368925603943836 78.45117391598211 28.569088620574057
35.74734516667987 79.93797657581823 29.58095686437756
1.3242560848814822 91.3966558637959 19.924138049864396
16.656136574301943 83.49600154364536 25.60259551848384
16.659711214119596 84.76159559114136 27.533698801310898
17.443626878185885 87.31859161802397 27.46519385066537
19.081953763145627 88.69566971174348 26.613369990697606
37.46971690151494 87.290411069465 13.628422230609143
26.42897837898639 71.88188327333783 24.950396345940238
24.700396257848336 73.22295746113748 25.13051856865754
23.592021634536437 75.2094435891113 23.496558433792174
25.006074448048984 76.23328813288607 22.26910819450711
4.248615697401733 94.33158363260279 21.549709819015384
35.234491298645615 71.77693746554017 28.165421593801835
4.082472148670504 84.30153698604799 23.586843761300916
5.458594415534863 82.61138310987087 24.332409635615004
9.058925907838985 36.86230168421739 0.10497113281754739
5.6515781643888126 87.89823844760762 0.8985824270445287
0.060758185280307464 88.33395531771902 0.9602152453700841
0.7558243299517582 59.24662124999853 17.09024910226954
21.09881116038621 91.26446004238352 8.872568524785454
22.684003598055938 93.32924323643785 8.972478372652274
22.88284659816085 81.85698617187049 6.6075209918993
24.825507412750532 80.36949345381565 5.44756863552176
4.48102900000612 40.18712067860389 11.241235670820782
4.2096843006915385 38.477377179767885 13.239403628403215
3.446619511686885 35.70866704320133 12.85344848869468
1.9986243049916672 34.98597615419906 11.322414882998222
22.590356587580054 79.96175629069022 29.570586362072635
21.28818065769607 80.544026446416 28.046155459968283
19.527540466795777 82.41042665594428 27.676627294417724
18.67405501988358 84.09089848192879 29.118870953416838
12.938967658763596 66.12461252861993 1.1372286109980694
11.565650420372545 67.96360301494848 1.587855368742852
12.0144734895376 70.45750761080195 1.616742592463564
4.0560676391469626 89.38304569924267 23.242520364916793
3.1325452434931016 89.18257918222832 21.26769020527799
24.765336304957255 81.70995901038452 30.139412216496595
25.742213266534037 79.2377536471138 28.957784424739597
28.24945525393255 78.6177564843195 28.84963889313898
30.13908032795908 79.52593416675174 29.75465873874329
29.73192100740064 80.5016035466996 26.097348185132002
27.638839313429518 79.1371901459505 26.077042326064056
26.69806294334839 77.37576294760837 24.012703749187164
28.206366019752807 76.16410157686624 22.98298554383564
8.793696621567191 89.87290246622545 20.817956777861383
6.511003096747721 90.87223420400845 22.11005057318643
4.2893140610193 91.73174808081679 20.77385492041065
4.204801491904051 92.71614342951962 18.689225686355247
39.16285311350701 84.98696765426246 12.941998712637703
45.73901497684294 61.238603454121495 30.138770582345952
43.70925583896843 60.26109696810102 29.660996339304766
43.05041023284716 57.89787533263438 28.647017607343884
31.745737034526943 77.93623168772086 28.24094600241546
31.194004042450842 77.4966190067857 26.044963402702784
29.851577455115326 75.392741177733 24.905843538542765
28.256174537246018 73.55318839516791 26.311092234310433
19.501435012987937 89.11901929545083 31.09893159229899
18.604720768130125 87.30416085144002 30.68418246895869
15.772394504333494 86.83760127704554 30.635595308381692
14.319810632495765 89.21299531934159 31.210558807004272
37.087118884798855 61.39427935492961 29.316497381494585
37.67599664054966 62.478372279456785 30.837434801159414
37.637445145975235 65.11844945469102 29.97938073976386
35.98322274374746 66.28819549736627 28.96043982514433
28.896734310718628 37.14096122780535 2.18512525829709
36.0776083308516 88.65200142313361 8.233590870518729
36.01760228791979 88.08164759157842 10.787863782937134
36.01460760856194 85.80608890102684 11.783744682909454
37.44750929777348 83.5307251846471 11.096034076374233
17.633084099911084 79.70882168554168 28.16955393141793
16.79422278977029 80.43141285207885 25.89782177142688
14.440045528862719 80.33925056387444 24.696989528947338
12.20603351696962 81.10335324827864 25.8957989576197
49.45391106250221 65.41712914334704 11.839968540021438
20.50189474116505 91.65752747322125 25.50903445791969
45.74473904157935 59.377536031000645 32.22946166263975
43.035970151244506 56.68721471563781 31.114567204006907
40.324478255332146 55.61544523525313 30.367009926677994
40.189521188405124 53.597356725298084 29.0102786557026
37.27822502538088 77.0406958391233 26.00516606147748
38.356416790652375 75.75612913865503 27.27754986099878
24.84325504426786 94.09820336446087 11.054926915046156
26.452602923692826 93.879133158654 9.994740692095256
30.51177160064044 55.48347766658643 4.708869993875838
30.55336723259555 53.331851318333996 5.644040979859485
31.11723337592268 51.18505001581155 4.352482777353504
32.332659487835606 50.61694600356944 2.505946416425429
24.186204999840104 86.79829821444447 3.6673861299864505
23.414436913815656 84.44972374939687 4.010825253979223
24.415766935450623 82.03950448553206 3.1827878794658058
26.35496978032586 81.53030600256986 2.4013102165611726
31.74395627926311 89.5645169977385 6.830687459148723
33.70015820572366 89.79660324577631 7.989764743389146
34.399833741622125 92.13437063315496 8.284191560768107
33.01469753026955 94.1936543724017 7.166144744626094
22.45893355820304 77.68239084733034 27.80990607171824
23.736985030730608 76.5938719644809 26.24494980694546
26.349537281889763 75.59736562541427 26.504462102709077
27.547192158458063 75.95322485048158 28.520536093099732
24.018266286837022 88.05974456430769 8.351248850412652
24.1249985451345 86.5366390910565 6.269498480033546
25.035571742226235 84.18790122719604 6.216685360942673
25.73601710322551 82.34651262689799 8.05272323748243
23.692054334109898 78.68549408164425 22.77747558906808
23.071234434575302 78.81418909636596 25.003835121058234
20.720294679698924 78.91382128151254 26.085564910147667
18.545630797401806 78.43842377798721 25.474554163908337
2.017662804363836 85.47940797668666 21.296815475245623
1.551259249112785 83.0071873978398 22.078202983153517
1.065040337522552 83.50268111541872 17.733927817477543
2.3320202958280714 60.67107035994762 18.882390962165367
6.1021502057612045 41.80729968594971 9.689113684506447
6.859808363001056 40.95579287833027 12.393631118162277
0.15095393854283007 45.87325102328903 0.5933872600325397
12.747422192155113 49.76529183153441 1.0366627415928826
16.583870590633538 54.33036725639718 0.16064731294437745
3.5535137299547235 83.47665566785217 19.01681455513011
9.917469227634475 74.82030042276442 1.255272621018105
9.739330819560895 72.54836205899434 0.61490987001083
14.51558438762378 44.15015344667923 0.12606989063745608
6.002149567870483 28.732734883494857 11.454420021721976
35.38504798951855 59.434325916152666 27.807692828490012
36.705789358641425 58.3620556765872 29.429678385882205
39.31229222458241 57.66016170313844 29.157800578541725
40.83862928967997 58.485674591825756 27.162224042045374
33.84694560644823 57.54711891274989 30.025571691040685
38.040855923321885 54.11645488616812 30.790320318656534
29.479487880905033 60.129306710379005 7.175526557945277
27.742201641500348 59.270349336871405 5.747728103361889
26.882303714023177 56.82706226367051 5.273962196625211
27.75524994956889 54.65348567959983 5.732910212641416
8.836481336125651 40.69701624367761 0.4613754863781932
8.191790991954498 38.82512408813466 1.895109731365813
27.107850952291276 41.53609904612069 1.9428773790545244
25.62363272499933 40.01647998643865 3.096473688972895
24.824115139770516 37.55568063599076 2.6434471631150425
25.17268200586324 36.09011458152766 0.5463834809572583
43.83004207949141 63.074842957462835 33.70165879300571
41.48445206235593 63.79389615632365 33.15128154810606
40.489943433792135 66.15655082342997 32.895016428478144
41.71092584453634 68.36499958246334 33.087243058205964
3.728096873203428 41.07572385027691 13.80167365575263
24.236559720706907 45.5684803276319 5.194527139302974
24.295359255682563 43.74353856493708 6.552051443491659
23.631588888450374 41.12997677963014 6.172455670889116
22.74637839515036 40.058991323348636 4.3402775570645264
12.639893996438174 42.571752837235536 1.3477302156991282
12.468770588819778 16.691936144390905 0.05285281102800234
10.122077701367184 16.935967265646685 0.1297482513339381
8.283990473050602 15.625540548097447 1.0236348764553485
7.693934809674023 17.38127678282404 3.3165138462720107
8.438551408438386 18.58564880124962 1.4118836122147869
37.94516338416996 52.130545436798506 9.191318429346008
40.21053189796001 52.78399450045863 9.104093417214509
40.95079125261803 66.23589955507387 30.202608143578818
40.20047640939695 63.902992475087295 30.733065025884763
40.294368625896894 61.876576600525844 29.543136865831787
41.6616998989785 60.917107602607146 27.95852431285646
34.93167180221945 51.47733528030103 6.174742271249636
35.88669980320374 49.470055904815354 7.4831593219330825
49.24301847472472 76.97991777675148 15.133064942511572
46.07556582031905 74.10845120791224 16.32044987809007
23.586045313035378 37.421775811590045 5.649314707669625
23.323410011803773 35.732249198614795 3.812538608947917
21.397705163399383 35.20224028290895 2.5092949523392583
19.008733966128137 36.48404488080394 2.15322115354464
47.58738136510989 66.78761137145578 34.605455930726684
43.57170142965084 60.47943284610446 33.72654252853437
42.91569641746754 59.502386464399464 32.0172824995054
40.42163108921526 59.36469861837916 30.715678546484714
38.43061733092054 59.94413100625112 31.323104729898837
38.49914421543452 62.9747953632635 33.37164726255593
37.84189034034488 65.33258748282351 32.66222913674095
36.430405767134395 67.0611497548075 33.77556118744906
36.580080218013705 67.51389769315877 36.472076473006894
17.75390177525859 34.42239881571441 4.342241949375189
16.955915034205113 34.2739464677499 1.5431376645712274
15.187435270108809 35.309727931282104 0.6206620518933617
12.733988197462006 36.07424129346055 1.4176709903249038
25.93799670148025 56.1493793112793 2.9424701679564302
25.71601943860745 53.636348141521424 1.9981429917400033
8.29084714534316 59.34065061847475 2.360376600822428
9.986862672770085 60.8614679018993 1.3519754348587762
9.591416833920592 63.286288540332805 0.4425290486332484
7.795422936024544 65.06019345958225 0.8371303433357289
9.365271400892329 52.337266437517115 0.03930830594835526
27.782068657090708 54.702908739087064 0.20029832908070794
29.578415696529813 52.90546324520083 1.101118212029309
29.304980489806763 50.360987518588544 1.2268617299769868
27.357512632445896 48.75615406822478 0.3659627775572604
33.948067851154 49.61714129227469 4.280272315602804
33.798453507026025 48.62187294755285 6.2241563093480785
32.82778540508062 46.173851231770904 6.817017086959405
31.733832590048586 44.72672920224776 5.16572420267518
45.68483590592975 64.14289033738842 30.777522511477876
46.434842743841884 64.39151340110287 32.85869129938966
12.777021791067579 91.65193731879624 26.67964871197118
12.231354237476484 89.87278093792727 24.821745525245465
9.997816323972048 89.60886972946764 23.75641763407026
7.975831439928817 89.82778043182846 24.19593596313285
0.5539745987373105 77.27884205489539 19.638407119302293
8.811542456321897 81.29677746084865 23.9755711202101
11.248144675647511 80.20990228088576 23.360406600392608
11.36434701373775 79.87947623180175 21.07484289616272
15.369232607350765 84.82289678284572 23.216413687996766
13.745844245531194 83.3542940836729 24.386808799385957
11.28766841122035 82.87584542029587 23.882301026291838
9.687293217816707 83.92907189632638 22.3824426358704
36.54086736616179 70.99172117773301 32.67742509747423
38.22312704735276 68.81225936441271 33.070182188210566
39.77278992170545 68.34356524447628 34.84213892056502
10.638947256558376 90.3529147841393 3.2558560111350023
9.616959341679646 90.0436735690986 1.0781861560718284
8.160852176449472 91.87031744790376 0.4127939406320302
7.037886071579194 93.57289040513746 1.456941549348842
52.52672000451242 67.340519112642 12.056871543543247
51.172682299992424 69.0223451648484 12.556099464591117
7.958267059710495 87.3231723160077 20.899960055494674
5.210635042717565 86.9953138715661 20.944033165935153
18.048772770453006 57.80286633248628 1.8587866154395485
15.646081371872334 56.93857361926056 1.9862125119818277
18.46762989009302 83.05159689289773 7.237272253029599
51.72740431222337 68.65050315420496 16.211048935214148
52.387713229195036 67.10581329438217 14.848574353585642
29.83407893552562 93.99872859209115 7.066903902903041
30.24902200684622 91.50430198407008 8.24693197046098
27.990102827449732 89.85450179680716 8.548669716572345
25.945528007413586 89.72005321687347 7.519629456205374
10.251468855796766 85.49303756259975 24.90822179121096
9.129802067355742 86.9507338898757 23.629849766248455
6.5480533016693245 87.83366635627397 23.599447831597562
4.633314836069453 86.91657694872995 24.390287370715132
22.892790262430687 89.92289050474717 10.454659443283928
24.555643238823933 91.59389320621042 9.846821877949704
27.254507531135413 91.44768685524585 10.536575346712878
28.198698408611648 89.8470516816288 11.663096209582475
30.332799060741827 60.59297250955722 4.285833363634661
29.290766098128472 77.01105569620722 7.134979663786314
27.845555173317877 77.88749275493339 5.737453178515129
27.668699054502056 80.58972914440385 4.852088203411886
27.795682371047437 82.48689274290663 6.435104279344769
34.17196663699931 89.267499825135 12.659661292160965
33.5468592345956 90.96234013673389 10.66211392700234
31.574682715037582 92.47819656220145 10.44641617088197
29.402000193111125 92.74702325187063 11.712622365903806
27.542869758167868 48.28615003311027 21.165907871390164
26.442807901640276 52.64941007267389 4.293406877721897
28.4014405429829 51.051570832043716 3.7995740232164836
29.31216441850341 49.059545668850845 5.724867941236511
28.275670127755717 48.07134866382026 7.422068556382725
38.56841785372041 72.4181392315481 30.281665901817743
39.23126440250043 70.17352340314116 31.08843307268947
39.04651146887048 67.96342514374692 30.28556806172026
38.58146827364184 66.88745770688782 27.866225293280543
29.780925564189747 40.60958651845919 4.028604531738907
30.328804778781585 39.00502442052442 5.167309166136139
30.711205295291208 40.28308149366776 7.28212967484855
31.884270553085557 47.5324712523131 10.244993389689112
31.140853467657074 48.01657013155161 8.094765800566599
31.526874417344843 50.338956780362786 6.76907488734189
32.45076777014407 52.458825376215906 7.442263022921671
49.01967498132504 73.46385830380281 13.206682517163761
28.28440830793939 56.946225278129866 3.02989418260923
29.767472671440117 55.90834718017551 1.5785978953852808
48.326875574385866 72.2375708287762 15.882395274202073
48.02125658768217 71.06727830698 14.03857412444667
48.43269986555994 68.71827988686313 13.268317741012485
49.468791530100724 67.25412243835913 14.24972908700955
37.06463532783728 90.89659715023035 8.814188440871446
38.67022521703551 89.73903142110385 10.163544027484154
6.612882565202812 73.97955476879949 2.4089993980315714
7.27872069942066 75.52283824629338 0.8656717336804535
7.676704196780834 78.17795515536633 0.684686001195984
6.224905702038171 79.40290843598773 1.3186297676718983
54.45905303084413 70.48959291905464 13.06434613378232
52.63091497534012 70.6661287013375 14.886039105176302
51.323919740157 72.64519837480837 15.56628407624702
51.04041422061249 75.17838476504258 14.32517166403787
21.403930690356933 85.00550390726154 5.66077636212607
19.97151512463868 83.13345922183801 5.166038039206945
48.26827774922526 64.6838117681655 35.95323475307091
34.82174388173953 66.7186626379979 31.715529569228963
34.97913698380668 69.19463540931788 31.005798612929567
28.384539998261413 44.22411313527396 24.109698266795164
23.874851756483572 45.34547723778498 24.019130813360988
24.152210901862155 48.03419074697202 23.619467432744454
23.84109900035585 49.35194335925418 21.565358845211236
19.9360962858394 48.567458733092465 19.296562657094174
20.490894788150577 45.46217919832963 24.093566191293327
19.099395914236055 47.47403379215498 22.83814562092024
37.697688280672615 53.56325159419056 29.693054955657974
23.38110546108169 53.09465998020534 24.672518231805093
22.794045493873174 50.930504455593685 24.288189426770813
20.98778934823665 49.8376913347229 22.692422941961915
26.659970813857758 55.43131175037001 24.78776379516495
28.292936268008372 56.601122767300495 26.346489148995122
29.728688092679842 58.77669941519908 25.714528002777566
29.088478402095607 60.798699680498 24.520592274741283
28.155420049159343 54.541437129335044 28.630224156929135
26.79826365625212 52.16161715827733 27.452133643500726
28.220855258666134 51.02148058402649 25.785697670421747
30.147538203851983 51.91200701906292 25.147595547755394
25.04510604984819 56.56936455194383 27.49260922149554
24.757943098226963 54.607908879143956 26.622656435711875
23.080404969315854 52.29734973755481 27.66017630267973
15.44124122437833 44.082245415272794 15.942360608049807
21.548852480831123 49.266804334738744 26.099204251502385
33.48911944911053 56.639271979449504 28.104394329529775
31.551738030615162 55.11544515674459 27.378298669926103
30.545021984603032 54.62769194190521 25.138532783866427
26.87754953695048 48.47688959630316 23.257167333034133
25.6212848523062 50.711697053093225 23.620544818580388
26.213418303673095 53.17465845772277 23.281383256522755
31.731670273001004 58.18268131301793 29.548561149224266
29.91832741572679 58.99699915264357 28.20623342970078
27.262341184338045 58.334295538352876 28.61841732071553
26.737220218445835 56.70086786753994 29.505750601726696
28.7632515792119 48.419567175932805 28.185103585074852
27.564724149026855 48.149603250655275 25.90723866188844
27.107053971110233 46.32899985569222 24.936211097956942
36.78495912228308 67.79830185606662 4.93477814869406
37.559017032883844 66.44163712596979 2.841577493979653
37.743800712042905 66.70063646181467 7.557857103941192
12.372367805351699 63.306289290370344 24.083942005390565
13.044487991888182 65.28270299072788 22.883720527215555
15.14765630572248 66.03819219231158 21.67251187960093
17.564946242400215 64.73010079583682 21.127611843234966
17.344879265541806 76.33632666174083 18.169243893524065
27.500778612244538 62.515096260680515 27.331048001924373
16.668917865972986 51.14748526524266 19.99912755996178
14.170445115054372 51.93406317774877 20.714190952719427
12.040034204407554 52.47625619092964 18.839694150153274
12.26070498714125 52.75684710094224 16.238763984490898
11.45087825577563 74.2725097849381 20.398956917577554
13.308494782390602 73.07341900766677 21.089050268681444
13.500229490146994 70.74660583555143 22.357701135371595
11.885840103050867 69.214061912574 23.57427191020612
14.872215351232528 75.36599999893635 17.09126355716613
15.130292705766818 74.01083240100144 19.09739872932557
14.907194174559514 71.34733896777215 19.686088667027974
15.108673922874244 69.43651760647298 18.22020426463433
7.189199195370943 59.90503124136872 15.452870606898658
8.410964402435216 60.605182463280954 18.0460272640663
8.842665070937649 62.967220808650936 18.811182268488306
32.93631695503825 67.95942108784865 4.768644991102486
30.677310486538662 66.85058234468286 5.217573021957397
30.107518832103487 64.81883638825511 6.257062833546925
12.112112005674227 76.39468552659548 21.91583687533382
10.865258211176728 77.56593352271834 20.49771112863083
10.719442785040698 80.34193143704037 20.23963508947993
17.189113907416576 68.43626084588354 19.465449196086855
17.80893133872934 67.77941373536596 21.843504498934706
19.8605241180898 68.45008640124951 23.31389098639349
22.196891605306927 68.96256835086344 22.65753572335697
9.639764483285465 51.9611297737826 17.316286023309253
9.69664866857905 54.519521878975276 18.204062720283712
7.914498808990555 56.13750685936038 18.20860772525753
5.664116136448523 55.948115824821706 16.877784102474866
13.850756574697936 67.65825716112212 24.59213648774272
15.3632331537148 68.57264079952088 23.182615513160695
17.915654303378577 70.07693009502492 23.856134604855107
18.766949551016644 69.83687438081206 25.721443691641802
9.152955224794992 67.32868937867933 25.393399597631433
8.104608413681058 67.51622478060399 22.679721510130523
8.195486712456043 65.08662986529359 21.420279239027437
7.90137592712071 62.730849721185095 22.344077588132212
17.968739469777304 50.578786429628835 22.93564436587688
5.580229732680102 36.40022795915905 14.667923277826722
6.919830594207488 37.238190881167526 12.900032652970074
11.296840379071762 49.7427714348393 19.878762038964442
11.071764809813603 47.46663571919489 19.39247684352505
9.595697378007369 46.21904236293268 17.72930626779398
7.8468528305959415 46.54671076959944 16.397541252319215
13.256473800239108 49.7260417545937 21.84647776295804
15.220454171951422 48.94274629428684 21.356769854998547
17.095837623768155 47.79249963912051 22.572525398510745
28.416646068201914 64.03552100407775 24.212343476627357
7.240029899425347 57.79075973299115 20.83437391125109
6.224793946158318 58.57412061250488 18.4332880792317
4.3385168126359925 60.172478543658556 17.864891322708097
8.145370351786193 42.10640445129927 14.100866091056485
8.65721468976702 44.874786039720895 14.166450020736042
14.48017441717388 74.41752577857115 22.82910952069252
16.202000275829903 72.26835781620257 22.76214891322375
18.662805318522906 72.40720732656439 22.9935099090459
19.879850823832793 55.78306271400773 1.6280281895145639
21.52070631306073 55.11038525411217 3.2295164870657085
9.101068311952819 43.44033384927386 18.81260512363165
10.198053572055858 44.63992887532772 20.345478269827243
27.77802094347947 59.85401852989356 3.7136961431031787
21.086382677984442 58.2334358741389 1.6865154759627727
23.055609943484285 57.4493573822266 3.3069141450221107
24.99301412796577 59.225819249187516 4.427927478396857
25.233490525645916 61.61406372892865 4.098190419503221
26.489617459488866 72.9400283636141 6.26356668627083
26.35243289096325 74.3242550538016 4.040575056367991
25.346072329773563 76.50707089858011 3.86063362376979
25.296948699545656 78.15003846266558 5.334233225362538
5.419670273764575 82.39240043040758 20.954861571502235
7.551802849691155 81.31918082125092 20.45826508264638
8.806262494750431 80.754873656434 18.175187145406436
27.51725126876889 62.08295506277704 5.843341798532571
25.702171788261367 63.34499416790962 6.3268775583698424
33.74272067760156 68.64109299901308 9.862553611188588
23.95065937827375 66.01214491750893 25.14431168748955
22.288073466665626 66.23877280642554 26.772067365511823
19.9510244926145 67.37639346643118 26.001238760998763
18.133813127566256 66.1682250061641 24.69879199929182
12.516716564811244 55.33043842514597 16.985900989903463
10.832989956581319 55.389041429443616 16.08201267343567
9.182286552246229 57.74830802412676 15.474772206443049
9.61747929896347 59.44014331759466 14.617884056424078
31.224307796752946 67.67380841322066 2.6591608948379415
29.616440348601355 69.43374681214225 3.6298493173624395
29.036865821870673 71.79243503438784 3.1241426576486733
29.886530108129833 73.40955726620695 1.5177374214402741
